# .PCD v0.7 - Point Cloud Data file format
VERSION 0.7
FIELDS x y z rgba
SIZE 4 4 4 4
TYPE F F F U
COUNT 1 1 1 1
WIDTH 1091
HEIGHT 1
VIEWPOINT 0 0 0 1 0 0 0
POINTS 1091
DATA ascii
-0.15406914 -0.092282705 1.279 4293586422
-0.15068944 -0.092354864 1.2800001 4293454836
-0.14730425 -0.092427015 1.281 4293389554
-0.14391361 -0.092499174 1.2820001 4293257968
-0.14018892 -0.092354864 1.2800001 4293323759
-0.13647516 -0.092210554 1.2780001 4293389554
-0.13308452 -0.092282705 1.279 4293323761
-0.12978971 -0.092427015 1.281 4293323761
-0.1262868 -0.092427015 1.281 4293389554
-0.12268806 -0.092354864 1.2800001 4293389554
-0.11909477 -0.092282705 1.279 4293323759
-0.11559733 -0.092282705 1.279 4293389552
-0.1119246 -0.09213841 1.2770001 4293257966
-0.10860246 -0.092282705 1.279 4293192173
-0.10518719 -0.092354864 1.2800001 4293323759
-0.10176646 -0.092427015 1.281 4293257966
-0.098186843 -0.092354864 1.2800001 4294179068
-0.095130518 -0.09278778 1.286 4283915360
-0.092540048 -0.093725756 1.299 4282270537
-0.091111578 -0.095962472 1.33 4294179070
-0.29909927 -0.091423139 1.317 4293058795
-0.28742054 -0.08892411 1.281 4293719035
-0.2825878 -0.0885076 1.2750001 4293389041
-0.27953911 -0.088646434 1.2770001 4293257966
-0.2756148 -0.0885076 1.2750001 4293192175
-0.27234173 -0.088577017 1.276 4293323759
-0.2684311 -0.088438183 1.274 4293323759
-0.26515532 -0.0885076 1.2750001 4293257968
-0.26146355 -0.088438183 1.274 4293192689
-0.25797981 -0.088438183 1.274 4293192691
-0.25429627 -0.088368766 1.273 4293982207
-0.25081524 -0.088368766 1.273 4286350221
-0.24752851 -0.088438183 1.274 4281414976
-0.24423631 -0.0885076 1.2750001 4284573040
-0.24074981 -0.0885076 1.2750001 4289836480
-0.23763548 -0.088646434 1.2770001 4288914865
-0.23451021 -0.088785268 1.279 4287073174
-0.23101278 -0.088785268 1.279 4285296763
-0.22787112 -0.08892411 1.281 4283191387
-0.22471851 -0.089062944 1.2830001 4282862422
-0.2210377 -0.088993527 1.2820001 4282994008
-0.21651398 -0.088577017 1.276 4283454559
-0.21235697 -0.088299349 1.2720001 4283125594
-0.20904286 -0.088368766 1.273 4281086011
-0.2058848 -0.0885076 1.2750001 4280954425
-0.2023983 -0.0885076 1.2750001 4280955195
-0.19859977 -0.088368766 1.273 4280955195
-0.19496548 -0.088299349 1.2720001 4285428347
-0.19133663 -0.088229932 1.271 4291218131
-0.18756548 -0.08809109 1.2690001 4293849851
-0.18438551 -0.088229932 1.271 4294441727
-0.18076761 -0.088160515 1.2700001 4294441727
-0.17729479 -0.088160515 1.2700001 4293783799
-0.17341135 -0.087952256 1.2670001 4292928490
-0.17008087 -0.088021681 1.268 4293389041
-0.1670077 -0.088229932 1.271 4293060076
-0.16366081 -0.088299349 1.2720001 4293191662
-0.16018252 -0.088299349 1.2720001 4293586420
-0.15645783 -0.088160515 1.2700001 4293257455
-0.15310545 -0.088229932 1.271 4293257968
-0.14974762 -0.088299349 1.2720001 4293257968
-0.14649931 -0.088438183 1.274 4293323759
-0.14290328 -0.088368766 1.273 4293323759
-0.13920321 -0.088229932 1.271 4293323761
-0.13562086 -0.088160515 1.2700001 4293389554
-0.13235615 -0.088299349 1.2720001 4293323759
-0.12897916 -0.088368766 1.273 4293389552
-0.12539956 -0.088299349 1.2720001 4293323759
-0.12192126 -0.088299349 1.2720001 4293389554
-0.11853607 -0.088368766 1.273 4293257966
-0.11505504 -0.088368766 1.273 4293257966
-0.11148637 -0.088299349 1.2720001 4293323759
-0.10800807 -0.088299349 1.2720001 4293521138
-0.10444759 -0.088229932 1.271 4293455345
-0.10105148 -0.088299349 1.2720001 4294179068
-0.097573183 -0.088299349 1.2720001 4285560185
-0.094464749 -0.088646434 1.2770001 4282204742
-0.091685176 -0.089340612 1.2870001 4283257432
-0.089946985 -0.091145471 1.3130001 4294047484
-0.30247077 -0.087755114 1.3160001 4287860637
-0.28978789 -0.085087784 1.276 4294243582
-0.28517681 -0.08475437 1.271 4293454064
-0.28192288 -0.084821053 1.2720001 4293389039
-0.27844459 -0.084821053 1.2720001 4293323759
-0.2749663 -0.084821053 1.2720001 4293257968
-0.27148801 -0.084821053 1.2720001 4293192173
-0.26822039 -0.084887736 1.273 4293455345
-0.2645314 -0.084821053 1.2720001 4293257968
-0.26105312 -0.084821053 1.2720001 4293323761
-0.25737232 -0.08475437 1.271 4293258482
-0.25409651 -0.084821053 1.2720001 4290823375
-0.25101227 -0.084954418 1.274 4281086011
-0.24791709 -0.085087784 1.276 4282401872
-0.24423631 -0.085021101 1.2750001 4282336079
-0.24056098 -0.084954418 1.274 4282665043
-0.23707721 -0.084954418 1.274 4282270285
-0.23377681 -0.085021101 1.2750001 4283717731
-0.23010968 -0.084954418 1.274 4283388766
-0.22644801 -0.084887736 1.273 4283520352
-0.22314215 -0.084954418 1.274 4282007883
-0.2200032 -0.085087784 1.276 4282139469
-0.21617462 -0.084954418 1.274 4282072907
-0.21252389 -0.084887736 1.273 4283454560
-0.20920709 -0.084954418 1.274 4282072653
-0.20572332 -0.084954418 1.274 4281546309
-0.20176332 -0.08475437 1.271 4281876303
-0.19797575 -0.084620997 1.2690001 4282205011
-0.19465892 -0.084687687 1.2700001 4282139475
-0.19118609 -0.084687687 1.2700001 4281810253
-0.18771327 -0.084687687 1.2700001 4282204241
-0.18438551 -0.08475437 1.271 4281480770
-0.18062529 -0.084620997 1.2690001 4281941320
-0.17701559 -0.084554322 1.268 4287270551
-0.17313762 -0.084354267 1.2650001 4292533991
-0.1698126 -0.084420957 1.266 4293849592
-0.16635072 -0.084420957 1.266 4294112764
-0.16301748 -0.084487632 1.2670001 4293915385
-0.15942694 -0.084420957 1.266 4293454064
-0.15584184 -0.084354267 1.2650001 4293323246
-0.15250316 -0.084420957 1.266 4293389552
-0.14939445 -0.084620997 1.2690001 4293455345
-0.14592436 -0.084620997 1.2690001 4293455345
-0.14222975 -0.084487632 1.2670001 4293323759
-0.1386556 -0.084420957 1.266 4293323759
-0.13540728 -0.084554322 1.268 4293323759
-0.13204399 -0.084620997 1.2690001 4293323759
-0.12867521 -0.084687687 1.2700001 4293323759
-0.1251038 -0.084620997 1.2690001 4293389554
-0.12153785 -0.084554322 1.268 4293389300
-0.11807049 -0.084554322 1.268 4293389300
-0.1147839 -0.084687687 1.2700001 4293389554
-0.11131107 -0.084687687 1.2700001 4293323759
-0.10783824 -0.084687687 1.2700001 4293389552
-0.10420106 -0.084554322 1.268 4294047482
-0.10081315 -0.084620997 1.2690001 4287139217
-0.097573183 -0.084821053 1.2720001 4281349433
-0.094760641 -0.085421205 1.281 4282863442
-0.092753768 -0.086821549 1.302 4283257946
-0.09193363 -0.089488879 1.342 4283455327
-0.30258077 -0.083197266 1.3010001 4289704381
-0.29212794 -0.081278808 1.271 4293981180
-0.28751683 -0.080959067 1.266 4293257457
-0.28405496 -0.080959067 1.266 4293323248
-0.28081468 -0.081023008 1.2670001 4293389554
-0.27735007 -0.081023008 1.2670001 4293257968
-0.27366927 -0.080959067 1.266 4293323761
-0.27020741 -0.080959067 1.266 4293257966
-0.26695618 -0.081023008 1.2670001 4293257966
-0.26349157 -0.081023008 1.2670001 4293323759
-0.25961649 -0.080895111 1.2650001 4293455347
-0.25575235 -0.080767214 1.263 4293323761
-0.25229865 -0.080767214 1.263 4292139233
-0.24884498 -0.080767214 1.263 4286349449
-0.24558559 -0.08083117 1.2640001 4280691253
-0.24251229 -0.080959067 1.266 4280888633
-0.23942803 -0.081086963 1.268 4282665043
-0.23614676 -0.081150904 1.2690001 4282862422
-0.23322675 -0.081342757 1.2720001 4282665043
-0.22902596 -0.081086963 1.268 4282862422
-0.22520283 -0.080959067 1.266 4283980903
-0.22139065 -0.08083117 1.2640001 4283125594
-0.21845146 -0.081023008 1.2670001 4281941320
-0.21532622 -0.081150904 1.2690001 4282072907
-0.21168916 -0.081086963 1.268 4282533974
-0.20822181 -0.081086963 1.268 4282007889
-0.20394707 -0.080767214 1.263 4281811023
-0.20001714 -0.080575369 1.2600001 4281679437
-0.19657166 -0.080575369 1.2600001 4282205783
-0.19389255 -0.080895111 1.2650001 4282337367
-0.19058394 -0.080959067 1.266 4281942096
-0.18712205 -0.080959067 1.266 4282073425
-0.18366016 -0.080959067 1.266 4282072653
-0.1803406 -0.081023008 1.2670001 4282467665
-0.17673638 -0.080959067 1.266 4282072906
-0.17286389 -0.080767214 1.263 4282599250
-0.1694102 -0.080767214 1.263 4282072904
-0.16582511 -0.080703266 1.2620001 4281414974
-0.16250284 -0.080767214 1.263 4285428601
-0.15879728 -0.080639318 1.261 4291810522
-0.15510267 -0.080511421 1.2590001 4294441727
-0.1517804 -0.080575369 1.2600001 4294179070
-0.14845264 -0.080639318 1.261 4293323761
-0.1451194 -0.080703266 1.2620001 4293389554
-0.14144395 -0.080575369 1.2600001 4293323759
-0.13788894 -0.080511421 1.2590001 4293389552
-0.13455299 -0.080575369 1.2600001 4293257966
-0.1313156 -0.080703266 1.2620001 4293389552
-0.12786464 -0.080703266 1.2620001 4293323759
-0.12451229 -0.080767214 1.263 4293323759
-0.12096275 -0.080703266 1.2620001 4293323759
-0.11751179 -0.080703266 1.2620001 4293323759
-0.11415123 -0.080767214 1.263 4293389552
-0.11078519 -0.08083117 1.2640001 4293455345
-0.10724386 -0.080767214 1.263 4294113275
-0.10379018 -0.080767214 1.263 4288257698
-0.10041593 -0.08083117 1.2640001 4281087031
-0.097419761 -0.08121486 1.2700001 4282665809
-0.095352441 -0.082429886 1.289 4283323741
-0.094463512 -0.084795982 1.3260001 4283455327
-0.3042559 -0.079149954 1.2930001 4293586168
-0.29490575 -0.077619605 1.268 4293191664
-0.29005936 -0.077252313 1.2620001 4293389041
-0.2866084 -0.077252313 1.2620001 4293257455
-0.28338185 -0.077313527 1.263 4293126382
-0.28037143 -0.077435955 1.2650001 4293257968
-0.27647448 -0.077313527 1.263 4293323761
-0.27280462 -0.077252313 1.2620001 4293323761
-0.26914024 -0.0771911 1.261 4293323761
-0.2661134 -0.077313527 1.263 4293389552
-0.26245174 -0.077252313 1.2620001 4293389552
-0.25879559 -0.0771911 1.261 4293455345
-0.25514486 -0.077129886 1.2600001 4293323761
-0.25169939 -0.077129886 1.2600001 4293192175
-0.24785985 -0.077007458 1.258 4293257968
-0.24441984 -0.077007458 1.258 4294047230
-0.24078827 -0.076946244 1.2570001 4294310143
-0.23772863 -0.077068672 1.2590001 4293981437
-0.23447196 -0.077129886 1.2600001 4288717997
-0.23157655 -0.077313527 1.263 4281612353
-0.22794224 -0.077252313 1.2620001 4281546560
-0.22466917 -0.077313527 1.263 4281086009
-0.22121549 -0.077313527 1.263 4282467664
-0.21827906 -0.077497177 1.266 4282336078
-0.21515653 -0.077619605 1.268 4282467665
-0.21152221 -0.077558383 1.2670001 4282927962
-0.20723653 -0.077252313 1.2620001 4282797148
-0.20297819 -0.076946244 1.2570001 4281810510
-0.19922343 -0.076823816 1.2550001 4281745230
-0.19610363 -0.076946244 1.2570001 4281679437
-0.19312619 -0.077129886 1.2600001 4281678924
-0.19013232 -0.077313527 1.263 4282205268
-0.18623522 -0.077129886 1.2600001 4282336854
-0.18337002 -0.077374749 1.2640001 4282731612
-0.17991361 -0.077374749 1.2640001 4282994784
-0.17673638 -0.077497177 1.266 4283059548
-0.17300075 -0.077374749 1.2640001 4283191388
-0.16954434 -0.077374749 1.2640001 4282796629
-0.16595653 -0.077313527 1.263 4282401869
-0.16237417 -0.077252313 1.2620001 4281612353
-0.15879728 -0.0771911 1.261 4281612353
-0.15510267 -0.077068672 1.2590001 4281743939
-0.15165992 -0.077068672 1.2590001 4287204758
-0.14821717 -0.077068672 1.2590001 4290954959
-0.14477444 -0.077068672 1.2590001 4293257968
-0.14110717 -0.076946244 1.2570001 4293389552
-0.13766989 -0.076946244 1.2570001 4293323759
-0.13412583 -0.07688503 1.256 4293389552
-0.13079534 -0.076946244 1.2570001 4293389552
-0.12756069 -0.077068672 1.2590001 4293455345
-0.12421653 -0.077129886 1.2600001 4293389552
-0.1206752 -0.077068672 1.2590001 4293389552
-0.11713934 -0.077007458 1.258 4293323759
-0.1137897 -0.077068672 1.2590001 4293389552
-0.11034695 -0.077068672 1.2590001 4293389552
-0.10698912 -0.077129886 1.2600001 4293850103
-0.10362582 -0.0771911 1.261 4281021238
-0.10065426 -0.077558383 1.2670001 4282469197
-0.098416969 -0.078537814 1.2830001 4282995287
-0.097201794 -0.080435455 1.314 4283324256
-0.3051731 -0.074970961 1.2820001 4294178303
-0.29672596 -0.073742889 1.261 4293519859
-0.29234743 -0.07350897 1.2570001 4293389554
-0.28845048 -0.073392011 1.2550001 4293323248
-0.28479156 -0.073333524 1.2540001 4293323761
-0.28181124 -0.073450483 1.256 4293389554
-0.27859834 -0.07350897 1.2570001 4293323761
-0.27516106 -0.07350897 1.2570001 4293323761
-0.27129143 -0.073392011 1.2550001 4293389554
-0.26807305 -0.073450483 1.256 4293257968
-0.26463851 -0.073450483 1.256 4293389554
-0.26120394 -0.073450483 1.256 4293389552
-0.25776941 -0.073450483 1.256 4293455345
-0.25413239 -0.073392011 1.2550001 4293455345
-0.2505008 -0.073333524 1.2540001 4293258736
-0.24667768 -0.073216565 1.2520001 4293323246
-0.24305978 -0.073158093 1.251 4293585904
-0.23963891 -0.073158093 1.251 4292467937
-0.23621804 -0.073158093 1.251 4290559940
-0.23316933 -0.073275052 1.253 4293388525
-0.22992636 -0.073333524 1.2540001 4294112764
-0.22631666 -0.073275052 1.253 4294310143
-0.22289032 -0.073275052 1.253 4294441727
-0.21946397 -0.073275052 1.253 4288586154
-0.21603763 -0.073275052 1.253 4280164650
-0.21312034 -0.073450483 1.256 4280493361
-0.20935191 -0.073333524 1.2540001 4280493874
-0.20592283 -0.073333524 1.2540001 4282336079
-0.2021708 -0.073216565 1.2520001 4282927962
-0.1987472 -0.073216565 1.2520001 4283585894
-0.1956356 -0.073333524 1.2540001 4283519588
-0.19235982 -0.073392011 1.2550001 4282598999
-0.18892801 -0.073392011 1.2550001 4282007632
-0.18490496 -0.073158093 1.251 4281744460
-0.18148409 -0.073158093 1.251 4281678667
-0.17849024 -0.073333524 1.2540001 4281481288
-0.17534035 -0.073450483 1.256 4282797148
-0.17217955 -0.073567443 1.258 4282205007
-0.16887367 -0.07362593 1.2590001 4282402386
-0.16556232 -0.073684402 1.2600001 4282599248
-0.16198817 -0.07362593 1.2590001 4282467664
-0.15854542 -0.07362593 1.2590001 4282138699
-0.15460989 -0.073392011 1.2550001 4282138700
-0.15129854 -0.073450483 1.256 4280493361
-0.14751083 -0.073275052 1.253 4289507256
-0.14408448 -0.073275052 1.253 4293586422
-0.14043362 -0.073158093 1.251 4293389552
-0.13712227 -0.073216565 1.2520001 4293455345
-0.13359189 -0.073158093 1.251 4293455345
-0.13017102 -0.073158093 1.251 4293323759
-0.12675014 -0.073158093 1.251 4293455345
-0.12352645 -0.073275052 1.253 4293389552
-0.12000425 -0.073216565 1.2520001 4293389552
-0.11648753 -0.073158093 1.251 4293323759
-0.11306666 -0.073158093 1.251 4293389552
-0.10982108 -0.073275052 1.253 4294113275
-0.10656456 -0.073392011 1.2550001 4281218617
-0.10337929 -0.073567443 1.258 4282271305
-0.10089259 -0.074269205 1.2700001 4282798162
-0.099721014 -0.076023594 1.3000001 4283126875
-0.098237425 -0.07766103 1.3280001 4283455587
-0.30651173 -0.070963606 1.273 4294177791
-0.2987459 -0.069960199 1.2550001 4293519859
-0.29484347 -0.069848709 1.253 4293519859
-0.29141712 -0.069848709 1.253 4293061616
-0.28753111 -0.069737218 1.251 4293389554
-0.28411025 -0.069737218 1.251 4293389554
-0.28068936 -0.069737218 1.251 4293389554
-0.27771178 -0.069848709 1.253 4293323761
-0.27384764 -0.069737218 1.251 4293389554
-0.27021059 -0.069681473 1.25 4293455347
-0.26679245 -0.069681473 1.25 4293455347
-0.26379573 -0.069792964 1.2520001 4293389554
-0.26058006 -0.069848709 1.253 4293455347
-0.25735897 -0.069904454 1.2540001 4293126382
-0.2535249 -0.069792964 1.2520001 4293454834
-0.2501013 -0.069792964 1.2520001 4292797415
-0.24648066 -0.069737218 1.251 4290362561
-0.24305978 -0.069737218 1.251 4290362561
-0.23944734 -0.069681473 1.25 4291020491
-0.2358404 -0.069625728 1.2490001 4292073179
-0.23242499 -0.069625728 1.2490001 4292796902
-0.2290096 -0.069625728 1.2490001 4291349456
-0.22577479 -0.069681473 1.25 4291875800
-0.22217879 -0.069625728 1.2490001 4290165182
-0.21893851 -0.069681473 1.25 4291546837
-0.21534798 -0.069625728 1.2490001 4293981178
-0.21193258 -0.069625728 1.2490001 4294375935
-0.20818327 -0.069514237 1.2470001 4294112766
-0.20477334 -0.069514237 1.2470001 4291415253
-0.2013634 -0.069514237 1.2470001 4281546049
-0.19827098 -0.069625728 1.2490001 4280164396
-0.1953236 -0.069792964 1.2520001 4280559155
-0.19205324 -0.069848709 1.253 4281151292
-0.18877746 -0.069904454 1.2540001 4282467152
-0.18490496 -0.069737218 1.251 4283454306
-0.18119396 -0.069625728 1.2490001 4283651687
-0.17763621 -0.069569983 1.248 4283585894
-0.17464235 -0.069737218 1.251 4282533206
-0.17135835 -0.069792964 1.2520001 4282138446
-0.16820301 -0.069904454 1.2540001 4282665044
-0.16477393 -0.069904454 1.2540001 4282994009
-0.16134486 -0.069904454 1.2540001 4282730837
-0.15791579 -0.069904454 1.2540001 4282533458
-0.15424031 -0.069792964 1.2520001 4281612356
-0.15081671 -0.069792964 1.2520001 4290362825
-0.14715765 -0.069681473 1.25 4294047230
-0.14362451 -0.069625728 1.2490001 4293389554
-0.14009686 -0.069569983 1.248 4293323759
-0.13668419 -0.069569983 1.248 4293389552
-0.13337831 -0.069625728 1.2490001 4293389552
-0.13006696 -0.069681473 1.25 4293455345
-0.12675014 -0.069737218 1.251 4293389552
-0.12332927 -0.069737218 1.251 4293455345
-0.11981256 -0.069681473 1.25 4293455345
-0.11639442 -0.069681473 1.25 4293455345
-0.11297628 -0.069681473 1.25 4294113275
-0.10973343 -0.069792964 1.2520001 4281349433
-0.10647965 -0.069904454 1.2540001 4282271305
-0.10362582 -0.070294671 1.261 4282798162
-0.10200479 -0.071576804 1.284 4283061080
-0.10117847 -0.073527887 1.319 4283193181
-0.32553998 -0.070080101 1.322 4289244595
-0.30804467 -0.067058496 1.2650001 4294113791
-0.30049226 -0.066157311 1.248 4293389300
-0.2966035 -0.066051289 1.2460001 4293323250
-0.29366693 -0.066157311 1.248 4293520627
-0.29025427 -0.066157311 1.248 4293258482
-0.2863819 -0.066051289 1.2460001 4293454834
-0.2827476 -0.065998279 1.245 4293389554
-0.27934313 -0.065998279 1.245 4293455347
-0.27593866 -0.065998279 1.245 4293455347
-0.2720964 -0.065892257 1.243 4293389554
-0.26869741 -0.065892257 1.243 4293323761
-0.26551184 -0.065945268 1.2440001 4293389554
-0.26253152 -0.066051289 1.2460001 4293455347
-0.25933227 -0.0661043 1.2470001 4293455093
-0.25612757 -0.066157311 1.248 4293650934
-0.2525124 -0.0661043 1.2470001 4294176251
-0.24910247 -0.0661043 1.2470001 4294570239
-0.24549553 -0.066051289 1.2460001 4294439935
-0.24189402 -0.065998279 1.245 4294177278
-0.23848957 -0.065998279 1.245 4293848311
-0.23470746 -0.065892257 1.243 4292203999
-0.23130846 -0.065892257 1.243 4291678421
-0.2277261 -0.065839253 1.2420001 4290493633
-0.22451048 -0.065892257 1.243 4291086284
-0.22111148 -0.065892257 1.243 4291941593
-0.21771248 -0.065892257 1.243 4292862695
-0.21414106 -0.065839253 1.2420001 4291875800
-0.2107448 -0.065839253 1.2420001 4290428354
-0.20734854 -0.065839253 1.2420001 4290428356
-0.20395228 -0.065839253 1.2420001 4291941595
-0.20039453 -0.065786235 1.2410001 4293783031
-0.19715975 -0.065839253 1.2420001 4294309375
-0.19345148 -0.065733232 1.24 4294375167
-0.19021395 -0.065786235 1.2410001 4294506751
-0.1866699 -0.065733232 1.24 4285887873
-0.1834269 -0.065786235 1.2410001 4280427569
-0.18017845 -0.065839253 1.2420001 4280625461
-0.17706686 -0.065945268 1.2440001 4280954172
-0.17380473 -0.065998279 1.245 4282006860
-0.17053713 -0.066051289 1.2460001 4282138446
-0.16712993 -0.066051289 1.2460001 4282467411
-0.16398554 -0.066157311 1.248 4282467411
-0.16057287 -0.066157311 1.248 4282598997
-0.15703428 -0.0661043 1.2470001 4281546309
-0.15313154 -0.065892257 1.243 4288454827
-0.14973256 -0.065892257 1.243 4293981439
-0.14609812 -0.065786235 1.2410001 4293389554
-0.14281958 -0.065839253 1.2420001 4293389554
-0.13942331 -0.065839253 1.2420001 4293389552
-0.13602705 -0.065839253 1.2420001 4293455345
-0.1326308 -0.065839253 1.2420001 4293323759
-0.12933858 -0.065892257 1.243 4293389552
-0.12604092 -0.065945268 1.2440001 4293389552
-0.12273777 -0.065998279 1.245 4293323759
-0.1193333 -0.065998279 1.245 4293389552
-0.11583573 -0.065945268 1.2440001 4294047482
-0.11252437 -0.065998279 1.245 4286941838
-0.10938285 -0.066157311 1.248 4282205512
-0.10673439 -0.066634409 1.2570001 4282797649
-0.10494065 -0.067694619 1.2770001 4283061080
-0.10430863 -0.069603011 1.3130001 4283192668
-0.32243246 -0.065107621 1.2950001 4288126114
-0.31150383 -0.063599341 1.2650001 4293455347
-0.30512249 -0.06299603 1.253 4293718008
-0.30073306 -0.062794924 1.2490001 4293389041
-0.2966035 -0.062644094 1.2460001 4293520627
-0.29319632 -0.062644094 1.2460001 4293521140
-0.28978911 -0.062644094 1.2460001 4293389554
-0.28615206 -0.062593818 1.245 4293389300
-0.2827476 -0.062593818 1.245 4293323761
-0.27889439 -0.062493261 1.243 4293521140
-0.27527377 -0.062442988 1.2420001 4293389554
-0.2712208 -0.062292159 1.2390001 4293521140
-0.26804891 -0.062342439 1.24 4293455347
-0.26465812 -0.062342439 1.24 4293389554
-0.26168871 -0.062442988 1.2420001 4293521140
-0.25850043 -0.062493261 1.243 4293520627
-0.25530666 -0.062543541 1.2440001 4293716468
-0.25170243 -0.062493261 1.243 4283511113
-0.24830344 -0.062493261 1.243 4284296782
-0.24490444 -0.062493261 1.243 4284101456
-0.24150544 -0.062493261 1.243 4286674056
-0.23810646 -0.062493261 1.243 4292201695
-0.23414099 -0.062342439 1.24 4294045693
-0.23075019 -0.062342439 1.24 4294309887
-0.2273594 -0.062342439 1.24 4294111996
-0.22432984 -0.062442988 1.2420001 4293850105
-0.22093359 -0.062442988 1.2420001 4292928488
-0.21718703 -0.062342439 1.24 4292204765
-0.21362381 -0.062292159 1.2390001 4290427840
-0.21040544 -0.062342439 1.24 4290231488
-0.20701465 -0.062342439 1.24 4292599523
-0.20345964 -0.062292159 1.2390001 4292796902
-0.19974864 -0.062191606 1.2370001 4292007388
-0.19668353 -0.062292159 1.2390001 4289967805
-0.19329546 -0.062292159 1.2390001 4289441463
-0.1899074 -0.062292159 1.2390001 4292598757
-0.18636881 -0.062241886 1.238 4293585652
-0.18298347 -0.062241886 1.238 4294440959
-0.17974323 -0.062292159 1.2390001 4294375679
-0.17621285 -0.062241886 1.238 4294441471
-0.17282753 -0.062241886 1.238 4287335833
-0.16930534 -0.062191606 1.2370001 4281414464
-0.16645928 -0.062392712 1.2410001 4280756536
-0.16332854 -0.062493261 1.243 4280822329
-0.16005822 -0.062543541 1.2440001 4281085501
-0.1562787 -0.062392712 1.2410001 4288718000
-0.15276198 -0.062342439 1.24 4293718267
-0.14913025 -0.062241886 1.238 4293455093
-0.14586265 -0.062292159 1.2390001 4293389554
-0.14247461 -0.062292159 1.2390001 4293455345
-0.13931106 -0.062392712 1.2410001 4293455345
-0.13580802 -0.062342439 1.24 4293389552
-0.13231044 -0.062292159 1.2390001 4293455345
-0.12892237 -0.062292159 1.2390001 4293389552
-0.12573695 -0.062392712 1.2410001 4293455345
-0.12244201 -0.062442988 1.2420001 4293389552
-0.11914159 -0.062493261 1.243 4294113275
-0.1157426 -0.062493261 1.243 4287928733
-0.11252437 -0.062593818 1.245 4282205512
-0.10964578 -0.062895477 1.251 4282863442
-0.10817789 -0.064051829 1.274 4283126360
-0.31770176 -0.060663145 1.276 4291481557
-0.30928758 -0.059712309 1.256 4290560453
-0.30439195 -0.05942706 1.25 4290757834
-0.30073306 -0.059379522 1.2490001 4291349971
-0.2966035 -0.059236895 1.2460001 4292271073
-0.292961 -0.059189349 1.245 4293060335
-0.28839365 -0.058951646 1.24 4293455093
-0.28523269 -0.058999185 1.2410001 4293455347
-0.28161207 -0.058951646 1.24 4293521140
-0.2779969 -0.0589041 1.2390001 4293389554
-0.27416557 -0.05880902 1.2370001 4293521140
-0.27056408 -0.058761477 1.2360001 4293455345
-0.26696804 -0.058713935 1.235 4293521138
-0.26359093 -0.058713935 1.235 4293455347
-0.26021382 -0.058713935 1.235 4293258482
-0.25683668 -0.058713935 1.235 4293454836
-0.25387004 -0.05880902 1.2370001 4293455093
-0.25048745 -0.05880902 1.2370001 4294440447
-0.24730462 -0.058856562 1.238 4294308863
-0.2439193 -0.058856562 1.238 4294175485
-0.2403397 -0.05880902 1.2370001 4288121759
-0.2369571 -0.05880902 1.2370001 4284302172
-0.23319685 -0.058713935 1.235 4286342009
-0.22981973 -0.058713935 1.235 4286537078
-0.22644262 -0.058713935 1.235 4287459462
-0.22342674 -0.05880902 1.2370001 4290687169
-0.21986628 -0.058761477 1.2360001 4294503931
-0.21613611 -0.058666397 1.2340001 4294440191
-0.21241689 -0.058571309 1.2320001 4294440702
-0.20921767 -0.058618851 1.233 4293914615
-0.20567906 -0.058571309 1.2320001 4292993513
-0.20231014 -0.058571309 1.2320001 4291151309
-0.19877976 -0.05852377 1.2310001 4289704633
-0.19604854 -0.058713935 1.235 4289835449
-0.19251542 -0.058666397 1.2340001 4292862697
-0.18914104 -0.058666397 1.2340001 4293125869
-0.18531503 -0.05852377 1.2310001 4292138974
-0.18194886 -0.05852377 1.2310001 4289836219
-0.17887281 -0.058618851 1.233 4293060076
-0.17535882 -0.058571309 1.2320001 4293454836
-0.17185031 -0.05852377 1.2310001 4293520629
-0.16834725 -0.058476225 1.23 4294112766
-0.16511795 -0.05852377 1.2310001 4294441471
-0.16175176 -0.05852377 1.2310001 4294507263
-0.15838557 -0.05852377 1.2310001 4293322996
-0.15527125 -0.058618851 1.233 4293784060
-0.15202281 -0.058666397 1.2340001 4293389554
-0.14852795 -0.058618851 1.233 4293455347
-0.14515629 -0.058618851 1.233 4293389552
-0.14201464 -0.058713935 1.235 4293389552
-0.13874978 -0.058761477 1.2360001 4293389552
-0.13536991 -0.058761477 1.2360001 4293455345
-0.13156292 -0.058571309 1.2320001 4293389552
-0.128194 -0.058571309 1.2320001 4293389552
-0.1249264 -0.058618851 1.233 4293521138
-0.12175192 -0.058713935 1.235 4294113275
-0.11847065 -0.058761477 1.2360001 4288784042
-0.11518392 -0.05880902 1.2370001 4282204742
-0.1123436 -0.059094265 1.243 4282731856
-0.11052225 -0.05995002 1.261 4283126614
-0.31770176 -0.057173908 1.276 4290692041
-0.31027257 -0.056456994 1.2600001 4290626248
-0.30585304 -0.056277763 1.256 4290428869
-0.30217773 -0.056232959 1.2550001 4290494408
-0.29803178 -0.056098536 1.2520001 4290823373
-0.29343161 -0.0558745 1.2470001 4291152338
-0.28909138 -0.055695273 1.243 4291283924
-0.28546253 -0.055650465 1.2420001 4291415510
-0.28229341 -0.055695273 1.243 4291678682
-0.27822128 -0.055560853 1.24 4292862956
-0.27438721 -0.055471238 1.238 4293521140
-0.27034518 -0.055336814 1.235 4293455347
-0.26696804 -0.055336814 1.235 4293455347
-0.26337752 -0.05529201 1.2340001 4293390068
-0.26000312 -0.05529201 1.2340001 4293520627
-0.2562128 -0.055202391 1.2320001 4293323761
-0.25284389 -0.055202391 1.2320001 4293454066
-0.24987997 -0.05529201 1.2340001 4293520886
-0.24670534 -0.055336814 1.235 4293454582
-0.24352525 -0.055381626 1.2360001 4293586169
-0.23975681 -0.05529201 1.2340001 4294374655
-0.23619087 -0.055247203 1.233 4293915134
-0.23281921 -0.055247203 1.233 4294570751
-0.22944756 -0.055247203 1.233 4294241276
-0.22644262 -0.055336814 1.235 4291143870
-0.2230655 -0.055336814 1.235 4287787657
-0.21951051 -0.05529201 1.2340001 4286803072
-0.21561067 -0.055157587 1.2310001 4286477187
-0.21207206 -0.055112779 1.23 4286740359
-0.20870861 -0.055112779 1.23 4290622916
-0.20534517 -0.055112779 1.23 4293913593
-0.20181753 -0.055067975 1.2290001 4294243071
-0.19829533 -0.055023164 1.228 4294375167
-0.19525483 -0.055112779 1.23 4294112766
-0.1920474 -0.055157587 1.2310001 4293125871
-0.18868122 -0.055157587 1.2310001 4291677653
-0.18516448 -0.055112779 1.23 4290099391
-0.18180104 -0.055112779 1.23 4290165697
-0.17872773 -0.055202391 1.2320001 4291942108
-0.17521648 -0.055157587 1.2310001 4293389041
-0.1717107 -0.055112779 1.23 4293454834
-0.16821039 -0.055067975 1.2290001 4293455347
-0.16498381 -0.055112779 1.23 4293455347
-0.16135757 -0.055023164 1.228 4293455093
-0.15787092 -0.054978359 1.2270001 4293389300
-0.15464161 -0.055023164 1.228 4293323507
-0.15153001 -0.055112779 1.23 4293455347
-0.14816657 -0.055112779 1.23 4293389554
-0.14492086 -0.055157587 1.2310001 4293389552
-0.14166966 -0.055202391 1.2320001 4293455345
-0.13852526 -0.05529201 1.2340001 4293455345
-0.1352604 -0.055336814 1.235 4293521138
-0.13156292 -0.055202391 1.2320001 4293389552
-0.12798588 -0.055112779 1.23 4293455345
-0.12452112 -0.055067975 1.2290001 4294047482
-0.12135758 -0.055157587 1.2310001 4290626246
-0.11827895 -0.05529201 1.2340001 4281678398
-0.11537014 -0.055516042 1.2390001 4282271305
-0.11767609 -0.058338895 1.302 4282929235
-0.31819975 -0.053768821 1.2780001 4290428615
-0.31076506 -0.053095654 1.2620001 4290823373
-0.30585304 -0.052843221 1.256 4290494408
-0.30265927 -0.052885294 1.2570001 4290560201
-0.29850787 -0.052759074 1.2540001 4290625994
-0.29413754 -0.052590784 1.25 4290494408
-0.28978911 -0.052422497 1.2460001 4290691787
-0.28592223 -0.052338351 1.2440001 4291481303
-0.28252047 -0.052338351 1.2440001 4291283924
-0.27867001 -0.052254207 1.2420001 4290823373
-0.27438721 -0.052085917 1.238 4290165697
-0.27034518 -0.051959697 1.235 4291021006
-0.26653573 -0.05187555 1.233 4292271073
-0.26295063 -0.051833477 1.2320001 4293060589
-0.25937101 -0.051791407 1.2310001 4293455347
-0.25579688 -0.05174933 1.23 4293389554
-0.2522282 -0.05170726 1.2290001 4293455347
-0.24927248 -0.051791407 1.2310001 4293652213
-0.24610604 -0.051833477 1.2320001 4293389041
-0.24273713 -0.051833477 1.2320001 4293521140
-0.23897964 -0.05174933 1.23 4293323761
-0.23542465 -0.05170726 1.2290001 4293520629
-0.23187511 -0.051665187 1.228 4293520629
-0.22851713 -0.051665187 1.228 4293454836
-0.22515915 -0.051665187 1.228 4294308351
-0.22180116 -0.051665187 1.228 4294109945
-0.21844319 -0.051665187 1.228 4293187560
-0.21491006 -0.051623117 1.2270001 4288450207
-0.21155481 -0.051623117 1.2270001 4287197830
-0.2080299 -0.05158104 1.2260001 4286209395
-0.20451044 -0.05153897 1.225 4286016123
-0.20116067 -0.05153897 1.225 4286603898
-0.19781089 -0.05153897 1.225 4285086811
-0.19446111 -0.05153897 1.225 4290483377
-0.19095533 -0.051496897 1.2240001 4294962687
-0.18760829 -0.051496897 1.2240001 4294504959
-0.18411072 -0.051454827 1.223 4294571519
-0.18091421 -0.051496897 1.2240001 4294046203
-0.17771225 -0.05153897 1.225 4293454064
-0.17464714 -0.051623117 1.2270001 4293586420
-0.17115229 -0.05158104 1.2260001 4293586420
-0.16779979 -0.05158104 1.2260001 4293455345
-0.16431314 -0.05153897 1.225 4293455345
-0.16083196 -0.051496897 1.2240001 4293455345
-0.15722761 -0.05141275 1.222 4293455345
-0.15401195 -0.051454827 1.223 4293455345
-0.15066765 -0.051454827 1.223 4293521140
-0.1474438 -0.051496897 1.2240001 4293455347
-0.14397904 -0.051454827 1.223 4293521138
-0.14097971 -0.05158104 1.2260001 4293455345
-0.13773945 -0.051623117 1.2270001 4293455345
-0.13438421 -0.051623117 1.2270001 4293389552
-0.13070861 -0.051496897 1.2240001 4293323761
-0.12736157 -0.051496897 1.2240001 4293521138
-0.12401453 -0.051496897 1.2240001 4290297281
-0.12096324 -0.051623117 1.2270001 4281744191
-0.1204835 -0.052885294 1.2570001 4282467914
-0.12077084 -0.054568198 1.2970001 4282863442
-0.10650203 -0.054526124 1.296 4283324252
-0.10287867 -0.054484054 1.2950001 4283719010
-0.32019159 -0.05058882 1.286 4289178548
-0.31199631 -0.049841397 1.2670001 4290889166
-0.30707061 -0.04960537 1.261 4290494408
-0.30362239 -0.04960537 1.261 4290494408
-0.29969808 -0.049526691 1.2590001 4290560201
-0.29554939 -0.049408674 1.256 4290625994
-0.29141712 -0.049290664 1.253 4291086545
-0.28707144 -0.049133312 1.2490001 4291349717
-0.28320181 -0.04905463 1.2470001 4291349717
-0.27934313 -0.048975956 1.245 4290889166
-0.27549541 -0.048897281 1.243 4290362822
-0.2712208 -0.048739929 1.2390001 4290625994
-0.26761657 -0.048700593 1.238 4290823627
-0.26401782 -0.048661251 1.2370001 4291218385
-0.26021382 -0.048582576 1.235 4291283924
-0.25642076 -0.048503902 1.233 4291415510
-0.25304911 -0.048503902 1.233 4291613143
-0.24967746 -0.048503902 1.233 4292665831
-0.24610604 -0.048464559 1.2320001 4293521140
-0.24214607 -0.048346549 1.2290001 4293455347
-0.23859106 -0.048307206 1.228 4293455347
-0.23504151 -0.048267871 1.2270001 4293324275
-0.23168628 -0.048267871 1.2270001 4293521140
-0.22814496 -0.048228532 1.2260001 4293455347
-0.22460908 -0.048189197 1.225 4293519857
-0.22125931 -0.048189197 1.225 4293388271
-0.21773164 -0.048149858 1.2240001 4293651445
-0.21455976 -0.048189197 1.225 4293455093
-0.21120998 -0.048189197 1.225 4293653242
-0.20786022 -0.048189197 1.225 4294046719
-0.20434348 -0.048149858 1.2240001 4294177278
-0.20116067 -0.048189197 1.225 4290423742
-0.1976494 -0.048149858 1.2240001 4284694874
-0.19414364 -0.048110522 1.223 4284230475
-0.19064331 -0.04807118 1.222 4284098376
-0.18730174 -0.04807118 1.222 4286469745
-0.18396017 -0.04807118 1.222 4290551733
-0.1806186 -0.04807118 1.222 4293319659
-0.17742209 -0.048110522 1.223 4293454064
-0.17422013 -0.048149858 1.2240001 4293521138
-0.17087308 -0.048149858 1.2240001 4293323759
-0.16738918 -0.048110522 1.223 4293455345
-0.16404487 -0.048110522 1.223 4293521138
-0.16056918 -0.04807118 1.222 4293455345
-0.15709893 -0.048031844 1.2210001 4293389552
-0.15376011 -0.048031844 1.2210001 4293389554
-0.15054446 -0.04807118 1.222 4293455347
-0.14708243 -0.048031844 1.2210001 4293455347
-0.14374359 -0.048031844 1.2210001 4293389554
-0.14051975 -0.04807118 1.222 4293521138
-0.13740268 -0.048149858 1.2240001 4293455345
-0.13394612 -0.048110522 1.223 4293521138
-0.13060182 -0.048110522 1.223 4293521140
-0.12715346 -0.04807118 1.222 4292731622
-0.12381189 -0.04807118 1.222 4281678398
-0.12224485 -0.048779268 1.24 4282534477
-0.1225922 -0.05031345 1.279 4282797649
-0.10970631 -0.050824847 1.2920001 4283192666
-0.10576243 -0.050628159 1.2870001 4283587426
-0.10248145 -0.050746173 1.2900001 4283784803
-0.32093856 -0.047182053 1.289 4289441720
-0.31273505 -0.046486586 1.2700001 4291152338
-0.30707061 -0.046157151 1.261 4290625994
-0.30338162 -0.046120547 1.2600001 4290362822
-0.29969808 -0.046083946 1.2590001 4290494408
-0.29602003 -0.046047337 1.258 4290691787
-0.2916497 -0.045900926 1.2540001 4290691787
-0.28753111 -0.045791116 1.251 4290757580
-0.28365603 -0.04571791 1.2490001 4291152338
-0.27979186 -0.045644697 1.2470001 4290625994
-0.27571702 -0.04553489 1.2440001 4290362822
-0.2718775 -0.045461684 1.2420001 4290297029
-0.26783273 -0.04535187 1.2390001 4290494408
-0.26444468 -0.04535187 1.2390001 4290691787
-0.26063523 -0.045278665 1.2370001 4291020752
-0.25704467 -0.045242064 1.2360001 4291283926
-0.25345957 -0.045205455 1.235 4291283924
-0.24987997 -0.045168854 1.2340001 4291415510
-0.24610604 -0.045095645 1.2320001 4291021006
-0.24214607 -0.044985835 1.2290001 4290692555
-0.23820248 -0.044876024 1.2260001 4292205280
-0.23484997 -0.044876024 1.2260001 4292928490
-0.2311198 -0.044802815 1.2240001 4293389041
-0.22740059 -0.044729609 1.222 4293389554
-0.22369231 -0.044656403 1.22 4293521140
-0.22017559 -0.044619799 1.2190001 4293521140
-0.21648645 -0.044546593 1.217 4293521140
-0.21350886 -0.044619799 1.2190001 4293520627
-0.21017548 -0.044619799 1.2190001 4293651443
-0.2070118 -0.044656403 1.22 4293455347
-0.2033418 -0.044583194 1.2180001 4293455095
-0.20017539 -0.044619799 1.2190001 4293520375
-0.19684201 -0.044619799 1.2190001 4294439423
-0.19350865 -0.044619799 1.2190001 4294636031
-0.18986326 -0.044546593 1.217 4294963199
-0.18653537 -0.044546593 1.217 4292918999
-0.18320747 -0.044546593 1.217 4287195520
-0.17987958 -0.044546593 1.217 4293846001
-0.17655167 -0.044546593 1.217 4293585650
-0.17336611 -0.044583194 1.2180001 4293521138
-0.17003548 -0.044583194 1.2180001 4293258736
-0.16670485 -0.044583194 1.2180001 4293521138
-0.16310595 -0.044509988 1.2160001 4293521138
-0.15991217 -0.044546593 1.217 4293455345
-0.15632695 -0.044473384 1.215 4293455347
-0.15338232 -0.044583194 1.2180001 4293455347
-0.14992848 -0.044546593 1.217 4293455347
-0.14672105 -0.044583194 1.2180001 4293455347
-0.14315496 -0.044509988 1.2160001 4293455345
-0.1398298 -0.044509988 1.2160001 4293389552
-0.13661689 -0.044546593 1.217 4293455345
-0.13317947 -0.044509988 1.2160001 4293455345
-0.12985431 -0.044509988 1.2160001 4292797415
-0.12673725 -0.044583194 1.2180001 4281350203
-0.12512904 -0.045205455 1.235 4282337098
-0.1251038 -0.046449978 1.2690001 4282863442
-0.12345485 -0.047145449 1.2880001 4283060821
-0.10885719 -0.046925828 1.2820001 4283390045
-0.10526937 -0.046889227 1.281 4283850598
-0.10208423 -0.047035638 1.2850001 4283587685
-0.31421253 -0.04321697 1.276 4291415510
-0.30828819 -0.042878281 1.266 4290560201
-0.30410394 -0.042776674 1.263 4290625994
-0.30065027 -0.042776674 1.263 4290757580
-0.29649064 -0.042675067 1.2600001 4290428615
-0.29258001 -0.04260733 1.258 4290625994
-0.28822064 -0.042471848 1.2540001 4291152338
-0.28456444 -0.042437982 1.253 4291283924
-0.28068936 -0.042370241 1.251 4290889166
-0.27682522 -0.042302504 1.2490001 4290494408
-0.27297202 -0.042234767 1.2470001 4290494408
-0.26934591 -0.042200897 1.2460001 4290428869
-0.26572528 -0.04216703 1.245 4290691530
-0.26189941 -0.042099293 1.243 4291020752
-0.25808448 -0.042031553 1.2410001 4291349717
-0.25428051 -0.041963812 1.2390001 4291283924
-0.25068995 -0.041929945 1.238 4291349717
-0.2469051 -0.041862205 1.2360001 4291152338
-0.24293417 -0.041760601 1.233 4289968064
-0.23936822 -0.041726731 1.2320001 4290625994
-0.23561619 -0.041658994 1.23 4290954959
-0.23206393 -0.041625123 1.2290001 4291218385
-0.22833103 -0.041557387 1.2270001 4291218385
-0.22442572 -0.041455775 1.2240001 4291942108
-0.22053683 -0.041354168 1.2210001 4292797417
-0.21666433 -0.041252565 1.2180001 4293389554
-0.21315856 -0.041218694 1.217 4293455347
-0.20983066 -0.041218694 1.217 4293455345
-0.20667243 -0.041252565 1.2180001 4293389552
-0.20317486 -0.041218694 1.217 4293521138
-0.19984697 -0.041218694 1.217 4293521140
-0.19651906 -0.041218694 1.217 4293389554
-0.19319117 -0.041218694 1.217 4293454836
-0.18970725 -0.041184824 1.2160001 4293454836
-0.18638209 -0.041184824 1.2160001 4293586422
-0.18290637 -0.041150957 1.215 4293783031
-0.17958395 -0.041150957 1.215 4293454834
-0.17626153 -0.041150957 1.215 4293389552
-0.17293911 -0.041150957 1.215 4293389552
-0.16961667 -0.041150957 1.215 4293257966
-0.16629425 -0.041150957 1.215 4293455345
-0.16270354 -0.041083217 1.2130001 4293521138
-0.15951797 -0.041117087 1.2140001 4293521138
-0.15619828 -0.041117087 1.2140001 4293521138
-0.15313046 -0.041184824 1.2160001 4293389554
-0.14980529 -0.041184824 1.2160001 4293455347
-0.14648013 -0.041184824 1.2160001 4293521140
-0.14315496 -0.041184824 1.2160001 4293455345
-0.13959982 -0.041117087 1.2140001 4293455345
-0.13549432 -0.040880002 1.207 4293652724
-0.13219376 -0.040880002 1.207 4294376447
-0.12953395 -0.041083217 1.2130001 4281744961
-0.12829804 -0.041760601 1.233 4282468684
-0.12796597 -0.042776674 1.263 4282403404
-0.1262868 -0.043386318 1.281 4282798162
-0.11227518 -0.043386318 1.281 4283652704
-0.10860246 -0.043318577 1.279 4283916393
-0.10518719 -0.043352447 1.2800001 4283521892
-0.31470504 -0.039790004 1.2780001 4291153108
-0.30828819 -0.039416391 1.266 4291283924
-0.30410394 -0.039322987 1.263 4290823373
-0.30017418 -0.039260719 1.261 4290757582
-0.29602003 -0.039167315 1.258 4290560203
-0.29188231 -0.039073911 1.2550001 4291086545
-0.28822064 -0.039042775 1.2540001 4290889168
-0.28479156 -0.039042775 1.2540001 4291349719
-0.28136247 -0.039042775 1.2540001 4290889166
-0.27704686 -0.038918238 1.25 4290494408
-0.27340981 -0.038887102 1.2490001 4290560201
-0.26956207 -0.038824834 1.2470001 4290428358
-0.26615214 -0.038824834 1.2470001 4290625737
-0.26232082 -0.038762566 1.245 4290625737
-0.25850043 -0.038700297 1.243 4290823375
-0.25448573 -0.038606893 1.24 4291020754
-0.25089243 -0.038575757 1.2390001 4291283926
-0.2469051 -0.038482353 1.2360001 4291218133
-0.24332821 -0.038451217 1.235 4290099650
-0.23975681 -0.038420085 1.2340001 4290165443
-0.2359993 -0.038357813 1.2320001 4290560201
-0.23263039 -0.038357813 1.2320001 4290560201
-0.22870322 -0.038264412 1.2290001 4290560201
-0.22479245 -0.038171008 1.2260001 4291152338
-0.22053683 -0.038015332 1.2210001 4291349717
-0.21666433 -0.037921932 1.2180001 4291218385
-0.21315856 -0.037890796 1.217 4290428869
-0.20965824 -0.03785966 1.2160001 4291415764
-0.20616338 -0.037828527 1.215 4292665831
-0.20250706 -0.037766259 1.2130001 4293126380
-0.19919011 -0.037766259 1.2130001 4293389554
-0.19587314 -0.037766259 1.2130001 4293521140
-0.19255619 -0.037766259 1.2130001 4293586931
-0.1890832 -0.037735123 1.212 4293455345
-0.18576898 -0.037735123 1.212 4293521138
-0.18230423 -0.037703987 1.2110001 4293652724
-0.17899273 -0.037703987 1.2110001 4293586931
-0.17539111 -0.037641719 1.2090001 4293455345
-0.17194274 -0.037610587 1.2080001 4293323759
-0.16863945 -0.037610587 1.2080001 4293455345
-0.16547303 -0.037641719 1.2090001 4293323759
-0.16203289 -0.037610587 1.2080001 4293455345
-0.15859818 -0.037579447 1.207 4293521140
-0.15529764 -0.037579447 1.207 4293455347
-0.15224895 -0.037641719 1.2090001 4293389554
-0.14906612 -0.037672855 1.21 4293521140
-0.14575736 -0.037672855 1.21 4293455347
-0.14138907 -0.037392642 1.2010001 4293521138
-0.13821992 -0.037423778 1.202 4293389552
-0.13515754 -0.037486047 1.2040001 4294442239
-0.13252233 -0.037672855 1.21 4281810754
-0.13060182 -0.0380776 1.223 4282206025
-0.12954669 -0.038762566 1.245 4282271818
-0.12756069 -0.039198451 1.2590001 4282798162
-0.12579389 -0.039727736 1.276 4282798162
-0.11201224 -0.039790004 1.2780001 4284179050
-0.10843263 -0.039758872 1.2770001 4283719014
-0.30926222 -0.0360681 1.2700001 4290691787
-0.30458552 -0.0359261 1.2650001 4291218133
-0.30088833 -0.035897702 1.2640001 4291481305
-0.29672596 -0.035812501 1.261 4291481305
-0.29304516 -0.035784103 1.2600001 4291283926
-0.28936985 -0.035755701 1.2590001 4291284696
-0.28569999 -0.035727303 1.258 4291284696
-0.28203559 -0.035698902 1.2570001 4291218133
-0.27815506 -0.035642099 1.2550001 4290494410
-0.27428544 -0.035585299 1.253 4290560201
-0.27064294 -0.035556901 1.2520001 4290626248
-0.26679245 -0.035500098 1.25 4290626248
-0.26316363 -0.0354717 1.2490001 4290362822
-0.25912431 -0.035386499 1.2460001 4290494410
-0.25530666 -0.0353297 1.2440001 4290757582
-0.25149992 -0.0352729 1.2420001 4291020752
-0.24770415 -0.035216101 1.24 4291283924
-0.24431336 -0.035216101 1.24 4290099650
-0.24092257 -0.035216101 1.24 4290625994
-0.2369571 -0.035130899 1.2370001 4290297029
-0.23338568 -0.035102498 1.2360001 4290099650
-0.22944756 -0.035017297 1.233 4290560201
-0.22570921 -0.034960497 1.2310001 4291086545
-0.22180116 -0.0348753 1.228 4291283924
-0.21808742 -0.0348185 1.2260001 4291349717
-0.21455976 -0.034790099 1.225 4289639099
-0.21086515 -0.034733295 1.223 4289573560
-0.2070118 -0.034648098 1.22 4290494662
-0.20317486 -0.034562897 1.217 4291152592
-0.19951853 -0.034506097 1.215 4291481557
-0.19619609 -0.034506097 1.215 4291744729
-0.19271493 -0.034477696 1.2140001 4292731624
-0.18923922 -0.034449298 1.2130001 4293323761
-0.18592227 -0.034449298 1.2130001 4293652726
-0.18230423 -0.034392498 1.2110001 4293521140
-0.17869712 -0.034335699 1.2090001 4293521138
-0.17495589 -0.034250494 1.2060001 4293455344
-0.1713734 -0.034193695 1.2040001 4293455345
-0.16808105 -0.034193695 1.2040001 4293323759
-0.16492556 -0.034222096 1.205 4293455345
-0.16176461 -0.034250494 1.2060001 4293521140
-0.15807259 -0.034165297 1.2030001 4293521140
-0.15491164 -0.034193695 1.2040001 4293521140
-0.15174523 -0.034222096 1.205 4293455347
-0.14783417 -0.034080096 1.2 4293521140
-0.14443229 -0.034051698 1.199 4293521140
-0.14115362 -0.034051698 1.199 4293652726
-0.13810492 -0.034108497 1.2010001 4294310654
-0.13549432 -0.034278896 1.207 4283718751
-0.13394612 -0.034733295 1.223 4282206025
-0.13273758 -0.035301302 1.243 4282403404
-0.12975481 -0.035414901 1.2470001 4282798162
-0.1270541 -0.035613701 1.2540001 4282929748
-0.1250052 -0.036011301 1.268 4282995287
-0.30950573 -0.03262094 1.271 4290691787
-0.30506706 -0.032518279 1.2670001 4290494408
-0.30112636 -0.032466948 1.2650001 4290823375
-0.29719657 -0.032415617 1.263 4291218133
-0.29327774 -0.032364286 1.261 4291415512
-0.28959969 -0.032338619 1.2600001 4291481306
-0.28569999 -0.032287288 1.258 4291415513
-0.28181124 -0.032235954 1.256 4291481305
-0.27793342 -0.032184623 1.2540001 4291086547
-0.27428544 -0.03215896 1.253 4290691787
-0.27064294 -0.032133292 1.2520001 4290560201
-0.26679245 -0.032081962 1.25 4290362822
-0.26295292 -0.032030631 1.248 4291020754
-0.25912431 -0.0319793 1.2460001 4291349719
-0.25510144 -0.031902306 1.243 4291415512
-0.25149992 -0.031876639 1.2420001 4291415512
-0.24770415 -0.031825308 1.24 4291481305
-0.24451038 -0.031850975 1.2410001 4290428615
-0.24072827 -0.031799641 1.2390001 4290297029
-0.2369571 -0.03174831 1.2370001 4290560201
-0.23338568 -0.031722642 1.2360001 4290757580
-0.22963366 -0.031671312 1.2340001 4290560201
-0.22589254 -0.031619981 1.2320001 4290757580
-0.2221624 -0.03156865 1.23 4291415510
-0.21844319 -0.031517319 1.228 4291349717
-0.21508521 -0.031517319 1.228 4290362824
-0.21120998 -0.031440325 1.225 4290560201
-0.20752086 -0.031388991 1.223 4290560201
-0.2033418 -0.031260666 1.2180001 4290691787
-0.20001116 -0.031260666 1.2180001 4290231236
-0.19635758 -0.031209333 1.2160001 4291152338
-0.19303241 -0.031209333 1.2160001 4291349971
-0.18923922 -0.031132337 1.2130001 4291284178
-0.18576898 -0.031106671 1.212 4291284178
-0.18215369 -0.031055341 1.21 4291810009
-0.17854932 -0.03100401 1.2080001 4292928488
-0.17466573 -0.030901346 1.2040001 4293257966
-0.17108873 -0.030850016 1.202 4293455345
-0.16766223 -0.03082435 1.2010001 4293521138
-0.16451496 -0.030850016 1.202 4293455347
-0.16095981 -0.030798685 1.2 4293521140
-0.1576784 -0.030798685 1.2 4293521140
-0.15426832 -0.030773019 1.199 4293521140
-0.15086371 -0.030747354 1.1980001 4293586931
-0.14734139 -0.030696023 1.1960001 4293586931
-0.14407091 -0.030696023 1.1960001 4293586931
-0.14080045 -0.030696023 1.1960001 4294113275
-0.13798992 -0.030798685 1.2 4283652188
-0.13583109 -0.031055341 1.21 4282468684
-0.13515088 -0.031671312 1.2340001 4282403404
-0.13241722 -0.031825308 1.24 4287469465
-0.12913048 -0.031850975 1.2410001 4283521885
-0.12675014 -0.032107629 1.251 4282929494
-0.12480804 -0.032492612 1.266 4282995289
-0.29813781 -0.029053653 1.2670001 4290625996
-0.29420805 -0.029007791 1.2650001 4290889168
-0.29028922 -0.02896193 1.263 4291283926
-0.2863813 -0.028916068 1.261 4291415512
-0.28225997 -0.028847275 1.258 4291481305
-0.27881998 -0.028847275 1.258 4291152340
-0.27516106 -0.028824344 1.2570001 4291349719
-0.27172378 -0.028824344 1.2570001 4291415512
-0.26721933 -0.028709687 1.2520001 4291415510
-0.263585 -0.028686756 1.251 4290954961
-0.25974822 -0.028640894 1.2490001 4291349719
-0.25592235 -0.028595032 1.2470001 4291349719
-0.25230992 -0.028572101 1.2460001 4291415512
-0.24870296 -0.02854917 1.245 4291481305
-0.24529849 -0.02854917 1.245 4290625994
-0.24150544 -0.02850331 1.243 4290494408
-0.23734021 -0.028411582 1.2390001 4290560201
-0.23376332 -0.028388651 1.238 4290560201
-0.23000583 -0.028342791 1.2360001 4290691787
-0.22662598 -0.028342791 1.2360001 4290889166
-0.22288489 -0.028296929 1.2340001 4291152338
-0.21951051 -0.028296929 1.2340001 4291349719
-0.21596096 -0.028273998 1.233 4290362824
-0.21241689 -0.028251067 1.2320001 4290428615
-0.20836926 -0.028159343 1.228 4290494408
-0.20451044 -0.02809055 1.225 4290625994
-0.20099644 -0.028067617 1.2240001 4289968064
-0.19732645 -0.028021755 1.222 4290297029
-0.19382612 -0.027998824 1.2210001 4290428615
-0.19017528 -0.027952962 1.2190001 4290889420
-0.18653537 -0.027907101 1.217 4291284178
-0.18290637 -0.027861239 1.215 4291086799
-0.17914054 -0.027792446 1.212 4290494662
-0.17553617 -0.027746584 1.21 4290363076
-0.1718004 -0.027677789 1.207 4290823627
-0.16947706 -0.027838308 1.2140001 4292139487
-0.16547303 -0.027723653 1.2090001 4293060589
-0.16203289 -0.027700722 1.2080001 4293389554
-0.1583354 -0.027631927 1.205 4293455347
-0.15491164 -0.027608996 1.2040001 4293521140
-0.15149337 -0.027586065 1.2030001 4293586931
-0.14820375 -0.027586065 1.2030001 4293586931
-0.14455275 -0.027517272 1.2 4293652724
-0.14127134 -0.027517272 1.2 4291284176
-0.1383349 -0.027586065 1.2030001 4282665293
-0.13661689 -0.027907101 1.217 4282533709
-0.13504136 -0.028273998 1.233 4282139465
-0.13241722 -0.028434517 1.24 4289245109
-0.12933858 -0.02850331 1.243 4283784290
-0.12715542 -0.02877848 1.2550001 4282929494
-0.2937429 -0.025508244 1.263 4290625996
-0.29005936 -0.025488047 1.2620001 4290954961
-0.28592709 -0.025427459 1.2590001 4290954961
-0.28248435 -0.025427459 1.2590001 4291152340
-0.27904159 -0.025427459 1.2590001 4290560203
-0.27559885 -0.025427459 1.2590001 4290560203
-0.27150759 -0.025366867 1.256 4290757582
-0.26721933 -0.02528608 1.2520001 4291283926
-0.2633743 -0.025245689 1.25 4291547098
-0.25995618 -0.025245689 1.25 4291547098
-0.25612757 -0.025205296 1.248 4291349719
-0.2525124 -0.025185099 1.2470001 4291415512
-0.24870296 -0.025144706 1.245 4291481305
-0.24510145 -0.025124511 1.2440001 4291086545
-0.24131115 -0.025084117 1.2420001 4290823373
