# .PCD v0.7 - Point Cloud Data file format
VERSION 0.7
FIELDS x y z rgba
SIZE 4 4 4 4
TYPE F F F U
COUNT 1 1 1 1
WIDTH 1087
HEIGHT 1
VIEWPOINT 0 0 0 1 0 0 0
POINTS 1087
DATA ascii
-0.12539956 -0.084821053 1.2720001 4293323761
-0.12211295 -0.084954418 1.274 4293192175
-0.11965346 -0.085687935 1.2850001 4293192175
-0.11903181 -0.087821797 1.317 4292994542
-0.31731337 -0.085243627 1.3330001 4290165443
-0.30684429 -0.083389118 1.304 4290362822
-0.29978985 -0.082429886 1.289 4291020752
-0.29396665 -0.081790395 1.279 4292336612
-0.28910658 -0.081406705 1.273 4293126382
-0.28472808 -0.081150904 1.2690001 4293389554
-0.28059307 -0.080959067 1.266 4293257968
-0.27735007 -0.081023008 1.2670001 4293192175
-0.27388543 -0.081023008 1.2670001 4293192175
-0.27063426 -0.081086963 1.268 4293257714
-0.26716691 -0.081086963 1.268 4293257714
-0.26349157 -0.081023008 1.2670001 4293191410
-0.25982174 -0.080959067 1.266 4293191410
-0.25595486 -0.08083117 1.2640001 4293783033
-0.25249845 -0.08083117 1.2640001 4293126128
-0.24904202 -0.08083117 1.2640001 4291547350
-0.24597417 -0.080959067 1.266 4289113007
-0.24270383 -0.081023008 1.2670001 4293454832
-0.23905039 -0.080959067 1.266 4289968316
-0.23503023 -0.080767214 1.263 4291349456
-0.23120984 -0.080639318 1.261 4293652472
-0.22812286 -0.080767214 1.263 4294113023
-0.22484708 -0.08083117 1.2640001 4281480769
-0.22191608 -0.081023008 1.2670001 4282204492
-0.21827906 -0.080959067 1.266 4282401871
-0.21532622 -0.081150904 1.2690001 4282467664
-0.21085444 -0.080767214 1.263 4282665044
-0.20707233 -0.080639318 1.261 4282336597
-0.20346263 -0.080575369 1.2600001 4281678667
-0.20096961 -0.080959067 1.266 4281678924
-0.19766371 -0.081023008 1.2670001 4281941839
-0.19419909 -0.081023008 1.2670001 4281810253
-0.19028287 -0.08083117 1.2640001 4281941067
-0.18653083 -0.080703266 1.2620001 4282599251
-0.18307987 -0.080703266 1.2620001 4287730591
-0.1794866 -0.080639318 1.261 4293784060
-0.17589878 -0.080575369 1.2600001 4293191921
-0.17231642 -0.080511421 1.2590001 4292797417
-0.16900781 -0.080575369 1.2600001 4291283924
-0.16569372 -0.080639318 1.261 4292929003
-0.1622455 -0.080639318 1.261 4293323507
-0.15892321 -0.080703266 1.2620001 4291744475
-0.15534906 -0.080639318 1.261 4288586411
-0.1520213 -0.080703266 1.2620001 4289836480
-0.14833491 -0.080575369 1.2600001 4290494410
-0.14488943 -0.080575369 1.2600001 4287533725
-0.14133169 -0.080511421 1.2590001 4293126130
-0.13821751 -0.080703266 1.2620001 4293389302
-0.13465977 -0.080639318 1.261 4293191921
-0.13152371 -0.08083117 1.2640001 4293257968
-0.12796597 -0.080767214 1.263 4293257968
-0.12461087 -0.08083117 1.2640001 4293192175
-0.12096275 -0.080703266 1.2620001 4293323761
-0.11760492 -0.080767214 1.263 4293257968
-0.11469352 -0.081150904 1.2690001 4293192175
-0.11332694 -0.082685679 1.2930001 4293060589
-0.3091974 -0.080435455 1.314 4290362824
-0.30188304 -0.079456031 1.2980001 4290757582
-0.29603523 -0.078843884 1.2880001 4291086545
-0.29046923 -0.078292958 1.279 4292007647
-0.28517681 -0.077803247 1.271 4293323507
-0.28014979 -0.077374749 1.2640001 4293257714
-0.27625555 -0.077252313 1.2620001 4293192175
-0.27280462 -0.077252313 1.2620001 4293257968
-0.2695671 -0.077313527 1.263 4293257968
-0.2663241 -0.077374749 1.2640001 4293323507
-0.26286769 -0.077374749 1.2640001 4293323509
-0.25941128 -0.077374749 1.2640001 4288450465
-0.25554985 -0.077252313 1.2620001 4283513167
-0.25189915 -0.0771911 1.261 4294175738
-0.2482539 -0.077129886 1.2600001 4293191410
-0.24500272 -0.0771911 1.261 4292929003
-0.2415545 -0.0771911 1.261 4289376181
-0.23848392 -0.077313527 1.263 4291546321
-0.23447196 -0.077129886 1.2600001 4293124840
-0.23065978 -0.077007458 1.258 4289046703
-0.22721978 -0.077007458 1.258 4293191662
-0.22413552 -0.077129886 1.2600001 4294178815
-0.22104034 -0.077252313 1.2620001 4286546830
-0.21810663 -0.077435955 1.2650001 4280888632
-0.21498683 -0.077558383 1.2670001 4281875528
-0.21085444 -0.077313527 1.263 4282467665
-0.2067439 -0.077068672 1.2590001 4282665560
-0.20281671 -0.07688503 1.256 4281678926
-0.1998584 -0.077068672 1.2590001 4281613646
-0.19657166 -0.077129886 1.2600001 4281679439
-0.19327946 -0.0771911 1.261 4281942098
-0.18953015 -0.077068672 1.2590001 4281941839
-0.18623522 -0.077129886 1.2600001 4282205011
-0.18278973 -0.077129886 1.2600001 4281941067
-0.1792019 -0.077068672 1.2590001 4285230971
-0.17547996 -0.076946244 1.2570001 4292205028
-0.17176895 -0.076823816 1.2550001 4293652472
-0.16833714 -0.076823816 1.2550001 4293257457
-0.16503672 -0.07688503 1.256 4292994796
-0.16160217 -0.07688503 1.256 4293060335
-0.15816763 -0.07688503 1.256 4292336614
-0.15485629 -0.076946244 1.2570001 4285428347
-0.15141901 -0.076946244 1.2570001 4293126130
-0.147864 -0.07688503 1.256 4292533993
-0.14442946 -0.07688503 1.256 4292994544
-0.14099491 -0.07688503 1.256 4293126128
-0.13777941 -0.077007458 1.258 4293191921
-0.13433941 -0.077007458 1.258 4293323507
-0.13110749 -0.077129886 1.2600001 4293323761
-0.12766202 -0.077129886 1.2600001 4293323761
-0.12421653 -0.077129886 1.2600001 4293257968
-0.12057935 -0.077007458 1.258 4293257968
-0.1169531 -0.07688503 1.256 4293257968
-0.11369932 -0.077007458 1.258 4293257968
-0.11069755 -0.077313527 1.263 4293257968
-0.10843263 -0.07817053 1.2770001 4293192175
-0.10830993 -0.080680311 1.3180001 4292863726
-0.31060925 -0.077193186 1.3200001 4290429385
-0.3030459 -0.076199032 1.3030001 4290560973
-0.29718444 -0.075614236 1.2930001 4290889168
-0.29137766 -0.07502944 1.2830001 4291020754
-0.28584993 -0.074503124 1.274 4290428617
-0.28037143 -0.073976807 1.2650001 4293191921
-0.27559885 -0.07362593 1.2590001 4293323507
-0.27172378 -0.07350897 1.2570001 4293126128
-0.2682865 -0.07350897 1.2570001 4293061103
-0.26484922 -0.07350897 1.2570001 4293389043
-0.26141194 -0.07350897 1.2570001 4293388789
-0.25797465 -0.07350897 1.2570001 4293516013
-0.25453737 -0.07350897 1.2570001 4285545052
-0.25090033 -0.073450483 1.256 4285610075
-0.24707173 -0.073333524 1.2540001 4294829052
-0.24364266 -0.073333524 1.2540001 4294374143
-0.24002202 -0.073275052 1.253 4293323250
-0.23697335 -0.073392011 1.2550001 4292007388
-0.23354153 -0.073392011 1.2550001 4289769399
-0.229743 -0.073275052 1.253 4293717236
-0.22631666 -0.073275052 1.253 4289507254
-0.22289032 -0.073275052 1.253 4292138974
-0.21981429 -0.073392011 1.2550001 4293915644
-0.21655488 -0.073450483 1.256 4289244343
-0.21295068 -0.073392011 1.2550001 4280362288
-0.20935191 -0.073333524 1.2540001 4281875528
-0.20559442 -0.073216565 1.2520001 4282994525
-0.20168637 -0.073041134 1.2490001 4282205268
-0.19858845 -0.073158093 1.251 4281811025
-0.1953236 -0.073216565 1.2520001 4281350474
-0.19235982 -0.073392011 1.2550001 4281811025
-0.18877746 -0.073333524 1.2540001 4281942611
-0.18579181 -0.07350897 1.2570001 4282337369
-0.18235452 -0.07350897 1.2570001 4282270804
-0.17891724 -0.07350897 1.2570001 4282401618
-0.17492156 -0.073275052 1.253 4282796376
-0.17135835 -0.073216565 1.2520001 4288915378
-0.16780061 -0.073158093 1.251 4293915646
-0.16451113 -0.073216565 1.2520001 4293389043
-0.1608302 -0.073099606 1.25 4293060335
-0.15741207 -0.073099606 1.25 4292928749
-0.15387072 -0.073041134 1.2490001 4293191921
-0.15057579 -0.073099606 1.25 4293060335
-0.14703992 -0.073041134 1.2490001 4293257714
-0.1438545 -0.073158093 1.251 4293257714
-0.14032137 -0.073099606 1.25 4293257714
-0.13690324 -0.073099606 1.25 4293257968
-0.13348511 -0.073099606 1.25 4293323761
-0.13027507 -0.073216565 1.2520001 4293257968
-0.12675014 -0.073158093 1.251 4293389554
-0.12332927 -0.073158093 1.251 4293323761
-0.11981256 -0.073099606 1.25 4293192173
-0.11658064 -0.073216565 1.2520001 4293257714
-0.11315703 -0.073216565 1.2520001 4293323761
-0.10982108 -0.073275052 1.253 4293257968
-0.10664947 -0.073450483 1.256 4293257968
-0.10403671 -0.074035287 1.266 4293257714
-0.10256089 -0.075497277 1.291 4292994542
-0.30444136 -0.072970435 1.309 4290626766
-0.29856348 -0.072412983 1.299 4290889168
-0.2934216 -0.072022766 1.2920001 4291020754
-0.28786927 -0.071521066 1.2830001 4290165445
-0.28214452 -0.070963606 1.273 4290691789
-0.27669337 -0.070461906 1.2640001 4292994542
-0.27193993 -0.070127435 1.258 4293323507
-0.26764619 -0.069904454 1.2540001 4293323761
-0.26400641 -0.069848709 1.253 4293126896
-0.26078802 -0.069904454 1.2540001 4293061105
-0.25735897 -0.069904454 1.2540001 4293518835
-0.25372738 -0.069848709 1.253 4294831359
-0.25030103 -0.069848709 1.253 4285478489
-0.24667768 -0.069792964 1.2520001 4285281110
-0.24305978 -0.069737218 1.251 4287525515
-0.23944734 -0.069681473 1.25 4294111998
-0.23621804 -0.069737218 1.251 4293585652
-0.23261108 -0.069681473 1.25 4292270560
-0.22919293 -0.069681473 1.25 4288782504
-0.22559419 -0.069625728 1.2490001 4293519857
-0.22235666 -0.069681473 1.25 4290361793
-0.21893851 -0.069681473 1.25 4288915117
-0.21552038 -0.069681473 1.25 4293784058
-0.2115932 -0.069514237 1.2470001 4294244607
-0.20835023 -0.069569983 1.248 4281612356
-0.20526597 -0.069681473 1.25 4280756793
-0.20184784 -0.069681473 1.25 4282533976
-0.19827098 -0.069625728 1.2490001 4283718250
-0.19501156 -0.069681473 1.25 4282073682
-0.19189999 -0.069792964 1.2520001 4281876303
-0.18862692 -0.069848709 1.253 4282205268
-0.18520057 -0.069848709 1.253 4282271061
-0.18162917 -0.069792964 1.2520001 4282797405
-0.17820555 -0.069792964 1.2520001 4282797146
-0.17478195 -0.069792964 1.2520001 4282994525
-0.17149521 -0.069848709 1.253 4282467665
-0.16780061 -0.069737218 1.251 4286020486
-0.16424833 -0.069681473 1.25 4293652215
-0.16057287 -0.069569983 1.248 4293323250
-0.15703428 -0.069514237 1.2470001 4293191664
-0.15350114 -0.069458492 1.2460001 4293257968
-0.1502144 -0.069514237 1.2470001 4293257968
-0.14680447 -0.069514237 1.2470001 4293257968
-0.14350952 -0.069569983 1.248 4293257968
-0.14009686 -0.069569983 1.248 4293257968
-0.13668419 -0.069569983 1.248 4293323761
-0.13327153 -0.069569983 1.248 4293257968
-0.12996291 -0.069625728 1.2490001 4293257968
-0.12644619 -0.069569983 1.248 4293257968
-0.12283634 -0.069458492 1.2460001 4293323761
-0.119525 -0.069514237 1.2470001 4293323759
-0.1163013 -0.069625728 1.2490001 4293323761
-0.11297628 -0.069681473 1.25 4293323761
-0.10955814 -0.069681473 1.25 4293257968
-0.10614 -0.069681473 1.25 4293323761
-0.1029684 -0.069848709 1.253 4293257714
-0.10001871 -0.07018318 1.2590001 4293323507
-0.097649887 -0.070963606 1.273 4293126128
-0.096831918 -0.072970435 1.309 4293061105
-0.089334272 -0.069904454 1.2540001 4292995312
-0.088234365 -0.071799785 1.2880001 4292929519
-0.30444136 -0.06939096 1.309 4290560973
-0.29856348 -0.068860859 1.299 4290889168
-0.2934216 -0.068489783 1.2920001 4290954961
-0.28831801 -0.068118706 1.2850001 4290494410
-0.28325272 -0.06774763 1.2780001 4290757582
-0.27800676 -0.067323551 1.2700001 4291086547
-0.27237228 -0.066793442 1.2600001 4292402405
-0.26743275 -0.066422366 1.253 4293191921
-0.26295292 -0.066157311 1.248 4293323248
-0.25954023 -0.066157311 1.248 4293192175
-0.25612757 -0.066157311 1.248 4293454836
-0.2525124 -0.0661043 1.2470001 4293257716
-0.24910247 -0.0661043 1.2470001 4294111743
-0.24588957 -0.066157311 1.248 4290093750
-0.2422826 -0.0661043 1.2470001 4288375948
-0.23868112 -0.066051289 1.2460001 4287523462
-0.2350851 -0.065998279 1.245 4294306042
-0.23149453 -0.065945268 1.2440001 4293715698
-0.2280928 -0.065945268 1.2440001 4293388273
-0.22451048 -0.065892257 1.243 4289506484
-0.22128935 -0.065945268 1.2440001 4293322478
-0.21788761 -0.065945268 1.2440001 4292731111
-0.21431348 -0.065892257 1.243 4288915117
-0.2107448 -0.065839253 1.2420001 4292731624
-0.20701465 -0.065733232 1.24 4294047230
-0.20378806 -0.065786235 1.2410001 4287665311
-0.20055601 -0.065839253 1.2420001 4280296242
-0.19763599 -0.065998279 1.245 4282139218
-0.19438754 -0.066051289 1.2460001 4283191906
-0.1911336 -0.0661043 1.2470001 4281744717
-0.18787421 -0.066157311 1.248 4281613131
-0.18431373 -0.0661043 1.2470001 4282139729
-0.18061367 -0.065998279 1.245 4282402901
-0.17692453 -0.065892257 1.243 4282205520
-0.17394434 -0.066051289 1.2460001 4282731864
-0.17108461 -0.066263333 1.25 4282336079
-0.16753234 -0.06621033 1.2490001 4281612356
-0.16385414 -0.0661043 1.2470001 4282796116
-0.16005822 -0.065945268 1.2440001 4293849340
-0.15653054 -0.065892257 1.243 4293783801
-0.15288517 -0.065786235 1.2410001 4293323250
-0.1496121 -0.065839253 1.2420001 4293323250
-0.14609812 -0.065786235 1.2410001 4293257968
-0.14281958 -0.065839253 1.2420001 4293257968
-0.13953558 -0.065892257 1.243 4293389554
-0.13613658 -0.065892257 1.243 4293389554
-0.1326308 -0.065839253 1.2420001 4293323761
-0.12923454 -0.065839253 1.2420001 4293257968
-0.12573695 -0.065786235 1.2410001 4293323761
-0.12224485 -0.065733232 1.24 4293323759
-0.11894991 -0.065786235 1.2410001 4293323759
-0.11564949 -0.065839253 1.2420001 4293389552
-0.1123436 -0.065892257 1.243 4293389552
-0.10903227 -0.065945268 1.2440001 4293257966
-0.10563053 -0.065945268 1.2440001 4293323759
-0.10222881 -0.065945268 1.2440001 4293389552
-0.09890651 -0.065998279 1.245 4293257966
-0.095732175 -0.066157311 1.248 4293323761
-0.091875657 -0.065839253 1.2420001 4293323761
-0.088835597 -0.0661043 1.2470001 4293126128
-0.086795762 -0.067164518 1.2670001 4293061105
-0.30513909 -0.065962322 1.312 4290692304
-0.29925299 -0.065459557 1.302 4290823376
-0.29455712 -0.065208174 1.2970001 4291218133
-0.28943989 -0.064856239 1.2900001 4290494410
-0.28480417 -0.064604864 1.2850001 4290560203
-0.27953911 -0.064202651 1.2770001 4290625996
-0.27410161 -0.06375017 1.268 4291349719
-0.26871336 -0.063297682 1.2590001 4291612889
-0.263585 -0.062895477 1.251 4293126128
-0.25954023 -0.062744647 1.248 4293323761
-0.25551188 -0.062593818 1.245 4293323761
-0.25170243 -0.062493261 1.243 4293257714
-0.24830344 -0.062493261 1.243 4293323507
-0.24510145 -0.062543541 1.2440001 4293519861
-0.24169973 -0.062543541 1.2440001 4293513446
-0.23810646 -0.062493261 1.243 4287784835
-0.23451863 -0.062442988 1.2420001 4286669177
-0.23075019 -0.062342439 1.24 4294176251
-0.22717604 -0.062292159 1.2390001 4294177791
-0.22378798 -0.062292159 1.2390001 4293388273
-0.22093359 -0.062442988 1.2420001 4291874775
-0.21753731 -0.062442988 1.2420001 4289441461
-0.21414106 -0.062442988 1.2420001 4293850105
-0.21040544 -0.062342439 1.24 4288126628
-0.20701465 -0.062342439 1.24 4290823627
-0.20345964 -0.062292159 1.2390001 4294178815
-0.20007157 -0.062292159 1.2390001 4293191924
-0.19700101 -0.062392712 1.2410001 4280493875
-0.19407551 -0.062543541 1.2440001 4281678667
-0.19067377 -0.062543541 1.2440001 4282007630
-0.18742259 -0.062593818 1.245 4282599769
-0.18372253 -0.062493261 1.243 4282468179
-0.18003337 -0.062392712 1.2410001 4282073423
-0.17621285 -0.062241886 1.238 4282402386
-0.17310673 -0.062342439 1.24 4282797146
-0.16998966 -0.062442988 1.2420001 4282467411
-0.16699581 -0.062593818 1.245 4282138446
-0.16345994 -0.062543541 1.2440001 4282203982
-0.15980089 -0.062442988 1.2420001 4281546050
-0.15615277 -0.062342439 1.24 4284309355
-0.15263878 -0.062292159 1.2390001 4293323250
-0.14925072 -0.062292159 1.2390001 4293323250
-0.14574493 -0.062241886 1.238 4293257968
-0.14247461 -0.062292159 1.2390001 4293323761
-0.13919881 -0.062342439 1.24 4293389554
-0.13591753 -0.062392712 1.2410001 4293257968
-0.13252401 -0.062392712 1.2410001 4293257968
-0.12902643 -0.062342439 1.24 4293323761
-0.12563564 -0.062342439 1.24 4293323761
-0.12214626 -0.062292159 1.2390001 4293192175
-0.1187582 -0.062292159 1.2390001 4293389554
-0.11537014 -0.062292159 1.2390001 4293389554
-0.11207247 -0.062342439 1.24 4293257968
-0.10868168 -0.062342439 1.24 4293455345
-0.1053758 -0.062392712 1.2410001 4293257966
-0.10198227 -0.062392712 1.2410001 4293455345
-0.098509304 -0.062342439 1.24 4293521138
-0.095425345 -0.062543541 1.2440001 4294179068
-0.092615396 -0.062945746 1.2520001 4286810252
-0.089832947 -0.063398235 1.261 4281020470
-0.087617822 -0.064303204 1.279 4293060335
-0.29902318 -0.061851684 1.3010001 4290955476
-0.29433003 -0.061613973 1.296 4291087317
-0.28966424 -0.06137627 1.291 4290297801
-0.28480417 -0.061091021 1.2850001 4290363594
-0.2801958 -0.06085331 1.2800001 4290560203
-0.2749663 -0.060472976 1.2720001 4291283926
-0.26978055 -0.060092647 1.2640001 4291218133
-0.26463851 -0.059712309 1.256 4290954959
-0.25954023 -0.059331976 1.248 4293257714
-0.25489619 -0.059046727 1.2420001 4293389554
-0.25048745 -0.05880902 1.2370001 4293257968
-0.2469051 -0.058761477 1.2360001 4293192689
-0.24372227 -0.05880902 1.2370001 4293126898
-0.2403397 -0.05880902 1.2370001 4293257716
-0.2369571 -0.05880902 1.2370001 4293782008
-0.23319685 -0.058713935 1.235 4287525000
-0.22963366 -0.058666397 1.2340001 4288310666
-0.22625928 -0.058666397 1.2340001 4286999939
-0.22324613 -0.058761477 1.2360001 4294045179
-0.22004417 -0.05880902 1.2370001 4293454066
-0.21648641 -0.058761477 1.2360001 4290890447
-0.21293414 -0.058713935 1.235 4289243566
-0.20955701 -0.058713935 1.235 4293456115
-0.20634685 -0.058761477 1.2360001 4290165695
-0.20280278 -0.058713935 1.235 4291744729
-0.19910271 -0.058618851 1.233 4293586933
-0.19588982 -0.058666397 1.2340001 4294244607
-0.19267142 -0.058713935 1.235 4284836213
-0.1899074 -0.0589041 1.2390001 4280888633
-0.18636881 -0.058856562 1.238 4281941321
-0.18327911 -0.058951646 1.24 4282138446
-0.17916295 -0.058713935 1.235 4282598997
-0.17578584 -0.058713935 1.235 4282862169
-0.17240871 -0.058713935 1.235 4282598997
-0.16930534 -0.05880902 1.2370001 4282664790
-0.16592275 -0.05880902 1.2370001 4282401618
-0.16240875 -0.058761477 1.2360001 4281085499
-0.15890023 -0.058713935 1.235 4282203979
-0.15539719 -0.058666397 1.2340001 4293849340
-0.1517764 -0.058571309 1.2320001 4293257457
-0.14852795 -0.058618851 1.233 4293389041
-0.14503857 -0.058571309 1.2320001 4293323761
-0.14189965 -0.058666397 1.2340001 4293257968
-0.13852526 -0.058666397 1.2340001 4293323761
-0.1352604 -0.058713935 1.235 4293323761
-0.13188328 -0.058713935 1.235 4293257968
-0.12840211 -0.058666397 1.2340001 4293257968
-0.12502773 -0.058666397 1.2340001 4293323761
-0.12155475 -0.058618851 1.233 4293257968
-0.11827895 -0.058666397 1.2340001 4293455345
-0.11490457 -0.058666397 1.2340001 4293521138
-0.11153018 -0.058666397 1.2340001 4293323759
-0.1081558 -0.058666397 1.2340001 4293455345
-0.1046965 -0.058618851 1.233 4294179068
-0.10157137 -0.058761477 1.2360001 4294705151
-0.098827071 -0.059141811 1.2440001 4284573290
-0.096422553 -0.059759852 1.2570001 4282402121
-0.094168857 -0.060520515 1.273 4283257430
-0.091186501 -0.06085331 1.2800001 4280296745
-0.088302873 -0.061281186 1.289 4293981437
-0.29523847 -0.058249284 1.3000001 4291153110
-0.29033735 -0.057980433 1.294 4290363594
-0.28569072 -0.057756402 1.289 4290363594
-0.28085253 -0.057487562 1.2830001 4290429387
-0.27583095 -0.057173908 1.276 4291218903
-0.27084771 -0.056860257 1.2690001 4291152340
-0.2661134 -0.056591418 1.263 4290625996
-0.26099601 -0.056232959 1.2550001 4291678682
-0.25551188 -0.055784885 1.245 4292928749
-0.25048745 -0.05542643 1.2370001 4293389554
-0.24630581 -0.055247203 1.233 4293323761
-0.24313121 -0.05529201 1.2340001 4293126382
-0.23956251 -0.055247203 1.233 4293389043
-0.23638242 -0.05529201 1.2340001 4293192691
-0.23263039 -0.055202391 1.2320001 4294439423
-0.22926147 -0.055202391 1.2320001 4290156206
-0.22589254 -0.055202391 1.2320001 4288639631
-0.22252363 -0.055202391 1.2320001 4286670204
-0.21915472 -0.055202391 1.2320001 4294111998
-0.21561067 -0.055157587 1.2310001 4293257716
-0.21224448 -0.055157587 1.2310001 4293389554
-0.20904797 -0.055202391 1.2320001 4288521640
-0.20584601 -0.055247203 1.233 4291283663
-0.20247436 -0.055247203 1.233 4293389039
-0.19894122 -0.055202391 1.2320001 4288652456
-0.19541357 -0.055157587 1.2310001 4292863208
-0.19189137 -0.055112779 1.23 4293981437
-0.18852793 -0.055112779 1.23 4291415513
-0.18546556 -0.055202391 1.2320001 4280757046
-0.18254006 -0.055336814 1.235 4282204241
-0.17901789 -0.05529201 1.2340001 4282401618
-0.17550115 -0.055247203 1.233 4282138448
-0.17212951 -0.055247203 1.233 4282401107
-0.16889472 -0.05529201 1.2340001 4281151292
-0.16552034 -0.05529201 1.2340001 4287993764
-0.16162036 -0.055112779 1.23 4293849341
-0.15812825 -0.055067975 1.2290001 4293915387
-0.15464161 -0.055023164 1.228 4293323250
-0.15140682 -0.055067975 1.2290001 4293323761
-0.14804611 -0.055067975 1.2290001 4293258482
-0.1446854 -0.055067975 1.2290001 4293323761
-0.14132468 -0.055067975 1.2290001 4293389554
-0.13807623 -0.055112779 1.23 4293323761
-0.13482231 -0.055157587 1.2310001 4293389554
-0.13156292 -0.055202391 1.2320001 4293257968
-0.128194 -0.055202391 1.2320001 4293323761
-0.12482508 -0.055202391 1.2320001 4293389554
-0.12135758 -0.055157587 1.2310001 4293389552
-0.11808725 -0.055202391 1.2320001 4293389551
-0.11471833 -0.055202391 1.2320001 4293521138
-0.11107828 -0.055067975 1.2290001 4294442239
-0.1079805 -0.055202391 1.2320001 4293652724
-0.1053758 -0.055605657 1.2410001 4282467914
-0.10272187 -0.056008924 1.25 4282862671
-0.10049537 -0.056681029 1.2650001 4282928464
-0.097803295 -0.0571291 1.2750001 4281744190
-0.094686672 -0.057353139 1.2800001 4281875776
-0.091400221 -0.057487562 1.2830001 4281809984
-0.088234365 -0.057711594 1.2880001 4294310399
-0.29056174 -0.054484054 1.2950001 4290560973
-0.28569072 -0.054231621 1.289 4290560203
-0.28085253 -0.053979184 1.2830001 4290494410
-0.27583095 -0.053684674 1.276 4290559690
-0.27127457 -0.053474311 1.271 4291218133
-0.26695618 -0.053306021 1.2670001 4290362824
-0.26203582 -0.053011511 1.2600001 4290691789
-0.25653803 -0.052590784 1.25 4291547096
-0.25089243 -0.052127987 1.2390001 4292797417
-0.24630581 -0.05187555 1.233 4293389554
-0.24234308 -0.05174933 1.23 4293192689
-0.23839676 -0.051623117 1.2270001 4293323248
-0.23504151 -0.051623117 1.2270001 4293126896
-0.23149747 -0.05158104 1.2260001 4293586422
-0.22833103 -0.051623117 1.2270001 4294176765
-0.22497578 -0.051623117 1.2270001 4287785351
-0.22143994 -0.05158104 1.2260001 4287915910
-0.21790953 -0.05153897 1.225 4285750642
-0.2143846 -0.051496897 1.2240001 4294177535
-0.21103756 -0.051496897 1.2240001 4293191921
-0.20786022 -0.05153897 1.225 4293191662
-0.20451044 -0.05153897 1.225 4291284178
-0.20132488 -0.05158104 1.2260001 4289705144
-0.19781089 -0.05153897 1.225 4293586931
-0.19430237 -0.051496897 1.2240001 4293389554
-0.19079933 -0.051454827 1.223 4293323761
-0.18745503 -0.051454827 1.223 4293389300
-0.18411072 -0.051454827 1.223 4293849853
-0.18120983 -0.05158104 1.2260001 4280559668
-0.17800237 -0.051623117 1.2270001 4280230703
-0.1745048 -0.05158104 1.2260001 4281085758
-0.17115229 -0.05158104 1.2260001 4291546588
-0.16779979 -0.05158104 1.2260001 4294243583
-0.16431314 -0.05153897 1.225 4293322996
-0.16070057 -0.051454827 1.223 4293454836
-0.15748492 -0.051496897 1.2240001 4293257968
-0.15413788 -0.051496897 1.2240001 4293323761
-0.15091404 -0.05153897 1.225 4293323761
-0.1474438 -0.051496897 1.2240001 4293323761
-0.14397904 -0.051454827 1.223 4293389554
-0.14063473 -0.051454827 1.223 4293389554
-0.13740268 -0.051496897 1.2240001 4293323761
-0.13416517 -0.05153897 1.225 4293389554
-0.13092218 -0.05158104 1.2260001 4293389552
-0.12746562 -0.05153897 1.225 4293323761
-0.12411585 -0.05153897 1.225 4293455347
-0.12076607 -0.05153897 1.225 4293389552
-0.11732044 -0.051496897 1.2240001 4293981689
-0.11415964 -0.05158104 1.2260001 4289902523
-0.11116865 -0.05174933 1.23 4282204742
-0.10868168 -0.052170061 1.24 4283060051
-0.10614 -0.052590784 1.25 4282599500
-0.10329711 -0.052885294 1.2570001 4281679167
-0.10049537 -0.053221874 1.2650001 4281547581
-0.097419761 -0.053432241 1.2700001 4281481788
-0.094242826 -0.053600531 1.274 4281809984
-0.091115266 -0.053810891 1.279 4281875779
-0.28635564 -0.050824847 1.2920001 4290757582
-0.28172815 -0.050628159 1.2870001 4290625996
-0.27691182 -0.050392132 1.281 4291020754
-0.27234173 -0.050195441 1.276 4290954961
-0.26800969 -0.050038088 1.2720001 4290297031
-0.26349157 -0.049841397 1.2670001 4290428617
-0.2581799 -0.049487352 1.258 4290757580
-0.2527149 -0.049093973 1.248 4291415510
-0.24770415 -0.048779268 1.24 4292073440
-0.24293417 -0.048503902 1.233 4293521140
-0.23839676 -0.048267871 1.2270001 4293389554
-0.23465841 -0.048189197 1.225 4293192689
-0.23130864 -0.048189197 1.225 4293323248
-0.22795886 -0.048189197 1.225 4293323507
-0.22442572 -0.048149858 1.2240001 4294177279
-0.22107868 -0.048149858 1.2240001 4290947519
-0.21737587 -0.04807118 1.222 4285278800
-0.21420947 -0.048110522 1.223 4285674071
-0.21086515 -0.048110522 1.223 4293711084
-0.20735116 -0.04807118 1.222 4293651447
-0.20384264 -0.048031844 1.2210001 4293652726
-0.2005038 -0.048031844 1.2210001 4288718251
-0.19748794 -0.048110522 1.223 4292336864
-0.19382612 -0.048031844 1.2210001 4293323761
-0.19064331 -0.04807118 1.222 4293323761
-0.18699519 -0.047992505 1.22 4293323507
-0.18396017 -0.04807118 1.222 4293257714
-0.18047078 -0.048031844 1.2210001 4293981439
-0.17727703 -0.04807118 1.222 4289639101
-0.17365077 -0.047992505 1.22 4293915133
-0.17031467 -0.047992505 1.22 4293323250
-0.16711545 -0.048031844 1.2210001 4293389043
-0.16377661 -0.048031844 1.2210001 4293323761
-0.16043778 -0.048031844 1.2210001 4293455347
-0.15722761 -0.04807118 1.222 4293389554
-0.15401195 -0.048110522 1.223 4293257968
-0.15079084 -0.048149858 1.2240001 4293389554
-0.14720289 -0.04807118 1.222 4293323761
-0.14374359 -0.048031844 1.2210001 4293323761
-0.14040476 -0.048031844 1.2210001 4293389554
-0.13706592 -0.048031844 1.2210001 4293389552
-0.13372709 -0.048031844 1.2210001 4293455345
-0.13038824 -0.048031844 1.2210001 4293323759
-0.12704942 -0.048031844 1.2210001 4294047482
-0.12381189 -0.04807118 1.222 4293784310
-0.12096324 -0.048267871 1.2270001 4287665561
-0.11847065 -0.048621915 1.2360001 4282731086
-0.11602195 -0.049015295 1.2460001 4283652188
-0.11315703 -0.049251325 1.2520001 4281875777
-0.11017167 -0.049448017 1.2570001 4281612605
-0.10715894 -0.049644705 1.2620001 4281875777
-0.10387235 -0.049723387 1.2640001 4281547582
-0.10081315 -0.049920071 1.2690001 4281613374
-0.097189635 -0.049841397 1.2670001 4281613375
-0.093872964 -0.049920071 1.2690001 4281679168
-0.090830296 -0.050156102 1.2750001 4282007365
-0.28172815 -0.047108848 1.2870001 4290954961
-0.27712798 -0.046925828 1.2820001 4291283926
-0.27255517 -0.046742808 1.2770001 4291481305
-0.2684311 -0.046632998 1.274 4290362824
-0.26411545 -0.046486586 1.2700001 4290560203
-0.25920603 -0.046230357 1.263 4290297031
-0.25433487 -0.045974132 1.256 4290954959
-0.24910247 -0.045644697 1.2470001 4291349717
-0.24411632 -0.04535187 1.2390001 4292007901
-0.23878536 -0.044985835 1.2290001 4293389554
-0.2342753 -0.044766214 1.223 4293389041
-0.23036452 -0.044656403 1.22 4293192689
-0.22702841 -0.044656403 1.22 4293257714
-0.2233256 -0.044583194 1.2180001 4293257714
-0.21999496 -0.044583194 1.2180001 4293913079
-0.21648645 -0.044546593 1.217 4294633980
-0.2133337 -0.044583194 1.2180001 4285477206
-0.20983066 -0.044546593 1.217 4284623437
-0.20650277 -0.044546593 1.217 4288712609
-0.20284095 -0.044473384 1.215 4293389043
-0.19951853 -0.044473384 1.215 4293454834
-0.19635758 -0.044509988 1.2160001 4293323248
-0.19303241 -0.044509988 1.2160001 4293323761
-0.18970725 -0.044509988 1.2160001 4293257968
-0.18638209 -0.044509988 1.2160001 4293323761
-0.18320747 -0.044546593 1.217 4293191921
-0.17987958 -0.044546593 1.217 4293389300
-0.17640659 -0.044509988 1.2160001 4293323507
-0.17293911 -0.044473384 1.215 4293389043
-0.16961667 -0.044473384 1.215 4293519857
-0.16643111 -0.044509988 1.2160001 4293389041
-0.16310595 -0.044509988 1.2160001 4293323761
-0.15978079 -0.044509988 1.2160001 4293323761
-0.15658428 -0.044546593 1.217 4293389554
-0.15350825 -0.044619799 1.2190001 4293323761
-0.15005168 -0.044583194 1.2180001 4293454834
-0.14660057 -0.044546593 1.217 4293257968
-0.14303724 -0.044473384 1.215 4293323759
-0.1398298 -0.044509988 1.2160001 4293389552
-0.13650464 -0.044509988 1.2160001 4293455345
-0.13317947 -0.044509988 1.2160001 4294244861
-0.12974752 -0.044473384 1.215 4294047482
-0.12725751 -0.044766214 1.223 4282270535
-0.12472377 -0.045059044 1.2310001 4283191637
-0.12263919 -0.04553489 1.2440001 4283191637
-0.11981256 -0.045754511 1.25 4281481019
-0.11685999 -0.045937531 1.2550001 4281415226
-0.11397047 -0.046157151 1.261 4281612605
-0.11087283 -0.046303567 1.2650001 4281612605
-0.10766841 -0.046413377 1.268 4281613375
-0.10436542 -0.046486586 1.2700001 4281415996
-0.10113092 -0.046596393 1.273 4281613888
-0.097573183 -0.046559792 1.2720001 4281810500
-0.094242826 -0.046632998 1.274 4281744709
-0.090972781 -0.046742808 1.2770001 4281876297
-0.27319548 -0.043352447 1.2800001 4291349719
-0.2688525 -0.04321697 1.276 4290625996
-0.26473936 -0.043115366 1.273 4290625996
-0.26002693 -0.042912148 1.2670001 4290560201
-0.25534737 -0.042708933 1.261 4291020752
-0.2505008 -0.042471848 1.2540001 4291349717
-0.24549553 -0.042200897 1.2460001 4290691787
-0.2403397 -0.041896075 1.2370001 4291678682
-0.23523308 -0.041591253 1.228 4292797163
-0.230931 -0.041421909 1.223 4293455347
-0.22684233 -0.041286431 1.2190001 4293389554
-0.22314225 -0.041218694 1.217 4293520627
-0.21963373 -0.041184824 1.2160001 4293519857
-0.21613067 -0.041150957 1.215 4293585652
-0.21280824 -0.041150957 1.215 4294045950
-0.20931341 -0.041117087 1.2140001 4293123050
-0.20599371 -0.041117087 1.2140001 4293978359
-0.20250706 -0.041083217 1.2130001 4293323250
-0.19919011 -0.041083217 1.2130001 4293389554
-0.19587314 -0.041083217 1.2130001 4293389552
-0.19255619 -0.041083217 1.2130001 4293257966
-0.18939525 -0.041117087 1.2140001 4293323761
-0.18607555 -0.041117087 1.2140001 4293455347
-0.18275586 -0.041117087 1.2140001 4293389554
-0.17958395 -0.041150957 1.215 4293389554
-0.17626153 -0.041150957 1.215 4293389554
-0.17279676 -0.041117087 1.2140001 4293455347
-0.16947706 -0.041117087 1.2140001 4293323759
-0.16615736 -0.041117087 1.2140001 4293389554
-0.16283767 -0.041117087 1.2140001 4293455347
-0.15951797 -0.041117087 1.2140001 4293323761
-0.15632695 -0.041150957 1.215 4293389554
-0.15300453 -0.041150957 1.215 4293455345
-0.14955889 -0.041117087 1.2140001 4293389552
-0.14611875 -0.041083217 1.2130001 4293323759
-0.14268406 -0.04104935 1.212 4293455345
-0.13959982 -0.041117087 1.2140001 4293521138
-0.13661689 -0.041218694 1.217 4294113275
-0.13394612 -0.041421909 1.223 4288652456
-0.13156292 -0.041726731 1.2320001 4283191637
-0.12913048 -0.042031553 1.2410001 4283520602
-0.1265475 -0.042302504 1.2490001 4282796879
-0.1231321 -0.042302504 1.2490001 4281481019
-0.1202918 -0.042505719 1.2550001 4281415996
-0.11713934 -0.04260733 1.258 4281546812
-0.11424161 -0.042810541 1.2640001 4281612605
-0.11087283 -0.042844411 1.2650001 4281678398
-0.10783824 -0.043013755 1.2700001 4281679168
-0.1047763 -0.043183103 1.2750001 4281679168
-0.10160758 -0.043318577 1.279 4281679168
-0.097726591 -0.043149233 1.274 4281744707
-0.094538718 -0.04328471 1.2780001 4281745222
-0.090545341 -0.043047626 1.271 4281811017
-0.2688525 -0.039727736 1.276 4290954961
-0.26473936 -0.039634336 1.273 4290691787
-0.26002693 -0.039447524 1.2670001 4290757580
-0.25534737 -0.039260719 1.261 4291086545
-0.2505008 -0.039042775 1.2540001 4291415510
-0.24608661 -0.038887102 1.2490001 4290954959
-0.24111685 -0.038638026 1.2410001 4290494408
-0.23619087 -0.038388949 1.233 4291349717
-0.230931 -0.0380776 1.223 4292731370
-0.22647016 -0.037890796 1.217 4293323761
-0.22259219 -0.037797391 1.2140001 4293455347
-0.21891125 -0.037735123 1.212 4293389554
-0.21524125 -0.037672855 1.21 4293521140
-0.21175733 -0.037641719 1.2090001 4293389043
-0.20827891 -0.037610587 1.2080001 4293519859
-0.20531498 -0.037672855 1.21 4293257457
-0.20183927 -0.037641719 1.2090001 4293389300
-0.19853325 -0.037641719 1.2090001 4293323507
-0.19490427 -0.037579447 1.207 4293455345
-0.19176248 -0.037610587 1.2080001 4293455345
-0.18830317 -0.037579447 1.207 4293389552
-0.1851559 -0.037610587 1.2080001 4293389552
-0.18170206 -0.037579447 1.207 4293455347
-0.17869712 -0.037641719 1.2090001 4293455347
-0.17553617 -0.037672855 1.21 4293389554
-0.17208508 -0.037641719 1.2090001 4293389554
-0.16877906 -0.037641719 1.2090001 4293389554
-0.16547303 -0.037641719 1.2090001 4293389554
-0.16216701 -0.037641719 1.2090001 4293389554
-0.158861 -0.037641719 1.2090001 4293521138
-0.15555497 -0.037641719 1.2090001 4293389552
-0.15237488 -0.037672855 1.21 4293455345
-0.14881973 -0.037610587 1.2080001 4293389552
-0.14539598 -0.037579447 1.207 4294179068
-0.1424486 -0.037672855 1.21 4294442239
-0.14005978 -0.037921932 1.2180001 4284178532
-0.13751495 -0.038139872 1.225 4283586395
-0.13504136 -0.038388949 1.233 4284375911
-0.1326308 -0.038669161 1.2420001 4281481019
-0.12996291 -0.038887102 1.2490001 4281547582
-0.12725674 -0.039105043 1.256 4281350203
-0.12392078 -0.039136179 1.2570001 4281679168
-0.1206752 -0.039198451 1.2590001 4281613375
-0.11741868 -0.039260719 1.261 4281678398
-0.11397047 -0.039260719 1.261 4281546812
-0.11052225 -0.039260719 1.261 4281613375
-0.10732877 -0.039354123 1.2640001 4281744961
-0.10420106 -0.03947866 1.268 4281679168
-0.10057482 -0.039416391 1.266 4281613634
-0.096959509 -0.039354123 1.2640001 4281811013
-0.093651041 -0.039416391 1.266 4281679176
-0.090616591 -0.0396032 1.2720001 4281548105
-0.26023218 -0.036011301 1.268 4290494408
-0.25554985 -0.035840902 1.2620001 4290560201
-0.25110009 -0.035698902 1.2570001 4291349717
-0.24667768 -0.035556901 1.2520001 4290954959
-0.24247691 -0.035443299 1.248 4290625994
-0.23772332 -0.035244502 1.2410001 4290625994
-0.23244157 -0.034960497 1.2310001 4291349717
-0.22740059 -0.034704898 1.222 4292402405
-0.22295889 -0.034534499 1.2160001 4293389300
-0.21891125 -0.034420896 1.212 4293323761
-0.21524125 -0.034364097 1.21 4293521140
-0.21140704 -0.034278896 1.207 4293389554
-0.20810649 -0.034278896 1.207 4293323761
-0.20463625 -0.034250494 1.2060001 4293257968
-0.20150538 -0.034278896 1.207 4293257968
-0.19787641 -0.034222096 1.205 4293323761
-0.19474278 -0.034250494 1.2060001 4293455345
-0.19128624 -0.034222096 1.205 4293455345
-0.18814716 -0.034250494 1.2060001 4293455345
-0.18484934 -0.034250494 1.2060001 4293586931
-0.18155152 -0.034250494 1.2060001 4293455345
-0.17854932 -0.034307297 1.2080001 4293455345
-0.17524603 -0.034307297 1.2080001 4293389554
-0.17165807 -0.034250494 1.2060001 4293521140
-0.16836025 -0.034250494 1.2060001 4293389554
-0.16506243 -0.034250494 1.2060001 4293455093
-0.16189875 -0.034278896 1.207 4293455347
-0.1584668 -0.034250494 1.2060001 4293389552
-0.15516898 -0.034250494 1.2060001 4293586931
-0.15199709 -0.034278896 1.207 4294310654
-0.14931251 -0.034420896 1.212 4293718517
-0.14672105 -0.034591299 1.2180001 4283454809
-0.1446854 -0.034903698 1.2290001 4283717981
-0.14189965 -0.035045698 1.2340001 4283717981
-0.13908654 -0.035187699 1.2390001 4281875777
-0.13602705 -0.0352729 1.2420001 4281481789
-0.13327153 -0.035443299 1.248 4281481789
-0.13006696 -0.035500098 1.25 4281416509
-0.12685145 -0.035556901 1.2520001 4281481789
-0.12342785 -0.035556901 1.2520001 4281613375
-0.12057935 -0.035727303 1.258 4281415996
-0.11732557 -0.035784103 1.2600001 4281613375
-0.11388009 -0.035784103 1.2600001 4281547582
-0.11034695 -0.035755701 1.2590001 4281613375
-0.10698912 -0.035784103 1.2600001 4281613375
-0.10354364 -0.035784103 1.2600001 4281547582
-0.099859834 -0.035698902 1.2570001 4281679168
-0.096269131 -0.035642099 1.2550001 4281548354
-0.093281165 -0.035812501 1.261 4281614666
-0.090759061 -0.036181703 1.274 4283719020
-0.26002693 -0.032518279 1.2670001 4291349719
-0.25554985 -0.03238995 1.2620001 4291283924
-0.25090033 -0.032235954 1.256 4291415510
-0.24667768 -0.032133292 1.2520001 4290625994
-0.24267121 -0.032056298 1.2490001 4290691787
-0.23848957 -0.031953637 1.245 4290297031
-0.23338568 -0.031722642 1.2360001 4291020752
-0.22814496 -0.031465989 1.2260001 4291349717
-0.22314225 -0.031234998 1.217 4292007647
-0.21836938 -0.031029675 1.2090001 4293191921
-0.21435183 -0.030927012 1.205 4293455347
-0.21035613 -0.03082435 1.2010001 4293389554
-0.20689958 -0.030798685 1.2 4293323761
-0.20361817 -0.030798685 1.2 4293323761
-0.20050369 -0.03082435 1.2010001 4293323761
-0.19721955 -0.03082435 1.2010001 4293389554
-0.19377394 -0.030798685 1.2 4293389554
-0.19049253 -0.030798685 1.2 4293455347
-0.18721111 -0.030798685 1.2 4293389554
-0.18408297 -0.03082435 1.2010001 4293389554
-0.18079881 -0.03082435 1.2010001 4293389554
-0.17751467 -0.03082435 1.2010001 4293455347
-0.17408545 -0.030798685 1.2 4293389554
-0.17066172 -0.030773019 1.199 4293586931
-0.16738303 -0.030773019 1.199 4293455345
-0.16410436 -0.030773019 1.199 4293586418
-0.16095981 -0.030798685 1.2 4293520625
-0.15754701 -0.030773019 1.199 4294112762
-0.15529764 -0.030978343 1.207 4289309873
-0.15313046 -0.031209333 1.2160001 4282928465
-0.15128364 -0.031517319 1.228 4284178532
-0.14828704 -0.031594317 1.2310001 4282336328
-0.14539176 -0.031696979 1.235 4281152054
-0.14224462 -0.03174831 1.2370001 4281546812
-0.13953558 -0.031902306 1.243 4281744191
-0.13668419 -0.032030631 1.248 4281481789
-0.13369867 -0.032133292 1.2520001 4281613375
-0.13006696 -0.032081962 1.25 4281548095
-0.12664883 -0.032081962 1.25 4281415996
-0.1231321 -0.032056298 1.2490001 4281547582
-0.11981256 -0.032081962 1.25 4281809984
-0.11658064 -0.032133292 1.2520001 4281547582
-0.11306666 -0.032107629 1.251 4281679168
-0.10982108 -0.03215896 1.253 4281547582
-0.10639475 -0.03215896 1.253 4281481789
-0.1029684 -0.03215896 1.253 4281744961
-0.099542059 -0.03215896 1.253 4281810754
-0.096192427 -0.032184623 1.2540001 4281877321
-0.093725011 -0.032518279 1.2670001 4281812304
-0.25149962 -0.028870206 1.2590001 4291415510
-0.24726877 -0.02877848 1.2550001 4290823373
-0.24344836 -0.028732618 1.253 4290560201
-0.2392558 -0.028640894 1.2490001 4290757582
-0.23470746 -0.02850331 1.243 4290625996
-0.22963366 -0.028296929 1.2340001 4290757582
-0.22460908 -0.02809055 1.225 4291349717
-0.2194531 -0.027861239 1.215 4291086545
-0.21506336 -0.027723653 1.2090001 4293191921
-0.21053129 -0.027563134 1.202 4293455347
-0.20672716 -0.027494341 1.199 4293455347
-0.20310913 -0.027448479 1.197 4293323761
-0.20000285 -0.02747141 1.1980001 4293455347
-0.19672692 -0.02747141 1.1980001 4293455347
-0.19361246 -0.027494341 1.199 4293389554
-0.19017503 -0.02747141 1.1980001 4293323761
-0.1870551 -0.027494341 1.199 4293455347
-0.18362314 -0.02747141 1.1980001 4293389554
-0.1806483 -0.027517272 1.2 4293521138
-0.17707126 -0.02747141 1.1980001 4293455345
-0.17379531 -0.02747141 1.1980001 4293521138
-0.17023471 -0.02742555 1.1960001 4293455345
-0.16668501 -0.027379688 1.194 4294179068
-0.16396749 -0.02747141 1.1980001 4294179068
-0.16163048 -0.027631927 1.205 4287468182
-0.15964939 -0.027861239 1.215 4283257430
-0.15799959 -0.028159343 1.228 4284310118
-0.15514533 -0.028251067 1.2320001 4282138949
-0.15189961 -0.028273998 1.233 4281349433
-0.14828704 -0.028228136 1.2310001 4281481019
-0.14562722 -0.028365722 1.2370001 4281546812
-0.1425896 -0.028434517 1.24 4281546812
-0.13998461 -0.028595032 1.2470001 4281481789
-0.13701276 -0.028686756 1.251 4281481789
-0.13337831 -0.028640894 1.2490001 4281875777
-0.12954669 -0.02854917 1.245 4281482302
-0.12593959 -0.02850331 1.243 4281679681
-0.12254059 -0.02850331 1.243 4281548095
-0.11914159 -0.02850331 1.243 4281679168
-0.11592884 -0.02854917 1.245 4281679168
-0.11279552 -0.028617963 1.248 4281613375
-0.10973343 -0.028709687 1.2520001 4281876547
-0.10647965 -0.028755549 1.2540001 4281942340
-0.10305057 -0.028755549 1.2540001 4282337357
-0.099780381 -0.028801411 1.256 4282534736
-0.096499257 -0.028847275 1.258 4282403414
-0.25169939 -0.025447655 1.2600001 4291284694
-0.24726877 -0.02534667 1.2550001 4290955729
-0.24325408 -0.02528608 1.2520001 4290232006
-0.2392558 -0.025225492 1.2490001 4290560971
-0.23489627 -0.025124511 1.2440001 4290625994
-0.23019193 -0.024983132 1.2370001 4290691530
-0.22552586 -0.024841757 1.23 4291086545
-0.22035621 -0.024639791 1.22 4290560201
-0.21541914 -0.024458025 1.2110001 4290494408
-0.21053129 -0.024276253 1.202 4292994796
-0.20638233 -0.024175271 1.197 4293389554
-0.20260008 -0.024114683 1.194 4293389554
-0.19916813 -0.024094487 1.1930001 4293455347
-0.19623427 -0.02413488 1.1950001 4293455347
-0.19264358 -0.024094487 1.1930001 4293521140
-0.1896988 -0.02413488 1.1950001 4293323759
-0.18627506 -0.024114683 1.194 4293455345
-0.18301006 -0.024114683 1.194 4293586931
-0.17839018 -0.023932913 1.1850001 4293323759
-0.17529759 -0.023953108 1.1860001 4293586931
-0.17219953 -0.023973305 1.187 4294376447
-0.16980769 -0.024094487 1.1930001 4294113275
-0.16738303 -0.024215665 1.199 4283257430
-0.16574676 -0.024458025 1.2110001 4283586395
-0.16350834 -0.024619594 1.2190001 4283849567
-0.16135757 -0.024801364 1.228 4281283640
-0.15838557 -0.024861954 1.2310001 4281481019
-0.15514533 -0.024882151 1.2320001 4281678398
-0.15165322 -0.024861954 1.2310001 4281546812
-0.14852795 -0.024902347 1.233 4281612605
-0.14550948 -0.024962936 1.2360001 4281612605
-0.14270459 -0.025063921 1.2410001 4281678398
-0.13964783 -0.025124511 1.2440001 4281613375
-0.1362461 -0.025124511 1.2440001 4281679168
-0.13209686 -0.024983132 1.2370001 4281679168
-0.12850615 -0.024942739 1.235 4281744961
-0.12523036 -0.024962936 1.2360001 4281547582
-0.12204768 -0.025003329 1.238 4281679168
-0.1187582 -0.025023526 1.2390001 4281942340
-0.11564949 -0.025084117 1.2420001 4281942340
-0.11261475 -0.025164902 1.2460001 4282139719
-0.10955814 -0.025245689 1.25 4282534223
-0.10622492 -0.025265884 1.251 4282468943
-0.1029684 -0.025306277 1.253 4282271564
-0.099780381 -0.025366867 1.256 4282205773
-0.096652679 -0.025447655 1.2600001 4282139988
-0.24383695 -0.021914862 1.2550001 4290692557
-0.24002202 -0.021879937 1.253 4290495178
-0.23565157 -0.021792628 1.248 4290823373
-0.23130846 -0.021705316 1.243 4290625994
-0.22680934 -0.021600544 1.2370001 4291218131
-0.22234303 -0.021495773 1.2310001 4290625994
-0.21719798 -0.021321153 1.2210001 4290625994
-0.2119325 -0.02112907 1.21 4291283924
-0.20707199 -0.020971911 1.2010001 4292205026
-0.20276976 -0.020867139 1.1950001 4293257714
-0.19900116 -0.020814752 1.192 4293455347
-0.19541322 -0.020779829 1.1900001 4293521140
-0.19151323 -0.02070998 1.1860001 4293521138
-0.18827009 -0.02070998 1.1860001 4293455345
-0.18518299 -0.020727443 1.187 4293521138
-0.1820904 -0.020744905 1.1880001 4293586931
-0.1788418 -0.020744905 1.1880001 4294442239
-0.17603661 -0.020797292 1.1910001 4291021004
-0.17365025 -0.020902064 1.197 4283849567
-0.1718004 -0.021076683 1.207 4284178532
-0.16877906 -0.021111608 1.2090001 4282994258
-0.16574676 -0.021146532 1.2110001 4281678398
-0.16270354 -0.021181457 1.2130001 4281678398
-0.16070057 -0.021356076 1.223 4281612607
-0.15838557 -0.021495773 1.2310001 4281744193
-0.15539719 -0.021548158 1.2340001 4281612607
-0.15165322 -0.021495773 1.2310001 4281809732
-0.14852795 -0.021530697 1.233 4281678400
-0.14539176 -0.02156562 1.235 4281613375
-0.1425896 -0.021652931 1.24 4281613375
-0.13919881 -0.021652931 1.24 4281744961
-0.13547945 -0.021600544 1.2370001 4281810754
-0.13188328 -0.02156562 1.235 4281679168
-0.12840211 -0.021548158 1.2340001 4282205512
-0.12523036 -0.021583082 1.2360001 4282271051
-0.12204768 -0.021618007 1.238 4282205258
-0.11894991 -0.021670394 1.2410001 4282468432
-0.11592884 -0.021740241 1.245 4282600020
-0.11297628 -0.021827551 1.25 4282534227
-0.10973343 -0.021862475 1.2520001 4282139469
-0.10656456 -0.021914862 1.2550001 4282008141
-0.10321493 -0.021932324 1.256 4282073934
-0.23546274 -0.018365232 1.2470001 4291350487
-0.23112236 -0.018291594 1.2420001 4291086545
-0.22662598 -0.018203229 1.2360001 4291349719
-0.22342674 -0.018217957 1.2370001 4290494410
-0.21915472 -0.018144319 1.2320001 4290428617
-0.21508521 -0.018085409 1.228 4290625996
-0.21052031 -0.017982317 1.2210001 4291481303
-0.20565434 -0.017849769 1.212 4292468452
-0.20067064 -0.017702492 1.202 4293455347
-0.19607008 -0.017584672 1.194 4293455347
-0.19167471 -0.017481579 1.187 4293652211
-0.18811136 -0.017452125 1.1850001 4293586418
-0.18487097 -0.017452125 1.1850001 4294179068
-0.18255024 -0.01754049 1.1910001 4294179068
-0.1803472 -0.017643582 1.1980001 4283915360
-0.17810591 -0.017746676 1.205 4284375911
-0.17466573 -0.017731948 1.2040001 4282731086
-0.17151573 -0.017746676 1.205 4281020468
-0.16808105 -0.017731948 1.2040001 4281086261
-0.16519929 -0.01777613 1.207 4281678398
-0.16203289 -0.017790858 1.2080001 4281809984
-0.16017498 -0.017952859 1.2190001 4281809986
-0.1582569 -0.018114863 1.23 4281744193
-0.15539719 -0.018173773 1.2340001 4281941572
-0.15165322 -0.018129591 1.2310001 4281481535
-0.14888933 -0.018203229 1.2360001 4281613375
-0.14574493 -0.018232685 1.238 4281744961
-0.14304957 -0.01832105 1.2440001 4281810754
-0.13830075 -0.018144319 1.2320001 4281613121
-0.13471279 -0.018114863 1.23 4282007879
-0.13145612 -0.018129591 1.2310001 4282600016
-0.12829804 -0.018159047 1.233 4282665809
-0.12512904 -0.018188501 1.235 4282731602
-0.12194909 -0.018217957 1.2370001 4282731604
-0.11894991 -0.018276867 1.2410001 4282271568
-0.11592884 -0.018335776 1.245 4282205520
-0.11288589 -0.018394686 1.2490001 4282073934
-0.10955814 -0.018409414 1.25 4281942348
-0.22827616 -0.014931313 1.245 4291218903
-0.22396861 -0.014871347 1.24 4290560973
-0.21968837 -0.014811381 1.235 4290560203
-0.21526037 -0.014739424 1.2290001 4290625996
-0.21120998 -0.014691452 1.225 4290757580
-0.2070118 -0.014631486 1.22 4291218131
-0.20234011 -0.014535543 1.212 4292139487
-0.19754797 -0.014427604 1.2030001 4293586933
-0.19280507 -0.014319668 1.194 4294310654
-0.18874633 -0.014259703 1.189 4290823625
-0.18580703 -0.014283689 1.1910001 4284441704
-0.18316332 -0.01433166 1.1950001 4284375911
-0.18125044 -0.014439598 1.2040001 4283783774
-0.17781028 -0.014427604 1.2030001 4281941570
-0.17452067 -0.014427604 1.2030001 4281020468
-0.17123106 -0.014427604 1.2030001 4281152054
-0.16808105 -0.014439598 1.2040001 4288586663
-0.16506243 -0.014463584 1.2060001 4282336328
-0.16230114 -0.014511555 1.21 4281613375
-0.16043778 -0.01464348 1.2210001 4281744961
-0.1582569 -0.014751417 1.23 4281679168
-0.15552312 -0.014811381 1.235 4281744707
-0.15189961 -0.014787395 1.233 4281547328
-0.14864843 -0.014799388 1.2340001 4281679427
-0.14539176 -0.014811381 1.235 4281745220
-0.14270459 -0.014883339 1.2410001 4281547841
-0.13863751 -0.014811381 1.235 4282074185
-0.13493183 -0.014775403 1.2320001 4283455327
-0.1316697 -0.014787395 1.233 4283126362
-0.12850615 -0.014811381 1.235 4282994006
-0.125433 -0.014847361 1.238 4282665043
-0.12224485 -0.014871347 1.24 4282270800
-0.11914159 -0.014907326 1.243 4282402899
-0.11611507 -0.014955298 1.2470001 4282206033
-0.22396861 -0.011480555 1.24 4290691789
-0.21951051 -0.011425003 1.2340001 4290494410
-0.21526037 -0.011378712 1.2290001 4290428617
-0.21103756 -0.011332419 1.2240001 4290625996
-0.2070118 -0.011295384 1.22 4290954959
-0.20250706 -0.011230576 1.2130001 4291218385
-0.19820483 -0.011175024 1.207 4291086799
-0.1932895 -0.011082439 1.197 4283520602
-0.18906383 -0.011026888 1.1910001 4283717981
-0.185495 -0.011008371 1.189 4282796879
-0.18255024 -0.011026888 1.1910001 4281415226
-0.18049775 -0.011100956 1.199 4280428333
-0.17721906 -0.011100956 1.199 4282073158
-0.17423053 -0.011119473 1.2010001 4283849569
-0.1713734 -0.011147249 1.2040001 4288849837
-0.16836025 -0.011165766 1.2060001 4289113007
-0.16547303 -0.011193541 1.2090001 4283454809
-0.16297181 -0.011249092 1.215 4281613375
-0.16109477 -0.011350935 1.2260001 4281613375
-0.15877157 -0.011425003 1.2340001 4281744961
-0.15602683 -0.011471297 1.2390001 4281745220
-0.15226918 -0.01144352 1.2360001 4281679427
-0.14852795 -0.011415745 1.233 4281679427
-0.14480312 -0.01138797 1.23 4281613634
-0.14178465 -0.011415745 1.233 4281613121
-0.13830075 -0.011406487 1.2320001 4282600016
-0.13482231 -0.011397229 1.2310001 4283651936
-0.13156292 -0.011406487 1.2320001 4283388764
-0.12840211 -0.011425003 1.2340001 4282862422
-0.12533168 -0.01145278 1.2370001 4282796629
-0.12214626 -0.011471297 1.2390001 4282995036
-0.11904575 -0.011499071 1.2420001 4282468947
