# .PCD v0.7 - Point Cloud Data file format
VERSION 0.7
FIELDS x y z rgba
SIZE 4 4 4 4
TYPE F F F U
COUNT 1 1 1 1
WIDTH 1053
HEIGHT 1
VIEWPOINT 0 0 0 1 0 0 0
POINTS 1053
DATA ascii
-0.11695471 -0.002183496 1.406 4280362787
-0.11581683 -0.0021850492 1.4070001 4280560166
-0.11459576 -0.0021850492 1.4070001 4280625959
-0.1133747 -0.0021850492 1.4070001 4280889131
-0.11207393 -0.002183496 1.406 4281020972
-0.11085373 -0.002183496 1.406 4281020971
-0.10939961 -0.0021788373 1.4030001 4280560420
-0.10810491 -0.0021772843 1.4020001 4280560420
-0.10681194 -0.0021757314 1.401 4281086764
-0.10529459 -0.0021695192 1.3970001 4281547315
-0.10400771 -0.0021679664 1.396 4281415729
-0.10272256 -0.0021664135 1.3950001 4281020971
-0.10122083 -0.0021602013 1.391 4281152557
-0.099869855 -0.0021570954 1.3890001 4281810487
-0.098451309 -0.0021524364 1.386 4282073659
-0.097178303 -0.0021508834 1.3850001 4281218350
-0.095976338 -0.0021508834 1.3850001 4280692006
-0.094637506 -0.0021477775 1.383 4281349936
-0.093437269 -0.0021477775 1.383 4282007611
-0.092170343 -0.0021462245 1.3820001 4281876026
-0.090905145 -0.0021446715 1.381 4281547061
-0.08964169 -0.0021431188 1.3800001 4281349682
-0.088444062 -0.0021431188 1.3800001 4281678648
-0.087119982 -0.0021400126 1.378 4282402372
-0.085861735 -0.0021384596 1.3770001 4283191888
-0.084482245 -0.0021338006 1.3740001 4282731337
-0.083168581 -0.0021306947 1.3720001 4282073407
-0.08191815 -0.0021291417 1.3710001 4282204993
-0.08072833 -0.0021291417 1.3710001 4282402372
-0.079364456 -0.0021244828 1.368 4281678649
-0.07812009 -0.0021229298 1.3670001 4281086512
-0.07687746 -0.0021213768 1.3660001 4281876028
-0.075581163 -0.0021182708 1.3640001 4282402372
-0.074397415 -0.0021182708 1.3640001 4282731337
-0.073159993 -0.0021167179 1.363 4283586646
-0.071924299 -0.0021151649 1.3620001 4283849818
-0.070742294 -0.0021151649 1.3620001 4283389265
-0.069458142 -0.0021120589 1.36 4282928714
-0.068277866 -0.0021120589 1.36 4282665542
-0.067097589 -0.0021120589 1.36 4282139198
-0.06586884 -0.0021105059 1.3590001 4281152303
-0.064641841 -0.002108953 1.358 4281218096
-0.0634633 -0.002108953 1.358 4282139198
-0.062238894 -0.0021073997 1.3570001 4282139198
-0.061061222 -0.0021073997 1.3570001 4282270784
-0.059883554 -0.0021073997 1.3570001 4282797128
-0.058662616 -0.0021058468 1.3560001 4283784025
-0.057485815 -0.0021058468 1.3560001 4283455060
-0.056267485 -0.002104294 1.355 4282862923
-0.055050895 -0.002102741 1.3540001 4282468165
-0.053875826 -0.002102741 1.3540001 4281481270
-0.052622911 -0.0020996351 1.3520001 4281547063
-0.051449582 -0.0020996351 1.3520001 4283323474
-0.050239064 -0.0020980821 1.3510001 4284310369
-0.049030278 -0.0020965289 1.35 4282797130
-0.047858682 -0.0020965289 1.35 4282073407
-0.046652503 -0.0020949759 1.3490001 4282336581
-0.045448061 -0.0020934232 1.348 4283060304
-0.044245351 -0.0020918702 1.3470001 4281744190
-0.043044381 -0.0020903172 1.3460001 4281217846
-0.041876256 -0.0020903172 1.3460001 4282862671
-0.040708128 -0.0020903172 1.3460001 4284704875
-0.039540004 -0.0020903172 1.3460001 4284112738
-0.03837188 -0.0020903172 1.3460001 4282928464
-0.037203755 -0.0020903172 1.3460001 4282599499
-0.036035631 -0.0020903172 1.3460001 4282796878
-0.034867506 -0.0020903172 1.3460001 4283981152
-0.033724416 -0.0020918702 1.3470001 4284441703
-0.032555424 -0.0020918702 1.3470001 4284967790
-0.031433031 -0.0020949759 1.3490001 4285494134
-0.030307172 -0.0020980821 1.3510001 4286612615
-0.029177835 -0.0021011881 1.353 4286349443
-0.028086426 -0.0021073997 1.3570001 4283848539
-0.026928583 -0.002108953 1.358 4283585367
-0.025787968 -0.0021120589 1.36 4284637542
-0.020427627 -0.0021695192 1.3970001 4280492584
-0.01924275 -0.0021726252 1.399 4280295205
-0.018041516 -0.0021741784 1.4000001 4280558377
-0.016862584 -0.0021788373 1.4030001 4282532166
-0.015644992 -0.0021788373 1.4030001 4283190096
-0.014437683 -0.0021803901 1.404 4283322195
-0.013219222 -0.0021803901 1.404 4283059023
-0.012009311 -0.002181943 1.4050001 4282466886
-0.010789982 -0.002181943 1.4050001 4281940542
-0.0095706545 -0.002181943 1.4050001 4281546554
-0.0083453814 -0.0021803901 1.404 4280757038
-0.0071269213 -0.0021803901 1.404 4280099106
-0.0059084613 -0.0021803901 1.404 4279835934
-0.0046900008 -0.0021803901 1.404 4280033313
-0.0034715408 -0.0021803901 1.404 4280493864
-0.0022530805 -0.0021803901 1.404 4280889135
-0.0010338834 -0.0021788373 1.4030001 4280691756
0.00018357807 -0.0021772843 1.4020001 4280494375
0.0014013014 -0.0021788373 1.4030001 4280757547
0.0026188937 -0.0021788373 1.4030001 4281481270
0.0038364863 -0.0021788373 1.4030001 4282139200
0.0050540785 -0.0021788373 1.4030001 4282204993
0.006271671 -0.0021788373 1.4030001 4281876028
0.0074892635 -0.0021788373 1.4030001 4281415477
0.0087068565 -0.0021788373 1.4030001 4280362789
0.0099244481 -0.0021788373 1.4030001 4280560168
0.011149982 -0.0021803901 1.404 4282139200
0.012368442 -0.0021803901 1.404 4284705129
0.013586902 -0.0021803901 1.404 4284441957
0.014815907 -0.002181943 1.4050001 4282468167
0.016046649 -0.002183496 1.406 4281547065
0.017279126 -0.0021850492 1.4070001 4281481018
0.01850019 -0.0021850492 1.4070001 4282533706
0.019791337 -0.0021928141 1.4120001 4283060050
0.021061393 -0.0021974731 1.4150001 4282402120
0.022320902 -0.002200579 1.4170001 4287270803
-0.17526124 -0.0010125483 1.465 4282797132
-0.17387107 -0.0010118571 1.4640001 4282533960
-0.17248265 -0.0010111659 1.4630001 4283126097
-0.16452311 -0.00098628423 1.427 4283323476
-0.16294143 -0.00098421075 1.424 4283191890
-0.16147849 -0.00098282832 1.4220001 4282994511
-0.1592302 -0.00097660802 1.4130001 4282862669
-0.15778027 -0.00097522564 1.411 4282862670
-0.15633383 -0.00097384339 1.409 4283060048
-0.15478078 -0.0009717698 1.406 4283257684
-0.15345137 -0.00097107876 1.4050001 4283323220
-0.15223204 -0.00097107876 1.4050001 4283060305
-0.15069026 -0.00096900528 1.4020001 4282402118
-0.14936693 -0.00096831413 1.401 4281481272
-0.14815107 -0.00096831413 1.401 4281283893
-0.14683034 -0.00096762291 1.4000001 4281810237
-0.14561534 -0.00096762291 1.4000001 4282336581
-0.1445035 -0.00096831413 1.401 4282336580
-0.14328764 -0.00096831413 1.401 4281678650
-0.14207178 -0.00096831413 1.401 4281086512
-0.14095646 -0.00096900528 1.4020001 4280889133
-0.13983941 -0.00096969638 1.4030001 4280823340
-0.13872063 -0.00097038754 1.404 4280823340
-0.13760011 -0.00097107876 1.4050001 4280823340
-0.13638078 -0.00097107876 1.4050001 4280823340
-0.13516144 -0.00097107876 1.4050001 4280757547
-0.13394211 -0.00097107876 1.4050001 4281086512
-0.1327228 -0.00097107876 1.4050001 4281152305
-0.13150346 -0.00097107876 1.4050001 4280823340
-0.13028413 -0.00097107876 1.4050001 4280625961
-0.12906481 -0.00097107876 1.4050001 4280889133
-0.12784548 -0.00097107876 1.4050001 4281152305
-0.12662615 -0.00097107876 1.4050001 4281218098
-0.12531757 -0.00097038754 1.404 4280954926
-0.12409911 -0.00097038754 1.404 4280625959
-0.12288065 -0.00097038754 1.404 4280625959
-0.12166218 -0.00097038754 1.404 4280691752
-0.12044373 -0.00097038754 1.404 4280494373
-0.11939509 -0.0009717698 1.406 4280099615
-0.1181749 -0.0009717698 1.406 4280165408
-0.11695471 -0.0009717698 1.406 4280494373
-0.11589914 -0.00097315217 1.4080001 4280625959
-0.11467721 -0.00097315217 1.4080001 4280560166
-0.11345528 -0.00097315217 1.4080001 4280625959
-0.11223335 -0.00097315217 1.4080001 4280823593
-0.11101142 -0.00097315217 1.4080001 4280823592
-0.10963354 -0.0009717698 1.406 4280560420
-0.10833623 -0.00097107876 1.4050001 4280692006
-0.10704066 -0.00097038754 1.404 4281152557
-0.10552071 -0.00096762291 1.4000001 4281481522
-0.10423122 -0.00096693175 1.399 4281481522
-0.10294346 -0.00096624054 1.3980001 4281349936
-0.10143913 -0.00096347602 1.3940001 4281284143
-0.10015745 -0.0009627848 1.393 4281547315
-0.09866441 -0.00096002017 1.3890001 4281349936
-0.097458966 -0.00096002017 1.3890001 4280692006
-0.096253522 -0.00096002017 1.3890001 4280692006
-0.094911225 -0.0009586378 1.3870001 4281415729
-0.093707517 -0.0009586378 1.3870001 4281876281
-0.092503808 -0.0009586378 1.3870001 4282007866
-0.091168448 -0.00095725554 1.3850001 4281810233
-0.089966476 -0.00095725554 1.3850001 4281415475
-0.088700421 -0.00095656438 1.3840001 4281810234
-0.087372869 -0.00095518201 1.3820001 4282797129
-0.086111151 -0.00095449091 1.381 4282928716
-0.08491265 -0.00095449091 1.381 4281941821
-0.08341106 -0.00095103512 1.376 4280889133
-0.082157142 -0.00095034391 1.3750001 4281678649
-0.08072833 -0.00094757928 1.3710001 4282533958
-0.079538502 -0.00094757928 1.3710001 4282204993
-0.078291535 -0.00094688818 1.3700001 4281415477
-0.077046297 -0.00094619702 1.3690001 4280823340
-0.075747393 -0.00094481464 1.3670001 4281612856
-0.074561045 -0.00094481464 1.3670001 4283191888
-0.073321015 -0.00094412343 1.3660001 4283849818
-0.072082728 -0.00094343239 1.365 4283191888
-0.070846178 -0.00094274117 1.3640001 4282336577
-0.069662429 -0.00094274117 1.3640001 4282402370
-0.068428479 -0.00094205001 1.363 4282994507
-0.067196257 -0.00094135891 1.3620001 4282665542
-0.065965787 -0.00094066776 1.3610001 4281941819
-0.064784639 -0.00094066776 1.3610001 4281152303
-0.063603498 -0.00094066776 1.3610001 4280954924
-0.062376488 -0.00093997654 1.36 4282073405
-0.061151214 -0.00093928538 1.3590001 4282994507
-0.059971809 -0.00093928538 1.3590001 4283849816
-0.058749143 -0.00093859417 1.358 4283652437
-0.057570606 -0.00093859417 1.358 4282402370
-0.056350537 -0.00093790313 1.3570001 4282336578
-0.055132207 -0.00093721191 1.3560001 4282731335
-0.053955402 -0.00093721191 1.3560001 4282336578
-0.05273968 -0.00093652075 1.355 4281547061
-0.05152569 -0.00093582965 1.3540001 4282336579
-0.050313432 -0.00093513844 1.353 4283586646
-0.049102917 -0.00093444728 1.3520001 4282336579
-0.047929585 -0.00093444728 1.3520001 4281547063
-0.046687085 -0.0009330649 1.35 4282270788
-0.045481775 -0.0009323738 1.3490001 4283191890
-0.044311047 -0.0009323738 1.3490001 4282402374
-0.043140318 -0.0009323738 1.3490001 4280954928
-0.04193848 -0.00093168265 1.348 4281481018
-0.04076862 -0.00093168265 1.348 4283060050
-0.039598759 -0.00093168265 1.348 4282994511
-0.038428895 -0.00093168265 1.348 4282402374
-0.037259035 -0.00093168265 1.348 4282665546
-0.036089174 -0.00093168265 1.348 4283981406
-0.034919314 -0.00093168265 1.348 4285099887
-0.033749454 -0.00093168265 1.348 4285099887
-0.032579593 -0.00093168265 1.348 4284573031
-0.031502936 -0.00093444728 1.3520001 4285428339
-0.030374469 -0.00093582965 1.3540001 4286546820
-0.029220967 -0.00093652075 1.355 4286744199
-0.023995878 -0.0009627848 1.393 4280493094
-0.022819681 -0.00096416712 1.3950001 4279900957
-0.021640012 -0.00096554949 1.3970001 4279703580
-0.020486116 -0.00096831413 1.401 4279900959
-0.019284016 -0.00096900528 1.4020001 4279571994
-0.018080177 -0.00096969638 1.4030001 4279900959
-0.016886624 -0.00097107876 1.4050001 4280493096
-0.015667295 -0.00097107876 1.4050001 4281151026
-0.014447967 -0.00097107876 1.4050001 4281019440
-0.013228638 -0.00097107876 1.4050001 4280624682
-0.012017857 -0.0009717698 1.406 4279835934
-0.010797662 -0.0009717698 1.406 4279835934
-0.0095774652 -0.0009717698 1.406 4279901727
-0.0083572697 -0.0009717698 1.406 4280230692
-0.007131998 -0.00097107876 1.4050001 4280493864
-0.0059126695 -0.00097107876 1.4050001 4280099106
-0.0046933414 -0.00097107876 1.4050001 4280033826
-0.0034740134 -0.00097107876 1.4050001 4280165412
-0.0022530805 -0.00097038754 1.404 4280625961
-0.0010346203 -0.00097038754 1.404 4280625961
0.00018383995 -0.00097038754 1.404 4280823340
0.0014023002 -0.00097038754 1.404 4281349684
0.0026207604 -0.00097038754 1.404 4281941821
0.0038392206 -0.00097038754 1.404 4282073407
0.0050612832 -0.00097107876 1.4050001 4281612856
0.0062806113 -0.00097107876 1.4050001 4281415477
0.0074999388 -0.00097107876 1.4050001 4281415477
0.0087254737 -0.0009717698 1.406 4281283891
0.0099456692 -0.0009717698 1.406 4280362789
0.011165865 -0.0009717698 1.406 4280625961
0.01240368 -0.00097315217 1.4080001 4282204995
0.013635289 -0.00097384339 1.409 4283323476
0.014858088 -0.00097384339 1.409 4282270788
0.016115127 -0.0009759168 1.4120001 4281744444
0.01735281 -0.00097660802 1.4130001 4282270534
0.018592231 -0.00097729906 1.414 4282665292
-0.17526124 0.00025002571 1.465 4282402374
-0.17375231 0.00024968438 1.4630001 4282073409
-0.17236476 0.00024951372 1.462 4282994511
-0.16475369 0.00024388173 1.429 4282797132
-0.16305584 0.00024319907 1.4250001 4282665546
-0.16147849 0.00024268708 1.4220001 4282533960
-0.1592302 0.00024115108 1.4130001 4282336581
-0.15778027 0.00024080975 1.411 4282336581
-0.15633383 0.00024046842 1.409 4282468167
-0.15478078 0.00023995641 1.406 4282928718
-0.15345137 0.00023978575 1.4050001 4283455062
-0.15223204 0.00023978575 1.4050001 4283586648
-0.15079774 0.00023944442 1.4030001 4282994511
-0.14947353 0.00023927375 1.4020001 4282073409
-0.14815107 0.00023910309 1.401 4282007616
-0.14693521 0.00023910309 1.401 4282533960
-0.14571936 0.00023910309 1.401 4282797132
-0.14460663 0.00023927375 1.4020001 4282336581
-0.14338991 0.00023927375 1.4020001 4281678650
-0.14217319 0.00023927375 1.4020001 4281481270
-0.141057 0.00023944442 1.4030001 4281481270
-0.13993908 0.00023961508 1.404 4281152305
-0.13872063 0.00023961508 1.404 4280625961
-0.13760011 0.00023978575 1.4050001 4280428582
-0.13638078 0.00023978575 1.4050001 4280560168
-0.13516144 0.00023978575 1.4050001 4280889133
-0.13394211 0.00023978575 1.4050001 4281152305
-0.1327228 0.00023978575 1.4050001 4280954926
-0.13150346 0.00023978575 1.4050001 4280560168
-0.13037686 0.00023995641 1.406 4280560168
-0.12906481 0.00023978575 1.4050001 4280757547
-0.12775449 0.00023961508 1.404 4280954926
-0.12653603 0.00023961508 1.404 4281086512
-0.12531757 0.00023961508 1.404 4281086512
-0.12409911 0.00023961508 1.404 4280954924
-0.12296817 0.00023978575 1.4050001 4280823338
-0.12174883 0.00023978575 1.4050001 4280691752
-0.12052951 0.00023978575 1.4050001 4280362787
-0.11939509 0.00023995641 1.406 4280099615
-0.11825896 0.00024012709 1.4070001 4280296994
-0.11703789 0.00024012709 1.4070001 4280560166
-0.11589914 0.00024029776 1.4080001 4280691752
-0.11475865 0.00024046842 1.409 4280560166
-0.11353586 0.00024046842 1.409 4280494373
-0.11239277 0.00024063908 1.4100001 4280625959
-0.11109026 0.00024046842 1.409 4280757801
-0.10971151 0.00024012709 1.4070001 4280692006
-0.10841334 0.00023995641 1.406 4280889385
-0.1071169 0.00023978575 1.4050001 4281218350
-0.10559608 0.00023910309 1.401 4281152557
-0.10430572 0.00023893242 1.4000001 4281086764
-0.1030171 0.00023876176 1.399 4281218350
-0.1015119 0.0002380791 1.3950001 4281349936
-0.10022935 0.00023790843 1.3940001 4281284143
-0.098806471 0.00023739642 1.391 4280823592
-0.097529136 0.00023722576 1.3900001 4280626213
-0.09632282 0.00023722576 1.3900001 4280955178
-0.095048085 0.00023705509 1.3890001 4281349936
-0.093842641 0.00023705509 1.3890001 4281481522
-0.092570499 0.00023688443 1.388 4281678901
-0.091300108 0.00023671376 1.3870001 4281810232
-0.090031438 0.0002365431 1.386 4281678647
-0.088828601 0.0002365431 1.386 4281941819
-0.087499321 0.00023620177 1.3840001 4282599749
-0.086173505 0.00023586044 1.3820001 4282204993
-0.08491265 0.00023568976 1.381 4280757547
-0.083471678 0.0002350071 1.3770001 4280494375
-0.082216896 0.00023483644 1.376 4281481270
-0.080846086 0.00023432444 1.373 4282468167
-0.079596512 0.00023415378 1.3720001 4282468167
-0.078348681 0.00023398311 1.3710001 4281941821
-0.077102579 0.00023381245 1.3700001 4281020719
-0.075802803 0.0002334711 1.368 4281415477
-0.074615583 0.0002334711 1.368 4283126095
-0.073374696 0.00023330044 1.3670001 4283652439
-0.072135538 0.00023312977 1.3660001 4282402372
-0.070950054 0.00023312977 1.3660001 4281152304
-0.069713496 0.00023295911 1.365 4281810233
-0.068478681 0.00023278844 1.3640001 4282731335
-0.067294933 0.00023278844 1.3640001 4283323472
-0.066014245 0.00023244711 1.3620001 4282665542
-0.06483224 0.00023244711 1.3620001 4281876026
-0.063650228 0.00023244711 1.3620001 4281152303
-0.062422357 0.00023227645 1.3610001 4282007612
-0.061196215 0.00023210578 1.36 4283586644
-0.060015939 0.00023210578 1.36 4283849816
-0.058792401 0.00023193512 1.3590001 4282599749
-0.057612993 0.00023193512 1.3590001 4281218096
-0.056392062 0.00023176445 1.358 4281941819
-0.055172868 0.00023159379 1.3570001 4282928714
-0.053955402 0.00023142312 1.3560001 4282862921
-0.052778598 0.00023142312 1.3560001 4281678647
-0.05152569 0.00023108178 1.3540001 4281481268
-0.050350621 0.00023108178 1.3540001 4282139198
-0.049139235 0.00023091112 1.353 4281941821
-0.047894135 0.00023056979 1.3510001 4281349684
-0.046721671 0.00023056979 1.3510001 4282599753
-0.045515489 0.00023039912 1.35 4283586648
-0.044343892 0.00023039912 1.35 4283126097
-0.043172296 0.00023039912 1.35 4281415479
-0.04196959 0.00023022846 1.3490001 4280954928
-0.040798862 0.00023022846 1.3490001 4281481273
-0.039628133 0.00023022846 1.3490001 4282731339
-0.038457405 0.00023022846 1.3490001 4283060304
-0.037286676 0.00023022846 1.3490001 4283981406
-0.036115948 0.00023022846 1.3490001 4285165680
-0.03494522 0.00023022846 1.3490001 4285626231
-0.033774488 0.00023022846 1.3490001 4284770922
-0.032603759 0.00023022846 1.3490001 4283586135
-0.031526234 0.00023091112 1.353 4284244065
-0.030396901 0.00023125244 1.355 4286612613
-0.02924253 0.00023142312 1.3560001 4286744199
-0.023978652 0.00023756709 1.3920001 4279571992
-0.022819681 0.0002380791 1.3950001 4279571992
-0.021640012 0.00023842043 1.3970001 4280033313
-0.02050074 0.00023927375 1.4020001 4279835934
-0.019297769 0.00023944442 1.4030001 4280099106
-0.018080177 0.00023944442 1.4030001 4280099106
-0.016886624 0.00023978575 1.4050001 4280362278
-0.015667295 0.00023978575 1.4050001 4280362278
-0.014458248 0.00023995641 1.406 4280428071
-0.013238054 0.00023995641 1.406 4279638555
-0.012017857 0.00023995641 1.406 4279704348
-0.010797662 0.00023995641 1.406 4280033313
-0.0095774652 0.00023995641 1.406 4280033824
-0.0083572697 0.00023995641 1.406 4280428582
-0.0071370737 0.00023995641 1.406 4280560168
-0.0059168776 0.00023995641 1.406 4280231203
-0.0046933414 0.00023978575 1.4050001 4279968031
-0.0034740134 0.00023978575 1.4050001 4280033824
-0.0022530805 0.00023961508 1.404 4280231203
-0.0010346203 0.00023961508 1.404 4280757547
0.00018383995 0.00023961508 1.404 4281415477
0.0014032989 0.00023978575 1.4050001 4281678649
0.002622627 0.00023978575 1.4050001 4281612856
0.0038419552 0.00023978575 1.4050001 4281152305
0.0050648856 0.00023995641 1.406 4280889133
0.0062850816 0.00023995641 1.406 4281218098
0.0075052772 0.00023995641 1.406 4281876028
0.00873168 0.00024012709 1.4070001 4281744442
0.0099527435 0.00024012709 1.4070001 4281020721
0.011181748 0.00024029776 1.4080001 4280494377
0.012421299 0.00024063908 1.4100001 4280823342
0.013644966 0.00024063908 1.4100001 4281810237
0.014879179 0.00024080975 1.411 4282204741
0.016137954 0.00024132174 1.414 4282138948
0.017377373 0.00024149241 1.4150001 4282467914
0.018631676 0.00024183374 1.4170001 4282073156
-0.17502198 0.0015105348 1.4630001 4282007616
-0.17339602 0.0015074372 1.46 4281810237
-0.17189316 0.0015053722 1.4580001 4283060304
-0.16475369 0.00147543 1.429 4282270788
-0.16305584 0.0014713 1.4250001 4282336581
-0.16147849 0.0014682026 1.4220001 4282468167
-0.1591175 0.0014578777 1.4120001 4282468167
-0.15766846 0.0014558126 1.4100001 4282270788
-0.15633383 0.0014547801 1.409 4282073409
-0.1546707 0.0014506502 1.4050001 4282073409
-0.15345137 0.0014506502 1.4050001 4282533960
-0.15212369 0.0014496177 1.404 4282994511
-0.15069026 0.0014475527 1.4020001 4282862925
-0.14947353 0.0014475527 1.4020001 4282599753
-0.14815107 0.0014465202 1.401 4282599753
-0.14693521 0.0014465202 1.401 4282994511
-0.14582336 0.0014475527 1.4020001 4282797132
-0.14460663 0.0014475527 1.4020001 4282007616
-0.14349219 0.0014485853 1.4030001 4281481271
-0.14227459 0.0014485853 1.4030001 4281678649
-0.141057 0.0014485853 1.4030001 4282139200
-0.13993908 0.0014496177 1.404 4282007614
-0.13872063 0.0014496177 1.404 4281283891
-0.13750218 0.0014496177 1.404 4280691754
-0.13628371 0.0014496177 1.404 4280560168
-0.13506526 0.0014496177 1.404 4280823340
-0.13384679 0.0014496177 1.404 4281020719
-0.1327228 0.0014506502 1.4050001 4280691754
-0.13150346 0.0014506502 1.4050001 4280428582
-0.13028413 0.0014506502 1.4050001 4280560168
-0.12906481 0.0014506502 1.4050001 4280823340
-0.12784548 0.0014506502 1.4050001 4280691754
-0.12662615 0.0014506502 1.4050001 4280625961
-0.12540682 0.0014506502 1.4050001 4280757547
-0.12418749 0.0014506502 1.4050001 4280889133
-0.12296817 0.0014506502 1.4050001 4280889133
-0.12183549 0.0014516828 1.406 4280691752
-0.12061529 0.0014516828 1.406 4280296994
-0.11948002 0.0014527153 1.4070001 4280231201
-0.11825896 0.0014527153 1.4070001 4280362787
-0.11703789 0.0014527153 1.4070001 4280494373
-0.11598145 0.0014547801 1.409 4280428580
-0.11475865 0.0014547801 1.409 4280428580
-0.11361644 0.0014558126 1.4100001 4280560166
-0.11239277 0.0014558126 1.4100001 4280625959
-0.1111691 0.0014558126 1.4100001 4280691752
-0.10978948 0.0014537477 1.4080001 4280757543
-0.10856755 0.0014537477 1.4080001 4281020971
-0.10726938 0.0014527153 1.4070001 4281218350
-0.1058222 0.0014496177 1.404 4280889385
-0.10452924 0.0014485853 1.4030001 4280626213
-0.10331164 0.0014485853 1.4030001 4280955178
-0.10187574 0.0014454877 1.4000001 4281218350
-0.10058886 0.0014444554 1.399 4281020971
-0.0993037 0.0014434229 1.3980001 4280626213
-0.09766946 0.0014372278 1.3920001 4280692006
-0.096461415 0.0014372278 1.3920001 4281086764
-0.095184937 0.0014361953 1.391 4281218350
-0.093910202 0.0014351628 1.3900001 4281020971
-0.092703894 0.0014351628 1.3900001 4281086764
-0.091431752 0.0014341304 1.3890001 4281415475
-0.090161353 0.0014330979 1.388 4281810233
-0.088828601 0.0014310328 1.386 4281810233
-0.087499321 0.0014289679 1.3840001 4281810233
-0.086235859 0.0014279354 1.383 4281283891
-0.084974132 0.0014269029 1.3820001 4280494375
-0.083653532 0.001424838 1.3800001 4280954926
-0.082336396 0.0014227729 1.378 4281678649
-0.08096385 0.0014196755 1.3750001 4282007615
-0.079712547 0.001418643 1.3740001 4282204995
-0.078462973 0.0014176104 1.373 4282139200
-0.077215135 0.001416578 1.3720001 4281678649
-0.075858213 0.0014134805 1.3690001 4281744442
-0.074670129 0.0014134805 1.3690001 4282270786
-0.073482044 0.0014134805 1.3690001 4282270786
-0.072188348 0.0014114155 1.3670001 4281086512
-0.071001992 0.0014114155 1.3670001 4280823339
-0.069815643 0.0014114155 1.3670001 4281744442
-0.068528883 0.0014093505 1.365 4282402370
-0.067344271 0.0014093505 1.365 4282862921
-0.066062719 0.0014072856 1.363 4283060300
-0.064879842 0.0014072856 1.363 4282402370
-0.063696966 0.0014072856 1.363 4281744440
-0.062468216 0.0014062531 1.3620001 4282402370
-0.061241213 0.0014052206 1.3610001 4283257679
-0.060060073 0.0014052206 1.3610001 4282797128
-0.058835663 0.0014041881 1.36 4281283889
-0.057612993 0.0014031556 1.3590001 4280823338
-0.056433592 0.0014031556 1.3590001 4281876026
-0.055213522 0.0014021231 1.358 4282994507
-0.053995196 0.0014010906 1.3570001 4282928714
-0.052817523 0.0014010906 1.3570001 4282204991
-0.051563744 0.0013990257 1.355 4281349682
-0.050350621 0.0013979931 1.3540001 4281612854
-0.049139235 0.0013969607 1.353 4281415477
-0.047929585 0.0013959282 1.3520001 4281678649
-0.046756253 0.0013959282 1.3520001 4282533958
-0.045549206 0.0013948957 1.3510001 4283849818
-0.044376742 0.0013948957 1.3510001 4283915613
-0.043204278 0.0013948957 1.3510001 4282336581
-0.042031813 0.0013948957 1.3510001 4281020721
-0.040829103 0.0013938632 1.35 4282007616
-0.039657507 0.0013938632 1.35 4283323476
-0.038485911 0.0013938632 1.35 4284244578
-0.037314314 0.0013938632 1.35 4284639336
-0.036142718 0.0013938632 1.35 4284968301
-0.034971122 0.0013938632 1.35 4284902508
-0.033799525 0.0013938632 1.35 4284112992
-0.032627929 0.0013938632 1.35 4282533447
-0.031549539 0.0013979931 1.3540001 4282993998
-0.030419333 0.0014000582 1.3560001 4286020476
-0.029285662 0.0014021231 1.358 4286612613
-0.023961425 0.0014361953 1.391 4279835932
-0.022803323 0.0014392928 1.3940001 4279770139
-0.021624522 0.0014413578 1.396 4279901727
-0.02050074 0.0014475527 1.4020001 4280033313
-0.019297769 0.0014485853 1.4030001 4280099106
-0.018080177 0.0014485853 1.4030001 4280099106
-0.016874604 0.0014496177 1.404 4279901725
-0.015656143 0.0014496177 1.404 4279901725
-0.014447967 0.0014506502 1.4050001 4279836445
-0.013228638 0.0014506502 1.4050001 4279770652
-0.012009311 0.0014506502 1.4050001 4279770652
-0.010789982 0.0014506502 1.4050001 4280033824
-0.0095706545 0.0014506502 1.4050001 4280099617
-0.0083453814 0.0014496177 1.404 4280296996
-0.007131998 0.0014506502 1.4050001 4280428582
-0.0059126695 0.0014506502 1.4050001 4280494375
-0.0046933414 0.0014506502 1.4050001 4280231203
-0.0034740134 0.0014506502 1.4050001 4280033824
-0.0022546854 0.0014506502 1.4050001 4280231203
-0.0010353572 0.0014506502 1.4050001 4280889133
0.00018397089 0.0014506502 1.4050001 4281481270
0.0014032989 0.0014506502 1.4050001 4281349684
0.002622627 0.0014506502 1.4050001 4280889131
0.0038446896 0.0014516828 1.406 4280560166
0.0050648856 0.0014516828 1.406 4280625959
0.0062895515 0.0014527153 1.4070001 4281152303
0.007510616 0.0014527153 1.4070001 4281876028
0.0087378854 0.0014537477 1.4080001 4281876028
0.0099598169 0.0014537477 1.4080001 4281547065
0.011221455 0.0014589102 1.4130001 4280823342
0.012465347 0.0014609752 1.4150001 4280559916
0.01370303 0.0014620076 1.416 4280691502
0.014931904 0.0014620076 1.416 4281941312
-0.17478271 0.0027675964 1.4610001 4281546809
-0.17327726 0.0027638078 1.4590001 4282007103
-0.17177527 0.0027600192 1.457 4283586648
-0.16452311 0.0027031896 1.427 4282270788
-0.16294143 0.0026975067 1.424 4282533961
-0.16045646 0.0026766693 1.4130001 4282797133
-0.1591175 0.0026747747 1.4120001 4282797133
-0.15766846 0.0026709861 1.4100001 4282599753
-0.15633383 0.002669092 1.409 4282336581
-0.1546707 0.0026615148 1.4050001 4282073409
-0.15345137 0.0026615148 1.4050001 4282007616
-0.15212369 0.0026596205 1.404 4282139202
-0.15069026 0.0026558316 1.4020001 4282270788
-0.14947353 0.0026558316 1.4020001 4282599753
-0.14815107 0.0026539373 1.401 4282862925
-0.14693521 0.0026539373 1.401 4282797132
-0.14582336 0.0026558316 1.4020001 4282336581
-0.14460663 0.0026558316 1.4020001 4281678651
-0.14349219 0.0026577259 1.4030001 4281415478
-0.14227459 0.0026577259 1.4030001 4281744442
-0.141057 0.0026577259 1.4030001 4282139200
-0.13993908 0.0026596205 1.404 4282270786
-0.13872063 0.0026596205 1.404 4281941821
-0.13750218 0.0026596205 1.404 4281481270
-0.13628371 0.0026596205 1.404 4281086512
-0.13506526 0.0026596205 1.404 4280954926
-0.13384679 0.0026596205 1.404 4280889133
-0.13262834 0.0026596205 1.404 4280560168
-0.13140987 0.0026596205 1.404 4280494375
-0.13028413 0.0026615148 1.4050001 4280823340
-0.12906481 0.0026615148 1.4050001 4281020719
-0.12784548 0.0026615148 1.4050001 4280757547
-0.12662615 0.0026615148 1.4050001 4280428582
-0.12540682 0.0026615148 1.4050001 4280362789
-0.12418749 0.0026615148 1.4050001 4280428582
-0.12296817 0.0026615148 1.4050001 4280494375
-0.12183549 0.0026634091 1.406 4280428580
-0.12061529 0.0026634091 1.406 4280296994
-0.11948002 0.0026653034 1.4070001 4280362787
-0.11825896 0.0026653034 1.4070001 4280494373
-0.11703789 0.0026653034 1.4070001 4280362787
-0.11598145 0.002669092 1.409 4280165408
-0.11475865 0.002669092 1.409 4280231201
-0.11353586 0.002669092 1.409 4280494373
-0.11239277 0.0026709861 1.4100001 4280625959
-0.1111691 0.0026709861 1.4100001 4280560166
-0.10978948 0.0026671977 1.4080001 4280625959
-0.10856755 0.0026671977 1.4080001 4280954924
-0.10726938 0.0026653034 1.4070001 4280954923
-0.1058222 0.0026596205 1.404 4280560166
-0.10460374 0.0026596205 1.404 4280428835
-0.10331164 0.0026577259 1.4030001 4280626213
-0.10194851 0.0026539373 1.401 4280889385
-0.10066076 0.002652043 1.4000001 4280889385
-0.099374734 0.0026501487 1.399 4280626213
-0.098020285 0.0026463603 1.3970001 4280889385
-0.096807897 0.0026463603 1.3970001 4281218350
-0.09552709 0.0026444658 1.396 4281152557
-0.094315566 0.0026444658 1.396 4280757544
-0.093037359 0.0026425715 1.3950001 4280560422
-0.091695055 0.0026387828 1.393 4280954924
-0.090486147 0.0026387828 1.393 4281547061
-0.08927723 0.0026387828 1.393 4281678647
-0.08794187 0.0026349942 1.391 4281152303
-0.086672343 0.0026330999 1.3900001 4280560168
-0.085466027 0.0026330999 1.3900001 4280823340
-0.084077865 0.002627417 1.3870001 4281481270
-0.082814403 0.0026255227 1.386 4281744442
-0.081199385 0.0026122623 1.3790001 4281415477
-0.080002621 0.0026122623 1.3790001 4281612856
-0.07874871 0.0026103682 1.378 4282007614
-0.077496536 0.0026084739 1.3770001 4282073407
-0.07619068 0.0026046853 1.3750001 4282007614
-0.07494285 0.0026027909 1.3740001 4281612856
-0.073696747 0.0026008966 1.373 4281218098
-0.072452381 0.0025990023 1.3720001 4280889133
-0.071261689 0.0025990023 1.3720001 4281283891
-0.070019938 0.0025971078 1.3710001 4281876028
-0.068779908 0.0025952135 1.3700001 4281941819
-0.067541614 0.0025933192 1.3690001 4282073405
-0.066256598 0.0025895308 1.3670001 4282468163
-0.065070249 0.0025895308 1.3670001 4282533956
-0.063883893 0.0025895308 1.3670001 4282204991
-0.062605813 0.0025857422 1.365 4282139198
-0.061421197 0.0025857422 1.365 4282270784
-0.060192458 0.0025838476 1.3640001 4281612854
-0.058965448 0.0025819533 1.363 4280691752
-0.057740174 0.002580059 1.3620001 4281415475
-0.056558166 0.002580059 1.3620001 4282402370
-0.055294842 0.0025762704 1.36 4282731335
-0.054114565 0.0025762704 1.36 4282928714
-0.052895371 0.0025743761 1.3590001 4282797128
-0.051639851 0.0025705877 1.3570001 4282007614
-0.050462183 0.0025705877 1.3570001 4281678649
-0.049211871 0.0025667988 1.355 4281678649
-0.048035935 0.0025667988 1.355 4281810235
-0.046860002 0.0025667988 1.355 4282139200
-0.045650352 0.0025649045 1.3540001 4283455060
-0.044508129 0.0025667988 1.355 4283849820
-0.043332193 0.0025667988 1.355 4282797132
-0.042156257 0.0025667988 1.355 4281283893
-0.040950079 0.0025649045 1.3540001 4282139202
-0.039775014 0.0025649045 1.3540001 4283652187
-0.038599946 0.0025649045 1.3540001 4284375910
-0.037424877 0.0025649045 1.3540001 4283652187
-0.036223035 0.0025630102 1.353 4283454808
-0.035048835 0.0025630102 1.353 4283980895
-0.033899672 0.0025649045 1.3540001 4284046688
-0.032724604 0.0025649045 1.3540001 4282533447
-0.031619441 0.0025705877 1.3570001 4282665033
-0.030509068 0.0025762704 1.36 4285099374
-0.029371925 0.002580059 1.3620001 4286086269
-0.023978652 0.0026368885 1.3920001 4279638553
-0.022803323 0.0026406772 1.3940001 4279901725
-0.021624522 0.0026444658 1.396 4279901725
-0.02050074 0.0026558316 1.4020001 4279967518
-0.019284016 0.0026558316 1.4020001 4279968031
-0.018080177 0.0026577259 1.4030001 4279902238
-0.016862584 0.0026577259 1.4030001 4279902238
-0.015656143 0.0026596205 1.404 4279836445
-0.014437683 0.0026596205 1.404 4279836445
-0.013219222 0.0026596205 1.404 4279968031
-0.012000762 0.0026596205 1.404 4280099617
-0.010774622 0.0026577259 1.4030001 4280033824
-0.0095570292 0.0026577259 1.4030001 4280165410
-0.0083453814 0.0026596205 1.404 4279968031
-0.0071269213 0.0026596205 1.404 4280165410
-0.0059126695 0.0026615148 1.4050001 4280494375
-0.0046933414 0.0026615148 1.4050001 4280494375
-0.0034740134 0.0026615148 1.4050001 4280296996
-0.0022562901 0.0026634091 1.406 4280296996
-0.0010360942 0.0026634091 1.406 4280691754
0.00018410182 0.0026634091 1.406 4280889133
0.0014052965 0.0026653034 1.4070001 4280560168
0.0026263604 0.0026653034 1.4070001 4280296994
0.0038474242 0.0026653034 1.4070001 4280560166
0.0050756927 0.002669092 1.409 4280954924
0.0062984922 0.002669092 1.409 4281086510
0.0075266296 0.0026709861 1.4100001 4281283891
0.0087689143 0.0026766693 1.4130001 4281612856
0.0099951848 0.0026766693 1.4130001 4281678651
0.011229398 0.0026785636 1.414 4281481272
0.012474155 0.0026823522 1.416 4280954417
0.01370303 0.0026823522 1.416 4280888624
0.014942449 0.0026842465 1.4170001 4281480506
-0.17327726 0.0040212111 1.4590001 4282401861
-0.17153947 0.0040101861 1.455 4284244065
-0.16440782 0.0039302581 1.4260001 4282007616
-0.16294143 0.0039247461 1.424 4282336582
-0.16045646 0.0038944283 1.4130001 4282731085
-0.15900482 0.0038889162 1.411 4282928719
-0.15766846 0.0038861597 1.4100001 4282994511
-0.15622288 0.0038806475 1.4080001 4282994511
-0.1546707 0.003872379 1.4050001 4282928718
-0.15334216 0.0038696232 1.404 4282665546
-0.15212369 0.0038696232 1.404 4282270788
-0.15069026 0.0038641109 1.4020001 4282073409
-0.14936693 0.0038613547 1.401 4282270788
-0.14815107 0.0038613547 1.401 4282599753
-0.14693521 0.0038613547 1.401 4282336581
-0.14571936 0.0038613547 1.401 4281678650
-0.14460663 0.0038641109 1.4020001 4281415477
-0.14349219 0.0038668667 1.4030001 4281612857
-0.14227459 0.0038668667 1.4030001 4281810235
-0.141057 0.0038668667 1.4030001 4281810235
-0.13993908 0.0038696232 1.404 4281876028
-0.13872063 0.0038696232 1.404 4281941821
-0.13750218 0.0038696232 1.404 4281941821
-0.13628371 0.0038696232 1.404 4281678649
-0.13496904 0.0038668667 1.4030001 4281283891
-0.13375145 0.0038668667 1.4030001 4280889133
-0.13253386 0.0038668667 1.4030001 4280560168
-0.13140987 0.0038696232 1.404 4280691754
-0.13019142 0.0038696232 1.404 4281020719
-0.12897295 0.0038696232 1.404 4281152305
-0.12775449 0.0038696232 1.404 4280889133
-0.12662615 0.003872379 1.4050001 4280625961
-0.12540682 0.003872379 1.4050001 4280428582
-0.12418749 0.003872379 1.4050001 4280231202
-0.12296817 0.003872379 1.4050001 4280165409
-0.12183549 0.0038751354 1.406 4280099615
-0.12061529 0.0038751354 1.406 4280165408
-0.11948002 0.0038778912 1.4070001 4280428580
-0.11825896 0.0038778912 1.4070001 4280494373
-0.11703789 0.0038778912 1.4070001 4280296994
-0.11598145 0.003883404 1.409 4280099615
-0.11475865 0.003883404 1.409 4280165408
-0.11353586 0.003883404 1.409 4280428580
-0.11239277 0.0038861597 1.4100001 4280494373
-0.11109026 0.003883404 1.409 4280494373
-0.10978948 0.0038806475 1.4080001 4280494373
-0.10856755 0.0038806475 1.4080001 4280691752
-0.10726938 0.0038778912 1.4070001 4280560166
-0.10589758 0.003872379 1.4050001 4280296994
-0.10460374 0.0038696232 1.404 4280362787
-0.10338528 0.0038696232 1.404 4280494373
-0.10202128 0.0038641109 1.4020001 4280625959
-0.10073265 0.0038613547 1.401 4280691752
-0.099445768 0.0038585986 1.4000001 4280691751
-0.098090447 0.0038530859 1.3980001 4281020716
-0.096877195 0.0038530859 1.3980001 4281218095
-0.095663942 0.0038530859 1.3980001 4281086509
-0.094315566 0.0038475737 1.396 4280691752
-0.09310405 0.0038475737 1.396 4280560166
-0.091826707 0.0038448179 1.3950001 4280757545
-0.090551101 0.0038420616 1.3940001 4280954924
-0.089341313 0.0038420616 1.3940001 4281086510
-0.088005096 0.0038365494 1.3920001 4280691752
-0.086797044 0.0038365494 1.3920001 4280691754
-0.085527509 0.0038337929 1.391 4281152305
-0.084199101 0.0038282808 1.3890001 4281941821
-0.082874157 0.0038227686 1.3870001 4281810235
-0.081611566 0.0038200126 1.386 4281218098
-0.080176666 0.0038089878 1.3820001 4280757547
-0.078920148 0.0038062318 1.381 4281218098
-0.077665374 0.0038034755 1.3800001 4281941821
-0.076301508 0.0037952075 1.3770001 4281876028
-0.075106479 0.0037952075 1.3770001 4281218098
-0.073857777 0.003792451 1.376 4280757547
-0.072558001 0.0037869387 1.3740001 4281152305
-0.071365573 0.0037869387 1.3740001 4281744442
-0.070173152 0.0037869387 1.3740001 4282073407
-0.068880312 0.0037814265 1.3720001 4281349684
-0.067689627 0.0037814265 1.3720001 4280823340
-0.066450469 0.0037786702 1.3710001 4281547063
-0.065117843 0.0037704022 1.368 4282533958
-0.063930623 0.0037704022 1.368 4282402372
-0.062651679 0.0037648894 1.3660001 4281810235
-0.061421197 0.0037621337 1.365 4281283891
-0.060236584 0.0037621337 1.365 4280625961
-0.058965448 0.0037566214 1.363 4280889131
-0.057782572 0.0037566214 1.363 4281941819
-0.056558166 0.0037538649 1.3620001 4282665542
-0.055335496 0.0037511091 1.3610001 4282139198
-0.054114565 0.0037483529 1.36 4282073405
-0.052895371 0.0037455964 1.3590001 4282599749
-0.051677905 0.0037428406 1.358 4283126095
-0.050462183 0.0037400841 1.3570001 4282468165
-0.049248189 0.0037373283 1.3560001 4282073407
-0.048071384 0.0037373283 1.3560001 4281810235
-0.046894584 0.0037373283 1.3560001 4281678651
-0.045684066 0.0037345721 1.355 4282139202
-0.044508129 0.0037345721 1.355 4283323476
-0.043332193 0.0037345721 1.355 4283126097
-0.042156257 0.0037345721 1.355 4282204995
-0.040980324 0.0037345721 1.355 4282468167
-0.039804388 0.0037345721 1.355 4283191636
-0.038628452 0.0037345721 1.355 4282994257
-0.037424877 0.0037318161 1.3540001 4281941569
-0.036249809 0.0037318161 1.3540001 4281546811
-0.035074741 0.0037318161 1.3540001 4283586137
-0.03392471 0.0037345721 1.355 4284309860
-0.032748774 0.0037345721 1.355 4283454551
-0.031666044 0.0037455964 1.3590001 4282467656
-0.0305315 0.0037511091 1.3610001 4284112479
-0.029371925 0.0037538649 1.3620001 4285691511
-0.023978652 0.0038365494 1.3920001 4279704346
-0.022803323 0.0038420616 1.3940001 4279835932
-0.021624522 0.0038475737 1.396 4279770652
-0.020486116 0.0038613547 1.401 4279770652
-0.019284016 0.0038641109 1.4020001 4280033824
-0.018067291 0.0038641109 1.4020001 4279968031
-0.016850566 0.0038641109 1.4020001 4279902238
-0.015644992 0.0038668667 1.4030001 4279902238
-0.014427399 0.0038668667 1.4030001 4279968031
-0.013200392 0.0038641109 1.4020001 4279902238
-0.011983668 0.0038641109 1.4020001 4280099617
-0.010766943 0.0038641109 1.4020001 4280099617
-0.0095502185 0.0038641109 1.4020001 4280099617
-0.0083394377 0.0038668667 1.4030001 4279902238
-0.0071218447 0.0038668667 1.4030001 4280033824
-0.0059084613 0.0038696232 1.404 4280296996
-0.0046933414 0.003872379 1.4050001 4280625961
-0.0034740134 0.003872379 1.4050001 4280691754
-0.0022562901 0.0038751354 1.406 4280428582
-0.0010360942 0.0038751354 1.406 4280296996
0.00018410182 0.0038751354 1.406 4280231203
0.0014052965 0.0038778912 1.4070001 4280165410
0.0026263604 0.0038778912 1.4070001 4280231203
0.0038474242 0.0038778912 1.4070001 4280823340
0.0050756927 0.003883404 1.409 4281283891
0.0062984922 0.003883404 1.409 4281020719
0.0075266296 0.0038861597 1.4100001 4280757547
0.0087689143 0.0038944283 1.4130001 4280889133
0.010002259 0.0038971843 1.414 4281415479
0.011245281 0.0039026965 1.416 4281744444
0.012491775 0.003908209 1.4180001 4281480761
0.013712707 0.0039054528 1.4170001 4281151796
0.014952994 0.003908209 1.4180001 4281217334
-0.17280219 0.0052641416 1.455 4283059791
-0.17118578 0.005253288 1.452 4284704616
-0.16828726 0.0052026366 1.4380001 4284112479
-0.16669081 0.0051917825 1.4350001 4282336069
-0.16417724 0.0051519852 1.424 4281283894
-0.16259813 0.0051411311 1.4210001 4281612603
-0.16022936 0.0051049516 1.411 4282204741
-0.15889212 0.0051013334 1.4100001 4282731084
-0.15755664 0.0050977156 1.409 4282928718
-0.15611194 0.0050904793 1.4070001 4283257683
-0.15456061 0.0050796256 1.404 4283520855
-0.15323293 0.0050760075 1.4030001 4283455062
-0.15201533 0.0050760075 1.4030001 4282994511
-0.15058279 0.0050687715 1.401 4282468167
-0.14936693 0.0050687715 1.401 4282139202
-0.14815107 0.0050687715 1.401 4282139202
-0.14693521 0.0050687715 1.401 4281810237
-0.14582336 0.0050723897 1.4020001 4281481271
-0.14460663 0.0050723897 1.4020001 4281678649
-0.14349219 0.0050760075 1.4030001 4282139200
-0.14227459 0.0050760075 1.4030001 4282139200
-0.14115755 0.0050796256 1.404 4281612856
-0.13993908 0.0050796256 1.404 4281283891
-0.13872063 0.0050796256 1.404 4281415477
-0.13740423 0.0050760075 1.4030001 4281612856
-0.13618663 0.0050760075 1.4030001 4281612856
-0.13496904 0.0050760075 1.4030001 4281481270
-0.13375145 0.0050760075 1.4030001 4280954926
-0.13262834 0.0050796256 1.404 4280625961
-0.13140987 0.0050796256 1.404 4280823340
-0.13019142 0.0050796256 1.404 4281086512
-0.12897295 0.0050796256 1.404 4280954926
-0.12784548 0.0050832434 1.4050001 4280889133
-0.12662615 0.0050832434 1.4050001 4280889133
-0.12540682 0.0050832434 1.4050001 4280823340
-0.12418749 0.0050832434 1.4050001 4280560167
-0.12305568 0.0050868616 1.406 4280362787
-0.12183549 0.0050868616 1.406 4280165408
-0.12061529 0.0050868616 1.406 4280099615
-0.11948002 0.0050904793 1.4070001 4280296994
-0.118343 0.0050940975 1.4080001 4280428580
-0.11712107 0.0050940975 1.4080001 4280231201
-0.11598145 0.0050977156 1.409 4280099615
-0.11475865 0.0050977156 1.409 4280362787
-0.11353586 0.0050977156 1.409 4280625959
-0.11231306 0.0050977156 1.409 4280560166
-0.11109026 0.0050977156 1.409 4280362787
-0.10978948 0.0050940975 1.4080001 4280428580
-0.10856755 0.0050940975 1.4080001 4280494373
-0.10734562 0.0050940975 1.4080001 4280296994
-0.10597295 0.0050868616 1.406 4280231201
-0.10475275 0.0050868616 1.406 4280296994
-0.10353255 0.0050868616 1.406 4280428580
-0.10216682 0.0050796256 1.404 4280625959
-0.10094836 0.0050796256 1.404 4280428580
-0.099658869 0.0050760075 1.4030001 4280625959
-0.098371111 0.0050723897 1.4020001 4281020717
-0.097154386 0.0050723897 1.4020001 4281086510
-0.095800795 0.0050651538 1.4000001 4280625959
-0.094518252 0.0050615356 1.399 4280296994
-0.093304135 0.0050615356 1.399 4280494373
-0.092024185 0.0050579179 1.3980001 4280889131
-0.090810932 0.0050579179 1.3980001 4280691752
-0.089533582 0.0050543002 1.3970001 4280560166
-0.088257983 0.005050682 1.396 4280494373
-0.087046467 0.005050682 1.396 4280691754
-0.08583495 0.005050682 1.396 4281349684
-0.08450219 0.0050434461 1.3940001 4281941821
-0.083232664 0.0050398284 1.393 4281547063
-0.082023747 0.0050398284 1.393 4281086512
-0.080582775 0.0050253561 1.3890001 4280625961
-0.079377331 0.0050253561 1.3890001 4280625961
-0.078115605 0.0050217384 1.388 4281152305
-0.076744795 0.0050108843 1.3850001 4281612856
-0.075542822 0.0050108843 1.3850001 4281086512
-0.074233502 0.0050036483 1.383 4280889133
-0.072980464 0.0050000302 1.3820001 4281612856
-0.071781091 0.0050000302 1.3820001 4282336579
-0.070530653 0.0049964124 1.381 4282073407
-0.069281951 0.0049927942 1.3800001 4281218098
-0.068034984 0.0049891765 1.3790001 4280494375
-0.066789746 0.0049855583 1.378 4280691754
-0.06549865 0.0049783224 1.376 4281481270
-0.064257756 0.0049747042 1.3750001 4282073407
-0.063018605 0.0049710865 1.3740001 4281678649
-0.061691187 0.0049602329 1.3710001 4280823340
-0.060457233 0.0049566152 1.3700001 4280691754
-0.059181754 0.0049493792 1.368 4281547062
-0.057952147 0.0049457611 1.3670001 4282665542
-0.056724269 0.0049421429 1.3660001 4282402370
-0.055498131 0.0049385251 1.365 4281612854
-0.054273728 0.004934907 1.3640001 4280954926
-0.05308998 0.004934907 1.3640001 4281810235
-0.051830124 0.004927671 1.3620001 4283191888
-0.050648116 0.004927671 1.3620001 4283389267
-0.049429782 0.0049240533 1.3610001 4282204993
-0.048071384 0.0049059633 1.3560001 4281349684
-0.046894584 0.0049059633 1.3560001 4281086514
-0.04571778 0.0049059633 1.3560001 4281086514
-0.044540975 0.0049059633 1.3560001 4282336581
-0.043364171 0.0049059633 1.3560001 4283126097
-0.042187367 0.0049059633 1.3560001 4283126097
-0.041010566 0.0049059633 1.3560001 4282533960
-0.039833762 0.0049059633 1.3560001 4282204741
-0.038656957 0.0049059633 1.3560001 4281283639
-0.037452515 0.0049023451 1.355 4281020210
-0.036276579 0.0049023451 1.355 4282007105
-0.035100643 0.0049023451 1.355 4284244067
-0.033949744 0.0049059633 1.3560001 4284704618
-0.03277294 0.0049059633 1.3560001 4283980125
-0.031782549 0.004934907 1.3640001 4282532679
-0.030643666 0.0049421429 1.3660001 4282861642
-0.029479751 0.0049457611 1.3670001 4283585365
-0.028479677 0.0049783224 1.376 4281283380
-0.027345005 0.0049891765 1.3790001 4279638555
-0.026205126 0.0050000302 1.3820001 4279835932
-0.023978652 0.0050362102 1.3920001 4280033565
-0.022786966 0.0050398284 1.393 4279770393
-0.021593541 0.0050434461 1.3940001 4279704859
-0.020442247 0.0050579179 1.3980001 4279836445
-0.019228995 0.0050579179 1.3980001 4280099617
-0.018015742 0.0050579179 1.3980001 4280033824
-0.016814508 0.0050615356 1.399 4279968031
-0.015589235 0.0050579179 1.3980001 4280165410
-0.014375983 0.0050579179 1.3980001 4280231203
-0.013172145 0.0050615356 1.399 4280099617
-0.011958024 0.0050615356 1.399 4280033824
-0.010751584 0.0050651538 1.4000001 4280099617
-0.0095502185 0.0050723897 1.4020001 4279902238
-0.008333494 0.0050723897 1.4020001 4280033824
-0.0071218447 0.0050760075 1.4030001 4279968031
-0.0059084613 0.0050796256 1.404 4280099617
-0.0046900008 0.0050796256 1.404 4280428584
-0.0034740134 0.0050832434 1.4050001 4280823342
-0.0022546854 0.0050832434 1.4050001 4280625961
-0.0010360942 0.0050868616 1.406 4280165410
0.00018410182 0.0050868616 1.406 4280099617
0.0014052965 0.0050904793 1.4070001 4280362789
0.0026263604 0.0050904793 1.4070001 4280625961
0.0038501585 0.0050940975 1.4080001 4281086512
0.005079295 0.0051013334 1.4100001 4281415477
0.0063074324 0.0051049516 1.411 4280823340
0.0075373058 0.0051085693 1.4120001 4280362789
0.0087937377 0.0051266593 1.4170001 4280494375
0.010037628 0.0051338952 1.419 4280889135
0.011277047 0.0051375134 1.4200001 4281415479
-0.17268343 0.0065136179 1.4540001 4283520599
-0.17106789 0.0065001785 1.4510001 4284639080
-0.16828726 0.0064419415 1.4380001 4283717977
-0.16669081 0.0064285016 1.4350001 4281809980
-0.16406193 0.0063747442 1.4230001 4281218100
-0.16259813 0.0063657844 1.4210001 4281546809
-0.16022936 0.0063209869 1.411 4281941566
-0.15889212 0.0063165068 1.4100001 4282336580
-0.15755664 0.0063120276 1.409 4282533959
-0.15611194 0.0063030673 1.4070001 4282731339
-0.15456061 0.0062896283 1.404 4282994511
-0.15323293 0.0062851482 1.4030001 4283323476
-0.15201533 0.0062851482 1.4030001 4283455062
-0.15058279 0.0062761889 1.401 4283060304
-0.14936693 0.0062761889 1.401 4282402374
-0.14815107 0.0062761889 1.401 4281810237
-0.14693521 0.0062761889 1.401 4281481272
-0.14582336 0.006280669 1.4020001 4281612857
-0.14460663 0.006280669 1.4020001 4282204993
-0.14349219 0.0062851482 1.4030001 4282665544
-0.14237601 0.0062896283 1.404 4282468165
-0.14115755 0.0062896283 1.404 4281678649
-0.13983941 0.0062851482 1.4030001 4281152305
-0.13862182 0.0062851482 1.4030001 4281020719
-0.13740423 0.0062851482 1.4030001 4281020719
-0.13618663 0.0062851482 1.4030001 4281218098
-0.13496904 0.0062851482 1.4030001 4281283891
-0.13384679 0.0062896283 1.404 4281020719
-0.13262834 0.0062896283 1.404 4280889133
-0.13140987 0.0062896283 1.404 4281020719
-0.13028413 0.006294108 1.4050001 4281020719
-0.12906481 0.006294108 1.4050001 4280691754
-0.12784548 0.006294108 1.4050001 4280625961
-0.12662615 0.006294108 1.4050001 4280823340
-0.12540682 0.006294108 1.4050001 4280954926
-0.12418749 0.006294108 1.4050001 4280889132
-0.12305568 0.0062985881 1.406 4280691754
-0.12183549 0.0062985881 1.406 4280560167
-0.12061529 0.0062985881 1.406 4280362789
-0.11956494 0.0063075474 1.4080001 4280428582
-0.118343 0.0063075474 1.4080001 4280296996
-0.11720425 0.0063120276 1.409 4280099617
-0.11606377 0.0063165068 1.4100001 4280231202
-0.11484011 0.0063165068 1.4100001 4280625960
-0.11361644 0.0063165068 1.4100001 4280757547
-0.11239277 0.0063165068 1.4100001 4280560166
-0.1111691 0.0063165068 1.4100001 4280362787
-0.10986746 0.0063120276 1.409 4280296994
-0.10856755 0.0063075474 1.4080001 4280296994
-0.10734562 0.0063075474 1.4080001 4280165408
-0.10604832 0.0063030673 1.4070001 4280165408
-0.10482725 0.0063030673 1.4070001 4280362787
-0.10353255 0.0062985881 1.406 4280494373
-0.10223959 0.006294108 1.4050001 4280362787
-0.10102026 0.006294108 1.4050001 4280428580
-0.099729896 0.0062896283 1.404 4280625959
-0.098371111 0.006280669 1.4020001 4280823338
-0.097154386 0.006280669 1.4020001 4280691752
-0.095869228 0.0062761889 1.401 4280296994
-0.094585806 0.0062717092 1.4000001 4280099615
-0.093370818 0.0062717092 1.4000001 4280428580
-0.092090011 0.0062672296 1.399 4280757545
-0.090875886 0.0062672296 1.399 4280691752
-0.08959768 0.0062627494 1.3980001 4280428580
-0.088321202 0.0062582698 1.3970001 4280296994
-0.087108813 0.0062582698 1.3970001 4280625961
