# .PCD v0.7 - Point Cloud Data file format
VERSION 0.7
FIELDS x y z rgba
SIZE 4 4 4 4
TYPE F F F U
COUNT 1 1 1 1
WIDTH 1063
HEIGHT 1
VIEWPOINT 0 0 0 1 0 0 0
POINTS 1063
DATA ascii
-0.0072030635 -0.018101776 1.419 4282402121
-0.0059715859 -0.018101776 1.419 4281020468
-0.0047434485 -0.018114531 1.4200001 4280691503
-0.0035111024 -0.018114531 1.4200001 4280954675
-0.0022787566 -0.018114531 1.4200001 4280888882
-0.0010471478 -0.018127289 1.4210001 4280559917
0.00018606592 -0.018127289 1.4210001 4280428330
0.0014192796 -0.018127289 1.4210001 4280099365
0.0026562265 -0.018152801 1.4230001 4279901986
0.0038939104 -0.018165559 1.424 4280033572
0.0051297275 -0.018165559 1.424 4280165158
0.0063789552 -0.01820383 1.427 4279901986
0.0076173767 -0.01820383 1.427 4279967779
0.0088620028 -0.018216586 1.4280001 4279901986
0.010129586 -0.018267613 1.432 4279770654
0.011380288 -0.018280368 1.4330001 4279836447
0.012632725 -0.018293126 1.434 4280033826
0.013925607 -0.01835691 1.439 4280033826
0.015184987 -0.018369667 1.4400001 4280165412
0.01643469 -0.018369667 1.4400001 4280231205
0.017733516 -0.018420693 1.4440001 4280362791
0.018999839 -0.01843345 1.4450001 4280362791
0.020267898 -0.018446207 1.4460001 4280494377
0.02156746 -0.018484477 1.4490001 4280494377
0.022824973 -0.018484477 1.4490001 4280362537
0.024082487 -0.018484477 1.4490001 4280625709
0.02534 -0.018484477 1.4490001 4280625709
0.026579158 -0.01847172 1.4480001 4280428330
0.027835805 -0.01847172 1.4480001 4280625710
0.02909245 -0.01847172 1.4480001 4281086261
0.030349096 -0.01847172 1.4480001 4280888882
0.031605743 -0.01847172 1.4480001 4280888882
-0.16465808 -0.017247587 1.45 4283981152
-0.16351239 -0.01725948 1.4510001 4283520601
-0.16225314 -0.01725948 1.4510001 4283125843
-0.16088293 -0.017247587 1.45 4282928464
-0.15951447 -0.017235693 1.4490001 4282731085
-0.15825696 -0.017235693 1.4490001 4282533706
-0.15699945 -0.017235693 1.4490001 4282533706
-0.15563446 -0.017223796 1.4480001 4282599499
-0.15448442 -0.017235693 1.4490001 4282796878
-0.15333265 -0.017247587 1.45 4282994257
-0.15207426 -0.017247587 1.45 4283191636
-0.15112792 -0.01728327 1.4530001 4283323222
-0.14997008 -0.017295167 1.4540001 4283191636
-0.14881051 -0.017307062 1.455 4283060564
-0.147852 -0.017342744 1.4580001 4283060821
-0.14668722 -0.017354641 1.4590001 4283060821
-0.1455207 -0.017366536 1.46 4282995028
-0.14445126 -0.017390326 1.462 4283060821
-0.14318246 -0.017390326 1.462 4283126614
-0.14181659 -0.017378431 1.4610001 4283126614
-0.14054866 -0.017378431 1.4610001 4283126614
-0.13928074 -0.017378431 1.4610001 4283060821
-0.13801281 -0.017378431 1.4610001 4282929235
-0.13674487 -0.017378431 1.4610001 4282797649
-0.13547695 -0.017378431 1.4610001 4282863442
-0.13411717 -0.017366536 1.46 4282797649
-0.1329411 -0.017378431 1.4610001 4282863442
-0.13167317 -0.017378431 1.4610001 4282731856
-0.13049451 -0.017390326 1.462 4282666063
-0.12922572 -0.017390326 1.462 4282731855
-0.12778187 -0.017366536 1.46 4282666062
-0.12660146 -0.017378431 1.4610001 4282534474
-0.12533353 -0.017378431 1.4610001 4282468937
-0.1240656 -0.017378431 1.4610001 4282468937
-0.12288173 -0.017390326 1.462 4282403144
-0.12169611 -0.017402221 1.4630001 4282534730
-0.12042645 -0.017402221 1.4630001 4282600523
-0.11915679 -0.017402221 1.4630001 4282666315
-0.1179677 -0.017414115 1.4640001 4282600521
-0.11669717 -0.017414115 1.4640001 4282337349
-0.11550549 -0.01742601 1.465 4282271556
-0.11431206 -0.017437905 1.4660001 4282139969
-0.11303979 -0.017437905 1.4660001 4282205761
-0.11192001 -0.017461695 1.4680001 4282139968
-0.110646 -0.017461695 1.4680001 4281942589
-0.1094465 -0.01747359 1.4690001 4281744954
-0.10824528 -0.017485484 1.47 4281613367
-0.10696954 -0.017485484 1.47 4281547061
-0.10569379 -0.017485484 1.47 4281415475
-0.10434703 -0.01747359 1.4690001 4281218096
-0.10300199 -0.017461695 1.4680001 4281152303
-0.10165869 -0.0174498 1.4670001 4281152304
-0.10024869 -0.01742601 1.465 4281086512
-0.098774612 -0.017390326 1.462 4281020719
-0.097305737 -0.017354641 1.4590001 4280889133
-0.095973715 -0.017342744 1.4580001 4280889135
-0.094643436 -0.017330851 1.457 4281086514
-0.093186714 -0.017295167 1.4540001 4281086514
-0.091924861 -0.017295167 1.4540001 4281020721
-0.090600654 -0.01728327 1.4530001 4280824112
-0.089155212 -0.017247587 1.45 4280758319
-0.087775595 -0.017223796 1.4480001 4280824112
-0.086459197 -0.017211903 1.447 4280955698
-0.084850125 -0.017140532 1.4410001 4280824112
-0.083483517 -0.017116742 1.439 4280692526
-0.082120389 -0.017092954 1.437 4280758319
-0.080423057 -0.016997794 1.429 4281218870
-0.079016663 -0.016962109 1.4260001 4281876287
-0.077288218 -0.016855055 1.4170001 4282205252
-0.075951129 -0.016831266 1.4150001 4282007616
-0.074670315 -0.016819371 1.414 4281283893
-0.073183477 -0.016759897 1.409 4281152309
-0.071909599 -0.016748002 1.4080001 4281678397
-0.070637465 -0.016736105 1.4070001 4282204741
-0.069367066 -0.016724212 1.406 4282862671
-0.06814687 -0.016724212 1.406 4283520601
-0.066926681 -0.016724212 1.406 4283981152
-0.065799944 -0.016748002 1.4080001 4283323222
-0.064623877 -0.016759897 1.409 4281875776
-0.063446075 -0.016771792 1.4100001 4280823088
-0.062398925 -0.016819371 1.414 4279901986
-0.061258312 -0.016843161 1.416 4279901984
-0.060114224 -0.01686695 1.4180001 4279967777
-0.05909124 -0.016926425 1.4230001 4279704861
-0.057896949 -0.016938319 1.424 4279770654
-0.056740712 -0.016962109 1.4260001 4279836447
-0.055619929 -0.016997794 1.429 4279902240
-0.054379772 -0.016997794 1.429 4279836445
-0.053176802 -0.017009689 1.4300001 4279836445
-0.051935777 -0.017009689 1.4300001 4279770652
-0.050694752 -0.017009689 1.4300001 4279836445
-0.049419146 -0.016997794 1.429 4279836445
-0.048178989 -0.016997794 1.429 4279770652
-0.046938833 -0.016997794 1.429 4279770652
-0.045698676 -0.016997794 1.429 4279770652
-0.044396296 -0.016974006 1.427 4279770652
-0.043127634 -0.016962109 1.4260001 4279770652
-0.0418607 -0.016950214 1.4250001 4279770654
-0.040624015 -0.016950214 1.4250001 4279704861
-0.03938733 -0.016950214 1.4250001 4279968033
-0.038150646 -0.016950214 1.4250001 4280362791
-0.036913961 -0.016950214 1.4250001 4280625709
-0.035702314 -0.016962109 1.4260001 4280230951
-0.034513101 -0.016985899 1.4280001 4280362280
-0.03329711 -0.016997794 1.429 4280757039
-0.032079387 -0.017009689 1.4300001 4281743678
-0.030881494 -0.01703348 1.432 4281677885
-0.029638734 -0.01703348 1.432 4281283127
-0.028395973 -0.01703348 1.432 4281085748
-0.027134251 -0.017021583 1.4310001 4282006850
-0.025874265 -0.017009689 1.4300001 4283783261
-0.024633242 -0.017009689 1.4300001 4285033328
-0.023359502 -0.016985899 1.4280001 4283849054
-0.022104722 -0.016974006 1.427 4282204742
-0.020851679 -0.016962109 1.4260001 4281546556
-0.019586617 -0.016938319 1.424 4282533194
-0.018350799 -0.016938319 1.424 4284178019
-0.017114982 -0.016938319 1.424 4284835949
-0.015856862 -0.01691453 1.4220001 4283717468
-0.01462278 -0.01691453 1.4220001 4281809471
-0.0133887 -0.01691453 1.4220001 4280888369
-0.012137523 -0.01689074 1.4200001 4280822831
-0.010897498 -0.016878845 1.419 4281217589
-0.0096660191 -0.016878845 1.419 4281678140
-0.0084345415 -0.016878845 1.419 4281349175
-0.0072030635 -0.016878845 1.419 4280559916
-0.0059715859 -0.016878845 1.419 4279967779
-0.0047401078 -0.016878845 1.419 4279901986
-0.0035086297 -0.016878845 1.419 4280033572
-0.0022771519 -0.016878845 1.419 4280033572
-0.001045674 -0.016878845 1.419 4279836193
0.00018593499 -0.01689074 1.4200001 4280428330
0.001417282 -0.016878845 1.419 4280428330
0.0026506267 -0.01689074 1.4200001 4280296744
0.0038857069 -0.016902635 1.4210001 4280165158
0.0051189205 -0.016902635 1.4210001 4280099365
0.0063610747 -0.016926425 1.4230001 4280165158
0.0076013622 -0.016938319 1.424 4280099365
0.0088433847 -0.016950214 1.4250001 4280033572
0.010108365 -0.016997794 1.429 4280099619
0.011364405 -0.017021583 1.4310001 4280033826
0.012615106 -0.01703348 1.432 4280099619
0.01391593 -0.017104847 1.4380001 4280231205
0.015174443 -0.017116742 1.439 4280033826
0.01643469 -0.017128639 1.4400001 4280231205
0.017745797 -0.017188113 1.4450001 4280428584
0.019012989 -0.017200006 1.4460001 4280494377
0.020295931 -0.017223796 1.4480001 4280559916
0.021597231 -0.01725948 1.4510001 4280494123
0.022840725 -0.017247587 1.45 4280559916
0.024115728 -0.01725948 1.4510001 4280757295
0.025374977 -0.01725948 1.4510001 4280494124
0.026634226 -0.01725948 1.4510001 4280362538
0.027893476 -0.01725948 1.4510001 4280559917
0.029152725 -0.01725948 1.4510001 4280757296
0.030411974 -0.01725948 1.4510001 4280954677
0.031649396 -0.017247587 1.45 4280757298
-0.16980864 -0.016008973 1.4510001 4283191891
-0.16843322 -0.015997941 1.45 4283586393
-0.16694427 -0.015975874 1.4480001 4283849566
-0.16557318 -0.015964841 1.447 4283717980
-0.16386318 -0.015920708 1.4430001 4283454808
-0.16261087 -0.015920708 1.4430001 4283323222
-0.16113493 -0.015898643 1.4410001 4283257429
-0.15988435 -0.015898643 1.4410001 4283125843
-0.15863378 -0.015898643 1.4410001 4282796878
-0.15727399 -0.015887611 1.4400001 4282599499
-0.15602429 -0.015887611 1.4400001 4282731085
-0.15477459 -0.015887611 1.4400001 4282862671
-0.15373813 -0.015909676 1.442 4283060050
-0.15248668 -0.015909676 1.442 4283257429
-0.15134013 -0.015920708 1.4430001 4283323222
-0.15039985 -0.015953807 1.4460001 4283257430
-0.14924808 -0.015964841 1.447 4283125844
-0.14809458 -0.015975874 1.4480001 4282994771
-0.14704074 -0.015997941 1.45 4282995028
-0.1458829 -0.016008973 1.4510001 4282995028
-0.14472333 -0.016020007 1.452 4283126614
-0.143562 -0.016031038 1.4530001 4283126614
-0.14230102 -0.016031038 1.4530001 4283126614
-0.14113712 -0.016042072 1.4540001 4283126613
-0.13987526 -0.016042072 1.4540001 4283060821
-0.13861342 -0.016042072 1.4540001 4283060820
-0.13744602 -0.016053107 1.455 4282929235
-0.13618329 -0.016053107 1.455 4282863442
-0.13492058 -0.016053107 1.455 4282863442
-0.13374971 -0.016064137 1.4560001 4282863442
-0.13257712 -0.016075172 1.457 4282863442
-0.13131267 -0.016075172 1.457 4282731856
-0.13004822 -0.016075172 1.457 4282600270
-0.12887214 -0.016086204 1.4580001 4282600270
-0.12760682 -0.016086204 1.4580001 4282600269
-0.12634149 -0.016086204 1.4580001 4282402889
-0.12516196 -0.016097238 1.4590001 4282337351
-0.12389577 -0.016097238 1.4590001 4282468937
-0.12279768 -0.016119303 1.4610001 4282534730
-0.12152974 -0.016119303 1.4610001 4282600523
-0.12026182 -0.016119303 1.4610001 4282666316
-0.11907535 -0.016130337 1.462 4282732108
-0.11780655 -0.016130337 1.462 4282666314
-0.11661746 -0.01614137 1.4630001 4282468935
-0.11542664 -0.016152402 1.4640001 4282271556
-0.1141561 -0.016152402 1.4640001 4282139969
-0.11288557 -0.016152402 1.4640001 4282139968
-0.11169129 -0.016163437 1.465 4282074175
-0.11049526 -0.016174469 1.4660001 4281942589
-0.10922299 -0.016174469 1.4660001 4281745211
-0.10802437 -0.016185502 1.4670001 4281613626
-0.10667846 -0.016174469 1.4660001 4281547320
-0.10540619 -0.016174469 1.4660001 4281481269
-0.10406289 -0.016163437 1.465 4281283890
-0.1027915 -0.016163437 1.465 4281283889
-0.10152009 -0.016163437 1.465 4281152305
-0.10004341 -0.016130337 1.462 4281152305
-0.09870705 -0.016119303 1.4610001 4281086512
-0.09723904 -0.016086204 1.4580001 4280889133
-0.095907897 -0.016075172 1.457 4280823342
-0.094643436 -0.016075172 1.457 4280954928
-0.093186714 -0.016042072 1.4540001 4280954928
-0.091861635 -0.016031038 1.4530001 4280954928
-0.090538293 -0.016020007 1.452 4280758319
-0.089155212 -0.015997941 1.45 4280824112
-0.087836206 -0.015986906 1.4490001 4280889905
-0.086518951 -0.015975874 1.4480001 4280824112
-0.084967881 -0.015920708 1.4430001 4280758319
-0.083599553 -0.015898643 1.4410001 4280692526
-0.082291834 -0.015887611 1.4400001 4280824112
-0.080704451 -0.015821412 1.434 4281021491
-0.07934913 -0.015799345 1.432 4281415735
-0.077942744 -0.015766246 1.429 4281941823
-0.07643421 -0.01571108 1.424 4282139202
-0.075039968 -0.015677981 1.4210001 4281678651
-0.073598996 -0.015633848 1.4170001 4281152307
-0.072318181 -0.015622816 1.416 4281283893
-0.071039103 -0.015611783 1.4150001 4282204741
-0.069712415 -0.015589717 1.4130001 4282994257
-0.068486147 -0.015589717 1.4130001 4283389015
-0.067212284 -0.015578683 1.4120001 4283652187
-0.065986879 -0.015578683 1.4120001 4283257429
-0.064761475 -0.015578683 1.4120001 4281612604
-0.06353607 -0.015578683 1.4120001 4280296744
-0.062443055 -0.015611783 1.4150001 4279770400
-0.061258312 -0.015622816 1.416 4279836447
-0.060071826 -0.015633848 1.4170001 4279836447
-0.058966663 -0.015666949 1.4200001 4279770654
-0.057774976 -0.015677981 1.4210001 4279902240
-0.056581553 -0.015689015 1.4220001 4279902240
-0.055464238 -0.015722113 1.4250001 4279836447
-0.054227553 -0.015722113 1.4250001 4279836445
-0.052990865 -0.015722113 1.4250001 4279968031
-0.051790502 -0.015733147 1.4260001 4279968031
-0.050552949 -0.015733147 1.4260001 4279968031
-0.049315397 -0.015733147 1.4260001 4279968031
-0.048077844 -0.015733147 1.4260001 4279968031
-0.046840291 -0.015733147 1.4260001 4280099617
-0.045602739 -0.015733147 1.4260001 4280033824
-0.044334073 -0.015722113 1.4250001 4279902238
-0.043067142 -0.01571108 1.424 4279902238
-0.041831326 -0.01571108 1.424 4279902238
-0.040595509 -0.01571108 1.424 4279836445
-0.039359692 -0.01571108 1.424 4279902240
-0.038150646 -0.015722113 1.4250001 4280099619
-0.036939867 -0.015733147 1.4260001 4280296744
-0.035702314 -0.015733147 1.4260001 4280296744
-0.034537267 -0.015766246 1.429 4279901986
-0.033320412 -0.015777279 1.4300001 4279836193
-0.032101821 -0.015788311 1.4310001 4279967780
-0.030903058 -0.015810378 1.4330001 4279770401
-0.02965943 -0.015810378 1.4330001 4279572509
-0.028415805 -0.015810378 1.4330001 4280033060
-0.027153214 -0.015799345 1.432 4280428073
-0.025910454 -0.015799345 1.432 4281086003
-0.024667693 -0.015799345 1.432 4281217589
-0.023392217 -0.015777279 1.4300001 4280954161
-0.022135703 -0.015766246 1.429 4280296744
-0.020895546 -0.015766246 1.429 4280099365
-0.01962788 -0.015744179 1.427 4280494123
-0.018376574 -0.015733147 1.4260001 4281020467
-0.017127002 -0.015722113 1.4250001 4280954417
-0.015868014 -0.015700048 1.4230001 4280757038
-0.014633064 -0.015700048 1.4230001 4280230694
-0.013379285 -0.015677981 1.4210001 4279835680
-0.012137523 -0.015666949 1.4200001 4279770143
-0.010905177 -0.015666949 1.4200001 4280033315
-0.0096660191 -0.015655916 1.419 4280099108
-0.0084285978 -0.015644882 1.4180001 4280296487
-0.0071979878 -0.015644882 1.4180001 4280033572
-0.005963169 -0.015633848 1.4170001 4280165158
-0.0047300863 -0.015622816 1.416 4280494123
-0.003501212 -0.015622816 1.416 4280559916
-0.0022723377 -0.015622816 1.416 4280494123
-0.0010427263 -0.015611783 1.4150001 4280428330
0.00018514934 -0.01560075 1.414 4280428330
0.0014112893 -0.015589717 1.4130001 4280494123
0.0026394268 -0.01560075 1.414 4280625709
0.0038665654 -0.01560075 1.414 4280559916
0.0051009087 -0.015622816 1.416 4279836193
0.0063342536 -0.015633848 1.4170001 4280165158
0.007569334 -0.015644882 1.4180001 4280757549
0.010065923 -0.015700048 1.4230001 4280231205
0.011316755 -0.015722113 1.4250001 4280362791
0.012579869 -0.015755212 1.4280001 4280231205
0.01387722 -0.015821412 1.434 4280165412
0.015142807 -0.015843477 1.4360001 4280164899
0.016411865 -0.015865542 1.4380001 4280164899
0.021746073 -0.016119303 1.4610001 4280494123
0.022982497 -0.016097238 1.4590001 4280559917
0.024232067 -0.016086204 1.4580001 4280757296
-0.16945755 -0.01472795 1.4480001 4283981152
-0.16808474 -0.01471778 1.447 4283783773
-0.16671367 -0.014707608 1.4460001 4283520601
-0.16500106 -0.014666924 1.442 4283257429
-0.16363606 -0.014656752 1.4410001 4282994257
-0.16227281 -0.014646582 1.4400001 4282928721
-0.16091129 -0.01463641 1.439 4283060563
-0.15966246 -0.01463641 1.439 4283126099
-0.15841362 -0.01463641 1.439 4282994257
-0.15716478 -0.01463641 1.439 4282862671
-0.15591595 -0.01463641 1.439 4282928464
-0.15466711 -0.01463641 1.439 4283125843
-0.15352489 -0.014646582 1.4400001 4283257429
-0.15238093 -0.014656752 1.4410001 4283323222
-0.15113036 -0.014656752 1.4410001 4283191636
-0.15019181 -0.014687266 1.4440001 4283060051
-0.1490418 -0.014697438 1.4450001 4282994258
-0.14778775 -0.014697438 1.4450001 4282928722
-0.14683793 -0.01472795 1.4480001 4282863442
-0.14558129 -0.01472795 1.4480001 4282863442
-0.14442432 -0.014738122 1.4490001 4282995028
-0.1432656 -0.014748294 1.45 4283060821
-0.14210516 -0.014758464 1.4510001 4282995028
-0.14084591 -0.014758464 1.4510001 4282929235
-0.13968286 -0.014768636 1.452 4282995027
-0.13851807 -0.014778807 1.4530001 4282929234
-0.13725708 -0.014778807 1.4530001 4282863441
-0.13608971 -0.014788979 1.4540001 4282929491
-0.13482785 -0.014788979 1.4540001 4282995285
-0.13347413 -0.014778807 1.4530001 4282995285
-0.13239513 -0.014799151 1.455 4282929748
-0.13113241 -0.014799151 1.455 4282863441
-0.13004822 -0.014819493 1.457 4282666062
-0.12878376 -0.014819493 1.457 4282600268
-0.12751931 -0.014819493 1.457 4282666317
-0.12634149 -0.014829663 1.4580001 4282534730
-0.12507617 -0.014829663 1.4580001 4282403144
-0.12389577 -0.014839835 1.4590001 4282468937
-0.12271363 -0.014850006 1.46 4282732109
-0.12152974 -0.014860176 1.4610001 4282797902
-0.12026182 -0.014860176 1.4610001 4282797902
-0.11907535 -0.014870348 1.462 4282666315
-0.11780655 -0.014870348 1.462 4282666314
-0.11661746 -0.01488052 1.4630001 4282666314
-0.11542664 -0.01489069 1.4640001 4282468935
-0.1141561 -0.01489069 1.4640001 4282271555
-0.11288557 -0.01489069 1.4640001 4282074175
-0.11161505 -0.01489069 1.4640001 4282074177
-0.11041988 -0.014900862 1.465 4282074176
-0.10914849 -0.014900862 1.465 4281745212
-0.10787709 -0.014900862 1.465 4281482040
-0.10660569 -0.014900862 1.465 4281613113
-0.10533429 -0.014900862 1.465 4281547063
-0.10399186 -0.01489069 1.4640001 4281349683
-0.10265116 -0.01488052 1.4630001 4281218097
-0.1013815 -0.01488052 1.4630001 4281086512
-0.099974975 -0.014860176 1.4610001 4281020719
-0.098639496 -0.014850006 1.46 4280954926
-0.09717235 -0.014819493 1.457 4280889133
-0.095907897 -0.014819493 1.457 4280889134
-0.094578482 -0.014809321 1.4560001 4280823342
-0.093122624 -0.014778807 1.4530001 4280691756
-0.091861635 -0.014778807 1.4530001 4280691756
-0.090538293 -0.014768636 1.452 4280758063
-0.089155212 -0.014748294 1.45 4280889905
-0.087836206 -0.014738122 1.4490001 4280824112
-0.086518951 -0.01472795 1.4480001 4280626733
-0.084967881 -0.014677094 1.4430001 4280560940
-0.083657563 -0.014666924 1.442 4280692526
-0.08234898 -0.014656752 1.4410001 4280758319
-0.080760732 -0.014595725 1.4350001 4280758319
-0.079404548 -0.014575382 1.4330001 4280889135
-0.078051835 -0.01455504 1.4310001 4281283893
-0.076541558 -0.014504184 1.4260001 4281876030
-0.075251199 -0.014494012 1.4250001 4281744444
-0.07375481 -0.014443156 1.4200001 4281086514
-0.072471403 -0.014432985 1.419 4281020721
-0.071189716 -0.014422813 1.4180001 4281415481
-0.069811098 -0.0143923 1.4150001 4282533706
-0.068583086 -0.0143923 1.4150001 4283125843
-0.067355081 -0.0143923 1.4150001 4283652187
-0.066080339 -0.01438213 1.414 4283520601
-0.064853199 -0.01438213 1.414 4281678397
-0.063626066 -0.01438213 1.414 4280230951
-0.062443055 -0.0143923 1.4150001 4280033572
-0.061258312 -0.014402471 1.416 4279968033
-0.06002944 -0.014402471 1.416 4279770654
-0.058925141 -0.014432985 1.419 4279902240
-0.057734318 -0.014443156 1.4200001 4279836447
-0.05650197 -0.014443156 1.4200001 4279902240
-0.055386394 -0.01447367 1.4230001 4279902240
-0.054151446 -0.01447367 1.4230001 4279902238
-0.052916497 -0.01447367 1.4230001 4279902238
-0.05175418 -0.014494012 1.4250001 4280033824
-0.050517496 -0.014494012 1.4250001 4280099617
-0.049280811 -0.014494012 1.4250001 4280099617
-0.048044126 -0.014494012 1.4250001 4280099617
-0.046807442 -0.014494012 1.4250001 4280165410
-0.045538779 -0.014483842 1.424 4280033824
-0.044302963 -0.014483842 1.424 4279968031
-0.043067142 -0.014483842 1.424 4280033824
-0.041831326 -0.014483842 1.424 4280231203
-0.040595509 -0.014483842 1.424 4279968031
-0.039359692 -0.014483842 1.424 4279770654
-0.038150646 -0.014494012 1.4250001 4279968033
-0.036939867 -0.014504184 1.4260001 4280165412
-0.035702314 -0.014504184 1.4260001 4280165412
-0.034537267 -0.014534698 1.429 4280165158
-0.03329711 -0.014534698 1.429 4280099365
-0.032079387 -0.014544868 1.4300001 4280033572
-0.030903058 -0.014575382 1.4330001 4279770400
-0.02965943 -0.014575382 1.4330001 4279967779
-0.028415805 -0.014575382 1.4330001 4279507228
-0.027172176 -0.014575382 1.4330001 4279770143
-0.025910454 -0.014565212 1.432 4279901729
-0.024667693 -0.014565212 1.432 4280033315
-0.023408575 -0.01455504 1.4310001 4279901729
-0.022151193 -0.014544868 1.4300001 4279770400
-0.020895546 -0.014534698 1.429 4279639584
-0.01962788 -0.014514356 1.427 4279770400
-0.01838946 -0.014514356 1.427 4279770400
-0.017139021 -0.014504184 1.4260001 4280296744
-0.015868014 -0.01447367 1.4230001 4279770400
-0.01462278 -0.014463499 1.4220001 4279835936
-0.013379285 -0.014453328 1.4210001 4280230694
-0.012137523 -0.014443156 1.4200001 4280230694
-0.010905177 -0.014443156 1.4200001 4280493866
-0.0096660191 -0.014432985 1.419 4280691245
-0.0084285978 -0.014422813 1.4180001 4280822831
-0.007192912 -0.014412642 1.4170001 4280757295
-0.005963169 -0.014412642 1.4170001 4280625709
-0.0047300863 -0.014402471 1.416 4280823088
-0.0034987393 -0.0143923 1.4150001 4280757295
-0.0022707328 -0.0143923 1.4150001 4280559916
-0.0010412525 -0.014371958 1.4130001 4280559916
0.00018488747 -0.014361786 1.4120001 4280625709
0.0014102905 -0.014361786 1.4120001 4281020467
0.0026356934 -0.014361786 1.4120001 4281020467
0.0038610965 -0.014361786 1.4120001 4280691502
0.0050937044 -0.01438213 1.414 4280296744
0.0063253134 -0.0143923 1.4150001 4281283639
0.0075586578 -0.014402471 1.416 4283718234
0.0088247675 -0.014463499 1.4220001 4284047199
0.011316755 -0.014494012 1.4250001 4281547065
0.012571059 -0.014514356 1.427 4281480759
0.013867543 -0.014575382 1.4330001 4281217587
0.015132262 -0.014595725 1.4350001 4281020208
0.016400451 -0.014616068 1.437 4280757036
0.021805611 -0.014900862 1.465 4280625710
0.023045506 -0.01488052 1.4630001 4280427818
0.024281928 -0.014860176 1.4610001 4280822576
-0.1692235 -0.013461409 1.4460001 4284244324
-0.16785243 -0.0134521 1.4450001 4283783773
-0.16625251 -0.013424171 1.442 4283257429
-0.16477221 -0.013405553 1.4400001 4282928464
-0.16340896 -0.013396244 1.439 4282862672
-0.16204743 -0.013386934 1.4380001 4282862928
-0.16068764 -0.013377625 1.437 4282797392
-0.15944055 -0.013377625 1.437 4282928721
-0.15819344 -0.013377625 1.437 4283060051
-0.15694635 -0.013377625 1.437 4283125843
-0.15569925 -0.013377625 1.437 4283191636
-0.15445215 -0.013377625 1.437 4283191636
-0.15341829 -0.013396244 1.439 4283191636
-0.15216945 -0.013396244 1.439 4283125844
-0.15092061 -0.013396244 1.439 4283060050
-0.14998381 -0.013424171 1.442 4283060051
-0.14883551 -0.013433482 1.4430001 4283060051
-0.1475832 -0.013433482 1.4430001 4282797393
-0.14653371 -0.0134521 1.4450001 4282731856
-0.14538021 -0.013461409 1.4460001 4282863442
-0.1441253 -0.013461409 1.4460001 4282995028
-0.143068 -0.013480028 1.4480001 4282995028
-0.14181136 -0.013480028 1.4480001 4282929235
-0.14065178 -0.013489338 1.4490001 4282929235
-0.13949046 -0.013498647 1.45 4282929235
-0.13832742 -0.013507956 1.4510001 4282929235
-0.13706817 -0.013507956 1.4510001 4282995028
-0.13580891 -0.013507956 1.4510001 4283061077
-0.13464239 -0.013517266 1.452 4283126614
-0.13338228 -0.013517266 1.452 4283061078
-0.13221315 -0.013526576 1.4530001 4283126871
-0.13113241 -0.013545194 1.455 4283126613
-0.12995894 -0.013554503 1.4560001 4282929234
-0.12869535 -0.013554503 1.4560001 4282731854
-0.12743177 -0.013554503 1.4560001 4282731854
-0.12625484 -0.013563813 1.457 4282731854
-0.12507617 -0.013573122 1.4580001 4282600525
-0.12381085 -0.013573122 1.4580001 4282665804
-0.12271363 -0.01359174 1.46 4282797134
-0.12144656 -0.01359174 1.46 4282928975
-0.12026182 -0.013601051 1.4610001 4282863181
-0.11907535 -0.01361036 1.462 4282731595
-0.11780655 -0.01361036 1.462 4282731339
-0.11661746 -0.013619669 1.4630001 4282731594
-0.1153478 -0.013619669 1.4630001 4282731594
-0.11407813 -0.013619669 1.4630001 4282600007
-0.11280847 -0.013619669 1.4630001 4282336579
-0.11153881 -0.013619669 1.4630001 4282073407
-0.11034451 -0.013628978 1.4640001 4281942077
-0.10907398 -0.013628978 1.4640001 4281810491
-0.10780345 -0.013628978 1.4640001 4281678649
-0.10653292 -0.013628978 1.4640001 4281678649
-0.10519049 -0.013619669 1.4630001 4281744442
-0.10384979 -0.01361036 1.462 4281547063
-0.102581 -0.01361036 1.462 4281349684
-0.10117361 -0.01359174 1.46 4281152305
-0.099906549 -0.01359174 1.46 4281086512
-0.098571926 -0.013582432 1.4590001 4281020720
-0.09717235 -0.013563813 1.457 4280889135
-0.095776238 -0.013545194 1.455 4280823342
-0.094513521 -0.013545194 1.455 4280757549
-0.093122624 -0.013526576 1.4530001 4280691756
-0.091861635 -0.013526576 1.4530001 4280757549
-0.090538293 -0.013517266 1.452 4280823342
-0.089155212 -0.013498647 1.45 4280889135
-0.087836206 -0.013489338 1.4490001 4280692270
-0.086518951 -0.013480028 1.4480001 4280560940
-0.085026771 -0.01344279 1.4440001 4280560940
-0.08371558 -0.013433482 1.4430001 4280560940
-0.082406126 -0.013424171 1.442 4280692526
-0.080873288 -0.013377625 1.437 4280626733
-0.079515368 -0.013359006 1.4350001 4280626476
-0.078160919 -0.013340387 1.4330001 4280889905
-0.076702587 -0.013303149 1.429 4281415479
-0.075356811 -0.01328453 1.427 4281415479
-0.073910631 -0.013247292 1.4230001 4281020721
-0.072573543 -0.013228674 1.4210001 4280823342
-0.07134033 -0.013228674 1.4210001 4280691756
-0.069959104 -0.013200746 1.4180001 4281612858
-0.068680026 -0.013191436 1.4170001 4282862927
-0.067450285 -0.013191436 1.4170001 4283586394
-0.066127077 -0.013172817 1.4150001 4283454808
-0.064899072 -0.013172817 1.4150001 4281809983
-0.06367106 -0.013172817 1.4150001 4280362538
-0.062443055 -0.013172817 1.4150001 4280296744
-0.061258312 -0.013182127 1.416 4280033572
-0.06002944 -0.013182127 1.416 4279968033
-0.058842085 -0.013191436 1.4170001 4279902240
-0.057653002 -0.013200746 1.4180001 4279836447
-0.056462184 -0.013210054 1.419 4279902240
-0.055308551 -0.013228674 1.4210001 4279902240
-0.054113388 -0.013237983 1.4220001 4279902238
-0.052879307 -0.013237983 1.4220001 4279902238
-0.051681548 -0.013247292 1.4230001 4279902238
-0.050482046 -0.013256603 1.424 4280099617
-0.049211647 -0.013247292 1.4230001 4280033824
-0.048010413 -0.013256603 1.424 4280165410
-0.046774596 -0.013256603 1.424 4280033824
-0.045506801 -0.013247292 1.4230001 4280033824
-0.044271849 -0.013247292 1.4230001 4280033824
-0.0430369 -0.013247292 1.4230001 4280165410
-0.041801952 -0.013247292 1.4230001 4280296996
-0.040595509 -0.013256603 1.424 4280165410
-0.039359692 -0.013256603 1.424 4279902238
-0.038150646 -0.013265911 1.4250001 4280033824
-0.036939867 -0.013275221 1.4260001 4280033826
-0.035702314 -0.013275221 1.4260001 4280099619
-0.034513101 -0.013293839 1.4280001 4280165412
-0.03329711 -0.013303149 1.429 4280165412
-0.032079387 -0.013312459 1.4300001 4280099365
-0.030881494 -0.013331077 1.432 4280033572
-0.02965943 -0.013340387 1.4330001 4280033572
-0.028415805 -0.013340387 1.4330001 4279967779
-0.027172176 -0.013340387 1.4330001 4279836447
-0.025928548 -0.013340387 1.4330001 4279968033
-0.024667693 -0.013331077 1.432 4280165412
-0.023408575 -0.013321768 1.4310001 4280296998
-0.022166682 -0.013321768 1.4310001 4280099619
-0.020910168 -0.013312459 1.4300001 4280165412
-0.019641636 -0.013293839 1.4280001 4280099619
-0.01838946 -0.01328453 1.427 4280099619
-0.017139021 -0.013275221 1.4260001 4280165412
-0.015868014 -0.013247292 1.4230001 4280296998
-0.01462278 -0.013237983 1.4220001 4280494377
-0.0133887 -0.013237983 1.4220001 4280428584
-0.012137523 -0.013219365 1.4200001 4280296998
-0.010905177 -0.013219365 1.4200001 4280428584
-0.0096660191 -0.013210054 1.419 4280889135
-0.0084285978 -0.013200746 1.4180001 4281020721
-0.007192912 -0.013191436 1.4170001 4280889135
-0.005963169 -0.013191436 1.4170001 4280823342
-0.0047267461 -0.013172817 1.4150001 4280757295
-0.0034987393 -0.013172817 1.4150001 4280625709
-0.0022691281 -0.013163508 1.414 4280625709
-0.0010405156 -0.013144889 1.4120001 4280494123
0.00018475653 -0.01313558 1.411 4281152053
0.0014082929 -0.01312627 1.4100001 4282994257
0.0026338268 -0.01313558 1.411 4283717980
0.0038583621 -0.01313558 1.411 4281415225
0.0050901021 -0.013154198 1.4130001 4280494123
0.006320843 -0.013163508 1.414 4282665292
0.0075533199 -0.013172817 1.4150001 4285560184
0.0088185612 -0.013228674 1.4210001 4285494391
0.011308813 -0.013256603 1.424 4283125586
0.01256225 -0.013275221 1.4260001 4283322965
0.013857867 -0.013331077 1.432 4283388758
0.015111171 -0.013340387 1.4330001 4283059538
0.016377626 -0.013359006 1.4350001 4282270022
0.023108514 -0.013656907 1.4670001 4281085750
0.024348408 -0.013638288 1.465 4281217336
-0.17179191 -0.012130734 1.4360001 4283257683
-0.17054568 -0.012130734 1.4360001 4283849820
-0.16941734 -0.012139182 1.437 4284046944
-0.16817024 -0.012139182 1.437 4283915359
-0.16680698 -0.012130734 1.4360001 4283717980
-0.16556075 -0.012130734 1.4360001 4283389016
-0.16397125 -0.012105391 1.4330001 4282994258
-0.16272762 -0.012105391 1.4330001 4282862672
-0.16137129 -0.012096943 1.432 4282862672
-0.16001672 -0.012088496 1.4310001 4282862672
-0.15877482 -0.012088496 1.4310001 4282928465
-0.15753293 -0.012088496 1.4310001 4283060051
-0.15629104 -0.012088496 1.4310001 4283257430
-0.15504915 -0.012088496 1.4310001 4283323223
-0.15391473 -0.012096943 1.432 4283125844
-0.15267198 -0.012096943 1.432 4283060051
-0.15142921 -0.012096943 1.432 4282994258
-0.15029134 -0.012105391 1.4330001 4282994258
-0.14915171 -0.012113839 1.434 4283191637
-0.14790723 -0.012113839 1.434 4283257430
-0.14676499 -0.012122286 1.4350001 4282994771
-0.14562105 -0.012130734 1.4360001 4282797649
-0.14437482 -0.012130734 1.4360001 4282929235
-0.14322825 -0.012139182 1.437 4283126614
-0.14217876 -0.012156077 1.439 4283126614
-0.14092994 -0.012156077 1.439 4283060821
-0.1399723 -0.012181419 1.442 4283060821
-0.13872086 -0.012181419 1.442 4282995028
-0.13756475 -0.012189868 1.4430001 4283060821
-0.1364069 -0.012198315 1.4440001 4283192407
-0.13515373 -0.012198315 1.4440001 4283258200
-0.1339933 -0.012206762 1.4450001 4283192407
-0.13292296 -0.012223658 1.447 4283192407
-0.13166718 -0.012223658 1.447 4283192407
-0.13050154 -0.012232105 1.4480001 4283126614
-0.12942341 -0.012249 1.45 4282995028
-0.12816502 -0.012249 1.45 4282797649
-0.12690665 -0.012249 1.45 4282666062
-0.12582158 -0.012265895 1.452 4282731342
-0.12464724 -0.012274344 1.4530001 4282862928
-0.12338625 -0.012274344 1.4530001 4282862671
-0.12229338 -0.012291238 1.455 4282862671
-0.12103065 -0.012291238 1.455 4282862927
-0.11985024 -0.012299686 1.4560001 4282862670
-0.11866811 -0.012308134 1.457 4282797132
-0.11740365 -0.012308134 1.457 4282665546
-0.1162189 -0.012316581 1.4580001 4282533958
-0.11495358 -0.012316581 1.4580001 4282599751
-0.11361028 -0.012308134 1.457 4282797130
-0.11234583 -0.012308134 1.457 4282665544
-0.11108137 -0.012308134 1.457 4282270786
-0.10981692 -0.012308134 1.457 4282073407
-0.10855246 -0.012308134 1.457 4282007614
-0.107288 -0.012308134 1.457 4281941821
-0.10595077 -0.012299686 1.4560001 4281876030
-0.10461529 -0.012291238 1.455 4281941823
-0.10328154 -0.012282791 1.4540001 4281876029
-0.10208984 -0.012291238 1.455 4281612856
-0.10075783 -0.012282791 1.4540001 4281283891
-0.099290691 -0.012257447 1.4510001 4281086512
-0.098031439 -0.012257447 1.4510001 4281152306
-0.096638799 -0.012240552 1.4490001 4281086514
-0.09538129 -0.012240552 1.4490001 4281020721
-0.094123773 -0.012240552 1.4490001 4280823342
-0.092802174 -0.012232105 1.4480001 4280889135
-0.09154553 -0.012232105 1.4480001 4280889135
-0.090288885 -0.012232105 1.4480001 4280758319
-0.088970751 -0.012223658 1.447 4280758319
-0.087654352 -0.01221521 1.4460001 4280692526
-0.086399443 -0.01221521 1.4460001 4280626733
-0.085026771 -0.012198315 1.4440001 4280495147
-0.083773598 -0.012198315 1.4440001 4280363561
-0.082463272 -0.012189868 1.4430001 4280363561
-0.081042126 -0.012164525 1.4400001 4280495147
-0.079737015 -0.012156077 1.439 4280560940
-0.07843364 -0.01214763 1.4380001 4280626733
-0.077078313 -0.012130734 1.4360001 4280889392
-0.075779282 -0.012122286 1.4350001 4280954928
-0.074481972 -0.012113839 1.434 4280823342
-0.073084265 -0.012088496 1.4310001 4280757549
-0.071792163 -0.012080049 1.4300001 4280560170
-0.070304461 -0.012037811 1.4250001 4281020721
-0.069019303 -0.012029364 1.424 4282731084
-0.067735888 -0.012020915 1.4230001 4283454808
-0.066360734 -0.011995573 1.4200001 4282994257
-0.065082528 -0.011987125 1.419 4281546811
-0.063806057 -0.011978677 1.4180001 4280691502
-0.062487189 -0.011961782 1.416 4280428330
-0.061215051 -0.011953335 1.4150001 4280296998
-0.059987042 -0.011953335 1.4150001 4280099619
-0.058800563 -0.011961782 1.416 4280033826
-0.057612345 -0.01197023 1.4170001 4280099619
-0.0563826 -0.01197023 1.4170001 4280231205
-0.055191781 -0.011978677 1.4180001 4280165412
-0.053999227 -0.011987125 1.419 4280099617
-0.05276775 -0.011987125 1.419 4280033824
-0.051572587 -0.011995573 1.4200001 4280165410
-0.050340243 -0.011995573 1.4200001 4280231203
-0.04914248 -0.012004021 1.4210001 4280165410
-0.047909267 -0.012004021 1.4210001 4280231203
-0.046676055 -0.012004021 1.4210001 4280165410
-0.045442842 -0.012004021 1.4210001 4280165410
-0.044209626 -0.012004021 1.4210001 4280296996
-0.042976413 -0.012004021 1.4210001 4280494375
-0.0417432 -0.012004021 1.4210001 4280362789
-0.040509984 -0.012004021 1.4210001 4280296996
-0.039276771 -0.012004021 1.4210001 4280296996
-0.038070329 -0.012012468 1.4220001 4280099617
-0.036862154 -0.012020915 1.4230001 4280231205
-0.035627205 -0.012020915 1.4230001 4280231205
-0.034440592 -0.012037811 1.4250001 4280231205
-0.033227209 -0.012046258 1.4260001 4280099619
-0.032012086 -0.012054706 1.427 4280296744
-0.030816799 -0.012071601 1.429 4280230951
-0.029576642 -0.012071601 1.429 4280099619
-0.028336486 -0.012071601 1.429 4279902240
-0.027115289 -0.012080049 1.4300001 4279770654
-0.025874265 -0.012080049 1.4300001 4279902240
-0.024633242 -0.012080049 1.4300001 4280099619
-0.023392217 -0.012080049 1.4300001 4280165412
-0.022135703 -0.012071601 1.429 4280296998
-0.020895546 -0.012071601 1.429 4280231205
-0.019614127 -0.012046258 1.4260001 4280099619
-0.018376574 -0.012046258 1.4260001 4280165412
-0.017139021 -0.012046258 1.4260001 4280296998
-0.015879165 -0.012029364 1.424 4280560170
-0.014633064 -0.012020915 1.4230001 4280757549
-0.0133887 -0.012012468 1.4220001 4280625963
-0.012146072 -0.012004021 1.4210001 4280296998
-0.010905177 -0.011995573 1.4200001 4280296998
-0.0096728317 -0.011995573 1.4200001 4280691756
-0.0084285978 -0.011978677 1.4180001 4280823342
-0.007192912 -0.01197023 1.4170001 4280691756
-0.0059589609 -0.011961782 1.416 4280560170
-0.0047200653 -0.011936439 1.4130001 4280691502
-0.0034937942 -0.011936439 1.4130001 4280888881
-0.002262709 -0.011911096 1.4100001 4281086260
-0.0010383049 -0.011902649 1.409 4281283639
0.00018449465 -0.011902649 1.409 4282402120
0.0014062953 -0.011894202 1.4080001 4284968047
0.0026300936 -0.011902649 1.409 4284968047
0.0038528931 -0.011902649 1.409 4282599499
0.0050828974 -0.011919545 1.411 4281020467
0.0063119028 -0.011927992 1.4120001 4283191636
0.0075426432 -0.011936439 1.4130001 4285889149
0.0088061504 -0.011987125 1.419 4285954942
0.010051775 -0.012004021 1.4210001 4284507239
0.011308813 -0.012029364 1.424 4283980895
-0.17155264 -0.010877982 1.434 4283455062
-0.17042691 -0.010885567 1.4350001 4284047199
-0.16929944 -0.010893153 1.4360001 4283981407
-0.16793618 -0.010885567 1.4350001 4283652187
-0.16669081 -0.010885567 1.4350001 4283454808
-0.16533016 -0.010877982 1.434 4283323223
-0.1638568 -0.01086281 1.432 4283060050
-0.1625005 -0.010855224 1.4310001 4282796879
-0.16125861 -0.010855224 1.4310001 4282796879
-0.1599049 -0.010847638 1.4300001 4282928465
-0.15855291 -0.010840053 1.429 4282994258
-0.15731275 -0.010840053 1.429 4283060051
-0.15618183 -0.010847638 1.4300001 4283125844
-0.1549408 -0.010847638 1.4300001 4283125844
-0.15369977 -0.010847638 1.4300001 4282994258
-0.15256536 -0.010855224 1.4310001 4282994258
-0.15132347 -0.010855224 1.4310001 4283060051
-0.15008157 -0.010855224 1.4310001 4283257430
-0.14894369 -0.01086281 1.432 4283257430
-0.14770094 -0.01086281 1.432 4283191637
-0.14645816 -0.01086281 1.432 4283126101
-0.14541823 -0.010877982 1.434 4283060564
-0.14417374 -0.010877982 1.434 4282994771
-0.1430289 -0.010885567 1.4350001 4283060821
-0.14188236 -0.010893153 1.4360001 4283192407
-0.14073406 -0.010900739 1.437 4283192407
-0.1396811 -0.010915911 1.439 4283060821
-0.13852845 -0.010923496 1.4400001 4283060821
-0.13727875 -0.010923496 1.4400001 4283192407
-0.13621798 -0.010938668 1.442 4283323993
-0.13496655 -0.010938668 1.442 4283323993
-0.13371511 -0.010938668 1.442 4283323993
-0.13264738 -0.010953839 1.4440001 4283192407
-0.13148521 -0.010961425 1.4450001 4283192407
-0.13032129 -0.01096901 1.4460001 4283192150
-0.12915564 -0.010976597 1.447 4283060051
-0.12789986 -0.010976597 1.447 4282862928
-0.1267316 -0.010984182 1.4480001 4282731342
-0.12564826 -0.010999354 1.45 4282731085
-0.12438988 -0.010999354 1.45 4282796878
-0.12321643 -0.011006939 1.4510001 4282796878
-0.12212527 -0.011022111 1.4530001 4282796878
-0.12086428 -0.011022111 1.4530001 4282796878
-0.1196033 -0.011022111 1.4530001 4282731085
-0.11842377 -0.011029697 1.4540001 4282665547
-0.11724249 -0.011037283 1.455 4282665546
-0.11597977 -0.011037283 1.455 4282599752
-0.11471705 -0.011037283 1.455 4282533960
-0.11345433 -0.011037283 1.455 4282731338
-0.1121145 -0.011029697 1.4540001 4282665546
-0.11085265 -0.011029697 1.4540001 4282533959
-0.1095908 -0.011029697 1.4540001 4282336581
-0.10840344 -0.011037283 1.455 4282270788
-0.10714073 -0.011037283 1.455 4282139202
-0.10580524 -0.011029697 1.4540001 4282007615
-0.10439958 -0.011014526 1.452 4281941823
-0.10313947 -0.011014526 1.452 4282007614
-0.10180919 -0.011006939 1.4510001 4281744442
-0.10048064 -0.010999354 1.45 4281481270
-0.099153832 -0.010991768 1.4490001 4281283891
-0.097828761 -0.010984182 1.4480001 4281218098
-0.096438721 -0.01096901 1.4460001 4281218098
-0.095183812 -0.01096901 1.4460001 4281152307
-0.093928903 -0.01096901 1.4460001 4281086514
-0.092673995 -0.01096901 1.4460001 4281020721
-0.091419078 -0.01096901 1.4460001 4281020721
-0.090101816 -0.010961425 1.4450001 4280889905
-0.088847771 -0.010961425 1.4450001 4280824112
-0.087593734 -0.010961425 1.4450001 4280692526
-0.08633969 -0.010961425 1.4450001 4280560940
-0.085026771 -0.010953839 1.4440001 4280429354
-0.08371558 -0.010946253 1.4430001 4280297768
-0.082463272 -0.010946253 1.4430001 4280231975
-0.081098408 -0.010931082 1.4410001 4280429354
-0.079792425 -0.010923496 1.4400001 4280429354
-0.078488179 -0.010915911 1.439 4280429354
-0.077131994 -0.010900739 1.437 4280494890
-0.075884894 -0.010900739 1.437 4280560940
-0.074585855 -0.010893153 1.4360001 4280823342
-0.073186405 -0.010870395 1.4330001 4280889135
-0.071892574 -0.01086281 1.432 4280691756
-0.070403129 -0.010824881 1.427 4281086514
-0.069116242 -0.010817296 1.4260001 4282731340
-0.067831092 -0.01080971 1.4250001 4283060048
-0.066407472 -0.010779367 1.4210001 4282204740
-0.065128393 -0.010771781 1.4200001 4281349432
-0.063806057 -0.010756609 1.4180001 4281020467
-0.062487189 -0.010741438 1.416 4280494123
-0.061258312 -0.010741438 1.416 4280231206
-0.06002944 -0.010741438 1.416 4280099619
-0.058800563 -0.010741438 1.416 4280099619
-0.057612345 -0.010749023 1.4170001 4280231205
-0.0563826 -0.010749023 1.4170001 4280296998
-0.055191781 -0.010756609 1.4180001 4280362791
-0.053961173 -0.010756609 1.4180001 4280362789
-0.05276775 -0.010764195 1.419 4280362789
-0.051572587 -0.010771781 1.4200001 4280362789
-0.050340243 -0.010771781 1.4200001 4280428582
-0.049107894 -0.010771781 1.4200001 4280362789
-0.04787555 -0.010771781 1.4200001 4280494375
-0.046643205 -0.010771781 1.4200001 4280428582
-0.04541086 -0.010771781 1.4200001 4280428582
-0.044178512 -0.010771781 1.4200001 4280362789
-0.042946167 -0.010771781 1.4200001 4280494375
-0.041713823 -0.010771781 1.4200001 4280494375
-0.040481474 -0.010771781 1.4200001 4280560168
-0.03924913 -0.010771781 1.4200001 4280428582
-0.038043559 -0.010779367 1.4210001 4280494375
-0.036836248 -0.010786952 1.4220001 4280231205
-0.035602167 -0.010786952 1.4220001 4280428584
-0.034416422 -0.010802125 1.424 4280231205
-0.033180606 -0.010802125 1.424 4280296998
-0.031967219 -0.01080971 1.4250001 4280099619
-0.030773668 -0.010824881 1.427 4280165412
-0.029535247 -0.010824881 1.427 4280165412
-0.028296826 -0.010824881 1.427 4280033826
-0.027077368 -0.010832466 1.4280001 4279902240
-0.025838079 -0.010832466 1.4280001 4279968033
-0.02459879 -0.010832466 1.4280001 4280099619
-0.023375859 -0.010840053 1.429 4280231205
-0.022104722 -0.010824881 1.427 4280231203
-0.020866301 -0.010824881 1.427 4280165410
-0.019614127 -0.010817296 1.4260001 4280231203
-0.018376574 -0.010817296 1.4260001 4280494375
-0.017139021 -0.010817296 1.4260001 4280625961
-0.015879165 -0.010802125 1.424 4280625961
-0.014633064 -0.010794538 1.4230001 4280823340
-0.013398115 -0.010794538 1.4230001 4280954926
-0.012146072 -0.010779367 1.4210001 4280494377
-0.010905177 -0.010771781 1.4200001 4280296998
-0.0096728317 -0.010771781 1.4200001 4280494377
-0.0084285978 -0.010756609 1.4180001 4280757549
-0.007192912 -0.010749023 1.4170001 4280823342
-0.0059589609 -0.010741438 1.416 4280889135
-0.0047200653 -0.01071868 1.4130001 4281152053
-0.0034937942 -0.01071868 1.4130001 4281546811
-0.002262709 -0.010695923 1.4100001 4281481272
-0.0010383049 -0.010688337 1.409 4281547065
0.00018449465 -0.010688337 1.409 4282402374
0.0014062953 -0.010680752 1.4080001 4285297266
0.0026300936 -0.010688337 1.409 4285231473
0.0038528931 -0.010688337 1.409 4283060304
0.0050864997 -0.010711095 1.4120001 4282599499
0.0063163727 -0.01071868 1.4130001 4284112738
0.0075479816 -0.010726266 1.414 4285494391
0.0087999441 -0.010756609 1.4180001 4285297012
0.010044701 -0.010771781 1.4200001 4284178274
0.011300872 -0.010794538 1.4230001 4283915102
-0.17143302 -0.0096354 1.4330001 4283389269
-0.17030814 -0.0096421242 1.434 4283718234
-0.16906364 -0.0096421242 1.434 4283849821
-0.16770212 -0.0096354 1.4330001 4283586394
-0.1664585 -0.0096354 1.4330001 4283191636
-0.16509958 -0.0096286759 1.432 4283060050
-0.16362797 -0.0096152285 1.4300001 4282928464
-0.16238694 -0.0096152285 1.4300001 4282731085
-0.16103323 -0.0096085044 1.429 4282665292
-0.15968125 -0.0096017802 1.4280001 4282796879
-0.15844196 -0.0096017802 1.4280001 4282994257
-0.15709259 -0.0095950561 1.427 4282994258
-0.15596339 -0.0096017802 1.4280001 4283060050
-0.15472409 -0.0096017802 1.4280001 4282928465
-0.15348481 -0.0096017802 1.4280001 4282862672
-0.15235212 -0.0096085044 1.429 4282862672
-0.15111198 -0.0096085044 1.429 4283125844
-0.14987181 -0.0096085044 1.429 4283389016
-0.14863166 -0.0096085044 1.429 4283323223
-0.14749466 -0.0096152285 1.4300001 4283125844
-0.14625363 -0.0096152285 1.4300001 4282994258
-0.1450126 -0.0096152285 1.4300001 4283125844
-0.14377157 -0.0096152285 1.4300001 4283126100
-0.14282957 -0.0096354 1.4330001 4283126101
-0.14168474 -0.0096421242 1.434 4283192150
-0.14044024 -0.0096421242 1.434 4283060821
-0.13948695 -0.0096622957 1.437 4282995028
-0.13823986 -0.0096622957 1.437 4283060821
-0.13699275 -0.0096622957 1.437 4283192407
-0.13593459 -0.009675744 1.439 4283323993
-0.13477935 -0.0096824681 1.4400001 4283389786
-0.13352965 -0.0096824681 1.4400001 4283389786
-0.13246366 -0.0096959155 1.442 4283257943
-0.13130322 -0.0097026397 1.4430001 4283126101
-0.13005091 -0.0097026397 1.4430001 4282994258
-0.12897712 -0.009716087 1.4450001 4282928464
-0.12772308 -0.009716087 1.4450001 4282862671
-0.12646905 -0.009716087 1.4450001 4282731085
-0.12538829 -0.0097295353 1.447 4282599499
-0.12421831 -0.0097362595 1.4480001 4282665292
-0.12304658 -0.0097429836 1.4490001 4282731085
-0.12195718 -0.009756431 1.4510001 4282599499
-0.12069792 -0.009756431 1.4510001 4282665292
-0.11943868 -0.009756431 1.4510001 4282665292
-0.11817943 -0.009756431 1.4510001 4282533961
-0.11700075 -0.0097631551 1.452 4282665546
-0.11574063 -0.0097631551 1.452 4282797132
-0.11448052 -0.0097631551 1.452 4282665546
-0.1132204 -0.0097631551 1.452 4282599753
-0.11188319 -0.009756431 1.4510001 4282665546
-0.11062393 -0.009756431 1.4510001 4282599753
-0.10944005 -0.0097631551 1.452 4282533960
-0.10817993 -0.0097631551 1.452 4282402374
-0.10691982 -0.0097631551 1.452 4282139202
-0.10558694 -0.009756431 1.4510001 4281941823
-0.10418388 -0.0097429836 1.4490001 4282007616
-0.10292637 -0.0097429836 1.4490001 4282007615
-0.10166886 -0.0097429836 1.4490001 4281810235
-0.10027275 -0.0097295353 1.447 4281612856
-0.098948538 -0.0097228112 1.4460001 4281349684
-0.097626068 -0.009716087 1.4450001 4281349684
-0.096238643 -0.0097026397 1.4430001 4281349684
-0.09505216 -0.0097093638 1.4440001 4281283891
-0.093734026 -0.0097026397 1.4430001 4281152306
-0.092481725 -0.0097026397 1.4430001 4281152305
-0.091229416 -0.0097026397 1.4430001 4281020720
-0.089977108 -0.0097026397 1.4430001 4280889905
-0.088724807 -0.0097026397 1.4430001 4280824112
-0.087472498 -0.0097026397 1.4430001 4280692526
-0.08622019 -0.0097026397 1.4430001 4280626733
-0.084967881 -0.0097026397 1.4430001 4280495404
-0.08371558 -0.0097026397 1.4430001 4280298025
-0.082463272 -0.0097026397 1.4430001 4280363561
-0.081154682 -0.0096959155 1.442 4280297768
-0.079847842 -0.0096891914 1.4410001 4280297768
-0.078542724 -0.0096824681 1.4400001 4280231975
-0.077239342 -0.009675744 1.439 4280297768
-0.075937703 -0.0096690198 1.4380001 4280495147
-0.074689738 -0.0096690198 1.4380001 4280692526
-0.073288552 -0.0096488483 1.4350001 4280692526
-0.071992986 -0.0096421242 1.434 4280954928
-0.070699148 -0.0096354 1.4330001 4281152307
-0.069164708 -0.0095950561 1.427 4282139202
-0.067878686 -0.0095883328 1.4260001 4282665546
-0.066454209 -0.0095614372 1.4220001 4282204996
-0.065128393 -0.0095479889 1.4200001 4281612602
-0.063851051 -0.0095412647 1.419 4281086260
-0.062487189 -0.0095210932 1.416 4280559916
-0.061258312 -0.0095210932 1.416 4280165412
-0.06002944 -0.0095210932 1.416 4280165412
-0.058800563 -0.0095210932 1.416 4280231205
-0.057612345 -0.0095278174 1.4170001 4280296998
-0.0563826 -0.0095278174 1.4170001 4280296998
-0.055191781 -0.0095345406 1.4180001 4280428584
-0.053961173 -0.0095345406 1.4180001 4280494375
-0.052730564 -0.0095345406 1.4180001 4280428582
-0.051536269 -0.0095412647 1.419 4280428582
-0.050304793 -0.0095412647 1.419 4280494375
-0.049107894 -0.0095479889 1.4200001 4280560168
-0.04787555 -0.0095479889 1.4200001 4280625961
-0.046643205 -0.0095479889 1.4200001 4280560168
-0.04541086 -0.0095479889 1.4200001 4280494375
-0.044147402 -0.0095412647 1.419 4280362789
-0.042915925 -0.0095412647 1.419 4280560168
-0.041684445 -0.0095412647 1.419 4280625961
-0.040452968 -0.0095412647 1.419 4280625961
-0.039221492 -0.0095412647 1.419 4280625961
-0.038016785 -0.0095479889 1.4200001 4280428582
-0.036784437 -0.0095479889 1.4200001 4280362791
-0.03557713 -0.009554713 1.4210001 4280494377
-0.034368083 -0.0095614372 1.4220001 4280362791
-0.033157308 -0.0095681604 1.4230001 4280362791
-0.031922355 -0.0095681604 1.4230001 4280165412
-0.030730536 -0.0095816087 1.4250001 4280033826
-0.02949385 -0.0095816087 1.4250001 4280099619
-0.028257167 -0.0095816087 1.4250001 4280296998
-0.027039444 -0.0095883328 1.4260001 4280296998
-0.025819983 -0.0095950561 1.427 4280231205
-0.024564339 -0.0095883328 1.4260001 4280231205
-0.023326786 -0.0095883328 1.4260001 4280296998
-0.022089232 -0.0095883328 1.4260001 4280165410
-0.020851679 -0.0095883328 1.4260001 4280296996
-0.019614127 -0.0095883328 1.4260001 4280428582
-0.018376574 -0.0095883328 1.4260001 4280757547
-0.017139021 -0.0095883328 1.4260001 4280757547
-0.015879165 -0.0095748855 1.424 4280691754
