# .PCD v0.7 - Point Cloud Data file format
VERSION 0.7
FIELDS x y z rgba
SIZE 4 4 4 4
TYPE F F F U
COUNT 1 1 1 1
WIDTH 1108
HEIGHT 1
VIEWPOINT 0 0 0 1 0 0 0
POINTS 1108
DATA ascii
-0.20827639 0.10692844 1.7930001 4289050563
-0.20504987 0.1068688 1.7920001 4288984770
-0.20171411 0.10674953 1.7900001 4288787134
-0.19838531 0.10663026 1.7880001 4288852927
-0.19528189 0.10663026 1.7880001 4288918719
-0.19217846 0.10663026 1.7880001 4288853184
-0.18896927 0.10657062 1.7870001 4288853184
-0.18555555 0.10639171 1.784 4288787647
-0.18215224 0.10621279 1.7810001 4288985282
-0.17875934 0.10603388 1.7780001 4288919489
-0.17557447 0.10597426 1.7770001 4288985025
-0.17239305 0.10591462 1.7760001 4288984768
-0.16921513 0.10585498 1.7750001 4288984768
-0.16604067 0.10579535 1.774 4288984768
-0.16286968 0.1057357 1.7730001 4288918975
-0.15970217 0.10567607 1.7720001 4288984768
-0.15662651 0.10567607 1.7720001 4288787647
-0.15355085 0.10567607 1.7720001 4288787903
-0.15047519 0.10567607 1.7720001 4288590524
-0.14739953 0.10567607 1.7720001 4288524731
-0.14432387 0.10567607 1.7720001 4288656317
-0.1411685 0.10561644 1.771 4288656317
-0.13809459 0.10561644 1.771 4288722110
-0.13509689 0.10567607 1.7720001 4288458939
-0.13209574 0.1057357 1.7730001 4288524733
-0.12909113 0.10579535 1.774 4288458684
-0.12608303 0.10585498 1.7750001 4288261560
-0.12300216 0.10585498 1.7750001 4288261560
-0.1199213 0.10585498 1.7750001 4288064181
-0.11690626 0.10591462 1.7760001 4288064181
-0.11388775 0.10597426 1.7770001 4287866802
-0.11092812 0.10609352 1.779 4287735216
-0.10796155 0.10621279 1.7810001 4287669423
-0.10492916 0.10627244 1.7820001 4287866802
-0.10195043 0.10639171 1.784 4287735216
-0.098964773 0.10651098 1.7860001 4287669423
-0.095918491 0.10657062 1.7870001 4287669423
-0.092920676 0.10668989 1.789 4287669423
-0.089865722 0.10674953 1.7900001 4287669423
-0.086758822 0.10674953 1.7900001 4287735216
-0.083698645 0.10680917 1.7910001 4287801009
-0.080725007 0.10698808 1.794 4287866802
-0.077740945 0.10716698 1.7970001 4287735216
-0.074829526 0.10746516 1.802 4287866545
-0.071741588 0.1075248 1.8030001 4287866802
-0.068840452 0.10788263 1.8090001 4287735216
-0.065882169 0.10818081 1.8140001 4287931826
-0.06287194 0.10841935 1.8180001 4288194738
-0.06007776 0.10907536 1.8290001 4288325810
-0.28324512 0.11388464 1.8560001 4294901502
-0.27957103 0.11370056 1.853 4294901502
-0.27665305 0.11382328 1.8550001 4294901502
-0.27387553 0.11400736 1.858 4294835710
-0.27065063 0.11400736 1.858 4294901502
-0.26728177 0.113946 1.8570001 4294901502
-0.26420075 0.11400736 1.858 4294901502
-0.25929031 0.11327104 1.8460001 4294835966
-0.25567004 0.11308696 1.8430001 4294835966
-0.2517862 0.11278015 1.8380001 4294770431
-0.24724345 0.11216655 1.8280001 4294639359
-0.24300246 0.11167567 1.8200001 4291547867
-0.23931634 0.11143023 1.8160001 4288982968
-0.23551409 0.11112343 1.8110001 4288852155
-0.23172918 0.11081663 1.8060001 4288786620
-0.22834137 0.1106939 1.8040001 4288721597
-0.22483565 0.11050983 1.8010001 4288656318
-0.22134034 0.11032575 1.7980001 4288590525
-0.21797682 0.11020302 1.7960001 4288787647
-0.21450061 0.11001894 1.7930001 4288853184
-0.21127062 0.10995758 1.7920001 4288721598
-0.20781176 0.1097735 1.789 4288590012
-0.20447774 0.10965078 1.7870001 4288655805
-0.20126337 0.10958942 1.7860001 4288589756
-0.19771959 0.10934398 1.7820001 4288589499
-0.19451736 0.10928262 1.7810001 4288721598
-0.19142607 0.10928262 1.7810001 4288787647
-0.18812332 0.10915989 1.779 4288919234
-0.18482748 0.10903718 1.7770001 4288787904
-0.18164086 0.10897581 1.7760001 4288787904
-0.17825665 0.10879174 1.7730001 4288919488
-0.17498165 0.10866902 1.771 4288985024
-0.17190772 0.10866902 1.771 4288787389
-0.16873847 0.10860766 1.7700001 4288918975
-0.16594706 0.10879174 1.7730001 4288853182
-0.16277781 0.10873038 1.7720001 4288655803
-0.15961204 0.10866902 1.771 4288787391
-0.15653811 0.10866902 1.771 4288787904
-0.15337753 0.10860766 1.7700001 4288656318
-0.15030535 0.10860766 1.7700001 4288590525
-0.14731635 0.10866902 1.771 4288524732
-0.14424244 0.10866902 1.771 4288656318
-0.14108878 0.10860766 1.7700001 4288722111
-0.1380166 0.10860766 1.7700001 4288458939
-0.13502066 0.10866902 1.771 4288393146
-0.13194674 0.10866902 1.771 4288261560
-0.12894559 0.10873038 1.7720001 4288195767
-0.126012 0.1088531 1.774 4288129974
-0.12293287 0.1088531 1.774 4288129974
-0.11985374 0.1088531 1.774 4287998388
-0.11684043 0.10891446 1.7750001 4287866802
-0.11382365 0.10897581 1.7760001 4287801009
-0.11080342 0.10903718 1.7770001 4287735216
-0.10790093 0.10922126 1.7800001 4287735216
-0.10492916 0.10934398 1.7820001 4287669423
-0.10195043 0.1094667 1.784 4287669423
-0.099020183 0.10965078 1.7870001 4287603630
-0.095972165 0.10971215 1.7880001 4287603630
-0.092920676 0.1097735 1.789 4287537837
-0.089865722 0.10983486 1.7900001 4287603630
-0.086758822 0.10983486 1.7900001 4287603630
-0.083745383 0.10995758 1.7920001 4287603630
-0.080770001 0.11014166 1.7950001 4287603630
-0.077740945 0.11026438 1.7970001 4287603630
-0.074829526 0.11057118 1.802 4287603630
-0.071741588 0.11063255 1.8030001 4287669423
-0.068802394 0.11093935 1.8080001 4287669423
-0.065845847 0.11124615 1.8130001 4287800496
-0.062802769 0.11143023 1.8160001 4287734447
-0.059946377 0.11198246 1.825 4288062897
-0.28248206 0.11676831 1.8510001 4294901245
-0.27866578 0.11651599 1.8470001 4294966783
-0.27590737 0.11670524 1.8500001 4294900991
-0.27254891 0.11664215 1.8490001 4294966527
-0.26933962 0.11664215 1.8490001 4294966015
-0.26613033 0.11664215 1.8490001 4294768636
-0.26277882 0.11657906 1.848 4294768637
-0.25872847 0.11620056 1.8420001 4294835199
-0.25497642 0.11594822 1.8380001 4294835711
-0.25096428 0.11556972 1.8320001 4294770431
-0.24670245 0.11506505 1.8240001 4293718263
-0.24260189 0.11462346 1.817 4288916405
-0.2390528 0.1144342 1.8140001 4288851641
-0.23538405 0.11418188 1.8100001 4288589497
-0.23160087 0.11386645 1.8050001 4288392633
-0.2282148 0.11374029 1.8030001 4288458939
-0.22471082 0.11355104 1.8000001 4288327353
-0.22121724 0.11336178 1.7970001 4288458939
-0.21785545 0.11323562 1.7950001 4288524732
-0.21438098 0.11304637 1.7920001 4288590012
-0.21103482 0.11292019 1.7900001 4288524219
-0.20757943 0.11273094 1.7870001 4288392633
-0.20402004 0.11247861 1.7830001 4288523962
-0.20081261 0.11241553 1.7820001 4288524219
-0.19749768 0.11228936 1.7800001 4288590012
-0.1941897 0.11216319 1.7780001 4288787391
-0.19099616 0.11210011 1.7770001 4288656062
-0.18780605 0.11203702 1.7760001 4288853697
-0.18451545 0.11191086 1.774 4288656318
-0.18133403 0.11184777 1.7730001 4288787904
-0.17805557 0.11172161 1.771 4288722111
-0.17488283 0.11165851 1.7700001 4288787389
-0.17161652 0.11153235 1.7680001 4288590010
-0.16835713 0.11140618 1.766 4288721596
-0.1651983 0.1113431 1.7650001 4288787389
-0.16195107 0.11121693 1.7630001 4288655805
-0.15880091 0.11115385 1.7620001 4288524732
-0.15574262 0.11115385 1.7620001 4288590525
-0.15277097 0.11121693 1.7630001 4288458939
-0.14979583 0.11128002 1.7640001 4288458939
-0.14673406 0.11128002 1.7640001 4288458939
-0.14375375 0.1113431 1.7650001 4288458939
-0.14069024 0.1113431 1.7650001 4288524732
-0.13762674 0.1113431 1.7650001 4288195767
-0.13456322 0.1113431 1.7650001 4288327353
-0.13157421 0.11140618 1.766 4288129974
-0.12858173 0.11146926 1.7670001 4287998388
-0.12572786 0.11165851 1.7700001 4287932595
-0.12272498 0.11172161 1.771 4287932595
-0.11971861 0.11178469 1.7720001 4287801009
-0.11664295 0.11178469 1.7720001 4287669423
-0.11363139 0.11184777 1.7730001 4287669423
-0.11074106 0.11203702 1.7760001 4287669423
-0.10784031 0.11222627 1.779 4287603630
-0.10481139 0.11228936 1.7800001 4287603630
-0.10189329 0.11247861 1.7830001 4287537837
-0.098964773 0.11266786 1.7860001 4287406251
-0.095864818 0.11266786 1.7860001 4287406251
-0.0928168 0.11273094 1.7870001 4287340458
-0.08976531 0.11279403 1.7880001 4287340460
-0.086661875 0.11279403 1.7880001 4287537582
-0.083651923 0.11292019 1.7900001 4287472044
-0.080725007 0.11317253 1.794 4287537837
-0.077654421 0.11323562 1.7950001 4287406251
-0.074746482 0.11355104 1.8000001 4287340458
-0.071662009 0.11361413 1.8010001 4287472044
-0.068688236 0.11386645 1.8050001 4287603630
-0.06573689 0.11418188 1.8100001 4287603630
-0.062664449 0.11430804 1.812 4287668910
-0.059716444 0.11468655 1.8180001 4287800496
-0.056872062 0.11531739 1.8280001 4287997362
-0.05384608 0.1156328 1.8330001 4288193713
-0.29733601 0.12345841 1.9050001 4294901502
-0.28278726 0.12008841 1.853 4294966783
-0.27821317 0.11950514 1.8440001 4294769149
-0.27486339 0.11944033 1.8430001 4294834173
-0.2716645 0.11944033 1.8430001 4294900222
-0.26831996 0.11937552 1.8420001 4294966015
-0.2651228 0.11937552 1.8420001 4294966015
-0.26192564 0.11937552 1.8420001 4294966015
-0.2583071 0.1191811 1.8390001 4294966015
-0.25414407 0.11872745 1.8320001 4294900735
-0.25069031 0.11859784 1.83 4294704127
-0.24656717 0.11814418 1.8230001 4294047485
-0.24246837 0.11769053 1.8160001 4289640642
-0.2390528 0.11756091 1.8140001 4288588727
-0.235254 0.11723687 1.8090001 4288392120
-0.23147257 0.11691284 1.8040001 4288327354
-0.22808823 0.11678322 1.802 4288393146
-0.22471082 0.11665361 1.8000001 4288195767
-0.22121724 0.11645918 1.7970001 4288327353
-0.2177341 0.11626476 1.794 4288393146
-0.21414171 0.11600553 1.7900001 4288392633
-0.21079902 0.11587592 1.7880001 4288392633
-0.20723096 0.11561669 1.784 4288392633
-0.20379119 0.11542226 1.7810001 4288524219
-0.20058723 0.11535745 1.7800001 4288458426
-0.19705386 0.11509823 1.7760001 4288524219
-0.19375283 0.11496861 1.774 4288721598
-0.19067371 0.11496861 1.774 4288656062
-0.18748882 0.11490381 1.7730001 4288656318
-0.18420342 0.11477418 1.771 4288458939
-0.1810272 0.11470938 1.7700001 4288524732
-0.17785449 0.11464457 1.7690001 4288656318
-0.17468524 0.11457976 1.7680001 4288656060
-0.17151944 0.11451496 1.7670001 4288655804
-0.16826181 0.11438534 1.7650001 4288524219
-0.16501111 0.11425573 1.7630001 4288524219
-0.16185921 0.11419091 1.7620001 4288524219
-0.15871078 0.11412612 1.761 4288458426
-0.15565421 0.11412612 1.761 4288327096
-0.15268432 0.11419091 1.7620001 4288261304
-0.14971092 0.11425573 1.7630001 4288392633
-0.14673406 0.11432054 1.7640001 4288261303
-0.14375375 0.11438534 1.7650001 4288261560
-0.14069024 0.11438534 1.7650001 4288261560
-0.13762674 0.11438534 1.7650001 4288064181
-0.13456322 0.11438534 1.7650001 4288064181
-0.13149972 0.11438534 1.7650001 4288063924
-0.12843621 0.11438534 1.7650001 4287800496
-0.12544373 0.11445015 1.766 4287800752
-0.12237849 0.11445015 1.766 4287800752
-0.11944837 0.11457976 1.7680001 4287734703
-0.1165113 0.11470938 1.7700001 4287603117
-0.11350321 0.11477418 1.771 4287668910
-0.11061636 0.11496861 1.774 4287603373
-0.10771908 0.11516303 1.7770001 4287340458
-0.10469362 0.11522784 1.7780001 4287669423
-0.10177899 0.11542226 1.7810001 4287472043
-0.098798536 0.11555187 1.7830001 4287406251
-0.095703788 0.11555187 1.7830001 4287340458
-0.092660971 0.11561669 1.784 4287340204
-0.089564487 0.11561669 1.784 4287274411
-0.08651647 0.1156815 1.7850001 4287340204
-0.083464988 0.1157463 1.7860001 4287340458
-0.080500022 0.11594072 1.789 4287472044
-0.07752464 0.11613515 1.7920001 4287406251
-0.074580371 0.11639437 1.7960001 4287406251
-0.071542636 0.116524 1.7980001 4287472044
-0.068574071 0.11678322 1.802 4287537837
-0.065627933 0.11710726 1.807 4287406251
-0.0625607 0.11723687 1.8090001 4287603117
-0.059585053 0.11756091 1.8140001 4287800496
-0.056654278 0.11801457 1.8210001 4287734190
-0.053611074 0.1182738 1.825 4287799726
-0.050719827 0.11892186 1.835 4288193712
-0.2833977 0.12354846 1.8570001 4294900735
-0.27866578 0.12288315 1.8470001 4293847535
-0.27501252 0.12268355 1.8440001 4293452521
-0.2718119 0.12268355 1.8440001 4293780974
-0.26846561 0.12261702 1.8430001 4294175731
-0.26526672 0.12261702 1.8430001 4294109939
-0.26192564 0.12255049 1.8420001 4294044146
-0.25816664 0.12228436 1.8380001 4294043890
-0.25414407 0.12188517 1.8320001 4293518319
-0.25055328 0.12168558 1.8290001 4291809243
-0.24643193 0.12121987 1.8220001 4289705666
-0.24246837 0.12082068 1.8160001 4288719799
-0.2390528 0.12068761 1.8140001 4288457399
-0.23512396 0.12028842 1.8080001 4288326584
-0.23121595 0.11988924 1.802 4288261304
-0.22796166 0.11982272 1.8010001 4288327097
-0.22421145 0.11949005 1.7960001 4288063925
-0.22097103 0.11942353 1.7950001 4287998132
-0.21736999 0.1191574 1.7910001 4288129718
-0.21378282 0.11889127 1.7870001 4288326840
-0.21056323 0.11882474 1.7860001 4288129461
-0.20699863 0.11855862 1.7820001 4288195254
-0.20344791 0.11829249 1.7780001 4288458426
-0.20013645 0.11815944 1.7760001 4288458426
-0.19661005 0.1178933 1.7720001 4288655805
-0.19320674 0.11769371 1.7690001 4288655805
-0.19013628 0.11769371 1.7690001 4288656062
-0.1869601 0.11762717 1.7680001 4288524732
-0.18378736 0.11756065 1.7670001 4288393146
-0.18072039 0.11756065 1.7670001 4288524732
-0.17755286 0.11749411 1.766 4288656318
-0.17438883 0.11742758 1.7650001 4288721854
-0.17122824 0.11736106 1.7640001 4288524476
-0.16807114 0.11729452 1.7630001 4288458426
-0.1648239 0.11716147 1.761 4288326840
-0.16158363 0.11702839 1.7590001 4288261047
-0.15853053 0.11702839 1.7590001 4288524219
-0.15547745 0.11702839 1.7590001 4288326840
-0.15259765 0.11716147 1.761 4288195254
-0.14954108 0.11716147 1.761 4288195254
-0.14665088 0.11729452 1.7630001 4288261047
-0.14367229 0.11736106 1.7640001 4288195254
-0.14061052 0.11736106 1.7640001 4287998388
-0.13754874 0.11736106 1.7640001 4287998388
-0.13441074 0.11729452 1.7630001 4287932339
-0.13135071 0.11729452 1.7630001 4287866545
-0.12836343 0.11736106 1.7640001 4287668910
-0.12537271 0.11742758 1.7650001 4287668653
-0.1223092 0.11742758 1.7650001 4287668653
-0.1193808 0.11756065 1.7670001 4287471531
-0.11637966 0.11762717 1.7680001 4287405738
-0.11337503 0.11769371 1.7690001 4287471531
-0.11049164 0.1178933 1.7720001 4287472044
-0.10759784 0.11809289 1.7750001 4287406251
-0.10457586 0.11815944 1.7760001 4287537837
-0.1016647 0.11835902 1.779 4287340458
-0.098687708 0.11849208 1.7810001 4287406251
-0.095596433 0.11849208 1.7810001 4287405738
-0.092557095 0.11855862 1.7820001 4287208615
-0.089564487 0.11869168 1.784 4287010981
-0.08651647 0.11875821 1.7850001 4287011238
-0.083464988 0.11882474 1.7860001 4287340458
-0.080500022 0.11902433 1.789 4287472044
-0.077438124 0.11909086 1.7900001 4287340458
-0.074538849 0.11942353 1.7950001 4287340458
-0.071463063 0.11949005 1.7960001 4287406251
-0.068497963 0.11975618 1.8000001 4287340458
-0.065518975 0.1200223 1.8040001 4287603373
-0.062456947 0.12015536 1.8060001 4287537324
-0.059453662 0.12042149 1.8100001 4287537324
-0.056436494 0.12068761 1.8140001 4287602604
-0.053376067 0.12088721 1.817 4287734190
-0.050471067 0.12148599 1.8260001 4287865005
-0.04753482 0.12208477 1.835 4288324527
-0.044518996 0.12255049 1.8420001 4288126889
-0.28324512 0.12668103 1.8560001 4294966783
-0.27881667 0.12613498 1.848 4294571001
-0.27516165 0.12593022 1.845 4293649644
-0.2719593 0.12593022 1.845 4293188580
-0.26861128 0.12586197 1.8440001 4293254118
-0.26526672 0.12579371 1.8430001 4293253863
-0.26206782 0.12579371 1.8430001 4293122279
-0.25816664 0.12545243 1.8380001 4292925414
-0.25400534 0.12497465 1.8310001 4291347153
-0.25041631 0.12476989 1.8280001 4288059302
-0.24616143 0.12422384 1.8200001 4288652980
-0.24220136 0.12381431 1.8140001 4288785851
-0.23878922 0.12367781 1.812 4288457656
-0.23486385 0.12326828 1.8060001 4288261048
-0.23108765 0.12292701 1.8010001 4288326842
-0.22770849 0.12279049 1.7990001 4288195256
-0.22396179 0.12244922 1.794 4288129462
-0.22072482 0.12238096 1.7930001 4288063668
-0.21736999 0.12224445 1.7910001 4288063668
-0.21378282 0.12197144 1.7870001 4288129461
-0.21044534 0.12183493 1.7850001 4287866289
-0.20676631 0.12149365 1.7800001 4287997875
-0.20310465 0.12115238 1.7750001 4288129461
-0.19991109 0.12108412 1.774 4288392631
-0.19627719 0.12074285 1.7690001 4288392632
-0.19287908 0.12053809 1.766 4288524219
-0.18981384 0.12053809 1.766 4288590012
-0.18664286 0.12046982 1.7650001 4288458683
-0.18347533 0.12040158 1.7640001 4288393146
-0.18031129 0.12033332 1.7630001 4288458939
-0.17725125 0.12033332 1.7630001 4288590525
-0.17419121 0.12033332 1.7630001 4288722111
-0.17103411 0.12026506 1.7620001 4288327353
-0.16797581 0.12026506 1.7620001 4288458426
-0.16473031 0.12012856 1.7600001 4288261047
-0.16149177 0.11999205 1.7580001 4288326840
-0.1584404 0.11999205 1.7580001 4288655805
-0.15538904 0.11999205 1.7580001 4288721598
-0.152511 0.12012856 1.7600001 4288721598
-0.14945617 0.12012856 1.7600001 4288721598
-0.14656772 0.12026506 1.7620001 4288195254
-0.14359085 0.12033332 1.7630001 4287997875
-0.1404511 0.12026506 1.7620001 4288195511
-0.13731483 0.12019681 1.761 4287998388
-0.1343345 0.12026506 1.7620001 4287669423
-0.13127621 0.12026506 1.7620001 4287472044
-0.12829067 0.12033332 1.7630001 4287537324
-0.12537271 0.12046982 1.7650001 4287471531
-0.1223092 0.12046982 1.7650001 4287405738
-0.1193808 0.12060634 1.7670001 4287274152
-0.11637966 0.12067459 1.7680001 4287208359
-0.11337503 0.12074285 1.7690001 4287274409
-0.11042929 0.12087935 1.771 4287537837
-0.10747661 0.12101587 1.7730001 4287472044
-0.10445809 0.12108412 1.774 4287340458
-0.10149326 0.12122063 1.7760001 4287406251
-0.098521478 0.12135714 1.7780001 4287472044
-0.095489085 0.1214254 1.779 4287405738
-0.092505157 0.12156191 1.7810001 4287076773
-0.089564487 0.12176667 1.784 4287010980
-0.086468004 0.12176667 1.784 4287010980
-0.083464988 0.12190317 1.7860001 4287208872
-0.080410026 0.12197144 1.7870001 4287340458
-0.077438124 0.1221762 1.7900001 4287274665
-0.074455798 0.12238096 1.7930001 4287143079
-0.07142327 0.12251748 1.7950001 4287274665
-0.068497963 0.12285875 1.8000001 4287340458
-0.065518975 0.12313177 1.8040001 4287340458
-0.062387779 0.12313177 1.8040001 4287471531
-0.059387971 0.12340479 1.8080001 4287208359
-0.056374274 0.12367781 1.812 4287405225
-0.053346694 0.12395083 1.8160001 4287536297
-0.050443426 0.12456512 1.825 4287536297
-0.047586631 0.12538418 1.8370001 4287996076
-0.044591505 0.12593022 1.845 4288587441
-0.27575824 0.12939027 1.8490001 4294504441
-0.27240154 0.12932028 1.848 4293780462
-0.26904827 0.12925032 1.8470001 4293582829
-0.26569849 0.12918033 1.8460001 4293385452
-0.26249442 0.12918033 1.8460001 4292925159
-0.2583071 0.12869048 1.8390001 4291478997
-0.25400534 0.12813066 1.8310001 4288716719
-0.25027931 0.12785074 1.8270001 4287862439
-0.24602617 0.12729092 1.8190001 4288850618
-0.2419343 0.12680106 1.812 4288654778
-0.23839389 0.12659113 1.8090001 4288260534
-0.23460376 0.12624124 1.8040001 4287997875
-0.23083101 0.12589134 1.7990001 4288063670
-0.22732876 0.1256814 1.7960001 4287997877
-0.2237121 0.1254015 1.7920001 4287866291
-0.22047862 0.12533152 1.7910001 4287997875
-0.21712725 0.12519155 1.789 4288063668
-0.21354356 0.12491164 1.7850001 4287734703
-0.21020955 0.12477168 1.7830001 4287734703
-0.20653398 0.12442179 1.7780001 4287932082
-0.20287578 0.1240719 1.7730001 4288261047
-0.19957303 0.12393194 1.771 4288392631
-0.19605528 0.12365203 1.7670001 4288326838
-0.19266064 0.1234421 1.7640001 4288326840
-0.18949139 0.12337212 1.7630001 4288524219
-0.18632561 0.12330213 1.7620001 4288590012
-0.1831633 0.12323216 1.761 4288590012
-0.18010673 0.12323216 1.761 4288656062
-0.17705017 0.12323216 1.761 4288722111
-0.17389481 0.12316218 1.7600001 4288590525
-0.17083998 0.12316218 1.7600001 4288261560
-0.16768982 0.1230922 1.7590001 4288129461
-0.16454312 0.12302223 1.7580001 4288195254
-0.1613999 0.12295225 1.7570001 4288392633
-0.15835027 0.12295225 1.7570001 4289116356
-0.15538904 0.12302223 1.7580001 4289182149
-0.15242435 0.1230922 1.7590001 4289050563
-0.14945617 0.12316218 1.7600001 4288853184
-0.14631817 0.1230922 1.7590001 4287997619
-0.14334652 0.12316218 1.7600001 4287932082
-0.14029168 0.12316218 1.7600001 4288129461
-0.13723685 0.12316218 1.7600001 4287866802
-0.13418202 0.12316218 1.7600001 4287603630
-0.13112719 0.12316218 1.7600001 4287537837
-0.12829067 0.12337212 1.7630001 4287471787
-0.12537271 0.12351207 1.7650001 4287208616
-0.1223092 0.12351207 1.7650001 4287274408
-0.1193808 0.12365203 1.7670001 4287208616
-0.11637966 0.123722 1.7680001 4287077286
-0.11331094 0.123722 1.7680001 4286879907
-0.11036693 0.12386197 1.7700001 4287077286
-0.10747661 0.1240719 1.7730001 4287340458
-0.10439921 0.1240719 1.7730001 4287143079
-0.10143611 0.12421186 1.7750001 4287208872
-0.098521478 0.12442179 1.7780001 4287274409
-0.095489085 0.12449177 1.779 4287208359
-0.092557095 0.12470171 1.7820001 4287142566
-0.089614697 0.12491164 1.7850001 4286879394
-0.08651647 0.12491164 1.7850001 4286879394
-0.083464988 0.12498161 1.7860001 4287076773
-0.08045502 0.12512158 1.7880001 4287076773
-0.077394858 0.12519155 1.789 4287011236
-0.074455798 0.12547147 1.7930001 4286879651
-0.071383476 0.12554145 1.794 4287077286
-0.068459906 0.12589134 1.7990001 4287406251
-0.06544634 0.12610127 1.802 4287077030
-0.062353201 0.12617126 1.8030001 4287339945
-0.059322279 0.12638119 1.8060001 4287405738
-0.056343161 0.12673108 1.8110001 4287602604
-0.053258564 0.12687105 1.8130001 4287470761
-0.050360505 0.12750085 1.8220001 4287404711
-0.047560725 0.12848054 1.8360001 4287733163
-0.044543166 0.1289704 1.8430001 4288258991
-0.27620563 0.1327924 1.8520001 4294702845
-0.27284372 0.13272069 1.8510001 4293780720
-0.26948529 0.132649 1.8500001 4293582830
-0.26584244 0.13243389 1.8470001 4293122794
-0.26249442 0.13236219 1.8460001 4292399330
-0.25802618 0.13171688 1.8370001 4289966017
-0.25358915 0.13107155 1.8280001 4287467168
-0.25000536 0.13085645 1.825 4288389553
-0.2456204 0.13021113 1.8160001 4288851131
-0.24153376 0.12970921 1.8090001 4288523449
-0.23799852 0.1294941 1.8060001 4288194997
-0.23395354 0.12899218 1.7990001 4288195254
-0.23031779 0.12870538 1.7950001 4288129463
-0.2266959 0.12841858 1.7910001 4288129463
-0.22346242 0.12834686 1.7900001 4287866290
-0.22023241 0.12827516 1.789 4287932082
-0.21676315 0.12806006 1.7860001 4287998132
-0.21318467 0.12777326 1.7820001 4287932595
-0.20985585 0.12762985 1.7800001 4287866802
-0.2061855 0.12727134 1.7750001 4288064181
-0.20264694 0.12698452 1.771 4288261560
-0.19923495 0.12676942 1.7680001 4288392890
-0.19572242 0.12648262 1.7640001 4288458682
-0.19244222 0.1263392 1.7620001 4288590012
-0.18916894 0.1261958 1.7600001 4288458426
-0.18600838 0.1261241 1.7590001 4288524219
-0.18295528 0.1261241 1.7590001 4288524219
-0.1799022 0.1261241 1.7590001 4288458426
-0.17674854 0.12605241 1.7580001 4288655805
-0.17369719 0.12605241 1.7580001 4288392633
-0.17064583 0.12605241 1.7580001 4288261047
-0.16749914 0.12598071 1.7570001 4288063668
-0.16435593 0.12590899 1.756 4288063668
-0.16130805 0.12590899 1.756 4288326840
-0.15826017 0.12590899 1.756 4288721598
-0.15530066 0.12598071 1.7570001 4288721598
-0.15225103 0.12598071 1.7570001 4288261047
-0.14928633 0.12605241 1.7580001 4288063925
-0.14623497 0.12605241 1.7580001 4287800752
-0.14310217 0.12598071 1.7570001 4287800752
-0.14013225 0.12605241 1.7580001 4287866802
-0.13700293 0.12598071 1.7570001 4287603887
-0.13402954 0.12605241 1.7580001 4287340972
-0.13097818 0.12605241 1.7580001 4287406509
-0.12814513 0.12626751 1.761 4287405997
-0.12523064 0.12641092 1.7630001 4287274411
-0.12223989 0.12648262 1.7640001 4287274666
-0.11931325 0.12662601 1.766 4287208872
-0.11631382 0.12669772 1.7670001 4287077286
-0.11324685 0.12669772 1.7670001 4286879907
-0.11024223 0.12676942 1.7680001 4287208872
-0.10735537 0.12698452 1.771 4287340458
-0.10434032 0.12705623 1.7720001 4287274665
-0.10143611 0.12727134 1.7750001 4287537322
-0.098521478 0.12748644 1.7780001 4287208358
-0.095489085 0.12755814 1.779 4286945187
-0.092557095 0.12777326 1.7820001 4287142309
-0.089614697 0.12798835 1.7850001 4287010467
-0.08651647 0.12798835 1.7850001 4286944674
-0.083464988 0.12806006 1.7860001 4286879138
-0.08045502 0.12820347 1.7880001 4286879137
-0.077394858 0.12827516 1.789 4286813345
-0.074414268 0.12849028 1.7920001 4287076773
-0.071303897 0.12849028 1.7920001 4287076773
-0.068345748 0.12877707 1.7960001 4287208358
-0.065373711 0.12906389 1.8000001 4287010978
-0.062318616 0.1292073 1.802 4287274152
-0.059322279 0.1294941 1.8060001 4287208359
-0.056343161 0.12985261 1.8110001 4287339945
-0.053258564 0.12999602 1.8130001 4287208103
-0.050360505 0.13064134 1.8220001 4287208102
-0.047508918 0.13150176 1.8340001 4287273382
-0.04447066 0.13193198 1.84 4287601577
-0.041568607 0.1328641 1.853 4288390321
-0.27635476 0.13605803 1.853 4294899967
-0.27299112 0.1359846 1.8520001 4293583598
-0.26948529 0.13583776 1.8500001 4293320172
-0.26569849 0.13554405 1.8460001 4292728293
-0.26221001 0.1353972 1.8440001 4291413205
-0.25788572 0.13480979 1.8360001 4288519085
-0.25331172 0.13407552 1.8260001 4287665060
-0.24959438 0.13378184 1.8220001 4288915897
-0.24534991 0.13319442 1.8140001 4288851131
-0.24099968 0.13253358 1.8050001 4288457656
-0.23747142 0.13231331 1.802 4288326583
-0.23382349 0.13201961 1.7980001 4288261047
-0.23018946 0.13172591 1.794 4288063926
-0.22656931 0.13143221 1.7900001 4288063925
-0.22333758 0.13135877 1.789 4287932082
-0.2199862 0.13121192 1.7870001 4287932595
-0.21664178 0.13106507 1.7850001 4288129974
-0.21306503 0.13077137 1.7810001 4288327353
-0.20962006 0.13055108 1.7780001 4288129974
-0.20606935 0.13025738 1.774 4288327353
-0.20241809 0.12989026 1.7690001 4288327353
-0.19912225 0.12974341 1.7670001 4288261560
-0.19550052 0.12937628 1.7620001 4288327355
-0.19222377 0.12922943 1.7600001 4288326841
-0.18906146 0.12915599 1.7590001 4288261049
-0.18590263 0.12908258 1.7580001 4288326840
-0.18285127 0.12908258 1.7580001 4288195254
-0.1797999 0.12908258 1.7580001 4288194997
-0.17664801 0.12900916 1.7570001 4288458426
-0.1734996 0.12893572 1.756 4288194998
-0.1704517 0.12893572 1.756 4288129461
-0.16730848 0.12886231 1.7550001 4287931826
-0.16435593 0.12893572 1.756 4287866289
-0.16130805 0.12893572 1.756 4288063668
-0.15817003 0.12886231 1.7550001 4288063668
-0.15512387 0.12886231 1.7550001 4288063668
-0.15216438 0.12893572 1.756 4287866289
-0.14920141 0.12900916 1.7570001 4287801009
-0.14606862 0.12893572 1.756 4287735216
-0.14302073 0.12893572 1.756 4287472044
-0.13997284 0.12893572 1.756 4287603630
-0.13692495 0.12893572 1.756 4287340715
-0.13387707 0.12893572 1.756 4287143594
-0.13090368 0.12900916 1.7570001 4287209387
-0.1279996 0.12915599 1.7590001 4287077802
-0.12515961 0.12937628 1.7620001 4287142826
-0.1221706 0.12944971 1.7630001 4287208618
-0.11924569 0.12959655 1.7650001 4287077032
-0.11618218 0.12959655 1.7650001 4286879907
-0.11311867 0.12959655 1.7650001 4286814114
-0.11024223 0.12981683 1.7680001 4287208872
-0.10729475 0.1299637 1.7700001 4287143079
-0.10434032 0.13011053 1.7720001 4287208872
-0.10137897 0.13025738 1.774 4287405737
-0.098466069 0.13047767 1.7770001 4287274151
-0.095435403 0.13055108 1.7780001 4287076259
-0.092505157 0.13077137 1.7810001 4286813088
-0.089564487 0.13099165 1.784 4286813088
-0.086468004 0.13099165 1.784 4286747295
-0.08341825 0.13106507 1.7850001 4286813088
-0.080410026 0.13121192 1.7870001 4286747295
-0.077308334 0.13121192 1.7870001 4286944674
-0.074289694 0.13135877 1.789 4287076260
-0.071224317 0.13143221 1.7900001 4287010721
-0.06830769 0.13179934 1.7950001 4287010721
-0.06533739 0.13209303 1.7990001 4286945185
-0.06228403 0.13223989 1.8010001 4286879392
-0.059322279 0.13260701 1.8060001 4286945187
-0.056343161 0.13297415 1.8110001 4287077029
-0.053287938 0.13319442 1.8140001 4287142566
-0.050360505 0.13378184 1.8220001 4286813601
-0.047483012 0.13458951 1.8330001 4286878881
-0.04447066 0.13510349 1.84 4287536297
-0.041591037 0.13613145 1.8540001 4288127662
-0.27724963 0.13970286 1.8590001 4294966015
-0.27372813 0.13955255 1.8570001 4293912050
-0.26977661 0.1391768 1.8520001 4293123049
-0.26584244 0.13880107 1.8470001 4292202463
-0.26221001 0.13857561 1.8440001 4290492362
-0.25760478 0.13782412 1.8340001 4287795876
-0.25303429 0.13707262 1.8240001 4288126381
-0.2493204 0.13677202 1.8200001 4289048253
-0.24494414 0.13609567 1.8110001 4288786364
-0.24086617 0.13556963 1.8040001 4288326327
-0.23733963 0.13534419 1.8010001 4288392377
-0.23369345 0.13504359 1.7970001 4288261047
-0.23006114 0.13474299 1.7930001 4288129974
-0.22644274 0.13444237 1.789 4287998388
-0.22296306 0.13421693 1.7860001 4287998388
-0.21961689 0.13406664 1.784 4288195767
-0.2161563 0.13384119 1.7810001 4288393146
-0.21246687 0.13346545 1.7760001 4288524732
-0.20914848 0.13331515 1.774 4288458939
-0.2056047 0.13301454 1.7700001 4288458939
-0.20207481 0.13271394 1.766 4288195767
-0.19878419 0.13256365 1.7640001 4288195767
-0.19538955 0.13233821 1.761 4288064181
-0.19211456 0.1321879 1.7590001 4287932082
-0.18906146 0.1321879 1.7590001 4287932082
-0.18590263 0.13211276 1.7580001 4287866289
-0.18274726 0.13203761 1.7570001 4287931569
-0.17969763 0.13203761 1.7570001 4288063155
-0.17644693 0.13188732 1.7550001 4288260277
-0.17330198 0.13181216 1.7540001 4288194484
-0.17025757 0.13181216 1.7540001 4288260277
-0.16721316 0.13181216 1.7540001 4288063155
-0.16407514 0.13173701 1.7530001 4287865775
-0.16103247 0.13173701 1.7530001 4287734703
-0.15807991 0.13181216 1.7540001 4287866289
-0.1550355 0.13181216 1.7540001 4287866289
-0.15207772 0.13188732 1.7550001 4287932082
-0.14903158 0.13188732 1.7550001 4287537580
-0.14606862 0.13196245 1.756 4287537837
-0.14302073 0.13196245 1.756 4287472044
-0.13997284 0.13196245 1.756 4287340715
-0.13692495 0.13196245 1.756 4287143593
-0.13387707 0.13196245 1.756 4287012007
-0.13082919 0.13196245 1.756 4287012007
-0.1279996 0.1321879 1.7590001 4286946214
-0.12508857 0.13233821 1.761 4287077032
-0.122032 0.13233821 1.761 4287011238
-0.11911056 0.1324885 1.7630001 4286748321
-0.11618218 0.1326388 1.7650001 4286748321
-0.11318276 0.13271394 1.766 4286748321
-0.11024223 0.13286425 1.7680001 4286945700
-0.10735537 0.13308969 1.771 4286682528
-0.10434032 0.13316485 1.7720001 4287011493
-0.10143611 0.13339029 1.7750001 4286945187
-0.098466069 0.13354059 1.7770001 4286945187
-0.095435403 0.13361575 1.7780001 4287076260
-0.092505157 0.13384119 1.7810001 4286878881
-0.089564487 0.13406664 1.784 4286747295
-0.086468004 0.13406664 1.784 4286681502
-0.08341825 0.13414179 1.7850001 4286813088
-0.080365032 0.13421693 1.7860001 4286549916
-0.077308334 0.13429208 1.7870001 4286681502
-0.074289694 0.13444237 1.789 4286747295
-0.071224317 0.13451754 1.7900001 4286813088
-0.068269633 0.13481814 1.794 4286813343
-0.06533739 0.13519388 1.7990001 4286878880
-0.06228403 0.13534419 1.8010001 4286879138
-0.059355121 0.13579509 1.807 4286945187
-0.056405384 0.13624598 1.8130001 4286945187
-0.053346694 0.13647142 1.8160001 4286945187
-0.050388146 0.13699746 1.8230001 4286682015
-0.047457106 0.13767381 1.8320001 4286747551
-0.044398151 0.13804956 1.8370001 4287273639
-0.041568607 0.13925196 1.853 4287930540
-0.27446517 0.14313774 1.8620001 4294175990
-0.27021363 0.14259963 1.8550001 4292991719
-0.26584244 0.14198464 1.8470001 4291676632
-0.26206782 0.14167714 1.8430001 4289834943
-0.25746432 0.14090842 1.8330001 4288191147
-0.2527568 0.14006281 1.8220001 4288850104
-0.2490464 0.13975532 1.8180001 4289114046
-0.24494414 0.1392172 1.8110001 4288720571
-0.24086617 0.1386791 1.8040001 4288260534
-0.23747142 0.13852535 1.802 4288261047
-0.23356341 0.1380641 1.7960001 4288195254
-0.22967623 0.13760287 1.7900001 4287998388
-0.22618958 0.13737226 1.7870001 4288064181
-0.22258854 0.13706475 1.7830001 4288064181
-0.21924758 0.13691102 1.7810001 4288262074
-0.21554945 0.13652666 1.7760001 4288327867
-0.21198833 0.13621916 1.7720001 4288459453
-0.20855899 0.13598853 1.7690001 4288590525
-0.20525621 0.1358348 1.7670001 4288261560
-0.2019604 0.13568103 1.7650001 4287932595
-0.19878419 0.13560417 1.7640001 4287932595
-0.19538955 0.13537356 1.761 4287735216
-0.19211456 0.1352198 1.7590001 4287800496
-0.18895398 0.13514294 1.7580001 4287603117
-0.18579687 0.13506606 1.7570001 4287734190
-0.18264325 0.13498919 1.756 4287931312
-0.17949308 0.13491231 1.7550001 4288325813
-0.17614532 0.1346817 1.7520001 4288391349
-0.17300557 0.13460483 1.751 4288062382
-0.16977222 0.13445108 1.7490001 4288325553
-0.16683182 0.13452795 1.7500001 4288193711
-0.16388795 0.13460483 1.751 4287996846
-0.16094059 0.1346817 1.7520001 4287931054
-0.15807991 0.13483544 1.7540001 4287865519
-0.1550355 0.13483544 1.7540001 4287865776
-0.15207772 0.13491231 1.7550001 4287734703
-0.14903158 0.13491231 1.7550001 4287274409
-0.14606862 0.13498919 1.756 4287340201
-0.14302073 0.13498919 1.756 4287472044
-0.13997284 0.13498919 1.756 4287471788
-0.13692495 0.13498919 1.756 4287143595
-0.13387707 0.13498919 1.756 4287012009
-0.13082919 0.13498919 1.756 4286879910
-0.12792683 0.13514294 1.7580001 4287011239
-0.12501754 0.13529667 1.7600001 4286945700
-0.122032 0.13537356 1.761 4286616735
-0.11911056 0.1355273 1.7630001 4286616478
-0.116248 0.13575792 1.766 4286748064
-0.11324685 0.1358348 1.7670001 4286682528
-0.11036693 0.13606541 1.7700001 4286419100
-0.10741598 0.13621916 1.7720001 4286550685
-0.10439921 0.13629603 1.7730001 4286550685
-0.10143611 0.13644977 1.7750001 4286550429
-0.098466069 0.13660352 1.7770001 4286484636
-0.095435403 0.13668039 1.7780001 4286484636
-0.092505157 0.13691102 1.7810001 4286681502
-0.089514285 0.13706475 1.7830001 4286747295
-0.086468004 0.13714163 1.784 4286681502
-0.083464988 0.13729538 1.7860001 4286747295
-0.080410026 0.13737226 1.7870001 4286747295
-0.077351592 0.13744913 1.7880001 4286747295
-0.074331217 0.13760287 1.7900001 4286813088
-0.071264103 0.13767974 1.7910001 4286747295
-0.068269633 0.13791037 1.794 4286747295
-0.06533739 0.13829473 1.7990001 4286813088
-0.062318616 0.13852535 1.802 4286813088
-0.059387971 0.13898659 1.8080001 4286747295
-0.056436494 0.13944782 1.8140001 4286813344
-0.053346694 0.13960157 1.8160001 4286813601
-0.050360505 0.14006281 1.8220001 4286682015
-0.047431204 0.14075467 1.8310001 4286747808
-0.044373982 0.14113903 1.8360001 4287207846
-0.04152374 0.14229213 1.8510001 4287602090
-0.27505478 0.14666155 1.8660001 4294637566
-0.27035928 0.1458756 1.8560001 4292992745
-0.26584244 0.14516823 1.8470001 4291611608
-0.26192564 0.14477524 1.8420001 4289572541
-0.2571834 0.14391068 1.8310001 4288586675
-0.2526181 0.1431247 1.8210001 4289048253
-0.24890941 0.14281031 1.817 4288983230
-0.24480888 0.14226015 1.8100001 4288655035
-0.24086617 0.14178857 1.8040001 4288326327
-0.23733963 0.14155278 1.8010001 4288195254
-0.23356341 0.14115979 1.7960001 4288129461
-0.22954789 0.14060961 1.789 4287998388
-0.22593644 0.14029522 1.7850001 4288064181
-0.22233886 0.13998084 1.7810001 4288196024
-0.21887827 0.13974504 1.7780001 4288196281
-0.21518536 0.13935207 1.7730001 4288196281
-0.21162944 0.13903767 1.7690001 4288130488
-0.20844109 0.13895908 1.7680001 4288196281
-0.20514005 0.13880189 1.766 4287932595
-0.20184596 0.1386447 1.7640001 4287735216
-0.1986715 0.13856609 1.7630001 4287472044
-0.19538955 0.1384089 1.761 4287603630
-0.19200534 0.13817312 1.7580001 4287603117
-0.1888465 0.13809451 1.7570001 4287602604
-0.18569113 0.13801591 1.756 4287733933
-0.18243523 0.13785872 1.7540001 4288127921
-0.17928854 0.13778013 1.7530001 4288325041
-0.17594424 0.13754433 1.7500001 4289311422
-0.17261036 0.13730854 1.7470001 4289245627
-0.16957809 0.13730854 1.7470001 4287600544
-0.16664116 0.13738714 1.748 4287797923
-0.16370074 0.13746575 1.7490001 4287732388
-0.16094059 0.13770154 1.7520001 4287732901
-0.15807991 0.13785872 1.7540001 4287601574
-0.1550355 0.13785872 1.7540001 4287470504
-0.15207772 0.13793732 1.7550001 4287405481
-0.1491165 0.13801591 1.756 4287208359
-0.14598542 0.13793732 1.7550001 4287339945
-0.14302073 0.13801591 1.756 4287208616
-0.13997284 0.13801591 1.756 4287142825
-0.13692495 0.13801591 1.756 4287208618
-0.13380082 0.13793732 1.7550001 4287077032
-0.13075466 0.13793732 1.7550001 4286945702
-0.12785406 0.13809451 1.7570001 4286814116
-0.12494651 0.13825171 1.7590001 4286945444
-0.12196271 0.13833031 1.7600001 4286747808
-0.11911056 0.13856609 1.7630001 4286550429
-0.116248 0.13880189 1.766 4286615965
-0.11324685 0.13888049 1.7670001 4286484380
-0.11036693 0.13911627 1.7700001 4286418587
-0.10741598 0.13927346 1.7720001 4286221464
-0.10439921 0.13935207 1.7730001 4286353050
-0.10143611 0.13950926 1.7750001 4286353050
-0.098410659 0.13958785 1.7760001 4286287257
-0.095381737 0.13966644 1.7770001 4286221464
-0.092401274 0.13982365 1.779 4286287257
-0.089464083 0.14005944 1.7820001 4286221207
-0.086419538 0.14013803 1.7830001 4286418587
-0.083464988 0.14037381 1.7860001 4286550173
-0.080410026 0.14045241 1.7870001 4286681502
-0.077351592 0.14053102 1.7880001 4286615709
-0.074331217 0.14068821 1.7900001 4286549916
-0.071224317 0.14068821 1.7900001 4286681502
-0.068269633 0.1410026 1.794 4286615709
-0.06533739 0.14139557 1.7990001 4286747295
-0.06228403 0.14155278 1.8010001 4286747295
-0.059355121 0.14202435 1.807 4286681502
-0.056374274 0.14241734 1.812 4286550173
-0.053287938 0.14257452 1.8140001 4286747808
-0.050332867 0.1431247 1.8210001 4286682015
-0.047431204 0.14391068 1.8310001 4286747808
-0.044373982 0.14430365 1.8360001 4286945187
-0.04152374 0.1454826 1.8510001 4287470504
-0.27094197 0.14939596 1.8600001 4294177787
-0.26569849 0.14827149 1.8460001 4292204515
-0.26192564 0.1479502 1.8420001 4289441468
-0.25704294 0.14698635 1.83 4288850361
-0.25247937 0.14618315 1.8200001 4289114560
-0.24877244 0.14586188 1.8160001 4288786364
-0.24467364 0.14529963 1.8090001 4288523706
-0.24059914 0.14473738 1.802 4288392120
-0.23720783 0.14457674 1.8000001 4288063155
-0.23265305 0.14369321 1.789 4287866289
-0.22929128 0.14353257 1.7870001 4288063925
-0.22555673 0.14313097 1.7820001 4288129974
-0.22171466 0.14264905 1.7760001 4287867316
-0.21838586 0.14248841 1.774 4288064695
-0.21482125 0.14216714 1.7700001 4287998902
-0.21150981 0.14200649 1.7680001 4287867316
-0.2083232 0.14192617 1.7670001 4287801266
-0.2050239 0.14176552 1.7650001 4287537837
-0.20184596 0.14168522 1.7640001 4287537324
-0.1986715 0.14160489 1.7630001 4287472044
-0.1952786 0.14136393 1.7600001 4287603630
-0.19200534 0.1412033 1.7580001 4287734449
-0.1888465 0.14112297 1.7570001 4287536813
-0.18558538 0.14096233 1.7550001 4287733677
-0.18233122 0.14080168 1.7530001 4287996077
-0.17908399 0.14064105 1.751 4287995306
-0.17513992 0.13991816 1.7420001 4294113791
-0.17211634 0.13991816 1.7420001 4294704895
-0.16918981 0.13999848 1.743 4292665318
-0.16645049 0.14023945 1.7460001 4291217873
-0.16360715 0.14040008 1.748 4292139487
-0.16094059 0.14072137 1.7520001 4292732395
-0.15817003 0.14096233 1.7550001 4291548379
-0.15512387 0.14096233 1.7550001 4287403939
-0.15216438 0.14104265 1.756 4287338662
-0.1491165 0.14104265 1.756 4287207590
-0.14606862 0.14104265 1.756 4287273640
-0.14302073 0.14104265 1.756 4287208359
-0.13989313 0.14096233 1.7550001 4286945445
-0.13684697 0.14096233 1.7550001 4287011238
-0.13380082 0.14096233 1.7550001 4286879909
-0.13075466 0.14096233 1.7550001 4286748065
-0.12785406 0.14112297 1.7570001 4286616479
-0.12494651 0.1412836 1.7590001 4286681758
-0.12196271 0.14136393 1.7600001 4286681759
-0.11917812 0.14168522 1.7640001 4286352793
-0.11631382 0.14192617 1.7670001 4286286744
-0.11337503 0.14208682 1.7690001 4286484123
-0.11049164 0.14232777 1.7720001 4286418330
-0.10753722 0.14248841 1.774 4286220951
-0.10445809 0.14248841 1.774 4286221464
-0.10137897 0.14248841 1.774 4286024085
-0.098410659 0.14264905 1.7760001 4285958292
-0.095381737 0.14272937 1.7770001 4286155671
-0.092401274 0.14289002 1.779 4286155671
-0.089464083 0.14313097 1.7820001 4286024085
-0.086468004 0.14329162 1.784 4286155671
-0.083511725 0.14353257 1.7870001 4286550429
-0.080500022 0.14369321 1.789 4286616222
-0.077438124 0.14377354 1.7900001 4286484380
-0.074414268 0.14393419 1.7920001 4286549916
-0.071303897 0.14393419 1.7920001 4286615709
-0.06830769 0.14417514 1.7950001 4286615709
-0.06533739 0.14449643 1.7990001 4286878881
-0.062249452 0.14457674 1.8000001 4286615709
-0.059322279 0.14505866 1.8060001 4286681758
-0.056374274 0.1455406 1.812 4286550173
-0.053287938 0.14570123 1.8140001 4286550429
-0.050332867 0.14626347 1.8210001 4286550429
-0.047431204 0.14706668 1.8310001 4286747808
-0.044373982 0.14746828 1.8360001 4286813601
-0.041501306 0.14859277 1.8500001 4287338918
-0.038621422 0.14987789 1.8660001 4287996333
-0.035553265 0.15060078 1.8750001 4289179578
-0.27123329 0.15276605 1.8620001 4294835711
-0.26598638 0.15161742 1.848 4293783800
-0.26192564 0.15112516 1.8420001 4289507774
-0.25704294 0.15014064 1.83 4289244862
-0.25247937 0.14932019 1.8200001 4289048253
-0.24877244 0.14899203 1.8160001 4288917950
-0.24453838 0.14833567 1.8080001 4288326327
-0.24046563 0.14776136 1.8010001 4288194741
-0.23694427 0.14751524 1.7980001 4287866289
-0.23252302 0.14669479 1.7880001 4287735216
-0.22903468 0.14644866 1.7850001 4287932082
-0.225177 0.1459564 1.779 4287932339
-0.22146499 0.14554617 1.774 4287604144
-0.21826275 0.14546412 1.7730001 4287801523
-0.21482125 0.145218 1.7700001 4287604144
-0.21150981 0.14505391 1.7680001 4287472558
-0.2083232 0.14497186 1.7670001 4287538351
-0.20514005 0.14488982 1.766 4287472044
-0.20184596 0.14472574 1.7640001 4287406251
-0.1986715 0.14464368 1.7630001 4287340458
-0.1952786 0.14439756 1.7600001 4287406251
-0.19200534 0.14423347 1.7580001 4287668399
-0.1888465 0.14415142 1.7570001 4287602606
-0.18558538 0.14398734 1.7550001 4287601579
-0.1821232 0.14365916 1.751 4287863722
-0.17887942 0.14349507 1.7490001 4287863206
-0.17493884 0.14275667 1.7400001 4294705151
-0.17181993 0.14267462 1.7390001 4294770175
-0.16889861 0.14275667 1.7400001 4294901247
-0.16625983 0.14308484 1.7440001 4294835455
-0.16351356 0.14333098 1.7470001 4294770175
-0.16094059 0.14374121 1.7520001 4294639103
-0.15817003 0.14398734 1.7550001 4294574079
-0.15512387 0.14398734 1.7550001 4289837251
-0.15216438 0.14406937 1.756 4287009181
-0.1491165 0.14406937 1.756 4287009696
-0.14590225 0.1439053 1.7540001 4286944674
-0.14293927 0.14398734 1.7550001 4287010723
-0.13989313 0.14398734 1.7550001 4286748065
-0.13692495 0.14406937 1.756 4286616735
-0.13387707 0.14406937 1.756 4286682271
-0.13082919 0.14406937 1.756 4286616222
-0.12785406 0.14415142 1.7570001 4286550429
-0.12494651 0.14431551 1.7590001 4286615709
-0.12196271 0.14439756 1.7600001 4286484123
-0.11917812 0.14472574 1.7640001 4286352537
-0.11637966 0.14505391 1.7680001 4286352537
-0.11337503 0.14513595 1.7690001 4286220951
-0.11049164 0.14538208 1.7720001 4286155158
-0.10753722 0.14554617 1.774 4285958292
-0.10445809 0.14554617 1.774 4285826706
-0.10143611 0.14562821 1.7750001 4285760913
-0.098466069 0.14579229 1.7770001 4285958292
-0.095381737 0.14579229 1.7770001 4286024085
-0.092401274 0.1459564 1.779 4286024085
-0.089464083 0.14620252 1.7820001 4286024085
-0.086419538 0.14628457 1.7830001 4286221464
-0.083511725 0.14661273 1.7870001 4286418843
-0.080500022 0.14677683 1.789 4286550429
-0.077481374 0.14694092 1.7910001 4286353050
-0.074414268 0.14702296 1.7920001 4286418587
-0.071303897 0.14702296 1.7920001 4286550172
-0.068269633 0.14718705 1.794 4286549916
-0.065301068 0.14751524 1.7980001 4286352537
-0.062249452 0.14767931 1.8000001 4286484123
-0.059322279 0.14817157 1.8060001 4286549916
-0.056343161 0.1485818 1.8110001 4286550173
-0.053287938 0.14882793 1.8140001 4286484636
-0.050305221 0.14932019 1.8200001 4286550429
-0.047405299 0.15014064 1.83 4286616224
-0.044349816 0.15055086 1.835 4286813090
-0.041478872 0.15169947 1.8490001 4287207846
-0.038538631 0.15276605 1.8620001 4287996333
-0.035439495 0.15334035 1.8690001 4288916406
-0.2707963 0.15572418 1.8590001 4294704639
-0.26598638 0.15480274 1.848 4294310143
-0.26192564 0.15430012 1.8420001 4289705408
-0.25704294 0.15329492 1.83 4289508544
-0.25247937 0.15245724 1.8200001 4289246400
-0.24863546 0.1520384 1.8150001 4289115842
-0.24453838 0.15145202 1.8080001 4288260534
-0.24033208 0.15078188 1.8000001 4287997362
-0.2368125 0.15053059 1.7970001 4287800239
-0.23226294 0.14960913 1.7860001 4287800496
-0.22877803 0.14935783 1.7830001 4287932082
-0.22505042 0.148939 1.7780001 4287866548
-0.22146499 0.14860392 1.774 4287406767
-0.21813965 0.14843638 1.7720001 4287340974
-0.21482125 0.14826886 1.7700001 4287209388
-0.21150981 0.14810131 1.7680001 4287275179
-0.20844109 0.14810131 1.7680001 4287406765
-0.20514005 0.14793378 1.766 4287274665
-0.20184596 0.14776625 1.7640001 4287340458
-0.19855882 0.14759871 1.7620001 4287340458
-0.19516766 0.14734741 1.7590001 4287274665
-0.19189613 0.14717987 1.7570001 4287273897
-0.18863153 0.14701234 1.7550001 4287536299
-0.1853739 0.1468448 1.7530001 4287535014
-0.18201919 0.1465935 1.7500001 4287731621
-0.17826578 0.14600712 1.743 4287731105
-0.1748383 0.14567205 1.7390001 4294704127
-0.17172112 0.14558829 1.738 4294703359
-0.16889861 0.14575581 1.7400001 4294768638
-0.16625983 0.14609089 1.7440001 4294506236
-0.16341996 0.14625844 1.7460001 4294638079
-0.16084874 0.14667727 1.751 4294441214
-0.15807991 0.14692858 1.7540001 4293784309
-0.1550355 0.14692858 1.7540001 4287402909
-0.15199107 0.14692858 1.7540001 4286942873
-0.14894666 0.14692858 1.7540001 4286812059
-0.14590225 0.14692858 1.7540001 4286812572
-0.14285783 0.14692858 1.7540001 4286747295
-0.13989313 0.14701234 1.7550001 4286813601
-0.13684697 0.14701234 1.7550001 4286747808
-0.13387707 0.1470961 1.756 4286550429
-0.13082919 0.1470961 1.756 4286550429
-0.1277813 0.1470961 1.756 4286549916
-0.12487547 0.14726365 1.7580001 4286484123
-0.12189341 0.14734741 1.7590001 4286549916
-0.11911056 0.14768249 1.7630001 4286418330
-0.11631382 0.14801756 1.7670001 4286286744
-0.11337503 0.14818509 1.7690001 4286220951
-0.11042929 0.14835262 1.771 4285957779
-0.10747661 0.14852016 1.7730001 4285826706
-0.10445809 0.14860392 1.774 4285629327
-0.10143611 0.14868769 1.7750001 4285563534
-0.098410659 0.14877146 1.7760001 4285629327
-0.095381737 0.14885522 1.7770001 4285695120
-0.092349336 0.148939 1.7780001 4285563534
-0.089363679 0.14910653 1.7800001 4286024085
-0.086371064 0.14927407 1.7820001 4286089878
-0.08341825 0.14952537 1.7850001 4286024085
-0.08045502 0.14977668 1.7880001 4286287257
-0.077394858 0.14986044 1.789 4286221720
-0.074372739 0.15002798 1.7910001 4286418843
-0.071224317 0.1499442 1.7900001 4286484636
-0.068231583 0.15019551 1.7930001 4286353050
-0.065264747 0.15053059 1.7970001 4286155671
-0.062214866 0.15069811 1.7990001 4286353050
-0.059289429 0.15120073 1.8050001 4286418843
-0.056312051 0.15161957 1.8100001 4286484636
-0.053258564 0.15187088 1.8130001 4286353050
-0.050305221 0.15245724 1.8200001 4286418845
-0.047379393 0.15321115 1.8290001 4286484638
-0.044325646 0.15362999 1.8340001 4286747810
-0.041456439 0.15480274 1.848 4287142053
-0.038580026 0.15614302 1.8640001 4287798954
-0.035534304 0.15698069 1.8740001 4288719027
-0.27225298 0.15978336 1.8690001 4294705151
-0.26598638 0.15798804 1.848 4293784569
-0.26192564 0.1574751 1.8420001 4289705408
-0.25704294 0.1564492 1.83 4289311166
-0.2526181 0.15567978 1.8210001 4291680741
-0.24890941 0.15533781 1.817 4290892253
-0.24453838 0.15456839 1.8080001 4288063411
-0.24019857 0.15379897 1.7990001 4288063155
-0.23668072 0.15354249 1.7960001 4287866033
-0.2321329 0.15260209 1.7850001 4287668910
-0.22877803 0.1524311 1.7830001 4287800496
-0.22505042 0.15200365 1.7780001 4287800756
-0.22146499 0.15166168 1.774 4287340204
-0.21826275 0.15157619 1.7730001 4287143339
-0.21494263 0.1514052 1.771 4287077800
-0.21174906 0.15131973 1.7700001 4287143593
-0.20855899 0.15123422 1.7690001 4287274665
-0.20525621 0.15106325 1.7670001 4287406251
-0.20184596 0.15080677 1.7640001 4287274409
-0.19855882 0.15063578 1.7620001 4287274152
-0.19505669 0.15029383 1.7580001 4287208872
-0.19178692 0.15012284 1.756 4287207846
-0.18863153 0.15003735 1.7550001 4287207332
-0.18547964 0.14995186 1.7540001 4287535014
-0.1821232 0.14969538 1.751 4287600035
-0.17898171 0.14960988 1.7500001 4287204248
-0.17503937 0.14884047 1.7410001 4294506239
-0.17201753 0.14884047 1.7410001 4294637055
-0.16909274 0.14892596 1.7420001 4294636796
-0.16654582 0.14935341 1.7470001 4294768894
