# .PCD v0.7 - Point Cloud Data file format
VERSION 0.7
FIELDS x y z rgba
SIZE 4 4 4 4
TYPE F F F U
COUNT 1 1 1 1
WIDTH 1104
HEIGHT 1
VIEWPOINT 0 0 0 1 0 0 0
POINTS 1104
DATA ascii
-0.089932717 0.24505691 1.623 4285694607
-0.087169349 0.24520789 1.6240001 4285628814
-0.084350571 0.24520789 1.6240001 4285826193
-0.081582002 0.24535887 1.6250001 4286023572
-0.078906901 0.24581185 1.628 4285891986
-0.076127917 0.24596284 1.6290001 4285760400
-0.073480457 0.2465668 1.6330001 4285826706
-0.070646062 0.2465668 1.6330001 4285892243
-0.067936242 0.24701977 1.636 4285957779
-0.065176219 0.24732175 1.6380001 4285760400
-0.062371202 0.24747275 1.6390001 4286155158
-0.059599027 0.24777474 1.641 4286549916
-0.056819912 0.24807672 1.6430001 4286155158
-0.054033857 0.24837868 1.6450001 4286089365
-0.051303077 0.24898265 1.649 4285957779
-0.048587792 0.24973759 1.654 4286155158
-0.045799866 0.25019056 1.6570001 4286352537
-0.043053336 0.25094551 1.6620001 4286220953
-0.04028945 0.25170049 1.6670001 4285957781
-0.037440907 0.25200245 1.669 4285957781
-0.034647517 0.2527574 1.674 4286023575
-0.031855725 0.25366333 1.6800001 4286352540
-0.029008659 0.25426731 1.6840001 4286220954
-0.026209664 0.25547522 1.692 4286220954
-0.023396654 0.25683412 1.7010001 4286286746
-0.020504326 0.2575891 1.7060001 4286549918
-0.017656341 0.25924996 1.7170001 4286813091
-0.24827477 0.26663816 1.7460001 4294639615
-0.24243505 0.26358393 1.7260001 4294442751
-0.2381907 0.26220948 1.7170001 4291548381
-0.23219673 0.25884977 1.6950001 4287272610
-0.22884898 0.25839165 1.692 4287471018
-0.22524458 0.25762805 1.687 4287471018
-0.22165754 0.25686452 1.682 4287339432
-0.21847802 0.25655907 1.6800001 4287010467
-0.21479216 0.2556428 1.674 4292866044
-0.21125375 0.25487921 1.669 4292734458
-0.20810717 0.25457379 1.6670001 4287405225
-0.20447515 0.25365752 1.6610001 4286878881
-0.20086394 0.25274125 1.6550001 4286879395
-0.1977521 0.2524358 1.6530001 4286484638
-0.19441141 0.25182495 1.649 4286682015
-0.19120076 0.25136682 1.646 4286681502
-0.18834379 0.25136682 1.646 4286681502
-0.18503608 0.25075594 1.6420001 4286616222
-0.18207511 0.25060323 1.641 4286418587
-0.17900838 0.25029781 1.6390001 4286352537
-0.17584112 0.24983966 1.636 4286220951
-0.17279005 0.24953425 1.6340001 4286286999
-0.16964188 0.24907611 1.631 4286089619
-0.16650413 0.24861795 1.628 4286089619
-0.16367841 0.24861795 1.628 4286286998
-0.16075389 0.24846524 1.6270001 4286221462
-0.15773578 0.24815981 1.6250001 4286286998
-0.15491527 0.24815981 1.6250001 4286089619
-0.15190756 0.2478544 1.623 4286418584
-0.14881493 0.24739626 1.6200001 4286418584
-0.14600311 0.24739626 1.6200001 4286089365
-0.14310288 0.24724352 1.6190001 4285891986
-0.14020613 0.24709082 1.618 4285957781
-0.13731286 0.24693811 1.6170001 4286023572
-0.13450624 0.24693811 1.6170001 4286285717
-0.13169961 0.24693811 1.6170001 4286153361
-0.12889299 0.24693811 1.6170001 4286021003
-0.12600839 0.24678539 1.6160001 4285428093
-0.12312725 0.24663268 1.6150001 4289243315
-0.12039861 0.24678539 1.6160001 4294111483
-0.11766649 0.24693811 1.6170001 4293716725
-0.11493089 0.24709082 1.618 4293191149
-0.11212254 0.24709082 1.618 4289902271
-0.10938174 0.24724352 1.6190001 4285033848
-0.10657164 0.24724352 1.6190001 4284640120
-0.10376155 0.24724352 1.6190001 4284970114
-0.1010138 0.24739626 1.6200001 4284707712
-0.098262586 0.24754895 1.6210001 4284707712
-0.095390141 0.24739626 1.6200001 4285036677
-0.092578314 0.24739626 1.6200001 4285431435
-0.08982189 0.24754895 1.6210001 4285826193
-0.087115675 0.2478544 1.623 4285760400
-0.084350571 0.2480071 1.6240001 4286089365
-0.081632212 0.24831253 1.626 4285891986
-0.078955375 0.24877068 1.6290001 4285826193
-0.076221384 0.24907611 1.631 4285826193
-0.073435456 0.24922882 1.6320001 4285760913
-0.070646062 0.24938153 1.6330001 4285695120
-0.067936242 0.24983966 1.636 4285826706
-0.065176219 0.25014511 1.6380001 4285826450
-0.062333144 0.25014511 1.6380001 4285891986
-0.059562713 0.25045052 1.6400001 4286155158
-0.056819912 0.25090867 1.6430001 4286023572
-0.054033857 0.25121409 1.6450001 4286023572
-0.051334191 0.25197765 1.6500001 4286220951
-0.048617169 0.25274125 1.6550001 4286286744
-0.045799866 0.25304666 1.6570001 4286155158
-0.043027434 0.25365752 1.6610001 4286023830
-0.040265281 0.25442109 1.6660001 4285892501
-0.037418477 0.2547265 1.6680001 4285826708
-0.034626815 0.25549009 1.6730001 4286089625
-0.031855725 0.25655907 1.6800001 4286287004
-0.029008659 0.25716993 1.6840001 4286484126
-0.026225153 0.25854436 1.6930001 4286418333
-0.023437917 0.26022419 1.7040001 4286484125
-0.020540383 0.26098779 1.7090001 4286747297
-0.01768719 0.2626676 1.72 4287010469
-0.011818564 0.26495835 1.7350001 4288325557
-0.008842662 0.26602733 1.7420001 4289048251
-0.23219673 0.26177135 1.6950001 4287995817
-0.22884898 0.26130804 1.692 4287865262
-0.22511107 0.26038143 1.6860001 4287536811
-0.22165754 0.25976369 1.682 4287471018
-0.21834797 0.25930038 1.6790001 4287273639
-0.21492049 0.25868261 1.6750001 4290431703
-0.21138032 0.25791043 1.6700001 4291287012
-0.20798235 0.25729269 1.6660001 4287207846
-0.20447515 0.25652051 1.6610001 4287010467
-0.20098531 0.2557483 1.6560001 4286813088
-0.19787174 0.25543943 1.654 4286682015
-0.19464721 0.25497612 1.651 4286813601
-0.19143307 0.25451282 1.6480001 4286682015
-0.18845822 0.25435838 1.6470001 4286484123
-0.18514878 0.25374064 1.6430001 4286418843
-0.18218605 0.25358617 1.6420001 4286221464
-0.17900838 0.25312287 1.6390001 4286221207
-0.17573366 0.25250512 1.6350001 4286155158
-0.17279005 0.25235069 1.6340001 4286286744
-0.16964188 0.25188738 1.631 4286089365
-0.1666064 0.25157851 1.6290001 4285891986
-0.16377895 0.25157851 1.6290001 4285760400
-0.1608527 0.25142404 1.628 4286089619
-0.15773578 0.25096074 1.6250001 4286089619
-0.15491527 0.25096074 1.6250001 4286155410
-0.15190756 0.25065187 1.623 4286352789
-0.1489068 0.25034299 1.6210001 4286089617
-0.14600311 0.25018856 1.6200001 4285892239
-0.14310288 0.25003412 1.6190001 4285957778
-0.14020613 0.24987969 1.618 4285826193
-0.13731286 0.24972525 1.6170001 4285957779
-0.13450624 0.24972525 1.6170001 4286088851
-0.13169961 0.24972525 1.6170001 4285956752
-0.12889299 0.24972525 1.6170001 4285955723
-0.12608635 0.24972525 1.6170001 4285888901
-0.12327974 0.24972525 1.6170001 4286283402
-0.12062213 0.25003412 1.6190001 4292928238
-0.11781203 0.25003412 1.6190001 4293322482
-0.11500193 0.25003412 1.6190001 4293125871
-0.11212254 0.24987969 1.618 4287007637
-0.10931417 0.24987969 1.618 4284245103
-0.10650581 0.24987969 1.618 4284771962
-0.10376155 0.25003412 1.6190001 4284970370
-0.10095145 0.25003412 1.6190001 4284905091
-0.098201975 0.25018856 1.6200001 4285036677
-0.095331259 0.25003412 1.6190001 4285299849
-0.092521161 0.25003412 1.6190001 4285563021
-0.08976648 0.25018856 1.6200001 4285826193
-0.087115675 0.25065187 1.623 4285760400
-0.084350571 0.2508063 1.6240001 4285891986
-0.081682421 0.25126961 1.6270001 4285891986
-0.078955375 0.25157851 1.6290001 4285891986
-0.076174654 0.25173295 1.6300001 4285826706
-0.073435456 0.25204182 1.6320001 4285760913
-0.070646062 0.25219625 1.6330001 4285629840
-0.067894712 0.25250512 1.6350001 4285629327
-0.065136425 0.25281402 1.6370001 4285958292
-0.062333144 0.25296843 1.6380001 4285957779
-0.059599027 0.25343174 1.641 4286155158
-0.056854494 0.25389507 1.6440001 4286089365
-0.054033857 0.25404948 1.6450001 4286155158
-0.051334191 0.25482169 1.6500001 4286352537
-0.048617169 0.2555939 1.6550001 4286089365
-0.045799866 0.25590274 1.6570001 4286024085
-0.043027434 0.25652051 1.6610001 4286155673
-0.040265281 0.25729269 1.6660001 4285892758
-0.037418477 0.25760156 1.6680001 4285958551
-0.034626815 0.25837377 1.6730001 4286221211
-0.031855725 0.25945482 1.6800001 4286023832
-0.029025882 0.26022699 1.6850001 4286418590
-0.026256135 0.26177135 1.6950001 4286418333
-0.023465429 0.26347017 1.7060001 4286549918
-0.02056442 0.26424235 1.7110001 4286878883
-0.014744527 0.26640448 1.725 4287799471
-0.011839001 0.26841217 1.738 4288654267
-0.0088528143 0.26933882 1.7440001 4287798443
-0.23233375 0.2648491 1.6960001 4288127403
-0.22898422 0.26438063 1.6930001 4287996848
-0.22524458 0.26344365 1.687 4287799983
-0.22165754 0.26266286 1.682 4287668397
-0.21834797 0.2621944 1.6790001 4287471018
-0.21492049 0.26156974 1.6750001 4287471018
-0.21138032 0.26078895 1.6700001 4287734190
-0.20810717 0.26032045 1.6670001 4287207846
-0.20459825 0.25953963 1.6620001 4286944674
-0.20122805 0.25891501 1.6580001 4286878881
-0.198111 0.25860268 1.6560001 4286616222
-0.19476509 0.25797805 1.6520001 4286682015
-0.19154924 0.25750956 1.649 4286550429
-0.18868707 0.25750956 1.649 4286418843
-0.18526146 0.25672874 1.6440001 4286287257
-0.18229702 0.2565726 1.6430001 4286221464
-0.17911762 0.25610411 1.6400001 4286024085
-0.17584112 0.25547945 1.636 4285892499
-0.17289579 0.25532329 1.6350001 4286221207
-0.16974589 0.2548548 1.6320001 4286089365
-0.16670868 0.25454247 1.6300001 4285957779
-0.16377895 0.25438634 1.6290001 4285957779
-0.1608527 0.25423014 1.628 4286023572
-0.15783285 0.25391784 1.626 4285958033
-0.15491527 0.25376168 1.6250001 4286023824
-0.15190756 0.25344935 1.623 4285563272
-0.1489068 0.25313702 1.6210001 4285563272
-0.14609323 0.25313702 1.6210001 4285826445
-0.14310288 0.25282469 1.6190001 4285892240
-0.14029279 0.25282469 1.6190001 4286089619
-0.13739777 0.25266856 1.618 4286089364
-0.13450624 0.2525124 1.6170001 4285891986
-0.13178106 0.25266856 1.618 4285890959
-0.12897269 0.25266856 1.618 4285956238
-0.12616433 0.25266856 1.618 4285757831
-0.12335597 0.25266856 1.618 4285362556
-0.12054761 0.25266856 1.618 4289968066
-0.11788479 0.25298089 1.6200001 4293520888
-0.11507297 0.25298089 1.6200001 4292402407
-0.11226113 0.25298089 1.6200001 4285231740
-0.10938174 0.25282469 1.6190001 4284771447
-0.10657164 0.25282469 1.6190001 4284640890
-0.10376155 0.25282469 1.6190001 4284575866
-0.1010138 0.25298089 1.6200001 4285168517
-0.098201975 0.25298089 1.6200001 4285234310
-0.095390141 0.25298089 1.6200001 4285431689
-0.092578314 0.25298089 1.6200001 4285629068
-0.08982189 0.25313702 1.6210001 4285826447
-0.087169349 0.25360551 1.6240001 4285891986
-0.084350571 0.25360551 1.6240001 4285629327
-0.081682421 0.25407401 1.6270001 4285563534
-0.079003841 0.25454247 1.6300001 4285629327
-0.076221384 0.25469866 1.631 4285760913
-0.073480457 0.25501096 1.6330001 4285563534
-0.070689321 0.25516716 1.6340001 4285760913
-0.067936242 0.25547945 1.636 4285497741
-0.065176219 0.25579178 1.6380001 4285826193
-0.062371202 0.25594792 1.6390001 4285891986
-0.059635349 0.25641641 1.6420001 4286023572
-0.05688908 0.2568849 1.6450001 4286220951
-0.054066703 0.25704107 1.646 4286089365
-0.051365301 0.25782186 1.651 4286220951
-0.048617169 0.25844651 1.6550001 4286286744
-0.045827508 0.25891501 1.6580001 4286155671
-0.043053336 0.25953963 1.6620001 4285892501
-0.04028945 0.26032045 1.6670001 4286090137
-0.037440907 0.26063275 1.669 4286221723
-0.034668211 0.26156974 1.6750001 4286155930
-0.03191261 0.26281902 1.6830001 4286155673
-0.029060336 0.26344365 1.687 4286418845
-0.026287116 0.26500529 1.697 4286484126
-0.02347918 0.26656687 1.7070001 4286615711
-0.020588459 0.26750386 1.7130001 4286747297
-0.014761621 0.2696901 1.7270001 4287931571
-0.011859437 0.27187636 1.7410001 4288983489
-0.23260771 0.26808819 1.6980001 4288917689
-0.22925472 0.26761454 1.6950001 4288194227
-0.22524458 0.26635146 1.687 4287799983
-0.22152577 0.26540413 1.6810001 4287536813
-0.21834797 0.26508841 1.6790001 4287405227
-0.21492049 0.26445684 1.6750001 4287536043
-0.21138032 0.26366743 1.6700001 4287076262
-0.20823202 0.26335165 1.6680001 4287010469
-0.20472136 0.26256222 1.6630001 4287076260
-0.20134941 0.2619307 1.659 4286813088
-0.19835027 0.26177281 1.6580001 4286813088
-0.19500089 0.26114127 1.654 4286616222
-0.19178157 0.26066762 1.651 4286616222
-0.1888015 0.26050973 1.6500001 4286353309
-0.18526146 0.25956243 1.6440001 4286353050
-0.18229702 0.25940454 1.6430001 4286287257
-0.17911762 0.25893089 1.6400001 4286221464
-0.17594862 0.25845724 1.6370001 4286024085
-0.17279005 0.2579836 1.6340001 4285958292
-0.16964188 0.25750995 1.631 4286089878
-0.16670868 0.25735202 1.6300001 4285958292
-0.16387948 0.25735202 1.6300001 4285892499
-0.1608527 0.25703627 1.628 4285958035
-0.15783285 0.25672051 1.626 4285826447
-0.15491527 0.25656259 1.6250001 4285891723
-0.15190756 0.25624683 1.623 4286089102
-0.14899866 0.25608894 1.6220001 4291615714
-0.14609323 0.25593108 1.6210001 4291089368
-0.14319128 0.25577319 1.6200001 4287931306
-0.14029279 0.25561529 1.6190001 4286023056
-0.13739777 0.25545743 1.618 4285892238
-0.13450624 0.25529954 1.6170001 4285826447
-0.13169961 0.25529954 1.6170001 4285825679
-0.12889299 0.25529954 1.6170001 4285561994
-0.12608635 0.25529954 1.6170001 4285626758
-0.12327974 0.25529954 1.6170001 4285428864
-0.12062213 0.25561529 1.6190001 4286218380
-0.11795755 0.25593108 1.6210001 4292666350
-0.11514399 0.25593108 1.6210001 4292402922
-0.11226113 0.25577319 1.6200001 4284968826
-0.10938174 0.25561529 1.6190001 4284640374
-0.10657164 0.25561529 1.6190001 4284377716
-0.10376155 0.25561529 1.6190001 4285101954
-0.10095145 0.25561529 1.6190001 4285168517
-0.098201975 0.25577319 1.6200001 4285497482
-0.095390141 0.25577319 1.6200001 4285694861
-0.092578314 0.25577319 1.6200001 4285825677
-0.0898773 0.25608894 1.6220001 4285563275
-0.087169349 0.25640473 1.6240001 4285760400
-0.084402516 0.25656259 1.6250001 4285694607
-0.081682421 0.25687838 1.6270001 4285563534
-0.079003841 0.25735202 1.6300001 4285695120
-0.076221384 0.25750995 1.631 4285564047
-0.073480457 0.25782567 1.6330001 4285564047
-0.070732579 0.25814146 1.6350001 4285563534
-0.067977764 0.25845724 1.6370001 4285760400
-0.065255806 0.25893089 1.6400001 4285760913
-0.062447306 0.25908878 1.641 4286155671
-0.059671666 0.25940454 1.6430001 4286484123
-0.05688908 0.2597203 1.6450001 4286352537
-0.054066703 0.25987822 1.646 4286024085
-0.051334191 0.26050973 1.6500001 4286089365
-0.048646543 0.26145703 1.6560001 4286155671
-0.045827508 0.26177281 1.6580001 4285958292
-0.043079242 0.26256222 1.6630001 4285958551
-0.04031362 0.26335165 1.6680001 4285826965
-0.037485775 0.2638253 1.6710001 4286090137
-0.034730304 0.26493049 1.6780001 4286155931
-0.031969495 0.26619357 1.6860001 4286287004
-0.029112013 0.26682511 1.6900001 4286352797
-0.026333585 0.26840398 1.7 4286747298
-0.023547955 0.2702986 1.7120001 4287010470
-0.020648552 0.2712459 1.7180001 4287076263
-0.01480436 0.27345628 1.7320001 4288063157
-0.23452555 0.27324948 1.7120001 4289903814
-0.22939 0.27069572 1.6960001 4288588985
-0.22551163 0.26957849 1.6890001 4288063155
-0.22178933 0.26862082 1.6830001 4287800498
-0.21860807 0.26830161 1.6810001 4287405740
-0.21504879 0.26750359 1.6760001 4287471020
-0.21150689 0.26670554 1.6710001 4287010982
-0.20823202 0.26622671 1.6680001 4286878883
-0.20484446 0.26558828 1.664 4286878883
-0.20147079 0.26494983 1.6600001 4286813088
-0.19846989 0.26479024 1.659 4286878881
-0.19523668 0.2643114 1.6560001 4286681502
-0.19189772 0.26367298 1.6520001 4286484636
-0.1888015 0.26335377 1.6500001 4286418843
-0.18526146 0.2623961 1.6440001 4286352537
-0.18229702 0.26223651 1.6430001 4286353050
-0.17911762 0.26175767 1.6400001 4286287257
-0.17584112 0.26111925 1.636 4286221464
-0.17289579 0.26095963 1.6350001 4286089878
-0.16974589 0.26048082 1.6320001 4286089878
-0.16670868 0.26016158 1.6300001 4286089878
-0.16387948 0.26016158 1.6300001 4285826706
-0.1608527 0.25984237 1.628 4285760656
-0.15783285 0.25952315 1.626 4285826446
-0.15491527 0.25936353 1.6250001 4285496965
-0.15190756 0.25904432 1.623 4289246910
-0.14899866 0.2588847 1.6220001 4293523196
-0.14609323 0.25872511 1.6210001 4293325816
-0.14319128 0.25856552 1.6200001 4291813091
-0.14029279 0.25840589 1.6190001 4285891468
-0.13739777 0.25824627 1.618 4286023824
-0.13450624 0.25808668 1.6170001 4285826447
-0.13161817 0.25792706 1.6160001 4285563021
-0.12881328 0.25792706 1.6160001 4285694093
-0.12600839 0.25792706 1.6160001 4285692810
-0.12327974 0.25808668 1.6170001 4285429379
-0.12062213 0.25840589 1.6190001 4285100414
-0.11788479 0.25856552 1.6200001 4289179837
-0.11507297 0.25856552 1.6200001 4292666096
-0.11219183 0.25840589 1.6190001 4285166207
-0.10938174 0.25840589 1.6190001 4284969341
-0.10657164 0.25840589 1.6190001 4285101441
-0.10376155 0.25840589 1.6190001 4285299333
-0.10095145 0.25840589 1.6190001 4285168517
-0.098201975 0.25856552 1.6200001 4285497482
-0.095449023 0.25872511 1.6210001 4285760654
-0.092578314 0.25856552 1.6200001 4285760654
-0.08982189 0.25872511 1.6210001 4285694861
-0.087169349 0.25920394 1.6240001 4285760400
-0.084402516 0.25936353 1.6250001 4285497228
-0.081682421 0.25968274 1.6270001 4285563534
-0.078955375 0.26000199 1.6290001 4285563534
-0.076221384 0.2603212 1.631 4285695120
-0.073480457 0.26064041 1.6330001 4285497741
-0.070732579 0.26095963 1.6350001 4285563534
-0.068019293 0.26143846 1.6380001 4285760400
-0.065255806 0.26175767 1.6400001 4286024085
-0.062447306 0.26191729 1.641 4286813601
-0.059635349 0.26207688 1.6420001 4287076260
-0.056854494 0.2623961 1.6440001 4286615709
-0.054066703 0.26271534 1.646 4286024085
-0.051334191 0.26335377 1.6500001 4285958292
-0.048617169 0.26415181 1.6550001 4286089878
-0.045827508 0.26463065 1.6580001 4285893012
-0.043105148 0.26558828 1.664 4285827219
-0.04033779 0.2663863 1.669 4285892758
-0.037530638 0.26702476 1.6730001 4285761172
-0.034771699 0.26814201 1.6800001 4286287517
-0.032007419 0.26941887 1.6880001 4286287004
-0.029163692 0.27021691 1.6930001 4286418590
-0.026395548 0.2719726 1.7040001 4286813090
-0.023602974 0.2738879 1.7160001 4287010469
-0.017718039 0.27500516 1.723 4287734191
-0.23493654 0.27668437 1.715 4291285467
-0.22979575 0.27410305 1.6990001 4288259507
-0.22564514 0.27265105 1.6900001 4288655292
-0.22192112 0.27168307 1.6840001 4288326842
-0.21886815 0.27152175 1.6830001 4287734705
-0.2151771 0.27055374 1.677 4287142313
-0.21163347 0.26974708 1.6720001 4287208106
-0.2084817 0.26942444 1.6700001 4287010727
-0.20496756 0.26861775 1.6650001 4287142055
-0.20159215 0.26797244 1.6610001 4286944676
-0.19858953 0.26781109 1.6600001 4286747295
-0.19523668 0.26716578 1.6560001 4286615709
-0.19201387 0.26668179 1.6530001 4286550429
-0.18891592 0.26635909 1.651 4286221464
-0.18537414 0.26539111 1.6450001 4286484123
-0.18240798 0.26522979 1.6440001 4286220951
-0.17922683 0.2647458 1.641 4286287257
-0.17594862 0.26410046 1.6370001 4286155671
-0.17300153 0.26393911 1.636 4285892499
-0.16984989 0.26345512 1.6330001 4285826706
-0.16681096 0.26313248 1.631 4285958292
-0.16387948 0.26297113 1.6300001 4285892499
-0.1609515 0.26280981 1.6290001 4285891986
-0.15783285 0.26232582 1.626 4285694861
-0.15491527 0.26216447 1.6250001 4285562758
-0.15190756 0.26184183 1.623 4288917688
-0.14899866 0.26168048 1.6220001 4293194231
-0.14609323 0.26151913 1.6210001 4292931313
-0.14319128 0.26135781 1.6200001 4291812578
-0.14037944 0.26135781 1.6200001 4286220175
-0.13739777 0.26103514 1.618 4285957261
-0.13450624 0.26087382 1.6170001 4285694861
-0.13161817 0.26071247 1.6160001 4285497228
-0.12881328 0.26071247 1.6160001 4285299849
-0.12608635 0.26087382 1.6170001 4285101956
-0.12335597 0.26103514 1.618 4285298822
-0.12069663 0.26135781 1.6200001 4285430408
-0.11795755 0.26151913 1.6210001 4285233029
-0.11507297 0.26135781 1.6200001 4291087836
-0.11226113 0.26135781 1.6200001 4287008924
-0.10938174 0.26119646 1.6190001 4285101441
-0.10657164 0.26119646 1.6190001 4285562505
-0.10376155 0.26119646 1.6190001 4285563275
-0.10095145 0.26119646 1.6190001 4285563275
-0.09814135 0.26119646 1.6190001 4285629068
-0.095390141 0.26135781 1.6200001 4285497482
-0.092635453 0.26151913 1.6210001 4285826447
-0.0898773 0.26168048 1.6220001 4285694861
-0.087223023 0.26216447 1.6250001 4285497228
-0.084454454 0.26232582 1.626 4285563534
-0.081732616 0.26264846 1.628 4285760913
-0.079003841 0.26297113 1.6300001 4285431948
-0.076221384 0.26313248 1.631 4285497741
-0.073525451 0.26361647 1.6340001 4285497741
-0.070732579 0.26377779 1.6350001 4285431948
-0.068019293 0.26426181 1.6380001 4285563534
-0.065295584 0.2647458 1.641 4286155158
-0.062409256 0.26458448 1.6400001 4286615709
-0.059635349 0.26490712 1.6420001 4286221464
-0.05688908 0.26539111 1.6450001 4285958292
-0.054066703 0.26555246 1.646 4286024085
-0.051365301 0.26635909 1.651 4286024085
-0.048675917 0.2673271 1.6570001 4285827219
-0.045855146 0.26764977 1.659 4285695633
-0.04313105 0.26861775 1.6650001 4285826965
-0.040386125 0.26958576 1.6710001 4285892758
-0.037575506 0.27023107 1.6750001 4285826966
-0.034792393 0.27119905 1.6810001 4286221211
-0.032045346 0.27265105 1.6900001 4286418590
-0.029198144 0.27345771 1.6950001 4286615969
-0.02642653 0.27523237 1.7060001 4286944676
-0.023644237 0.27732968 1.7190001 4287142053
-0.017738607 0.27829766 1.725 4287997362
-0.23534748 0.28012958 1.7180001 4293127413
-0.23006624 0.27735764 1.7010001 4288522677
-0.22591217 0.27589014 1.692 4288523192
-0.22218469 0.27491179 1.6860001 4288786880
-0.21899819 0.27458569 1.6840001 4287866036
-0.21543373 0.27377042 1.6790001 4287471278
-0.21176004 0.2727921 1.6730001 4287273899
-0.20860653 0.27246597 1.6710001 4286944934
-0.20521377 0.27181375 1.6670001 4286944934
-0.20183489 0.27116153 1.6630001 4286945189
-0.19870916 0.27083543 1.6610001 4286682017
-0.19535458 0.27018318 1.6570001 4286682017
-0.19201387 0.26953098 1.6530001 4286616224
-0.18891592 0.26920485 1.651 4286287257
-0.18548684 0.26838958 1.646 4286155671
-0.18251891 0.2682265 1.6450001 4286155671
-0.17933604 0.26773736 1.6420001 4286287257
-0.17616358 0.26724818 1.6390001 4286155671
-0.17310728 0.26692209 1.6370001 4286089878
-0.16995391 0.26643291 1.6340001 4285826706
-0.16691323 0.26610681 1.6320001 4285892499
-0.16398004 0.26594377 1.631 4285826706
-0.1609515 0.26561764 1.6290001 4285760402
-0.1579299 0.26529151 1.6270001 4285891985
-0.15491527 0.26496539 1.6250001 4286088847
-0.15200116 0.26480234 1.6240001 4286483348
-0.14909051 0.26463932 1.623 4291746787
-0.14618336 0.26447624 1.6220001 4292865266
-0.14319128 0.26415014 1.6200001 4288522928
-0.14037944 0.26415014 1.6200001 4286352274
-0.1374827 0.26398706 1.6190001 4286023824
-0.13458942 0.26382402 1.618 4285694861
-0.13169961 0.26366097 1.6170001 4285431435
-0.12889299 0.26366097 1.6170001 4285168263
-0.12616433 0.26382402 1.618 4284970884
-0.12335597 0.26382402 1.618 4285036163
-0.12062213 0.26398706 1.6190001 4285101956
-0.11781203 0.26398706 1.6190001 4285167749
-0.11500193 0.26398706 1.6190001 4285957265
-0.11219183 0.26398706 1.6190001 4286154642
-0.10938174 0.26398706 1.6190001 4285431689
-0.10657164 0.26398706 1.6190001 4285629068
-0.10376155 0.26398706 1.6190001 4285497482
-0.10095145 0.26398706 1.6190001 4285563275
-0.09814135 0.26398706 1.6190001 4285497482
-0.095390141 0.26415014 1.6200001 4285563275
-0.092635453 0.26431319 1.6210001 4285497228
-0.0898773 0.26447624 1.6220001 4285628814
-0.087223023 0.26496539 1.6250001 4285563021
-0.084454454 0.26512846 1.626 4285497741
-0.081732616 0.26545456 1.628 4285629327
-0.079052307 0.26594377 1.631 4285497741
-0.076268114 0.26610681 1.6320001 4285695120
-0.073525451 0.26643291 1.6340001 4285497741
-0.070732579 0.26659596 1.6350001 4285431948
-0.067936242 0.26675901 1.636 4285564047
-0.065216012 0.26724818 1.6390001 4285957779
-0.062409256 0.26741126 1.6400001 4286418330
-0.059635349 0.26773736 1.6420001 4286089878
-0.056923665 0.26838958 1.646 4285958292
-0.054099552 0.26855263 1.6470001 4286024087
-0.051396415 0.26936793 1.6520001 4285892758
-0.048705295 0.27034625 1.6580001 4286024344
-0.045910429 0.27083543 1.6610001 4286024344
-0.043182861 0.27181375 1.6670001 4286090138
-0.040434461 0.2727921 1.6730001 4286090138
-0.037575506 0.27311817 1.6750001 4286155418
-0.03485449 0.27458569 1.6840001 4286221211
-0.032102227 0.27605319 1.6930001 4286484126
-0.029249823 0.27686846 1.6980001 4286944676
-0.026488489 0.27882513 1.71 4287010469
-0.020720666 0.28110793 1.7240001 4287865778
-0.23575847 0.28358516 1.7210001 4294442751
-0.23006624 0.28028956 1.7010001 4289443263
-0.22604568 0.27897131 1.6930001 4288523192
-0.22231646 0.27798265 1.687 4288523708
-0.21912824 0.2776531 1.6850001 4288129461
-0.21556205 0.27682921 1.6800001 4287471533
-0.21201319 0.2760053 1.6750001 4287273899
-0.20873138 0.27551097 1.6720001 4287010727
-0.20533687 0.27485186 1.6680001 4286813348
-0.20195626 0.27419275 1.664 4286747810
-0.19870916 0.27369842 1.6610001 4286747810
-0.19547248 0.27320406 1.6580001 4286616224
-0.19213004 0.27254492 1.654 4286550431
-0.18903035 0.2722154 1.6520001 4286353052
-0.18559952 0.27139148 1.6470001 4286221464
-0.18251891 0.27106193 1.6450001 4286155671
-0.17944527 0.27073237 1.6430001 4286418843
-0.17627107 0.27023804 1.6400001 4286155671
-0.17331877 0.27007324 1.6390001 4286024085
-0.17016193 0.2695789 1.636 4286089878
-0.16711777 0.26924938 1.6340001 4285958292
-0.1641811 0.26908457 1.6330001 4285695120
-0.16105029 0.26859024 1.6300001 4285760400
-0.1579299 0.26809591 1.6270001 4285694607
-0.1550106 0.26793113 1.626 4286088849
-0.15200116 0.26760155 1.6240001 4286286228
-0.14899866 0.267272 1.6220001 4286615193
-0.14618336 0.267272 1.6220001 4286417812
-0.14327966 0.26710722 1.6210001 4286615191
-0.14037944 0.26694244 1.6200001 4286483605
-0.13756761 0.26694244 1.6200001 4286155412
-0.1346726 0.26677766 1.6190001 4285892240
-0.13178106 0.26661289 1.618 4285563275
-0.12897269 0.26661289 1.618 4285168263
-0.12608635 0.26644811 1.6170001 4284970884
-0.12327974 0.26644811 1.6170001 4285102470
-0.12047311 0.26644811 1.6170001 4285365642
-0.11766649 0.26644811 1.6170001 4285431435
-0.11485986 0.26644811 1.6170001 4285826447
-0.11212254 0.26661289 1.618 4285629068
-0.10924662 0.26644811 1.6170001 4284971138
-0.10650581 0.26661289 1.618 4285234310
-0.10376155 0.26677766 1.6190001 4285365896
-0.10095145 0.26677766 1.6190001 4285497228
-0.09814135 0.26677766 1.6190001 4285299849
-0.095390141 0.26694244 1.6200001 4285562507
-0.092635453 0.26710722 1.6210001 4285496712
-0.0898773 0.267272 1.6220001 4285628814
-0.087169349 0.26760155 1.6240001 4285497230
-0.084402516 0.26776633 1.6250001 4285102985
-0.081732616 0.26826066 1.628 4285497743
-0.079003841 0.26859024 1.6300001 4285695120
-0.076268114 0.2689198 1.6320001 4285563534
-0.073480457 0.26908457 1.6330001 4285694607
-0.070646062 0.26908457 1.6330001 4285760400
-0.067936242 0.2695789 1.636 4285826193
-0.065216012 0.27007324 1.6390001 4285760400
-0.062409256 0.27023804 1.6400001 4285891986
-0.059671666 0.27073237 1.6430001 4285892499
-0.056958243 0.27139148 1.6470001 4285892499
-0.054165244 0.27172107 1.649 4285892758
-0.051458634 0.27254492 1.654 4286024344
-0.048764046 0.27353361 1.6600001 4285892758
-0.045965709 0.27402794 1.6630001 4286155930
-0.043234669 0.27501664 1.669 4285958552
-0.040434461 0.27567574 1.6730001 4285958552
-0.037620373 0.27633485 1.677 4286089625
-0.034875188 0.2776531 1.6850001 4286221211
-0.032140154 0.2793009 1.6950001 4286549919
-0.0293015 0.28028956 1.7010001 4286747298
-0.026534962 0.28226691 1.7130001 4287405227
-0.23603244 0.28688458 1.723 4294508543
-0.23033677 0.28355452 1.7030001 4290627279
-0.22631273 0.28222248 1.6950001 4289114814
-0.22258003 0.28122345 1.6890001 4288259766
-0.21938834 0.28089043 1.687 4288523706
-0.21581866 0.28005794 1.682 4287799986
-0.21226633 0.27922544 1.677 4287339692
-0.20885621 0.27855942 1.6730001 4287142313
-0.20545998 0.27789339 1.669 4287010982
-0.20207763 0.2772274 1.6650001 4287076775
-0.19894843 0.27689439 1.6630001 4286747810
-0.19559036 0.27622837 1.659 4286616224
-0.1922462 0.27556238 1.6550001 4286682017
-0.1892592 0.27539584 1.654 4286484638
-0.1860503 0.27489635 1.651 4286418843
-0.18285178 0.27439684 1.6480001 4286353050
-0.17966369 0.27389732 1.6450001 4286221464
-0.17648603 0.2733978 1.6420001 4286221464
-0.17353027 0.27323133 1.641 4286221464
-0.17036995 0.27273181 1.6380001 4285958292
-0.16732232 0.2723988 1.636 4285958292
-0.16438219 0.27223229 1.6350001 4285826706
-0.16124791 0.27173281 1.6320001 4285760400
-0.15812404 0.27123329 1.6290001 4285760400
-0.15510592 0.27090028 1.6270001 4285760400
-0.15200116 0.27040076 1.6240001 4285891470
-0.14909051 0.27023429 1.623 4286220435
-0.14627348 0.27023429 1.623 4286352791
-0.14345644 0.27023429 1.623 4286221205
-0.14055276 0.27006775 1.6220001 4285892240
-0.13765253 0.26990125 1.6210001 4285958033
-0.13475578 0.26973477 1.6200001 4285760400
-0.13194396 0.26973477 1.6200001 4285431435
-0.12905242 0.26956823 1.6190001 4285234056
-0.12624231 0.26956823 1.6190001 4284970884
-0.12327974 0.26923525 1.6170001 4284970884
-0.12047311 0.26923525 1.6170001 4285431435
-0.11766649 0.26923525 1.6170001 4285497228
-0.11485986 0.26923525 1.6170001 4285694607
-0.11212254 0.26940176 1.618 4285694863
-0.10931417 0.26940176 1.618 4285431948
-0.10657164 0.26956823 1.6190001 4284905602
-0.10382564 0.26973477 1.6200001 4285234569
-0.1010138 0.26973477 1.6200001 4285234569
-0.098201975 0.26973477 1.6200001 4285168776
-0.095449023 0.26990125 1.6210001 4285365642
-0.092692606 0.27006775 1.6220001 4285431435
-0.089932717 0.27023429 1.623 4285563023
-0.087223023 0.27056727 1.6250001 4285563536
-0.084454454 0.27073377 1.626 4285366157
-0.081782825 0.27123329 1.6290001 4285300364
-0.079052307 0.2715663 1.631 4285431948
-0.076268114 0.27173281 1.6320001 4285694607
-0.073525451 0.27206582 1.6340001 4285891986
-0.070689321 0.27206582 1.6340001 4286155158
-0.067936242 0.2723988 1.636 4286155158
-0.065255806 0.27306482 1.6400001 4285826193
-0.062447306 0.27323133 1.641 4285760400
-0.059707981 0.27373084 1.6440001 4285957779
-0.056992829 0.27439684 1.6480001 4285892501
-0.054198094 0.27472985 1.6500001 4285958294
-0.051489748 0.27556238 1.6550001 4285826966
-0.048822798 0.27672789 1.6620001 4286024344
-0.045965709 0.27689439 1.6630001 4286090138
-0.043234669 0.27789339 1.669 4285958552
-0.04050697 0.27905893 1.6760001 4286287517
-0.03766524 0.27955845 1.6790001 4286352797
-0.034937277 0.28105697 1.6880001 4286418590
-0.032215998 0.28288847 1.6990001 4286813348
-0.029370403 0.28388751 1.705 4287010470
-0.026550451 0.28538603 1.7140001 4287471020
-0.23074251 0.28699458 1.7060001 4293127413
-0.22671328 0.28564873 1.6980001 4289311679
-0.22297537 0.28463939 1.692 4288260020
-0.21964844 0.28413472 1.6890001 4288063155
-0.21607529 0.28329358 1.6840001 4288326330
-0.21239291 0.2822842 1.6780001 4287536813
-0.20923074 0.28194776 1.6760001 4287339434
-0.20570618 0.28110662 1.6710001 4287142568
-0.20232037 0.28043374 1.6670001 4286945189
-0.19918768 0.28009728 1.6650001 4287010982
-0.19582616 0.27942437 1.6610001 4286945189
-0.19259469 0.2789197 1.6580001 4286945187
-0.18960248 0.27875146 1.6570001 4286616222
-0.18638836 0.27824676 1.654 4286287257
-0.18296275 0.27740565 1.649 4286024085
-0.17977291 0.27690098 1.646 4285958292
-0.17670099 0.27656451 1.6440001 4286089878
-0.17374176 0.2763963 1.6430001 4286089878
-0.17068198 0.27605984 1.641 4286089878
-0.16762915 0.27572337 1.6390001 4285695120
-0.16458327 0.27538693 1.6370001 4285694607
-0.16144551 0.27488226 1.6340001 4285563021
-0.15822111 0.27420932 1.6300001 4285628814
-0.15529659 0.27404112 1.6290001 4285628814
-0.15228194 0.27370465 1.6270001 4285694607
-0.14927424 0.27336818 1.6250001 4285628814
-0.14645374 0.27336818 1.6250001 4285497228
-0.14354482 0.27319998 1.6240001 4285694607
-0.14072606 0.27319998 1.6240001 4285431435
-0.13782236 0.27303177 1.623 4285365642
-0.13500533 0.27303177 1.623 4285431435
-0.13210684 0.27286351 1.6220001 4285497228
-0.12921183 0.2726953 1.6210001 4285234056
-0.12624231 0.27235883 1.6190001 4285299849
-0.12327974 0.2720224 1.6170001 4285036677
-0.12039861 0.27185416 1.6160001 4285168263
-0.11759373 0.27185416 1.6160001 4285234056
-0.11485986 0.2720224 1.6170001 4285299849
-0.11212254 0.27219063 1.618 4285102983
-0.10931417 0.27219063 1.618 4285300362
-0.10657164 0.27235883 1.6190001 4285037190
-0.10382564 0.27252707 1.6200001 4285102983
-0.1010138 0.27252707 1.6200001 4285300362
-0.098262586 0.2726953 1.6210001 4285234569
-0.095507905 0.27286351 1.6220001 4285234569
-0.092749752 0.27303177 1.623 4285300362
-0.08998812 0.27319998 1.6240001 4285168778
-0.087276705 0.27353644 1.626 4285431950
-0.0845064 0.27370465 1.6270001 4285366157
-0.081732616 0.27387288 1.628 4285102985
-0.079003841 0.27420932 1.6300001 4285497741
-0.076268114 0.27454579 1.6320001 4285694607
-0.073525451 0.27488226 1.6340001 4285760400
-0.070732579 0.27505046 1.6350001 4285891986
-0.068019293 0.27555516 1.6380001 4286220951
-0.065335378 0.27622804 1.6420001 4286023572
-0.062561467 0.27656451 1.6440001 4285957779
-0.059816938 0.27706918 1.6470001 4286023574
-0.057096578 0.27774209 1.651 4285826708
-0.054263789 0.27791032 1.6520001 4285958039
-0.051583081 0.2789197 1.6580001 4286090138
-0.048852175 0.27976081 1.6630001 4286024345
-0.04604863 0.28026548 1.6660001 4286155931
-0.043312382 0.28127486 1.6720001 4286024345
-0.040603645 0.28262067 1.6800001 4286353310
-0.037754972 0.28312534 1.6830001 4286550176
-0.035020068 0.28463939 1.692 4286352797
-0.032310806 0.28665811 1.7040001 4286813348
-0.029473761 0.28783569 1.7110001 4287405485
-0.23223031 0.29180455 1.7170001 4294508543
-0.22711383 0.28908536 1.7010001 4289640642
-0.22323893 0.28789571 1.6940001 4289049536
-0.21990852 0.28738585 1.6910001 4288128948
-0.21633191 0.2865361 1.6860001 4288260536
-0.21277264 0.28568634 1.6810001 4287931057
-0.20948042 0.28517649 1.6780001 4287339434
-0.20595239 0.28432676 1.6730001 4287273641
-0.20256311 0.28364694 1.669 4287076262
-0.19942695 0.28330705 1.6670001 4287142568
-0.19594406 0.28245729 1.6620001 4286813603
-0.19259469 0.2817775 1.6580001 4286879396
-0.18960248 0.28160754 1.6570001 4286682017
-0.18638836 0.28109768 1.654 4286418843
-0.18296275 0.28024796 1.649 4286221464
-0.17977291 0.2797381 1.646 4285958805
-0.17659351 0.27922824 1.6430001 4286089878
-0.173636 0.27905828 1.6420001 4286089878
-0.17057797 0.27871841 1.6400001 4285892499
-0.16752687 0.27837849 1.6380001 4285826706
-0.16458327 0.27820855 1.6370001 4285958292
-0.16144551 0.2776987 1.6340001 4285760400
-0.15841524 0.2773588 1.6320001 4285760400
-0.15539192 0.27701887 1.6300001 4285694607
-0.15237555 0.27667898 1.628 4285694607
-0.14936611 0.27633908 1.626 4285431435
-0.14654386 0.27633908 1.626 4285563021
-0.14363323 0.27616912 1.6250001 4285431435
-0.14072606 0.27599919 1.6240001 4285431435
-0.13782236 0.27582926 1.623 4285365642
-0.13500533 0.27582926 1.623 4285431435
-0.13210684 0.27565926 1.6220001 4285431435
-0.12921183 0.27548933 1.6210001 4285365642
-0.12608635 0.27480954 1.6170001 4285102470
-0.1232035 0.27463958 1.6160001 4285102470
-0.1203241 0.27446964 1.6150001 4285234056
-0.11752095 0.27446964 1.6150001 4285365642
-0.11478884 0.27463958 1.6160001 4285299849
-0.11205324 0.27480954 1.6170001 4285102470
-0.10931417 0.27497947 1.618 4285563534
-0.10657164 0.27514943 1.6190001 4285366155
-0.10382564 0.2753194 1.6200001 4285102983
-0.1010138 0.2753194 1.6200001 4285234569
-0.098262586 0.27548933 1.6210001 4285234569
-0.095507905 0.27565926 1.6220001 4285431948
-0.092692606 0.27565926 1.6220001 4285234569
-0.089932717 0.27582926 1.623 4285300364
-0.087169349 0.27599919 1.6240001 4285497743
-0.084402516 0.27616912 1.6250001 4285497743
-0.081732616 0.27667898 1.628 4285366155
-0.079003841 0.27701887 1.6300001 4285366155
-0.076221384 0.27718887 1.631 4285629327
-0.073525451 0.2776987 1.6340001 4285760913
-0.070775844 0.27803859 1.636 4285826193
-0.068060823 0.27854845 1.6390001 4285826193
-0.065375172 0.27922824 1.6430001 4286023572
-0.062599525 0.27956814 1.6450001 4285826195
-0.059853259 0.28007799 1.6480001 4285760402
-0.057096578 0.28058785 1.651 4285826195
-0.054263789 0.28075781 1.6520001 4286024087
-0.051551968 0.28160754 1.6570001 4286024087
-0.048852175 0.28262722 1.6630001 4286155930
-0.04604863 0.28313708 1.6660001 4286155930
-0.043338284 0.28432676 1.6730001 4286287261
-0.040627811 0.28568634 1.6810001 4286484383
-0.037777405 0.2861962 1.6840001 4286484383
-0.035061464 0.28789571 1.6940001 4286681762
-0.032348733 0.28993511 1.7060001 4286944934
-0.029490987 0.29095483 1.7120001 4287339692
-0.22738086 0.29236063 1.7030001 4291285210
-0.2235025 0.29115891 1.6960001 4288588725
-0.22029866 0.29081556 1.6940001 4289247171
-0.21658853 0.28978553 1.6880001 4288063412
-0.21302579 0.28892717 1.6830001 4287734192
-0.2097301 0.28841212 1.6800001 4287668143
-0.2061986 0.28755376 1.6750001 4287076262
-0.20268446 0.28669539 1.6700001 4287207848
-0.19966622 0.2865237 1.669 4287010982
-0.19629775 0.28583702 1.6650001 4286879396
-0.19294317 0.28515035 1.6610001 4286879396
-0.18994576 0.28497866 1.6600001 4286419102
-0.18672642 0.28446361 1.6570001 4286485149
-0.18318465 0.28343359 1.651 4286419356
-0.17999135 0.28291857 1.6480001 4286221977
-0.17680848 0.28240353 1.6450001 4286090391
-0.17384751 0.28223187 1.6440001 4286090136
-0.17078599 0.28188851 1.6420001 4285892499
-0.1678337 0.28171685 1.641 4285892499
-0.16488488 0.28154519 1.6400001 4285957779
-0.16174193 0.28103018 1.6370001 4285826706
-0.15860939 0.28051513 1.6340001 4285826706
-0.15567791 0.28034344 1.6330001 4285826449
-0.15265633 0.28000012 1.631 4285628814
-0.14964169 0.27965677 1.6290001 4285760400
-0.14681423 0.27965677 1.6290001 4285497228
-0.14381 0.27931342 1.6270001 4285563021
-0.14098601 0.27931342 1.6270001 4285628816
-0.13807712 0.27914175 1.626 4285563021
-0.1351717 0.27897006 1.6250001 4285759886
-0.13226973 0.2787984 1.6240001 4285694091
-0.12929155 0.27845505 1.6220001 4285299334
-0.12632029 0.2781117 1.6200001 4285430920
-0.12343222 0.27794001 1.6190001 4285299849
-0.12054761 0.27776834 1.618 4285299849
-0.11773925 0.27776834 1.618 4285234056
-0.11493089 0.27776834 1.618 4285431435
-0.11219183 0.27794001 1.6190001 4285497484
-0.10938174 0.27794001 1.6190001 4285366155
-0.10663747 0.2781117 1.6200001 4285563534
-0.10388972 0.27828336 1.6210001 4285102983
-0.10107616 0.27828336 1.6210001 4284905604
-0.098323211 0.27845505 1.6220001 4285234569
-0.095566794 0.27862674 1.623 4285366155
-0.092749752 0.27862674 1.623 4285431948
-0.08998812 0.2787984 1.6240001 4285300362
-0.087276705 0.27914175 1.626 4285366156
-0.0845064 0.27931342 1.6270001 4285300363
-0.081782825 0.27965677 1.6290001 4285300362
-0.079052307 0.28000012 1.631 4285497741
-0.076268114 0.28017178 1.6320001 4285497741
-0.073615447 0.28085849 1.636 4285629327
-0.070862368 0.28120184 1.6380001 4285629327
-0.068185396 0.28188851 1.6420001 4285628814
-0.065494545 0.28257522 1.646 4285760400
-0.06271369 0.28291857 1.6480001 4285694609
-0.059962213 0.28343359 1.651 4285760402
-0.057200324 0.2839486 1.654 4285957781
-0.054362331 0.28412029 1.6550001 4286024087
-0.051645305 0.28497866 1.6600001 4286221466
-0.048969679 0.28618038 1.6670001 4286221723
-0.046159189 0.28669539 1.6700001 4286221466
-0.043467809 0.28806877 1.6780001 4286550175
-0.040748656 0.28944218 1.6860001 4286550431
-0.037912004 0.29012886 1.6900001 4286550176
-0.03518565 0.29184562 1.7 4286879141
-0.22818199 0.29633641 1.7090001 4294180094
-0.22402962 0.29477581 1.7 4289180091
-0.22081885 0.29442903 1.6980001 4288852157
-0.21710177 0.29338863 1.692 4289313224
-0.21340552 0.29234827 1.6860001 4288260536
-0.21022946 0.29200146 1.6840001 4287602606
-0.20656791 0.29096106 1.6780001 4287273641
-0.20304857 0.29009411 1.6730001 4287208361
-0.20002511 0.28992069 1.6720001 4287208361
-0.19665143 0.2892271 1.6680001 4286682017
-0.19329165 0.28853351 1.664 4286682274
-0.19028904 0.28836009 1.6630001 4286616481
-0.1869518 0.28766653 1.659 4286682528
-0.18329561 0.28645274 1.6520001 4286419356
-0.18020979 0.28610593 1.6500001 4286353563
-0.17713092 0.28575915 1.6480001 4286156184
-0.17416474 0.28558576 1.6470001 4286287770
-0.17109802 0.28523895 1.6450001 4285958292
-0.16803826 0.28489217 1.6430001 4285826706
-0.16498542 0.28454536 1.641 4285760656
-0.16184074 0.28402516 1.6380001 4285826706
-0.15880352 0.28367838 1.636 4285826706
-0.15586859 0.28350499 1.6350001 4285629327
-0.15284352 0.28315818 1.6330001 4285760400
-0.14991727 0.28298479 1.6320001 4285694607
-0.14699449 0.2828114 1.631 4285628814
-0.14398678 0.28246459 1.6290001 4285497228
-0.14115933 0.28246459 1.6290001 4285563022
-0.13816203 0.28211778 1.6270001 4285694093
-0.1350885 0.28159761 1.6240001 4285562507
-0.13226973 0.28159761 1.6240001 4285101954
-0.12937126 0.28142422 1.623 4288062639
-0.12655421 0.28142422 1.623 4287470502
-0.12366094 0.2812508 1.6220001 4285563275
-0.12077112 0.28107741 1.6210001 4285365640
-0.11795755 0.28107741 1.6210001 4285234056
-0.11507297 0.28090402 1.6200001 4285497228
-0.11226113 0.28090402 1.6200001 4285365642
-0.1094493 0.28090402 1.6200001 4285168776
-0.10663747 0.28090402 1.6200001 4285497741
-0.10388972 0.28107741 1.6210001 4285168776
-0.10107616 0.28107741 1.6210001 4284774018
-0.098323211 0.2812508 1.6220001 4285366155
-0.095507905 0.2812508 1.6220001 4285300362
-0.092749752 0.28142422 1.623 4285366155
-0.090043537 0.28177097 1.6250001 4285234569
-0.087384053 0.28229117 1.628 4285366155
-0.084558338 0.28229117 1.628 4285431948
-0.081833027 0.28263798 1.6300001 4285431948
-0.079149246 0.28315818 1.6330001 4285366155
-0.076361582 0.2833316 1.6340001 4285497741
-0.073705442 0.28402516 1.6380001 4285563534
-0.070948891 0.28437197 1.6400001 4285760400
-0.068268448 0.28506556 1.6440001 4285694607
-0.065574117 0.28575915 1.6480001 4285694607
-0.062751748 0.28593254 1.649 4285694609
-0.060034849 0.28662613 1.6530001 4285891988
-0.057304073 0.28731972 1.6570001 4285826708
-0.054460872 0.28749314 1.6580001 4286089880
-0.051769752 0.28853351 1.664 4286287259
-0.049057804 0.28957391 1.6700001 4286418845
-0.04624211 0.29009411 1.6730001 4286418845
-0.043571427 0.29165468 1.682 4286682017
-0.0408695 0.29321525 1.6910001 4286747554
-0.038024172 0.29390883 1.6950001 4286747555
-0.22429319 0.29805624 1.702 4292338154
-0.22094889 0.29753089 1.6990001 4288588470
-0.21723008 0.29648018 1.6930001 4288654779
-0.21353209 0.29542944 1.687 4288457914
-0.21022946 0.29490408 1.6840001 4287734192
-0.20656791 0.29385334 1.6780001 4287274154
-0.20316993 0.29315287 1.674 4287142568
-0.20002511 0.29280263 1.6720001 4286945189
-0.19676934 0.29227725 1.669 4286748067
-0.19329165 0.29140168 1.664 4286748067
-0.19017459 0.29105142 1.6620001 4286748067
-0.18683912 0.29035094 1.6580001 4286682274
-0.18329561 0.2893002 1.6520001 4286353309
-0.18020979 0.28894997 1.6500001 4286287516
-0.17713092 0.28859973 1.6480001 4286155930
-0.17416474 0.28842461 1.6470001 4286024598
-0.17109802 0.28807434 1.6450001 4285761426
-0.16803826 0.28772414 1.6430001 4285893012
-0.16498542 0.28737387 1.641 4285761426
-0.16184074 0.28684852 1.6380001 4285826706
-0.15880352 0.28649825 1.636 4285695120
-0.15586859 0.28632316 1.6350001 4285760657
-0.15293713 0.28614804 1.6340001 4285891986
-0.15000913 0.28597289 1.6330001 4285826193
-0.14708461 0.28579777 1.6320001 4285365642
-0.14407517 0.28544754 1.6300001 4285365642
-0.14107268 0.28509727 1.628 4285628814
-0.13807712 0.28474706 1.626 4285759630
-0.1350885 0.2843968 1.6240001 4285825423
-0.13218829 0.28422171 1.623 4289312706
-0.12937126 0.28422171 1.623 4290891738
-0.12655421 0.28422171 1.623 4286549913
-0.12366094 0.28404656 1.6220001 4285629068
-0.12084564 0.28404656 1.6220001 4285431689
-0.11795755 0.28387144 1.6210001 4285300103
-0.11507297 0.28369632 1.6200001 4285694861
-0.11219183 0.28352121 1.6190001 4285431689
-0.10938174 0.28352121 1.6190001 4285365897
-0.10663747 0.28369632 1.6200001 4285497484
-0.10388972 0.28387144 1.6210001 4285431691
-0.1010138 0.28369632 1.6200001 4285036933
-0.098201975 0.28369632 1.6200001 4285431435
-0.095449023 0.28387144 1.6210001 4285299849
-0.092692606 0.28404656 1.6220001 4285563277
-0.090043537 0.28457192 1.6250001 4285891986
-0.087330379 0.28492218 1.6270001 4285431948
-0.084558338 0.28509727 1.628 4285366155
-0.081833027 0.28544754 1.6300001 4285497741
-0.079149246 0.28597289 1.6330001 4285431948
-0.076361582 0.28614804 1.6340001 4285628816
-0.073705442 0.28684852 1.6380001 4285563279
-0.070948891 0.28719875 1.6400001 4285628814
-0.068226926 0.28772414 1.6430001 4285826193
-0.065534331 0.28842461 1.6470001 4285694607
-0.062751748 0.28877485 1.649 4285826195
-0.060034849 0.28947532 1.6530001 4285957781
-0.057304073 0.2901758 1.6570001 4286024087
-0.054526564 0.29070118 1.6600001 4286089880
-0.051769752 0.29140168 1.664 4286287259
-0.049087182 0.29262751 1.6710001 4286484638
-0.046269752 0.29315287 1.674 4286682017
-0.043597333 0.29472896 1.6830001 4286747810
-0.04089367 0.29630506 1.692 4286747555
-0.038069036 0.29718065 1.697 4287076520
-0.21787164 0.30028254 1.6980001 4288654263
-0.21403839 0.29904464 1.6910001 4288720571
-0.21085365 0.29869094 1.6890001 4287997362
-0.20718344 0.29762986 1.6830001 4287471533
-0.20377678 0.2969225 1.6790001 4287339947
-0.20050365 0.29639196 1.6760001 4287142826
-0.19712304 0.29568458 1.6720001 4286945447
-0.19375628 0.29497719 1.6680001 4286879653
-0.1906323 0.29462349 1.6660001 4286879653
-0.18717718 0.29373929 1.6610001 4286550688
-0.18385038 0.2930319 1.6570001 4286353309
-0.18064667 0.29250136 1.654 4286484895
-0.17756085 0.2921477 1.6520001 4286353309
-0.17458774 0.29197082 1.651 4286221723
-0.17141005 0.29144028 1.6480001 4285826965
-0.1682428 0.29090977 1.6450001 4285893012
-0.16528705 0.29073292 1.6440001 4285761426
-0.16213714 0.29020238 1.641 4285695633
-0.15909472 0.28984869 1.6390001 4285695633
-0.15615459 0.28967184 1.6380001 4285826706
-0.15321791 0.28949502 1.6370001 4285760656
-0.15010099 0.28896448 1.6340001 4285694607
-0.14717473 0.28878763 1.6330001 4285563021
-0.14416356 0.28843394 1.631 4285694093
-0.14124598 0.28825709 1.6300001 4285496714
-0.13816203 0.28772655 1.6270001 4286877854
-0.1351717 0.28737286 1.6250001 4290759639
-0.13235119 0.28737286 1.6250001 4290102222
-0.12953068 0.28737286 1.6250001 4286089619
-0.12671016 0.28737286 1.6250001 4285629068
-0.12388966 0.28737286 1.6250001 4285300103
-0.12099463 0.28719601 1.6240001 4285365896
-0.11817586 0.28719601 1.6240001 4285431689
-0.11521503 0.28684232 1.6220001 4285497739
-0.11239972 0.28684232 1.6220001 4285497739
-0.10951686 0.28666547 1.6210001 4285234569
-0.10663747 0.28648865 1.6200001 4285365642
-0.10382564 0.28648865 1.6200001 4285563021
-0.1010138 0.28648865 1.6200001 4285431435
-0.098262586 0.28666547 1.6210001 4285234056
-0.095566794 0.28701919 1.623 4285431435
-0.092806898 0.28719601 1.6240001 4285694607
-0.090154365 0.28772655 1.6270001 4285760400
-0.087491408 0.28825709 1.6300001 4285563021
-0.084714152 0.28843394 1.631 4285563021
-0.081983641 0.28878763 1.6330001 4285563021
-0.079294652 0.28931814 1.636 4285563022
-0.076501779 0.28949502 1.6370001 4285628816
-0.073840432 0.29020238 1.641 4285563023
-0.070992149 0.29020238 1.641 4285694608
-0.068309978 0.29090977 1.6450001 4285826194
-0.065613911 0.29161716 1.649 4285891988
-0.062827855 0.29197082 1.651 4285891988
-0.060143806 0.29285505 1.6560001 4285957781
-0.057442408 0.29373929 1.6610001 4286089880
-0.054625109 0.29409295 1.6630001 4286221466
-0.051925309 0.29515404 1.669 4286221466
-0.049204685 0.29621509 1.6750001 4286616224
-0.046380311 0.29674563 1.6780001 4286616224
-0.043700952 0.29833725 1.687 4286682017
-0.2145447 0.30267358 1.6950001 4289378501
-0.21122816 0.30213788 1.692 4288721085
-0.20755275 0.30106649 1.6860001 4287866291
-0.20401952 0.30017361 1.6810001 4287537326
-0.20098218 0.29999506 1.6800001 4287340205
-0.19759461 0.29928079 1.6760001 4286945447
-0.19410478 0.29838794 1.6710001 4286945447
-0.19097558 0.29803079 1.669 4286813861
-0.18762793 0.29731655 1.6650001 4286616224
-0.18429418 0.29660228 1.6610001 4286484895
-0.18097432 0.29588798 1.6570001 4286550431
-0.1778833 0.29553086 1.6550001 4286682274
-0.17479922 0.2951737 1.6530001 4286287516
-0.17161807 0.29463801 1.6500001 4286024344
-0.16844736 0.29410231 1.6470001 4286024344
-0.16558866 0.29410231 1.6470001 4285892757
-0.16253234 0.29374516 1.6450001 4285761171
-0.15938592 0.29320946 1.6420001 4285761428
-0.15634525 0.29285234 1.6400001 4285695122
-0.1534051 0.29267374 1.6390001 4285760914
