# .PCD v0.7 - Point Cloud Data file format
VERSION 0.7
FIELDS x y z rgba
SIZE 4 4 4 4
TYPE F F F U
COUNT 1 1 1 1
WIDTH 1072
HEIGHT 1
VIEWPOINT 0 0 0 1 0 0 0
POINTS 1072
DATA ascii
-0.026774226 -0.067786135 1.2160001 4281415729
-0.02339121 -0.067618899 1.2130001 4281284143
-0.020041153 -0.067507409 1.2110001 4281152557
-0.016715845 -0.067451663 1.21 4280889385
-0.01341817 -0.067507409 1.2110001 4280823592
-0.010115024 -0.067563154 1.212 4280692005
-0.006806409 -0.067618899 1.2130001 4280494626
-0.0034980788 -0.067786135 1.2160001 4280692005
-0.00017433701 -0.068343587 1.2260001 4280692005
0.0032015026 -0.068845294 1.235 4280297248
0.0066159097 -0.069235511 1.2420001 4280165662
0.010028293 -0.069347002 1.2440001 4280034076
0.013581166 -0.070127435 1.258 4280034076
0.01708883 -0.070406161 1.263 4279902490
0.020705165 -0.070963606 1.273 4280165662
0.024072198 -0.070629142 1.2670001 4280823592
0.027558558 -0.070684887 1.268 4281020971
0.030830169 -0.070238918 1.2600001 4281086764
0.034248449 -0.07018318 1.2590001 4280889131
0.037721135 -0.070238918 1.2600001 4280954924
0.041199289 -0.070294671 1.261 4280757545
0.044647504 -0.070294671 1.261 4280954924
0.047905017 -0.070015945 1.256 4281086510
0.051216934 -0.069848709 1.253 4281086510
0.054468833 -0.069625728 1.2490001 4281349936
0.057930585 -0.069681473 1.25 4280823845
0.061397798 -0.069737218 1.251 4279376648
0.065077737 -0.070015945 1.256 4282601508
0.068675928 -0.07018318 1.2590001 4289378937
0.072290517 -0.070350409 1.2620001 4290167951
0.075861506 -0.070461906 1.2640001 4286351460
0.079945445 -0.071019359 1.274 4279442192
0.084476985 -0.071911275 1.2900001 4280297248
0.08895959 -0.072691716 1.304 4280625959
0.093802579 -0.073695123 1.322 4280625959
-0.095796287 -0.068648815 1.2950001 4278190080
-0.090901546 -0.067641616 1.276 4279770400
-0.086179219 -0.06668742 1.258 4278849298
-0.082213044 -0.066263333 1.25 4294508286
-0.078353651 -0.065892257 1.243 4292797666
-0.074834056 -0.065786235 1.2410001 4281876028
-0.071095124 -0.065468177 1.235 4280296994
-0.06766317 -0.065415166 1.2340001 4280034076
-0.063872002 -0.064991079 1.2260001 4280099869
-0.060272679 -0.064726025 1.2210001 4280099869
-0.056747332 -0.064513981 1.217 4280165662
-0.053375535 -0.06446097 1.2160001 4279968029
-0.050091535 -0.064513981 1.217 4280823338
-0.046763636 -0.064513981 1.217 4281086510
-0.043471426 -0.064566992 1.2180001 4281415475
-0.040140793 -0.064566992 1.2180001 4280297248
-0.03681016 -0.064566992 1.2180001 4279836697
-0.033479527 -0.064566992 1.2180001 4279770904
-0.030074637 -0.06440796 1.215 4281218350
-0.026708171 -0.064301938 1.2130001 4281481522
-0.023352643 -0.064195916 1.2110001 4281152557
-0.020041153 -0.064195916 1.2110001 4281415729
-0.016715845 -0.064142905 1.21 4281349936
-0.01345141 -0.064354949 1.2140001 4281086764
-0.010165098 -0.064566992 1.2180001 4281020971
-0.0068793548 -0.064991079 1.2260001 4281020971
-0.0035412295 -0.065256134 1.2310001 4280692006
-0.00017632781 -0.065733232 1.24 4280363041
0.0032274257 -0.065998279 1.245 4280099869
0.0066425442 -0.0661043 1.2470001 4280099869
0.01000411 -0.065786235 1.2410001 4280034076
0.013484004 -0.06621033 1.2490001 4279902490
0.017007649 -0.066634409 1.2570001 4279968283
0.020607576 -0.067164518 1.2670001 4279902490
0.023939203 -0.066793442 1.2600001 4279836697
0.027515091 -0.067111507 1.266 4280033822
0.030879105 -0.066899464 1.2620001 4280099617
0.034194041 -0.066634409 1.2570001 4280428580
0.037451696 -0.066316344 1.251 4280625959
0.040807225 -0.06621033 1.2490001 4280889385
0.044187222 -0.066157311 1.248 4281020971
0.047599889 -0.066157311 1.248 4280691752
0.051094308 -0.066263333 1.25 4280296994
0.054512445 -0.066263333 1.25 4279244811
0.057976928 -0.066316344 1.251 4280824597
0.061594117 -0.066528387 1.2550001 4289970823
0.06538862 -0.066899464 1.2620001 4290300041
0.069330506 -0.067376554 1.271 4289839237
0.073207043 -0.06774763 1.2780001 4279442690
0.077001832 -0.068012692 1.2830001 4280297497
0.080761217 -0.068224728 1.2870001 4280165662
0.085000873 -0.068807848 1.2980001 4280757799
0.089437135 -0.069496982 1.3110001 4280691756
-0.10240201 -0.06480597 1.289 4280099366
-0.097343057 -0.063800447 1.2690001 4279244057
-0.093281165 -0.063398235 1.261 4278190080
-0.089619234 -0.063247405 1.258 4280757549
-0.085699685 -0.062895477 1.251 4280099617
-0.081555337 -0.062342439 1.24 4280231203
-0.077786326 -0.06204078 1.2340001 4282073659
-0.074592851 -0.062191606 1.2370001 4280560420
-0.071037561 -0.06204078 1.2340001 4279836697
-0.067608342 -0.061990503 1.233 4279836697
-0.063872002 -0.061638568 1.2260001 4280034076
-0.060272679 -0.061387192 1.2210001 4280297248
-0.056793958 -0.061236359 1.2180001 4280560420
-0.053375535 -0.06113581 1.2160001 4280626213
-0.049968053 -0.061035257 1.2140001 4280757545
-0.046648361 -0.061035257 1.2140001 4281283889
-0.043400045 -0.06113581 1.2160001 4281481268
-0.040041927 -0.06108553 1.215 4281086510
-0.036749717 -0.06113581 1.2160001 4279441939
-0.033397067 -0.06108553 1.215 4280889385
-0.030000379 -0.060934704 1.212 4281284143
-0.026642114 -0.060834151 1.21 4281547315
-0.02339121 -0.060984977 1.2130001 4281349936
-0.020107349 -0.06108553 1.215 4281349936
-0.016798735 -0.06113581 1.2160001 4281481522
-0.01347357 -0.06113581 1.2160001 4281152557
-0.010206827 -0.061487742 1.223 4280692006
-0.0069186334 -0.061990503 1.233 4280560420
-0.0035786268 -0.062543541 1.2440001 4280494627
-0.00017746541 -0.062744647 1.248 4280099869
0.0032533489 -0.063096583 1.2550001 4280165662
0.0066904854 -0.063146852 1.256 4280165408
0.010100845 -0.06299603 1.253 4280165408
0.013548777 -0.063096583 1.2550001 4280099615
0.01708883 -0.063498788 1.263 4280033822
0.020672634 -0.063900992 1.271 4280099615
0.024072198 -0.063699894 1.2670001 4280231201
0.027362952 -0.063297682 1.2590001 4280231201
0.030707827 -0.063096583 1.2550001 4280033822
0.034003623 -0.0628452 1.25 4280231455
0.037361883 -0.062744647 1.248 4280428834
0.040741879 -0.062694363 1.2470001 4280692006
0.044187222 -0.062744647 1.248 4280692257
0.047638029 -0.062794924 1.2490001 4279574025
0.05117606 -0.062945746 1.2520001 4280101376
0.054643277 -0.06299603 1.253 4289707902
0.058254991 -0.063197128 1.2570001 4290102409
0.061986748 -0.063498788 1.263 4290299287
0.065803126 -0.063850723 1.2700001 4282600756
0.069766887 -0.064303204 1.279 4279310606
0.073550738 -0.064554587 1.284 4280100122
0.078022122 -0.065359004 1.3000001 4280165915
0.081702486 -0.065459557 1.302 4280626212
0.085590243 -0.065710939 1.307 4280625959
-0.10658421 -0.061661519 1.2970001 4279046678
-0.10025704 -0.059997559 1.2620001 4279375643
-0.096115723 -0.059569687 1.253 4282994257
-0.09268938 -0.059569687 1.253 4281678397
-0.089690469 -0.059854936 1.2590001 4280757547
-0.085562676 -0.059379522 1.2490001 4280823340
-0.080766097 -0.05838114 1.228 4280625959
-0.076903827 -0.05800081 1.22 4280099615
-0.073688328 -0.058095895 1.222 4280297248
-0.070404321 -0.058143437 1.223 4279639318
-0.067553513 -0.058571309 1.2320001 4279376146
-0.063924104 -0.058333602 1.2270001 4280823592
-0.060322046 -0.058095895 1.222 4281020971
-0.056793958 -0.057905726 1.2180001 4280296994
-0.05333164 -0.0577631 1.215 4280296994
-0.049844574 -0.057572935 1.2110001 4280231201
-0.046456233 -0.05747785 1.2090001 4281481268
-0.043185897 -0.057525396 1.21 4281481268
-0.039877143 -0.057525396 1.21 4281415475
-0.036628831 -0.057620477 1.212 4281086764
-0.033287119 -0.057572935 1.2110001 4281218350
-0.029975627 -0.057572935 1.2110001 4281284143
-0.026642114 -0.057525396 1.21 4281415729
-0.023410495 -0.057715561 1.2140001 4281349682
-0.020190096 -0.05800081 1.22 4281349682
-0.016895438 -0.058143437 1.223 4281218096
-0.013573292 -0.058238521 1.225 4280692006
-0.010248555 -0.05838114 1.228 4280231455
-0.0069186334 -0.058618851 1.233 4280363040
-0.0035699967 -0.058999185 1.2410001 4280165661
-0.0001770388 -0.059189349 1.245 4280231455
0.0032455721 -0.059522144 1.2520001 4280362787
0.006679832 -0.059617225 1.2540001 4280231201
0.010108907 -0.059617225 1.2540001 4280494373
0.013505594 -0.059474602 1.251 4280428580
0.016926466 -0.059474602 1.251 4280297248
0.020314809 -0.059379522 1.2490001 4280494373
0.023597216 -0.059046727 1.2420001 4280560168
0.026971743 -0.058999185 1.2410001 4280757547
0.03036527 -0.058999185 1.2410001 4280823340
0.033840403 -0.059141811 1.2440001 4280823338
0.03730201 -0.059236895 1.2460001 4280626466
0.040774554 -0.059331976 1.248 4279836946
0.044258036 -0.05942706 1.25 4281943076
0.047752455 -0.059522144 1.2520001 4290102413
0.051298685 -0.059664771 1.2550001 4290036867
0.054817714 -0.059759852 1.2570001 4290102662
0.058347683 -0.059854936 1.2590001 4285825363
0.061986748 -0.060045101 1.263 4279310853
0.065699503 -0.060282812 1.268 4280165661
0.069766887 -0.060805764 1.279 4280034329
0.073837146 -0.061281186 1.289 4280231454
0.077842064 -0.061661519 1.2970001 4280494626
0.081639737 -0.061851684 1.3010001 4280692006
0.084869899 -0.061613973 1.296 4280823338
-0.10987613 -0.057980433 1.294 4278190080
-0.10379018 -0.056591418 1.263 4280559916
-0.099462613 -0.056098536 1.2520001 4280165158
-0.096115723 -0.056143347 1.253 4282139202
-0.092911288 -0.056277763 1.256 4281020719
-0.089476749 -0.056277763 1.256 4280099617
-0.085220151 -0.055740081 1.2440001 4280362789
-0.080503009 -0.054843936 1.2240001 4280428582
-0.076714724 -0.054530289 1.217 4280494375
-0.073326521 -0.054485481 1.2160001 4280362787
-0.069943786 -0.05444067 1.215 4280296994
-0.066950351 -0.054709516 1.2210001 4281481522
-0.063819908 -0.054888744 1.225 4281218350
-0.06042077 -0.054843936 1.2240001 4281481522
-0.056933843 -0.054709516 1.2210001 4280428580
-0.053287748 -0.054395866 1.2140001 4279770650
-0.049844574 -0.054261442 1.2110001 4279441685
-0.046533082 -0.054261442 1.2110001 4281218096
-0.043435734 -0.054530289 1.217 4281612854
-0.040041927 -0.05444067 1.215 4281481268
-0.036749717 -0.054485481 1.2160001 4281415729
-0.033397067 -0.05444067 1.215 4281218350
-0.03009939 -0.054485481 1.2160001 4281152557
-0.026730191 -0.054395866 1.2140001 4281218350
-0.023506913 -0.054619905 1.2190001 4281283889
-0.020289391 -0.054933552 1.2260001 4280954924
-0.016950697 -0.054978359 1.2270001 4280428580
-0.013573292 -0.054888744 1.225 4280165662
-0.010240209 -0.054978359 1.2270001 4280231455
-0.0069074109 -0.055157587 1.2310001 4280560420
-0.0035613663 -0.055471238 1.238 4280494627
-0.00017618561 -0.055516042 1.2390001 4280494627
0.0032222413 -0.055695273 1.243 4280560420
0.0066745048 -0.056143347 1.253 4280626213
0.010116968 -0.056232959 1.2550001 4280955178
0.013516391 -0.056098536 1.2520001 4280692006
0.016818224 -0.055695273 1.243 4280889131
0.020200955 -0.055650465 1.2420001 4280757547
0.023578217 -0.055605657 1.2410001 4280823340
0.027015209 -0.055695273 1.243 4280954926
0.030463144 -0.055784885 1.245 4280889131
0.033894807 -0.055829696 1.2460001 4280626213
0.037391823 -0.05596412 1.2490001 4279507981
0.040905241 -0.056098536 1.2520001 4285693780
0.04457669 -0.056412186 1.2590001 4289971076
0.048095722 -0.056501802 1.261 4289971326
0.051503059 -0.056456994 1.2600001 4288786300
0.054904934 -0.056412186 1.2590001 4279574027
0.058394022 -0.056456994 1.2600001 4280100122
0.061937667 -0.056546606 1.2620001 4280297248
0.065233178 -0.056412186 1.2590001 4280100122
0.069385052 -0.05699468 1.2720001 4280297247
0.073149756 -0.057218712 1.2770001 4280297248
0.077241898 -0.05766679 1.2870001 4280823592
0.081576981 -0.058249284 1.3000001 4280560166
0.085262813 -0.058338895 1.302 4280889133
-0.11956034 -0.054021254 1.284 4282270534
-0.11496466 -0.053516384 1.2720001 4278190080
-0.11087283 -0.053221874 1.2650001 4278190080
-0.10673439 -0.052885294 1.2570001 4281744444
-0.10214662 -0.052296277 1.243 4281283893
-0.098429851 -0.052127987 1.2390001 4281020721
-0.095041797 -0.052127987 1.2390001 4280494375
-0.091727719 -0.052170061 1.24 4279770652
-0.087767005 -0.051833477 1.2320001 4279770652
-0.083644532 -0.05137068 1.2210001 4279836445
-0.080108389 -0.05124446 1.2180001 4279968031
-0.076336503 -0.05094995 1.2110001 4280428582
-0.073025011 -0.05094995 1.2110001 4280691754
-0.069713525 -0.05094995 1.2110001 4280560168
-0.066840686 -0.051286537 1.2190001 4280823338
-0.063611515 -0.05137068 1.2210001 4281349682
-0.060322046 -0.05141275 1.222 4281218096
-0.056793958 -0.05124446 1.2180001 4281020717
-0.05333164 -0.05111824 1.215 4280691754
-0.049844574 -0.05094995 1.2110001 4281349684
-0.046571512 -0.050992027 1.212 4281678649
-0.043292973 -0.051034097 1.2130001 4281415475
-0.039943054 -0.050992027 1.212 4281350706
-0.036689274 -0.05107617 1.2140001 4281284910
-0.033424553 -0.051160317 1.2160001 4281350187
-0.030223154 -0.05137068 1.2210001 4280889638
-0.026818261 -0.05124446 1.2180001 4280757798
-0.023468345 -0.05120239 1.217 4280494375
-0.020256292 -0.051496897 1.2240001 4280296996
-0.016936881 -0.05158104 1.2260001 4280231201
-0.013673015 -0.051917627 1.2340001 4280296994
-0.010323667 -0.05204384 1.2370001 4280231201
-0.0069803568 -0.052338351 1.2440001 4280297248
-0.003595887 -0.052590784 1.25 4280231455
-0.00017618561 -0.052127987 1.2390001 4280099869
0.0032066873 -0.05204384 1.2370001 4280034076
0.0065839491 -0.052001771 1.2360001 4280363041
0.009979926 -0.052085917 1.238 4280757799
0.013365249 -0.052085917 1.238 4280954924
0.016723512 -0.052001771 1.2360001 4281086510
0.02011963 -0.05204384 1.2370001 4281020971
0.023502219 -0.05204384 1.2370001 4280560673
0.026993478 -0.052254207 1.2420001 4279574276
0.030463144 -0.05238042 1.245 4279640832
0.033949215 -0.052506641 1.248 4287470689
0.037511572 -0.052717004 1.253 4290366086
0.041101273 -0.052927364 1.258 4290037119
0.044895351 -0.053348094 1.268 4290300041
0.047981299 -0.052927364 1.258 4282600757
0.051339559 -0.052843221 1.256 4279836950
0.054730497 -0.052801151 1.2550001 4280231708
0.058440372 -0.053053584 1.261 4279968282
0.061986748 -0.053137731 1.263 4280363040
0.06538862 -0.053095654 1.2620001 4280231455
0.069057763 -0.053263951 1.266 4280363041
0.072977915 -0.053600531 1.274 4280560420
0.077061847 -0.054021254 1.284 4280889385
0.081200473 -0.054441981 1.294 4280954924
0.085131846 -0.054694418 1.3000001 4281218098
-0.12737124 -0.050824847 1.2920001 4278190080
-0.1218254 -0.049998749 1.271 4281546811
-0.11639442 -0.049172647 1.25 4280494377
-0.11252437 -0.048975956 1.245 4282402372
-0.10903227 -0.04893662 1.2440001 4281547063
-0.10580035 -0.049015295 1.2460001 4279968031
-0.10190009 -0.048779268 1.24 4279704859
-0.097953193 -0.048503902 1.233 4279639066
-0.094428129 -0.048425224 1.2310001 4279507478
-0.090987973 -0.048385885 1.23 4279902236
-0.08705461 -0.04807118 1.222 4280362787
-0.083302014 -0.047835153 1.2160001 4280099617
-0.080239929 -0.047992505 1.22 4280691754
-0.076588646 -0.047795814 1.215 4281086512
-0.073205918 -0.047756478 1.2140001 4280428582
-0.069943786 -0.047795814 1.215 4280231203
-0.066840686 -0.04795317 1.2190001 4280033824
-0.063507326 -0.04795317 1.2190001 4281218096
-0.0599765 -0.047795814 1.215 4281283889
-0.056700699 -0.047835153 1.2160001 4281152305
-0.053375535 -0.047835153 1.2160001 4281086510
-0.050091535 -0.047874492 1.217 4281086510
-0.04672521 -0.047835153 1.2160001 4281810235
-0.043364353 -0.047795814 1.215 4281415475
-0.04000897 -0.047756478 1.2140001 4281153324
-0.036719497 -0.047795814 1.215 4280101137
-0.033479527 -0.047913827 1.2180001 4290891692
-0.030297412 -0.048149858 1.2240001 4279968534
-0.026906338 -0.04807118 1.222 4280494377
-0.023603331 -0.048149858 1.2240001 4280231455
-0.020421784 -0.048543241 1.2340001 4280165408
-0.017171733 -0.048897281 1.243 4280362787
-0.01386138 -0.04921199 1.251 4280494373
-0.01047389 -0.049369343 1.2550001 4280296994
-0.0070140241 -0.049172647 1.25 4280231455
-0.0035786268 -0.04893662 1.2440001 4280034076
-0.00017647001 -0.048818603 1.2410001 4280034076
0.0032144643 -0.048779268 1.24 4279902489
0.0066052563 -0.048779268 1.24 4280034076
0.0099879866 -0.048739929 1.2390001 4280165662
0.013376044 -0.048739929 1.2390001 4280231454
0.016750572 -0.048700593 1.238 4280231454
0.020152159 -0.048739929 1.2390001 4278982409
0.023559216 -0.048779268 1.24 4279969806
0.02705868 -0.048975956 1.245 4288787319
0.030585486 -0.049172647 1.25 4289840763
0.034166839 -0.049408674 1.256 4289378937
0.037900757 -0.049802061 1.266 4290037118
0.041558679 -0.050038088 1.2720001 4283983411
0.045107789 -0.050116766 1.274 4279442439
0.047943156 -0.049448017 1.2570001 4280231706
0.05117606 -0.049251325 1.2520001 4280099615
0.054817714 -0.049448017 1.2570001 4280296994
0.058625747 -0.049762722 1.2650001 4280297247
0.062232144 -0.049880736 1.268 4280165661
0.065544054 -0.049762722 1.2650001 4280428580
0.069057763 -0.049802061 1.266 4280823592
0.073092476 -0.050195441 1.276 4280889131
0.077061847 -0.050510146 1.284 4281086510
0.081200473 -0.050903525 1.294 4281152303
-0.12999235 -0.046962433 1.2830001 4278190080
-0.12461087 -0.046266966 1.2640001 4278190080
-0.12038764 -0.045974132 1.256 4281153075
-0.11527703 -0.045315269 1.238 4280495145
-0.11162056 -0.045205455 1.235 4280363559
-0.1079805 -0.045095645 1.2320001 4279968801
-0.10486633 -0.045205455 1.235 4280297764
-0.1011605 -0.045059044 1.2310001 4280625959
-0.097397096 -0.044876024 1.2260001 4280362787
-0.093814462 -0.044766214 1.223 4280033822
-0.090470158 -0.044766214 1.223 4280296994
-0.086698413 -0.044546593 1.217 4280494373
-0.083096497 -0.044400178 1.2130001 4280625961
-0.080108389 -0.044583194 1.2180001 4281152303
-0.076525614 -0.044436783 1.2140001 4281086512
-0.073266216 -0.044473384 1.215 4280823340
-0.070001356 -0.044509988 1.2160001 4279968031
-0.066840686 -0.044619799 1.2190001 4280231203
-0.063142642 -0.044363573 1.212 4281349684
-0.059729684 -0.044290368 1.21 4281481270
-0.056514189 -0.044363573 1.212 4281283891
-0.053463325 -0.044583194 1.2180001 4281152557
-0.050050374 -0.044509988 1.2160001 4281415218
-0.04672521 -0.044509988 1.2160001 4281086763
-0.043328665 -0.044436783 1.2140001 4280890406
-0.040041927 -0.044473384 1.215 4280167937
-0.036749717 -0.044509988 1.2160001 4290958486
-0.03356199 -0.044693004 1.2210001 4290694815
-0.03044593 -0.045022435 1.23 4279573774
-0.027038446 -0.04494923 1.228 4280428833
-0.023815455 -0.045205455 1.235 4280428834
-0.020653475 -0.045681305 1.248 4280362789
-0.017254621 -0.04571791 1.2490001 4280296994
-0.013783817 -0.04553489 1.2440001 4280033822
-0.010306976 -0.045205455 1.235 4280033822
-0.0069186334 -0.04513225 1.233 4280165410
-0.0035527362 -0.045205455 1.235 4280362787
-0.00017575901 -0.045242064 1.2360001 4280757799
0.0032170566 -0.045425076 1.2410001 4280626212
0.006610583 -0.045425076 1.2410001 4280429087
0.0099960482 -0.045388475 1.24 4279376646
0.013376044 -0.04535187 1.2390001 4279246336
0.016791163 -0.045425076 1.2410001 4288589423
0.020217219 -0.045498285 1.243 4290168704
0.023597216 -0.045461684 1.2420001 4289576567
0.02705868 -0.045571491 1.245 4289313395
0.030609952 -0.045791116 1.251 4289510539
0.034248449 -0.046083946 1.2590001 4282666296
0.037930693 -0.046376772 1.2670001 4279573776
0.041493334 -0.046486586 1.2700001 4280231454
0.044859942 -0.046376772 1.2670001 4280165661
0.047866877 -0.045937531 1.2550001 4278190080
0.051257808 -0.045900926 1.2540001 4280625959
0.054686882 -0.045900926 1.2540001 4280296994
0.058440372 -0.046157151 1.261 4280231201
0.062133983 -0.046340171 1.266 4281152303
0.065492243 -0.046266966 1.2640001 4281020717
0.069439597 -0.046596393 1.273 4281218096
0.073035195 -0.046669599 1.2750001 4281020717
0.07676176 -0.046816014 1.279 4281283889
0.080008194 -0.046669599 1.2750001 4281086512
0.084084071 -0.046999034 1.284 4281415477
-0.1396413 -0.043183103 1.2750001 4280823089
-0.13498013 -0.042810541 1.2640001 4281217846
-0.13079534 -0.042573459 1.2570001 4278190080
-0.12766202 -0.042675067 1.2600001 4282403144
-0.12372361 -0.042505719 1.2550001 4278190080
-0.12019596 -0.042471848 1.2540001 4280889903
-0.11537014 -0.041963812 1.2390001 4280429350
-0.11116865 -0.041658994 1.23 4280495143
-0.10701639 -0.041354168 1.2210001 4279837213
-0.10367756 -0.041354168 1.2210001 4279968799
-0.10050307 -0.041421909 1.223 4280231201
-0.097397096 -0.041523516 1.2260001 4280823338
-0.094121292 -0.041557387 1.2270001 4281481522
-0.090692081 -0.041523516 1.2260001 4281481268
-0.0864847 -0.041117087 1.2140001 4280560166
-0.083233505 -0.041150957 1.215 4280362789
-0.080305696 -0.041354168 1.2210001 4281020717
-0.07715597 -0.041455775 1.2240001 4281415477
-0.073447123 -0.041252565 1.2180001 4281020719
-0.069943786 -0.041150957 1.215 4281020721
-0.066347197 -0.040981613 1.21 4281415479
-0.062882148 -0.040880002 1.207 4281612858
-0.059680324 -0.040947743 1.2090001 4281547063
-0.056700699 -0.041184824 1.2160001 4281349682
-0.053595006 -0.041354168 1.2210001 4281349936
-0.050050374 -0.041184824 1.2160001 4281349682
-0.046763636 -0.041218694 1.217 4280757545
-0.043435734 -0.041218694 1.217 4280231955
-0.040206708 -0.041320302 1.22 4290036869
-0.036870606 -0.041320302 1.22 4289444982
-0.033616964 -0.041421909 1.223 4289904531
-0.030371672 -0.041557387 1.2270001 4280560673
-0.027082482 -0.041658994 1.23 4280428834
-0.023815455 -0.041828338 1.235 4280165661
-0.020438334 -0.041828338 1.235 4280099869
-0.0170474 -0.041794468 1.2340001 4280099869
-0.013628693 -0.041658994 1.23 4280494373
-0.010256901 -0.041625123 1.2290001 4280692006
-0.0069074109 -0.04169286 1.2310001 4280757798
-0.0035556131 -0.041862205 1.2360001 4280692259
-0.00017632781 -0.041997686 1.24 4279639571
0.0032222413 -0.042099293 1.243 4279771408
0.0066318903 -0.04216703 1.245 4283127352
0.010044416 -0.042200897 1.2460001 4289970576
0.013451615 -0.042200897 1.2460001 4289905535
0.016899407 -0.042302504 1.2490001 4289445235
0.020363603 -0.042404111 1.2520001 4289247603
0.023806209 -0.042437982 1.253 4290102914
0.027276017 -0.042505719 1.2550001 4283457069
0.030756764 -0.042573459 1.2570001 4280034580
0.034139637 -0.042505719 1.2550001 4280560419
0.037661258 -0.04260733 1.258 4280560420
0.041264631 -0.042776674 1.263 4280823591
0.044895351 -0.042946018 1.268 4280823591
0.048248284 -0.042844411 1.2650001 4278190080
0.051666565 -0.042810541 1.2640001 4280231201
0.055210207 -0.042878281 1.266 4280691754
0.058811128 -0.042979885 1.2690001 4281086512
0.062379379 -0.043047626 1.271 4281086510
0.065854944 -0.043047626 1.271 4281283889
0.069439597 -0.043115366 1.273 4281283889
0.073264323 -0.043318577 1.279 4281218096
0.076401658 -0.043115366 1.273 4281283891
0.07981994 -0.043081496 1.2720001 4281349684
0.084149554 -0.043521792 1.2850001 4281415477
-0.14256652 -0.039540928 1.2700001 4282994257
-0.13580802 -0.038606893 1.24 4281547065
-0.1326308 -0.038669161 1.2420001 4281941823
-0.12923454 -0.038669161 1.2420001 4282074177
-0.1265475 -0.038887102 1.2490001 4281876798
-0.12273777 -0.038762566 1.245 4278190080
-0.11962085 -0.038855966 1.248 4281811003
-0.11509079 -0.038482353 1.2360001 4280560936
-0.11071675 -0.038139872 1.225 4280495143
-0.10631522 -0.037766259 1.2130001 4280429350
-0.10282843 -0.037703987 1.2110001 4279968283
-0.099599123 -0.037735123 1.212 4280231201
-0.096602663 -0.03785966 1.2160001 4281283889
-0.093584336 -0.0379842 1.22 4281876026
-0.090322211 -0.038015332 1.2210001 4281876028
-0.08684089 -0.037953064 1.2190001 4280362787
-0.083507523 -0.037953064 1.2190001 4279902238
-0.080503009 -0.038108736 1.2240001 4280494373
-0.076966859 -0.038015332 1.2210001 4281481270
-0.073145613 -0.037766259 1.2130001 4281152305
-0.069598392 -0.037641719 1.2090001 4281415479
-0.066127867 -0.037548315 1.2060001 4281744444
-0.062882148 -0.037579447 1.207 4281941821
-0.059828412 -0.037735123 1.212 4281941821
-0.056840587 -0.037953064 1.2190001 4281613108
-0.05350722 -0.037953064 1.2190001 4281086763
-0.050050374 -0.03785966 1.2160001 4280889384
-0.04672521 -0.03785966 1.2160001 4280034827
-0.043435734 -0.037890796 1.217 4289576318
-0.040206708 -0.0379842 1.22 4289313899
-0.036870606 -0.0379842 1.22 4288458340
-0.033589479 -0.038046468 1.222 4286549088
-0.030247908 -0.038046468 1.222 4280494880
-0.026950372 -0.038108736 1.2240001 4280692006
-0.023680467 -0.038233276 1.228 4280692005
-0.020339038 -0.038264412 1.2290001 4280561189
-0.016992141 -0.038295545 1.23 4280758052
-0.013628693 -0.038295545 1.23 4280626462
-0.010265247 -0.038295545 1.23 4279705864
-0.0069186334 -0.038388949 1.233 4279575040
-0.0035584897 -0.038513485 1.2370001 4285036602
-0.00017661222 -0.038669161 1.2420001 4290168704
0.0032300181 -0.038793698 1.2460001 4290037372
0.0066425442 -0.038824834 1.2470001 4289511280
0.010076662 -0.038918238 1.25 4289379692
0.013516391 -0.038980506 1.2520001 4289313398
0.017034708 -0.039198451 1.2590001 4290102411
0.020477457 -0.039198451 1.2590001 4282929470
0.023844207 -0.039073911 1.2550001 4279836950
0.027276017 -0.039073911 1.2550001 4280823340
0.030903572 -0.039322987 1.263 4280691752
0.034302853 -0.039260719 1.261 4280362787
0.037661258 -0.039167315 1.258 4280560166
0.041199289 -0.039260719 1.261 4280428833
0.044789132 -0.039385255 1.2650001 4280231455
0.04836271 -0.03947866 1.268 4280691754
0.051870942 -0.039509792 1.2690001 4281349936
0.055253815 -0.039447524 1.2670001 4281218098
0.058672097 -0.039416391 1.266 4281218098
0.062330298 -0.039540928 1.2700001 4281283891
0.065906756 -0.0396032 1.2720001 4281415475
0.069548696 -0.039696604 1.2750001 4281283889
0.0726915 -0.039509792 1.2690001 4281218096
0.076041557 -0.039447524 1.2670001 4281283889
0.07981994 -0.0396032 1.2720001 4281415475
-0.15744339 -0.036295302 1.2780001 4281152054
-0.15274407 -0.036011301 1.268 4278190080
-0.15021853 -0.036238503 1.276 4278190080
-0.14110717 -0.035698902 1.2570001 4282797132
-0.13515088 -0.035045698 1.2340001 4282599753
-0.13220364 -0.035159297 1.238 4281811005
-0.12892237 -0.035187699 1.2390001 4282139970
-0.12553431 -0.035187699 1.2390001 4281283889
-0.12194909 -0.035130899 1.2370001 4281612854
-0.11942915 -0.035386499 1.2460001 4282402370
-0.11490457 -0.035045698 1.2340001 4281876026
-0.11035523 -0.034676496 1.2210001 4280691752
-0.10613992 -0.034392498 1.2110001 4280626213
-0.10282843 -0.034392498 1.2110001 4280428834
-0.099516936 -0.034392498 1.2110001 4281086510
-0.096284896 -0.034420896 1.212 4281744442
-0.092970669 -0.034420896 1.212 4281744442
-0.089730419 -0.034449298 1.2130001 4282139200
-0.087553285 -0.034903698 1.2290001 4280954926
-0.084055565 -0.034846898 1.2270001 4279639066
-0.080371469 -0.034704898 1.222 4281349682
-0.076777756 -0.034591299 1.2180001 4281678647
-0.073205918 -0.034477696 1.2140001 4281218098
-0.069771089 -0.034420896 1.212 4281218098
-0.066347197 -0.034364097 1.21 4281678651
-0.06309054 -0.034392498 1.2110001 4282007614
-0.060075231 -0.034562897 1.217 4281547063
-0.057166986 -0.0348185 1.2260001 4280823338
-0.053595006 -0.034676496 1.2210001 4280626212
-0.050173853 -0.034619696 1.2190001 4280758050
-0.046802059 -0.034591299 1.2180001 4282996267
-0.04354281 -0.034648098 1.22 4289049964
-0.040305577 -0.034733295 1.223 4288589916
-0.036991492 -0.034761697 1.2240001 4288326493
-0.033671938 -0.034790099 1.225 4289049715
-0.030371672 -0.034846898 1.2270001 4282995512
-0.027060462 -0.034903698 1.2290001 4279771408
-0.023776885 -0.035017297 1.233 4279508234
-0.020405235 -0.035017297 1.233 4279442190
-0.0170474 -0.035045698 1.2340001 4281021475
-0.013673015 -0.035045698 1.2340001 4285495896
-0.010298629 -0.035045698 1.2340001 4290036367
-0.0069466894 -0.035159297 1.238 4290103165
-0.0035728733 -0.0352729 1.2420001 4289445233
-0.00017746541 -0.035443299 1.248 4289379694
0.0032455721 -0.035556901 1.2520001 4289577073
0.0066904854 -0.0356705 1.256 4290366083
0.010157275 -0.035784103 1.2600001 4288984181
0.01364594 -0.035897702 1.2640001 4281943325
0.017102361 -0.035897702 1.2640001 4280100118
0.020477457 -0.035755701 1.2590001 4281152556
0.023863206 -0.0356705 1.256 4280954924
0.027384687 -0.035784103 1.2600001 4281020717
0.030903572 -0.0358693 1.263 4280691752
0.034330055 -0.035840902 1.2620001 4281020971
0.037721135 -0.035784103 1.2600001 4280297248
0.041199289 -0.035812501 1.261 4280428834
0.044824537 -0.035954501 1.266 4281020971
0.048553411 -0.036153302 1.273 4281152303
0.051993567 -0.036124904 1.2720001 4281086510
0.055297427 -0.036011301 1.268 4281349682
0.058718435 -0.035982899 1.2670001 4281283889
0.062477533 -0.036153302 1.273 4281152303
0.072977915 -0.036181703 1.274 4281086510
-0.16018252 -0.032646608 1.2720001 4282271305
-0.15374753 -0.032030631 1.248 4281612605
-0.14937118 -0.031825308 1.24 4281152053
-0.14621584 -0.031876639 1.2420001 4278190080
-0.14408448 -0.03215896 1.253 4281283893
-0.14279103 -0.032646608 1.2720001 4281547833
-0.13646515 -0.0319793 1.2460001 4282337349
-0.13241722 -0.031825308 1.24 4281679419
-0.12788184 -0.031542987 1.2290001 4281613626
-0.12401453 -0.031414658 1.2240001 4281481270
-0.1205689 -0.031388991 1.223 4281152305
-0.11856651 -0.03174831 1.2370001 4278190080
-0.1145321 -0.03156865 1.23 4281678647
-0.11008409 -0.031260666 1.2180001 4281152303
-0.10631522 -0.031132337 1.2130001 4280363041
-0.10308316 -0.031158002 1.2140001 4280757545
-0.099599123 -0.031106671 1.212 4280625959
-0.096205443 -0.031081006 1.2110001 4281678649
-0.092893958 -0.031081006 1.2110001 4282139202
-0.090248235 -0.031311996 1.22 4282073409
-0.08705461 -0.031363327 1.222 4282007616
-0.08371304 -0.031363327 1.222 4282073407
-0.080042623 -0.031234998 1.217 4282270784
-0.076462574 -0.031132337 1.2130001 4282007612
-0.073145613 -0.031132337 1.2130001 4281086512
-0.069771089 -0.031106671 1.212 4281349684
-0.066402033 -0.031081006 1.2110001 4281547063
-0.063142642 -0.031106671 1.212 4280954924
-0.060173955 -0.031286329 1.2190001 4280560166
-0.05712036 -0.031440325 1.225 4280757798
-0.053595006 -0.03133766 1.2210001 4280626212
-0.050173853 -0.031286329 1.2190001 4280297752
-0.046840485 -0.031286329 1.2190001 4289641862
-0.043578498 -0.03133766 1.2210001 4288918630
-0.040305577 -0.031388991 1.223 4288524123
-0.037082158 -0.031491656 1.2270001 4288391769
-0.033754401 -0.031517319 1.228 4288392032
-0.03044593 -0.03156865 1.23 4289576316
-0.027104501 -0.031594317 1.2310001 4289970827
-0.023796169 -0.031671312 1.2340001 4290432631
-0.020438334 -0.031696979 1.235 4290169207
-0.017088844 -0.03174831 1.2370001 4289247854
-0.013728417 -0.031799641 1.2390001 4289050729
-0.010348704 -0.031825308 1.24 4289774450
-0.0069803568 -0.031927969 1.2440001 4289971579
-0.0035872569 -0.032004967 1.2470001 4289642614
-0.00017803421 -0.032133292 1.2520001 4290431628
0.0032611259 -0.032287288 1.258 4287864949
0.0066958121 -0.032261621 1.2570001 4280100118
0.010149213 -0.032312952 1.2590001 4280955178
0.013559574 -0.032235954 1.256 4281086764
0.01704824 -0.032338619 1.2600001 4280955178
0.020444928 -0.032261621 1.2570001 4280691752
0.023958204 -0.032364286 1.261 4280494373
0.027362952 -0.032312952 1.2590001 4280889131
0.030879105 -0.03238995 1.2620001 4280626213
0.034357257 -0.032415617 1.263 4280297248
0.037870821 -0.032466948 1.2650001 4280626213
0.041329976 -0.032466948 1.2650001 4280889385
0.044718318 -0.032415617 1.263 4280889385
0.048324566 -0.032518279 1.2670001 4280823592
0.051789191 -0.032518279 1.2670001 4280691752
0.055079374 -0.032415617 1.263 4280560166
0.058347683 -0.032312952 1.2590001 4280560166
0.062035825 -0.032441281 1.2640001 4280362789
-0.16185951 -0.028847275 1.258 4278190080
-0.1567824 -0.02854917 1.245 4282138948
-0.15276198 -0.028434517 1.24 4282204741
-0.14913025 -0.028388651 1.238 4281546811
-0.14539176 -0.02831986 1.235 4281217846
-0.14235961 -0.028388651 1.238 4278190080
-0.13964783 -0.028526239 1.2440001 4281218870
-0.13536991 -0.028342791 1.2360001 4281811005
-0.13156292 -0.028251067 1.2320001 4282008384
-0.12767373 -0.028136412 1.2270001 4281481270
-0.12411585 -0.02809055 1.225 4281547063
-0.12027315 -0.027975893 1.22 4281218098
-0.11751215 -0.028113481 1.2260001 4281349684
-0.11378718 -0.028021755 1.222 4281612856
-0.11062636 -0.028067617 1.2240001 4282533958
-0.10710404 -0.028021755 1.222 4281744440
-0.10384738 -0.028044686 1.223 4280362787
-0.10009219 -0.027930031 1.2180001 4280231203
-0.09644378 -0.027838308 1.2140001 4280691754
-0.092817247 -0.027746584 1.21 4282402372
-0.089434519 -0.027723653 1.2090001 4282007614
-0.086057261 -0.027700722 1.2080001 4281810235
-0.083233505 -0.027861239 1.215 4281678649
-0.079976849 -0.02788417 1.2160001 4281678647
-0.076840788 -0.027952962 1.2190001 4281810233
-0.073266216 -0.027861239 1.215 4281152303
-0.069828652 -0.027815377 1.2130001 4280954926
-0.066402033 -0.027769515 1.2110001 4281020719
-0.063246831 -0.027838308 1.2140001 4280889131
-0.060322046 -0.028021755 1.222 4280889385
-0.057073731 -0.028067617 1.2240001 4281086764
-0.053638905 -0.028021755 1.222 4280560671
-0.05025617 -0.027998824 1.2210001 4279903744
-0.046994183 -0.028044686 1.223 4289444722
-0.043721262 -0.02809055 1.225 4288128346
-0.040470358 -0.028159343 1.228 4288391516
-0.037233267 -0.028251067 1.2320001 4288523100
-0.033919323 -0.028296929 1.2340001 4288588893
-0.030594446 -0.028342791 1.2360001 4288524125
-0.02721459 -0.028342791 1.2360001 4289182564
-0.023892589 -0.028411582 1.2390001 4289116769
-0.02053763 -0.028457448 1.2410001 4289379943
-0.017185546 -0.028526239 1.2440001 4289313647
-0.013828138 -0.028617963 1.248 4289511026
-0.010432161 -0.028663825 1.25 4289708154
-0.0070420802 -0.02877848 1.2550001 4290694799
-0.0036131472 -0.028801411 1.256 4288653962
-0.000178603 -0.028801411 1.256 4281547817
0.0032689027 -0.028916068 1.261 4280231708
0.006706466 -0.028870206 1.2590001 4280889385
0.010157275 -0.028893137 1.2600001 4280363041
0.013559574 -0.028801411 1.256 4280363040
0.016994119 -0.028801411 1.256 4280297248
0.020477457 -0.028870206 1.2590001 4280165662
0.024053201 -0.029030722 1.266 4280428834
0.027449887 -0.02896193 1.263 4280099869
0.030879105 -0.028938999 1.2620001 4280297248
0.034330055 -0.028938999 1.2620001 4280494627
0.037840884 -0.028984861 1.2640001 4280428834
0.041395318 -0.029053653 1.2670001 4280165662
0.044895351 -0.029076584 1.268 4280165662
0.055253815 -0.029053653 1.2670001 4280165408
0.058579404 -0.028984861 1.2640001 4280165408
-0.16529952 -0.025407262 1.258 4281021238
-0.15941489 -0.025023526 1.2390001 4280955445
-0.15476754 -0.024821561 1.2290001 4281349432
-0.15066765 -0.024700381 1.223 4282138948
-0.14816657 -0.024841757 1.23 4281941569
-0.14409676 -0.024720578 1.2240001 4281810753
-0.14063473 -0.024700381 1.223 4281613374
-0.13796398 -0.024821561 1.2290001 4281811007
-0.13482231 -0.024861954 1.2310001 4281811007
-0.13092218 -0.024760973 1.2260001 4281876798
-0.12767373 -0.024781169 1.2270001 4282336579
-0.12340662 -0.024599399 1.2180001 4281415477
-0.11987881 -0.024559006 1.2160001 4282731337
-0.11645781 -0.024538809 1.215 4282402372
-0.11350783 -0.024619594 1.2190001 4282862923
-0.1099937 -0.024579203 1.217 4283718230
-0.10649052 -0.024538809 1.215 4282731335
-0.10308316 -0.024518613 1.2140001 4282204991
-0.099763468 -0.024518613 1.2140001 4281283889
-0.096126005 -0.024437828 1.21 4280625961
-0.092817247 -0.024437828 1.21 4281349684
-0.089138627 -0.024336843 1.205 4281547063
-0.086057261 -0.024397435 1.2080001 4281481270
-0.083370514 -0.024579203 1.217 4281086512
-0.080305696 -0.024659988 1.2210001 4281218096
-0.07715597 -0.024720578 1.2240001 4281152303
-0.073326521 -0.024559006 1.2160001 4280889131
-0.069713525 -0.024458025 1.2110001 4280954924
-0.066347197 -0.024437828 1.21 4281349682
-0.063351028 -0.024559006 1.2160001 4281415475
-0.060371406 -0.024700381 1.223 4281086764
-0.056980476 -0.024680184 1.222 4280625959
-0.053551111 -0.024639791 1.22 4280429085
-0.05025617 -0.024659988 1.2210001 4283127599
-0.046994183 -0.024700381 1.223 4288852332
-0.04368557 -0.024720578 1.2240001 4288457311
-0.040470358 -0.024801364 1.228 4288325210
-0.037233267 -0.024882151 1.2320001 4288391514
-0.033974301 -0.024962936 1.2360001 4288983904
-0.030594446 -0.024962936 1.2360001 4289050719
-0.027236609 -0.024983132 1.2370001 4289182051
-0.023911873 -0.025043724 1.24 4289379432
-0.020603826 -0.025144706 1.245 4289642099
-0.017254621 -0.025225492 1.2490001 4289510774
-0.01391678 -0.025366867 1.256 4289773695
-0.010540656 -0.025508244 1.263 4286220371
-0.0036332842 -0.025508244 1.263 4280955429
-0.00017917181 -0.025447655 1.2600001 4280823592
0.0032766797 -0.02552844 1.2640001 4280429087
0.0067330999 -0.02552844 1.2640001 4280165662
0.010165337 -0.02546785 1.261 4280297247
0.013537982 -0.025326474 1.2540001 4280363041
0.016994119 -0.025366867 1.256 4280165662
0.020428663 -0.025366867 1.256 4280231455
0.023939203 -0.025447655 1.2600001 4279968283
0.027362952 -0.025427459 1.2590001 4280099869
0.030879105 -0.025488047 1.2620001 4280034076
0.034330055 -0.025488047 1.2620001 4280165662
-0.16503672 -0.021932324 1.256 4281877059
-0.15928623 -0.021618007 1.238 4281679167
-0.15438975 -0.021408463 1.2260001 4281284409
-0.15066765 -0.021356076 1.223 4282073155
-0.14720289 -0.021338614 1.222 4282336327
-0.14339042 -0.021268766 1.2180001 4282008132
-0.13971481 -0.021216379 1.215 4282929747
-0.13695365 -0.021303689 1.22 4282666573
-0.13438421 -0.021425923 1.2270001 4282600780
-0.13145612 -0.021495773 1.2310001 4282403144
-0.12808995 -0.021495773 1.2310001 4282468167
-0.12421717 -0.021408463 1.2260001 4282533958
-0.12027315 -0.021303689 1.22 4281283891
-0.11636195 -0.021198919 1.2140001 4282204993
-0.11294914 -0.021181457 1.2130001 4282731335
-0.10972255 -0.021198919 1.2140001 4283323474
-0.10622758 -0.021163994 1.212 4284376160
-0.10265861 -0.021111608 1.2090001 4282731335
-0.099599123 -0.021163994 1.212 4282073405
-0.096126005 -0.02112907 1.21 4281152303
-0.092893958 -0.021146532 1.2110001 4280691754
-0.089508496 -0.02112907 1.21 4281020719
-0.086270981 -0.021146532 1.2110001 4281152305
-0.083576031 -0.021303689 1.22 4281152303
-0.080700323 -0.021425923 1.2270001 4281349682
-0.077345081 -0.021425923 1.2270001 4281415475
-0.073326521 -0.021233842 1.2160001 4281086764
-0.069713525 -0.021146532 1.2110001 4281283889
-0.066511691 -0.021181457 1.2130001 4280954924
-0.063767813 -0.021373538 1.2240001 4281152303
-0.060815677 -0.021513235 1.2320001 4280625959
-0.057446763 -0.021513235 1.2320001 4280362789
-0.053682797 -0.021356076 1.223 4280363294
-0.050379653 -0.021373538 1.2240001 4279837953
-0.04707104 -0.021391001 1.225 4289246840
-0.043756951 -0.021408463 1.2260001 4288785771
-0.04053627 -0.02147831 1.23 4288588643
-0.037323933 -0.02156562 1.235 4288392034
-0.034084249 -0.021652931 1.24 4288787044
-0.03074296 -0.021687854 1.2420001 4289248106
-0.027434776 -0.021757703 1.2460001 4288918889
-0.024201129 -0.021914862 1.2550001 4289576316
-0.16503672 -0.01849778 1.256 4281811264
-0.15928623 -0.018232685 1.238 4282074179
-0.15363416 -0.017967587 1.22 4282534730
-0.14992848 -0.017923405 1.217 4282271558
-0.14599828 -0.017849769 1.212 4282797132
-0.14209542 -0.01777613 1.207 4282337351
-0.13902485 -0.017805586 1.2090001 4282271558
-0.13650464 -0.017908677 1.2160001 4283324503
-0.13383661 -0.017997043 1.222 4282403401
-0.13017467 -0.017952859 1.2190001 4282403655
-0.12673725 -0.017938133 1.2180001 4283192658
-0.12350793 -0.017952859 1.2190001 4283061072
-0.12066749 -0.018026499 1.2240001 4282468165
-0.11674535 -0.017938133 1.2180001 4281283889
-0.11304225 -0.017879223 1.2140001 4281612854
-0.10908989 -0.01777613 1.207 4281876026
-0.10535111 -0.017702492 1.202 4282007612
-0.10163967 -0.017628856 1.197 4282074175
-0.098859526 -0.01771722 1.2030001 4281941821
-0.095967129 -0.017790858 1.2080001 4281086512
-0.092970669 -0.017849769 1.212 4281152307
-0.089878365 -0.017893951 1.215 4281481270
-0.086627178 -0.017908677 1.2160001 4281283891
-0.08378154 -0.018011771 1.223 4281283889
-0.080897637 -0.018114863 1.23 4281152557
-0.077282041 -0.018055953 1.2260001 4280955178
-0.073326521 -0.017908677 1.2160001 4280889385
-0.069713525 -0.01783504 1.2110001 4281152557
-0.066621356 -0.017893951 1.215 4281152557
-0.063663617 -0.017997043 1.222 4280955178
-0.060963769 -0.018188501 1.235 4280428833
-0.057679906 -0.018217957 1.2370001 4280560419
-0.05403395 -0.018129591 1.2310001 4280560673
-0.050544292 -0.018085409 1.228 4279969036
-0.047109462 -0.018055953 1.2260001 4289510274
-0.043792646 -0.018070681 1.2270001 4288852593
-0.040602181 -0.018144319 1.2320001 4288721512
-0.037384376 -0.018217957 1.2370001 4289116016
-0.034221683 -0.018335776 1.245 4289379442
-0.031039996 -0.018468324 1.2540001 4289905532
-0.16451113 -0.015015262 1.2520001 4281745471
-0.15838557 -0.01476341 1.2310001 4282074179
-0.15438975 -0.014703444 1.2260001 4282337097
-0.15029806 -0.014631486 1.22 4282271304
-0.14611875 -0.014547536 1.2130001 4282533960
-0.14221315 -0.01448757 1.2080001 4282599753
-0.13879487 -0.014475578 1.207 4281876800
-0.13628012 -0.014559529 1.2140001 4282008386
-0.1328509 -0.014547536 1.2130001 4281876800
-0.12889321 -0.014475578 1.207 4281876800
-0.12569672 -0.01448757 1.2080001 4282139200
-0.12330529 -0.014595507 1.217 4282270786
-0.12096324 -0.014715437 1.2270001 4282139200
-0.11703291 -0.01464348 1.2210001 4281612854
-0.11313538 -0.014571521 1.215 4281283889
-0.10945141 -0.014523549 1.2110001 4281481268
-0.1055264 -0.014439598 1.2040001 4282007612
-0.10197931 -0.014403619 1.2010001 4282468163
-0.098859526 -0.014427604 1.2030001 4282468933
-0.095967129 -0.01448757 1.2080001 4282665542
-0.092817247 -0.014511555 1.21 4281020717
-0.090322211 -0.01464348 1.2210001 4280889131
-0.086983368 -0.01464348 1.2210001 4281283889
-0.08371304 -0.014655473 1.222 4281152557
-0.080831863 -0.014739424 1.2290001 4280692006
-0.07715597 -0.014679458 1.2240001 4280757799
-0.073507421 -0.014619493 1.2190001 4280494627
-0.069943786 -0.014571521 1.215 4280692006
-0.066895522 -0.014631486 1.22 4281086764
-0.064080402 -0.014751417 1.23 4280691752
-0.060766313 -0.01476341 1.2310001 4280296994
-0.057773162 -0.014859354 1.2390001 4280428833
-0.054516789 -0.014895332 1.2420001 4280297247
-0.051120527 -0.014895332 1.2420001 4280165661
-0.04760899 -0.014859354 1.2390001 4279573776
-0.044292316 -0.014883339 1.2410001 4283456317
-0.041096527 -0.014955298 1.2470001 4286746218
-0.16254015 -0.01145278 1.2370001 4282995540
-0.15799959 -0.011369453 1.228 4282666575
-0.15350825 -0.011286126 1.2190001 4282534476
-0.15054446 -0.011313902 1.222 4282337097
-0.14575736 -0.011202799 1.21 4282402374
-0.1419777 -0.011165766 1.2060001 4282139202
-0.1383349 -0.01113799 1.2030001 4281876800
-0.13594334 -0.011212057 1.2110001 4281942593
-0.1323033 -0.011184283 1.2080001 4282271558
-0.12835927 -0.011128731 1.202 4282337351
-0.12486428 -0.011110215 1.2 4282271558
-0.12208948 -0.011156507 1.205 4282797130
-0.11938588 -0.011212057 1.2110001 4283915609
-0.1162661 -0.011230576 1.2130001 4282665542
-0.11285602 -0.011221317 1.212 4281349682
-0.10890914 -0.011156507 1.205 4280889131
-0.10500052 -0.011091698 1.1980001 4281481268
-0.10138493 -0.011054663 1.194 4281612856
-0.098530814 -0.011100956 1.199 4281350454
-0.095649347 -0.011147249 1.2040001 4281218868
-0.092587121 -0.011175024 1.207 4281941819
-0.090470158 -0.01132316 1.223 4280954924
-0.08705461 -0.011313902 1.222 4280560166
-0.083507523 -0.011286126 1.2190001 4280889131
-0.080437236 -0.01132316 1.223 4280691752
-0.077345081 -0.011360194 1.2270001 4280494373
-0.073929533 -0.011350935 1.2260001 4280231201
-0.070461892 -0.011332419 1.2240001 4280362787
-0.067279346 -0.011360194 1.2270001 4280625959
-0.064288788 -0.011425003 1.2340001 4280560166
-0.06111186 -0.011462038 1.238 4280296994
-0.057586648 -0.011434262 1.235 4280494373
-0.054429002 -0.011480555 1.24 4280626213
-0.15812825 -0.0080179982 1.2290001 4283390299
-0.15401195 -0.0079788547 1.223 4282534476
-0.15054446 -0.0079723308 1.222 4282271304
-0.14648013 -0.0079331864 1.2160001 4282665292
-0.1424486 -0.0078940419 1.21 4282468167
-0.1383349 -0.0078483745 1.2030001 4283257683
-0.13538206 -0.0078679472 1.2060001 4282929488
-0.13186519 -0.0078548985 1.2040001 4281876800
-0.12857285 -0.0078548985 1.2040001 4281942593
-0.12507239 -0.0078418506 1.202 4281942593
-0.12178551 -0.0078418506 1.202 4281745212
-0.1186958 -0.0078548985 1.2040001 4282271554
-0.1153076 -0.0078483745 1.2030001 4282731335
-0.11192487 -0.0078418506 1.202 4281941819
-0.10881875 -0.0078548985 1.2040001 4281218096
-0.10561405 -0.0078614224 1.205 4280559909
-0.10248879 -0.0078744711 1.207 4281415477
-0.099352591 -0.007887518 1.2090001 4281284661
-0.095887676 -0.0078744711 1.207 4281416247
-0.093507625 -0.007952759 1.2190001 4280954924
-0.090470158 -0.0079788547 1.223 4281218096
-0.087125845 -0.0079788547 1.223 4280889385
-0.083439022 -0.0079462342 1.2180001 4280363041
-0.080305696 -0.0079658069 1.2210001 4280625959
-0.07715597 -0.0079853786 1.2240001 4280560166
-0.074291341 -0.0080375709 1.2320001 4280428580
-0.071152695 -0.0080636665 1.2360001 4280296994
-0.067937337 -0.0080832392 1.2390001 4280362787
-0.16214596 -0.0046762335 1.2340001 4282535247
-0.15697026 -0.0046231807 1.22 4283193177
-0.15313046 -0.004608023 1.2160001 4283324506
-0.1494357 -0.0045966543 1.2130001 4282337611
-0.14515506 -0.0045663384 1.205 4282008645
-0.14185998 -0.0045663384 1.205 4282337097
-0.13787495 -0.0045436015 1.199 4282271304
-0.13448401 -0.004539812 1.1980001 4283323992
-0.13087949 -0.0045284438 1.1950001 4282139718
-0.12782533 -0.0045360224 1.197 4281744960
-0.12455212 -0.0045360224 1.197 4281547835
-0.1211776 -0.0045322329 1.1960001 4281416247
-0.11810429 -0.004539812 1.1980001 4281547063
-0.1149242 -0.0045436015 1.199 4281547063
-0.11173864 -0.0045473911 1.2 4281941819
-0.10845722 -0.0045473911 1.2 4282139198
-0.10561405 -0.0045663384 1.205 4280954924
-0.1025737 -0.004577707 1.2080001 4280494375
-0.099681295 -0.0045966543 1.2130001 4280494375
-0.096205443 -0.0045890757 1.2110001 4280889133
-0.093584336 -0.0046231807 1.22 4281086512
-0.089952342 -0.004608023 1.2160001 4280889131
-0.086769655 -0.0046156016 1.2180001 4281020717
-0.083370514 -0.0046118121 1.217 4280560166
-0.080108389 -0.0046156016 1.2180001 4280494373
-0.077029899 -0.0046307598 1.222 4280625959
-0.074050136 -0.0046534967 1.228 4280231201
-0.070807293 -0.0046610758 1.23 4280099615
-0.067718007 -0.0046800231 1.235 4280231201
-0.16096337 -0.0012923537 1.225 4281285435
-0.15671295 -0.0012849689 1.2180001 4281482814
-0.15376011 -0.0012881338 1.2210001 4281745474
-0.15017487 -0.0012860239 1.2190001 4281745474
-0.14599828 -0.001278639 1.212 4281548094
-0.1424486 -0.001276529 1.21 4281613887
-0.13844989 -0.0012701991 1.2040001 4281876546
-0.13470852 -0.0012659793 1.2 4281613374
-0.13087949 -0.0012607042 1.1950001 4281679167
-0.12761176 -0.0012607042 1.1950001 4281415995
-0.12434401 -0.0012607042 1.1950001 4281547835
-0.1211776 -0.0012617593 1.1960001 4282008384
-0.11810429 -0.0012638692 1.1980001 4281876798
-0.11482835 -0.0012638692 1.1980001 4282270786
-0.11183175 -0.0012670342 1.2010001 4281876028
-0.10863799 -0.0012680892 1.202 4281218096
-0.10578933 -0.0012733641 1.207 4281744440
-0.10291335 -0.001278639 1.212 4280428582
-0.099927828 -0.0012828589 1.2160001 4280428582
-0.096364334 -0.001279694 1.2130001 4280560168
-0.093967877 -0.0012923537 1.225 4280296996
-0.090248235 -0.0012870788 1.22 4280428582
-0.087125845 -0.0012902438 1.223 4280560166
-0.083439022 -0.0012849689 1.2180001 4280625959
-0.080437236 -0.0012902438 1.223 4280362787
-0.076966859 -0.0012881338 1.2210001 4280296994
-0.074050136 -0.0012955187 1.228 4280954924
-0.070864856 -0.0012986837 1.2310001 4280889131
-0.16431314 0.0020574206 1.225 4280890164
-0.15964939 0.0020406253 1.215 4281021750
-0.15594096 0.0020355869 1.212 4281284922
-0.15300453 0.0020406253 1.215 4281613887
-0.14906612 0.0020322278 1.21 4282534989
-0.1456369 0.0020305482 1.2090001 4282140232
-0.14221315 0.0020288688 1.2080001 4282271818
-0.13879487 0.0020271891 1.207 4282271817
-0.13482077 0.002017112 1.2010001 4282139718
-0.13098902 0.0020087145 1.1960001 4281745214
-0.12771855 0.0020087145 1.1960001 4282007616
-0.12444807 0.0020087145 1.1960001 4281349686
-0.12107627 0.0020070348 1.1950001 4281153075
-0.11780854 0.0020070348 1.1950001 4281350454
-0.11463665 0.0020087145 1.1960001 4281811005
-0.11192487 0.0020187916 1.202 4281482042
-0.10881875 0.0020221507 1.2040001 4281152305
-0.10570169 0.0020255097 1.2060001 4281349684
-0.10231896 0.0020238301 1.205 4280757547
-0.099516936 0.0020339072 1.2110001 4280428582
-0.096126005 0.0020322278 1.21 4280428582
