# .PCD v0.7 - Point Cloud Data file format
VERSION 0.7
FIELDS x y z rgba
SIZE 4 4 4 4
TYPE F F F U
COUNT 1 1 1 1
WIDTH 1084
HEIGHT 1
VIEWPOINT 0 0 0 1 0 0 0
POINTS 1084
DATA ascii
-0.025011046 -0.12195472 1.2970001 4280559917
-0.02139819 -0.12157861 1.2930001 4279639585
-0.017751951 -0.12082639 1.2850001 4279113240
-0.014227026 -0.12073235 1.284 4279310619
-0.010740953 -0.12101444 1.2870001 4280034596
-0.0072272504 -0.12110846 1.2880001 4279903010
-0.0036908183 -0.12063833 1.2830001 4280429354
-0.000181447 -0.11998013 1.276 4280758317
0.0032974181 -0.11960401 1.2720001 4281152305
0.0067437538 -0.11903984 1.266 4280954926
0.010181459 -0.11875776 1.263 4280757545
0.013635145 -0.11875776 1.263 4280494373
0.017156482 -0.1192279 1.268 4280625961
0.020786488 -0.12016818 1.2780001 4280625961
0.024414189 -0.12082639 1.2850001 4279704859
0.028101904 -0.12157861 1.2930001 4280033822
0.031784434 -0.12214278 1.299 4280033822
0.035472579 -0.12261292 1.304 4279507732
0.039038379 -0.12261292 1.304 4279639318
0.042604178 -0.12261292 1.304 4280165662
0.046240795 -0.12280098 1.3060001 4279573525
0.050498597 -0.12449349 1.3240001 4279573525
0.054241721 -0.12477557 1.327 4279507731
0.057303485 -0.1235532 1.314 4279507731
0.06094297 -0.12364724 1.3150001 4279441938
0.064735174 -0.12402335 1.319 4279573524
0.068860121 -0.12496363 1.3290001 4279573524
0.072057903 -0.1242114 1.3210001 4279507731
0.075326495 -0.12364724 1.3150001 4279573524
0.078442238 -0.12289501 1.307 4279441938
0.081765234 -0.1225189 1.3030001 4279507731
0.08545927 -0.12270695 1.3050001 4279770904
0.089437135 -0.12327112 1.3110001 4280033822
0.093447797 -0.12383529 1.317 4279968029
0.096975468 -0.12374127 1.3160001 4280231455
0.09980984 -0.12280098 1.3060001 4280165661
0.10274784 -0.12204875 1.2980001 4279902489
0.10564209 -0.12129653 1.2900001 4279705110
0.10849258 -0.1205443 1.2820001 4278190080
0.11051308 -0.11894582 1.2650001 4279376900
0.11244059 -0.11734734 1.248 4291878311
0.11548193 -0.11697122 1.2440001 4291220880
0.12031715 -0.11838165 1.2590001 4289970550
0.12641399 -0.12092041 1.286 4289971064
-0.053833898 -0.12790263 1.401 4286743946
-0.048253998 -0.12342922 1.3520001 4278190080
-0.043798946 -0.12132947 1.3290001 4282270535
-0.039892785 -0.12050783 1.3200001 4280691503
-0.036255747 -0.12041653 1.319 4280888882
-0.032327138 -0.11922971 1.3060001 4283520602
-0.028579723 -0.11849936 1.2980001 4294574079
-0.024933912 -0.11804289 1.2930001 4279179033
-0.021348543 -0.11776901 1.2900001 4279639584
-0.017751951 -0.11731254 1.2850001 4293851126
-0.014215947 -0.11712994 1.2830001 4288061340
-0.01070757 -0.11712994 1.2830001 4280100387
-0.0071711382 -0.11667348 1.2780001 4280034594
-0.0036476678 -0.11576054 1.268 4280100385
-0.00017945621 -0.11521278 1.2620001 4280494373
0.0032689027 -0.11512148 1.261 4280494627
0.0067224465 -0.11521278 1.2620001 4280560420
0.010149213 -0.1149389 1.2590001 4280165408
0.013559574 -0.11466502 1.256 4281020717
0.017007649 -0.11475631 1.2570001 4281086510
0.020526251 -0.11521278 1.2620001 4281086512
0.024091199 -0.11576054 1.268 4280494375
0.027841099 -0.11694737 1.281 4280494375
0.031637628 -0.11804289 1.2930001 4279704857
0.035390969 -0.11877324 1.3010001 4279441939
0.039068319 -0.11913841 1.3050001 4280231455
0.042636853 -0.11913841 1.3050001 4279968283
0.046240795 -0.11922971 1.3060001 4279441938
0.050079048 -0.11986876 1.3130001 4279573524
0.054241721 -0.12114688 1.327 4279507731
0.057347093 -0.12005135 1.3150001 4278190080
0.060016084 -0.11822547 1.2950001 4278190080
0.064833328 -0.12059911 1.3210001 4279573524
0.068082921 -0.11996005 1.314 4279639317
0.071621515 -0.11986876 1.3130001 4279441938
0.07504008 -0.11959489 1.3100001 4279507731
0.078382224 -0.11922971 1.3060001 4279376145
0.081765234 -0.11895583 1.3030001 4279376145
0.08519733 -0.11877324 1.3010001 4279573524
0.088891372 -0.11895583 1.3030001 4279639318
0.092383482 -0.11886454 1.302 4279705110
0.095722742 -0.11859065 1.299 4279836696
0.098969169 -0.11822547 1.2950001 4279639571
0.10211457 -0.11776901 1.2900001 4279705110
0.10498694 -0.11703866 1.2820001 4279573524
0.10739242 -0.11585184 1.2690001 4278190080
0.10955209 -0.11448243 1.2540001 4282996013
0.11226039 -0.11375208 1.2460001 4291483803
0.11594608 -0.11402596 1.2490001 4288852067
0.1209861 -0.11557795 1.266 4288786274
0.12700379 -0.11795159 1.2920001 4289379188
0.13447714 -0.12151206 1.3310001 4287733111
-0.060091376 -0.12123767 1.3690001 4278190080
-0.056265507 -0.12106056 1.3670001 4281152053
-0.05210476 -0.1200864 1.3560001 4280230951
-0.047682945 -0.11831522 1.3360001 4289770936
-0.043667119 -0.11734106 1.325 4283652187
-0.039802119 -0.11663259 1.317 4280559916
-0.036200769 -0.11663259 1.317 4280560686
-0.032327138 -0.11565844 1.3060001 4279376412
-0.028557705 -0.11486141 1.2970001 4284113762
-0.024856776 -0.11415293 1.289 4280626733
-0.021315444 -0.11406437 1.2880001 4280560940
-0.01780721 -0.11415293 1.289 4279968801
-0.014260268 -0.11397581 1.2870001 4280889903
-0.010724261 -0.11379869 1.2850001 4280824110
-0.0071767494 -0.11326733 1.279 4280297766
-0.0036534211 -0.1124703 1.2700001 4279903006
-0.00017917181 -0.11158472 1.2600001 4280231201
0.0032585335 -0.11131903 1.2570001 4280428834
0.0066958121 -0.11131903 1.2570001 4280428834
0.010173398 -0.11176182 1.2620001 4279968029
0.013602757 -0.11158472 1.2600001 4280296994
0.016967058 -0.11105336 1.2540001 4280757545
0.020412397 -0.11114191 1.2550001 4281218096
0.023882207 -0.11131903 1.2570001 4281086510
0.027536822 -0.11220463 1.2670001 4280362787
0.031319536 -0.1133559 1.2800001 4280626213
0.035146143 -0.1144186 1.2920001 4279968283
0.038978502 -0.1153042 1.302 4280297248
0.042506166 -0.11521564 1.3010001 4280099869
0.045745101 -0.1144186 1.2920001 4279639318
0.049926486 -0.11592411 1.309 4279507731
0.054364346 -0.11778386 1.33 4279441938
0.056780159 -0.1153042 1.302 4279573524
0.05955264 -0.11379869 1.2850001 4278190080
0.06375359 -0.11503853 1.299 4279441938
0.068238363 -0.11663259 1.317 4279507731
0.071676068 -0.11636692 1.314 4279376145
0.075269215 -0.11636692 1.314 4279507731
0.078742325 -0.11618979 1.312 4279244559
0.082204498 -0.11601268 1.3100001 4279507731
0.085655726 -0.11583555 1.3080001 4279310352
0.08916425 -0.115747 1.307 4279310352
0.092454433 -0.11539277 1.3030001 4279441938
0.095796436 -0.11512708 1.3000001 4279376399
0.099045597 -0.11477284 1.296 4279507732
0.10211457 -0.1142415 1.2900001 4279573524
0.10457748 -0.11309022 1.2770001 4278190080
0.10646152 -0.11140759 1.258 4278190080
0.10911528 -0.11061055 1.2490001 4282009118
0.11235049 -0.11043344 1.2470001 4289444724
0.11659591 -0.11123048 1.256 4288260700
0.12136836 -0.1124703 1.2700001 4289049966
0.12710209 -0.11450717 1.2930001 4289247605
0.13336575 -0.11689828 1.3200001 4285957203
-0.063088857 -0.11612093 1.353 4278190080
-0.05837949 -0.11414696 1.33 4281546811
-0.054454476 -0.11354619 1.3230001 4281086514
-0.050951999 -0.11380366 1.3260001 4280296998
-0.047076199 -0.11320289 1.319 4280099619
-0.0433046 -0.11277377 1.314 4280625961
-0.039469678 -0.11208717 1.3060001 4281020719
-0.035925899 -0.112173 1.307 4280297768
-0.032104366 -0.11131474 1.2970001 4281284663
-0.028293487 -0.11028485 1.2850001 4281613628
-0.02466394 -0.1097699 1.279 4281284663
-0.021183051 -0.10985573 1.2800001 4280231975
-0.017738137 -0.11019902 1.284 4280428584
-0.014260268 -0.1104565 1.2870001 4280889135
-0.010715916 -0.11019902 1.284 4280757547
-0.0071823606 -0.10985573 1.2800001 4280165410
-0.003664928 -0.10934077 1.274 4279902236
-0.00017945621 -0.10831088 1.2620001 4278190080
0.0032585335 -0.10788175 1.2570001 4280231455
0.0066958121 -0.10788175 1.2570001 4280297248
0.01024595 -0.1090833 1.271 4280297248
0.013818674 -0.10985573 1.2800001 4280889385
0.01706177 -0.10822505 1.261 4280428580
0.020363603 -0.10745264 1.2520001 4278190080
0.023730211 -0.10719515 1.2490001 4281020717
0.027254282 -0.10762428 1.2540001 4281152303
0.030732295 -0.10779593 1.256 4280297248
0.034330055 -0.10831088 1.2620001 4280363041
0.037930693 -0.10874 1.2670001 4280363041
0.041558679 -0.10916913 1.2720001 4279770904
0.045603476 -0.11054232 1.2880001 4279705111
0.050498597 -0.11363202 1.3240001 4279441938
0.054854847 -0.11517686 1.342 4279507731
0.058175679 -0.11449026 1.3340001 4278190080
0.059274573 -0.1097699 1.279 4279376145
0.063311882 -0.11071397 1.2900001 4279507731
0.06782385 -0.11234464 1.309 4279441938
0.071621515 -0.11268794 1.3130001 4279376145
0.075154647 -0.11260211 1.312 4279376145
0.078682311 -0.1125163 1.3110001 4279376145
0.082267247 -0.1125163 1.3110001 4279573524
0.085721217 -0.11234464 1.309 4279507731
0.089232467 -0.11225881 1.3080001 4279507731
0.092454433 -0.1118297 1.3030001 4279376146
0.095722742 -0.1114864 1.299 4279376145
0.0987399 -0.11088562 1.2920001 4279441938
0.10124382 -0.1097699 1.279 4279310606
0.10326719 -0.10822505 1.261 4278190080
0.10561525 -0.10710934 1.248 4278982656
0.1088532 -0.10693768 1.2460001 4290300041
0.11262077 -0.10728098 1.25 4288524133
0.11696722 -0.10813923 1.2600001 4288260446
0.12127279 -0.10891166 1.2690001 4288852583
0.12611909 -0.1101132 1.2830001 4289312883
0.13134506 -0.11157221 1.3000001 4285957442
0.13915446 -0.11509104 1.3410001 4290760088
-0.083215952 -0.11466458 1.3800001 4280560940
-0.078809097 -0.11375058 1.3690001 4280429354
-0.074736558 -0.11325205 1.363 4280889135
-0.07100942 -0.11325205 1.363 4280691502
-0.067282282 -0.11325205 1.363 4280559916
-0.06150347 -0.10959607 1.319 4280428330
-0.05741382 -0.10868207 1.3080001 4280954928
-0.053795919 -0.10859899 1.307 4281086514
-0.050298765 -0.10876517 1.309 4280560170
-0.046505146 -0.10826663 1.3030001 4281218100
-0.042744342 -0.10776809 1.2970001 4281087284
-0.039107021 -0.10751882 1.294 4280495145
-0.035623536 -0.10768499 1.296 4280297766
-0.03205486 -0.1076019 1.2950001 4281087284
-0.028249452 -0.10660482 1.2830001 4281876798
-0.02466394 -0.10627246 1.279 4281349686
-0.021166502 -0.10627246 1.279 4279968033
-0.017724322 -0.10660482 1.2830001 4280757038
-0.014249187 -0.1068541 1.286 4281217587
-0.01070757 -0.10660482 1.2830001 4281086514
-0.0071879718 -0.10643864 1.281 4280757547
-0.0036850651 -0.10643864 1.281 4280560166
-0.00018030941 -0.10535847 1.268 4280494373
0.0032663106 -0.10469375 1.2600001 4280297248
0.0066904854 -0.10436139 1.256 4280494627
0.010254011 -0.10569083 1.2720001 4280560420
0.013851061 -0.10660482 1.2830001 4280823338
0.017237665 -0.10585701 1.274 4281020717
0.020444928 -0.10444447 1.2570001 4280625959
0.023749212 -0.10386284 1.25 4278190080
0.02712388 -0.10369667 1.248 4280757545
0.03048761 -0.10353048 1.2460001 4281218098
0.033867609 -0.10344739 1.245 4280428580
0.037361883 -0.10369667 1.248 4280297248
0.040970583 -0.1041952 1.2540001 4280363041
0.045107789 -0.10585701 1.274 4280034075
0.050040908 -0.10901444 1.312 4279442192
0.054241721 -0.11026079 1.327 4279442192
0.057085432 -0.10876517 1.309 4279376913
0.060664907 -0.10876517 1.309 4279376399
0.064293459 -0.10884826 1.3100001 4279441938
0.068134733 -0.10926371 1.3150001 4279376145
0.071785167 -0.10934681 1.3160001 4279441938
0.075326495 -0.10926371 1.3150001 4279244559
0.078862362 -0.10918062 1.314 4279376145
0.082455501 -0.10918062 1.314 4279507731
0.085917674 -0.10901444 1.312 4279441938
0.08936891 -0.10884826 1.3100001 4279441938
0.092667304 -0.1085159 1.3060001 4279442192
0.095943809 -0.10818354 1.302 4279376146
0.09851063 -0.10710336 1.289 4278190080
0.10068971 -0.10569083 1.2720001 4278190080
0.10253015 -0.10402903 1.2520001 4278190080
0.10536136 -0.10344739 1.245 4283653943
0.1088532 -0.10353048 1.2460001 4290629004
0.11289106 -0.10411211 1.253 4288063328
0.11724572 -0.10494301 1.263 4288392547
0.12127279 -0.10544156 1.2690001 4288918376
0.1257259 -0.10627246 1.279 4289576558
0.13003162 -0.10693718 1.2870001 4289642099
0.13593762 -0.10884826 1.3100001 4291484564
-0.10764524 -0.10888205 1.355 4282402370
-0.10355644 -0.10848029 1.35 4282073405
-0.099716902 -0.10831957 1.348 4281547063
-0.096671939 -0.10904277 1.3570001 4281810233
-0.09268719 -0.10872135 1.353 4282205763
-0.088395461 -0.10799815 1.3440001 4281350456
-0.084405102 -0.10759637 1.3390001 4280692526
-0.080683291 -0.10751601 1.3380001 4278190080
-0.076736681 -0.10711424 1.3330001 4280362791
-0.072598092 -0.10639104 1.3240001 4281086514
-0.068508722 -0.10566783 1.3150001 4281020721
-0.06441921 -0.10486427 1.3050001 4280691502
-0.060291123 -0.10390001 1.2930001 4281349432
-0.056579825 -0.10357858 1.289 4280823342
-0.053137362 -0.10373929 1.291 4280757549
-0.049799237 -0.10414107 1.296 4280560940
-0.046148237 -0.10390001 1.2930001 4281547835
-0.042447735 -0.10349822 1.2880001 4281087284
-0.038895465 -0.10341787 1.2870001 4280231973
-0.035376154 -0.10341787 1.2870001 4280034594
-0.032005355 -0.10390001 1.2930001 4281481270
-0.028293487 -0.10325716 1.2850001 4281283891
-0.024683222 -0.10285538 1.2800001 4280954928
-0.021216149 -0.10301609 1.2820001 4281020721
-0.017724322 -0.10309644 1.2830001 4281415479
-0.014238106 -0.10325716 1.2850001 4281415479
-0.010690879 -0.10293574 1.281 4281283891
-0.0071879718 -0.10293574 1.281 4281152303
-0.0036994484 -0.10333752 1.286 4280889131
-0.000182869 -0.10333752 1.286 4280823338
0.0033285259 -0.1031768 1.284 4280362787
0.0068130023 -0.10277502 1.279 4280362787
0.010334624 -0.10301609 1.2820001 4280494373
0.013905041 -0.10349822 1.2880001 4280823340
0.017359437 -0.10309644 1.2830001 4280691754
0.020640107 -0.10197147 1.2690001 4280889133
0.023825206 -0.10076613 1.2540001 4280494373
0.027080411 -0.10012329 1.2460001 4278190080
0.030389739 -0.099801861 1.2420001 4280625959
0.033731595 -0.099641144 1.24 4280823338
0.037212197 -0.099882223 1.243 4280889131
0.040709209 -0.10012329 1.2460001 4280231201
0.044435065 -0.10084648 1.2550001 4280297248
0.048438989 -0.10205182 1.2700001 4280231454
0.052606702 -0.10341787 1.2870001 4283522124
0.056562111 -0.10422143 1.2970001 4283851342
0.060572214 -0.10502499 1.307 4279508753
0.064489774 -0.10558748 1.314 4279376399
0.068031102 -0.10550711 1.3130001 4279375892
0.071730614 -0.10566783 1.3150001 4279310352
0.075326495 -0.10566783 1.3150001 4279310352
0.07880234 -0.10550711 1.3130001 4279376145
0.082329996 -0.10542676 1.312 4279441938
0.0857867 -0.10526605 1.3100001 4279376145
0.08936891 -0.10526605 1.3100001 4279441938
0.092596345 -0.10486427 1.3050001 4279507731
0.095649049 -0.10430179 1.2980001 4279507731
0.097746387 -0.10277502 1.279 4278190080
0.099818975 -0.10132861 1.261 4280099868
0.10203879 -0.10012329 1.2460001 4279968282
0.10527673 -0.09996257 1.2440001 4280232209
0.10911528 -0.10036435 1.2490001 4285232977
0.11307126 -0.10084648 1.2550001 4288852346
0.11715289 -0.10140897 1.2620001 4288392296
0.1209861 -0.1017304 1.266 4288853098
0.12503779 -0.10221253 1.2720001 4289576306
0.12892023 -0.10253396 1.276 4291813005
0.133966 -0.10373929 1.291 4290891903
0.14314094 -0.10799815 1.3440001 4290364554
-0.12673023 -0.10564253 1.3610001 4281941823
-0.1223759 -0.10509919 1.3540001 4281152307
-0.11876102 -0.1051768 1.355 4281152307
-0.1160747 -0.10610826 1.3670001 4281612856
-0.11110397 -0.10494394 1.3520001 4282139200
-0.10693026 -0.10447822 1.3460001 4281349682
-0.10263593 -0.10385723 1.3380001 4281481268
-0.099494979 -0.10440059 1.345 4278190080
-0.095817059 -0.10440059 1.345 4281810233
-0.091659613 -0.10385723 1.3380001 4282007612
-0.08714582 -0.10284816 1.325 4280758319
-0.083333492 -0.1026153 1.322 4280560940
-0.079718471 -0.1026153 1.322 4280889135
-0.075988315 -0.10246006 1.3200001 4281876030
-0.071501441 -0.10121811 1.304 4281086514
-0.067779347 -0.10098525 1.3010001 4280823342
-0.064024299 -0.10067477 1.2970001 4280428584
-0.060104609 -0.1000538 1.289 4281481272
-0.056492034 -0.099898554 1.2870001 4280691756
-0.053096201 -0.10013142 1.2900001 4280296998
-0.049760807 -0.10051952 1.2950001 4280560940
-0.046076857 -0.10020903 1.291 4281416249
-0.042447735 -0.099976175 1.2880001 4280955696
-0.038925689 -0.099976175 1.2880001 4280363559
-0.035376154 -0.099898554 1.2870001 4281086512
-0.0319806 -0.10028666 1.2920001 4281283889
-0.028403576 -0.10013142 1.2900001 4281349682
-0.02481821 -0.099898554 1.2870001 4281152305
-0.021298897 -0.099898554 1.2870001 4280889133
-0.01780721 -0.1000538 1.289 4281152305
-0.014215947 -0.099588066 1.2830001 4281283891
-0.010657496 -0.099122345 1.2770001 4281283891
-0.0071543045 -0.098967098 1.2750001 4281152305
-0.0036821882 -0.099355206 1.2800001 4280954924
-0.00018244241 -0.099588066 1.2830001 4280954924
0.0033207489 -0.099432833 1.281 4280560166
0.0068556168 -0.099898554 1.2870001 4280494375
0.010374931 -0.099898554 1.2870001 4280296996
0.013861857 -0.099665694 1.284 4280362789
0.017359437 -0.099588066 1.2830001 4280691754
0.02081902 -0.099355206 1.2800001 4280625961
0.024224194 -0.098967098 1.2750001 4280757545
0.027362952 -0.09772516 1.2590001 4280757545
0.030561017 -0.096948944 1.2490001 4280362787
0.033840403 -0.096560836 1.2440001 4280428580
0.037272073 -0.096638463 1.245 4280889131
0.040709209 -0.096716084 1.2460001 4280691752
0.044328846 -0.097181819 1.2520001 4280363041
0.047943156 -0.097569913 1.2570001 4280165661
0.05158481 -0.097958021 1.2620001 4280231708
0.055122983 -0.098113269 1.2640001 4280890406
0.059181884 -0.099122345 1.2770001 4282534463
0.063949905 -0.1011405 1.3030001 4279376399
0.06792748 -0.10176147 1.3110001 4279244559
0.071785167 -0.10214958 1.3160001 4279310352
0.075555623 -0.10238244 1.319 4279310352
0.079102427 -0.10230482 1.3180001 4279310352
0.08251825 -0.10207196 1.3150001 4279441938
0.0857867 -0.10168385 1.3100001 4279244559
0.089096032 -0.10137336 1.3060001 4279244559
0.092028707 -0.10067477 1.2970001 4279507731
0.094691083 -0.099743314 1.2850001 4279836950
0.096982144 -0.098501377 1.2690001 4280034075
0.099660657 -0.09772516 1.2590001 4280033822
0.10228448 -0.096948944 1.2490001 4280165662
0.1057845 -0.097026572 1.25 4280034075
0.10946472 -0.097259432 1.253 4279705615
0.11325145 -0.097569913 1.2570001 4280035079
0.11715289 -0.097958021 1.2620001 4284180792
0.12060384 -0.097958021 1.2620001 4289181561
0.12444799 -0.098268509 1.266 4289313396
0.12821297 -0.098501377 1.2690001 4290102650
0.13323961 -0.099665694 1.284 4290103157
0.14047836 -0.10238244 1.319 4290299528
-0.13368066 -0.10154642 1.3560001 4282139200
-0.12843905 -0.10034824 1.34 4282336581
-0.12477481 -0.10034824 1.34 4281941823
-0.12092981 -0.10019846 1.3380001 4281547065
-0.11797221 -0.10079756 1.3460001 4281876030
-0.11454629 -0.10102222 1.3490001 4282074177
-0.11044655 -0.10064778 1.3440001 4282271554
-0.10637415 -0.10027335 1.3390001 4281745212
-0.10255923 -0.10012358 1.337 4280824108
-0.099716902 -0.10094734 1.348 4278190080
-0.095247149 -0.10012358 1.337 4282139968
-0.090700544 -0.099150054 1.3240001 4281350452
-0.08596196 -0.097876981 1.307 4281086512
-0.082387954 -0.097876981 1.307 4280691754
-0.078813948 -0.097876981 1.307 4281481272
-0.075470209 -0.098176524 1.3110001 4282928205
-0.071062781 -0.097053222 1.296 4280428584
-0.067414664 -0.096903451 1.294 4280494377
-0.063974932 -0.097053222 1.296 4280560170
-0.060291123 -0.096828565 1.2930001 4281678651
-0.056579825 -0.096529014 1.289 4280954926
-0.053137362 -0.096678786 1.291 4280691754
-0.049645536 -0.096753672 1.2920001 4281613626
-0.046183929 -0.096903451 1.294 4281350454
-0.042645477 -0.096903451 1.294 4281349684
-0.039107021 -0.096903451 1.294 4280889133
-0.035458613 -0.096603908 1.2900001 4281152303
-0.031683568 -0.095855035 1.2800001 4281218350
-0.028249452 -0.096079692 1.2830001 4281284143
-0.02450967 -0.095181055 1.271 4281613108
-0.021083755 -0.095405713 1.274 4281547061
-0.017696692 -0.095929921 1.281 4281086510
-0.014127305 -0.095480599 1.2750001 4281218098
-0.010640805 -0.095480599 1.2750001 4281086512
-0.0071374709 -0.095255941 1.2720001 4280954926
-0.0036706815 -0.095555484 1.276 4280560166
-0.0001825846 -0.096154578 1.284 4280428580
0.0033181566 -0.095855035 1.2800001 4280691752
0.0068023489 -0.095630378 1.2770001 4280625959
0.010229827 -0.095031284 1.2690001 4280296994
0.013753899 -0.095405713 1.274 4280296994
0.017156482 -0.094956398 1.268 4280428580
0.020509988 -0.094432183 1.261 4280691752
0.023901207 -0.094207525 1.258 4280823338
0.027536822 -0.094881505 1.2670001 4280560166
0.030756764 -0.094132632 1.2570001 4280823338
0.034030825 -0.093683317 1.251 4280362787
0.037361883 -0.093458667 1.248 4280296994
0.040741879 -0.093383774 1.2470001 4280428580
0.044187222 -0.093458667 1.248 4280428580
0.047676172 -0.093608432 1.25 4280494627
0.051094308 -0.093608432 1.25 4280231454
0.054381616 -0.093383774 1.2470001 4280165915
0.058023274 -0.093758211 1.2520001 4280231454
0.062624767 -0.095555484 1.276 4280494626
0.066994838 -0.096828565 1.2930001 4280428834
0.071130589 -0.097652309 1.304 4280034076
0.074868232 -0.097876981 1.307 4279705110
0.078442238 -0.097876981 1.307 4279573524
0.081639737 -0.097427659 1.3010001 4279705110
0.084738925 -0.096903451 1.294 4279770903
0.087731615 -0.096304357 1.286 4280494627
0.090538643 -0.095555484 1.276 4280494627
0.093364678 -0.094881505 1.2670001 4280231455
0.095988639 -0.094057754 1.256 4280297247
0.099027388 -0.093683317 1.251 4280362787
0.10269394 -0.093907975 1.2540001 4280297247
0.1067154 -0.094432183 1.261 4280429087
0.11042571 -0.094656847 1.2640001 4280297248
0.11352174 -0.094357304 1.2600001 4280297247
0.11715289 -0.094507068 1.2620001 4280231454
0.12050828 -0.094432183 1.261 4279574029
0.12415309 -0.094581962 1.263 4281219353
0.12780885 -0.094731741 1.2650001 4290036616
0.132617 -0.095705256 1.2780001 4289708405
0.13866779 -0.097502545 1.302 4289839740
-0.13809788 -0.098343499 1.363 4282139200
-0.13220188 -0.096756153 1.3410001 4282204480
-0.12767226 -0.096106783 1.332 4282204993
-0.12356431 -0.095746018 1.327 4281678649
-0.12002599 -0.095818169 1.3280001 4282007614
-0.11735868 -0.096611843 1.3390001 4282139200
-0.11420664 -0.097044758 1.345 4282336579
-0.1095426 -0.096178934 1.3330001 4282468165
-0.10478529 -0.095168799 1.319 4281547833
-0.10117847 -0.095168799 1.319 4281745212
-0.098977163 -0.096539684 1.3380001 4281745212
-0.095745824 -0.096972607 1.3440001 4282797900
-0.090837553 -0.095673859 1.3260001 4281416247
-0.0860935 -0.094447277 1.309 4280757549
-0.082387954 -0.094302975 1.307 4281020721
-0.078693345 -0.094158664 1.3050001 4282204995
-0.075470209 -0.09459158 1.3110001 4282665546
-0.070898287 -0.09329284 1.2930001 4281810237
-0.067414664 -0.093364999 1.294 4281744444
-0.064073659 -0.093653604 1.2980001 4282007616
-0.060664155 -0.093870059 1.3010001 4281218100
-0.056799296 -0.093364999 1.294 4278190080
-0.053137362 -0.09314853 1.291 4281218098
-0.049376555 -0.092715628 1.2850001 4281678649
-0.046041165 -0.093076386 1.2900001 4281547063
-0.042381823 -0.09278778 1.286 4281744442
-0.038804799 -0.09264347 1.284 4281218096
-0.035238713 -0.092499174 1.2820001 4280823338
-0.031658817 -0.092282705 1.279 4281284396
-0.02811734 -0.09213841 1.2770001 4281942575
-0.024528952 -0.091777645 1.2720001 4281548069
-0.021034108 -0.091705494 1.271 4281350187
-0.017599989 -0.09192194 1.274 4280494627
-0.014149465 -0.09213841 1.2770001 4280691752
-0.010640805 -0.091994099 1.2750001 4280560168
-0.0071262484 -0.091633335 1.2700001 4280494377
-0.0036390377 -0.091272585 1.2650001 4280428580
-0.00018030941 -0.091489039 1.268 4280362787
0.0033077875 -0.092066251 1.276 4280560166
0.0068130023 -0.092282705 1.279 4280362787
0.010350747 -0.09264347 1.284 4280231201
0.013861857 -0.09264347 1.284 4280362787
0.017372968 -0.09264347 1.284 4280362787
0.020802753 -0.092282705 1.279 4280560166
0.024186196 -0.091849796 1.273 4280757545
0.027688961 -0.09192194 1.274 4280560166
0.031221664 -0.092066251 1.276 4280691752
0.034874115 -0.092499174 1.2820001 4281086510
0.038319882 -0.092354864 1.2800001 4280757545
0.041885398 -0.092499174 1.2820001 4280625959
0.044293441 -0.09026245 1.251 4280231201
0.047638029 -0.09011814 1.2490001 4280231455
0.050930806 -0.089901686 1.2460001 4280560420
0.054250784 -0.089757375 1.2440001 4280626213
0.057837892 -0.090045996 1.248 4280494627
0.06188859 -0.090983965 1.261 4280165408
0.065958567 -0.091849796 1.273 4280033822
0.069930531 -0.092499174 1.2820001 4280033822
0.073608018 -0.092715628 1.2850001 4280099869
0.077121861 -0.092715628 1.2850001 4280231455
0.080133699 -0.09213841 1.2770001 4280165662
0.083167262 -0.091633335 1.2700001 4280165662
0.086162545 -0.091128275 1.263 4280231455
0.089332409 -0.090839669 1.2590001 4280428834
0.092406712 -0.090478905 1.2540001 4280560420
0.095682941 -0.090334602 1.2520001 4280231455
0.099185698 -0.090406746 1.253 4280231455
0.10343097 -0.091128275 1.263 4280099869
0.10806945 -0.09213841 1.2770001 4279968283
0.11208559 -0.092571318 1.2830001 4279968029
0.11478309 -0.09192194 1.274 4279968031
0.1183597 -0.091994099 1.2750001 4280165662
0.12127279 -0.091561191 1.2690001 4280165915
0.12474289 -0.091561191 1.2690001 4280363808
0.12831402 -0.091633335 1.2700001 4278917376
0.13292831 -0.092427015 1.281 4287339103
0.13856128 -0.093870059 1.3010001 4288786551
0.14856394 -0.098127037 1.36 4288259206
-0.13688205 -0.093783341 1.3510001 4281744442
-0.13249764 -0.093297422 1.3440001 4281876028
-0.12776811 -0.092533834 1.3330001 4282007614
-0.1229125 -0.091631405 1.3200001 4281876028
-0.11912218 -0.091492563 1.3180001 4282007614
-0.11569339 -0.091631405 1.3200001 4282533958
-0.11259331 -0.0920479 1.3260001 4282533958
-0.10830993 -0.091492563 1.3180001 4282862923
-0.10478529 -0.091561981 1.319 4281547063
-0.1013319 -0.091700815 1.3210001 4282533958
-0.098163448 -0.092117324 1.327 4282533958
-0.094463512 -0.0920479 1.3260001 4282797900
-0.090289518 -0.091492563 1.3180001 4282205763
-0.086027727 -0.090798378 1.3080001 4281152305
-0.082450993 -0.090798378 1.3080001 4281810235
-0.078753643 -0.090659551 1.3060001 4282862925
-0.075355075 -0.090867803 1.309 4282139972
-0.070953123 -0.089826539 1.294 4282139972
-0.067258373 -0.089618281 1.291 4282205765
-0.063876212 -0.089826539 1.294 4281942593
-0.061130442 -0.091006644 1.3110001 4280823342
-0.056887086 -0.089965373 1.296 4281020719
-0.052725766 -0.08892411 1.281 4281152305
-0.04918443 -0.088854693 1.2800001 4281152305
-0.045969784 -0.089410029 1.2880001 4281349684
-0.042381823 -0.089271195 1.286 4281415477
-0.038744356 -0.088993527 1.2820001 4281283889
-0.035238713 -0.088993527 1.2820001 4281349936
-0.031733073 -0.088993527 1.2820001 4280560922
-0.02822743 -0.088993527 1.2820001 4290299541
-0.024644656 -0.088715851 1.2780001 4291548852
-0.021067206 -0.088368766 1.273 4280034578
-0.017558547 -0.088229932 1.271 4280691752
-0.014149465 -0.088646434 1.2770001 4280494373
-0.010657496 -0.088646434 1.2770001 4280362791
-0.0071318597 -0.088229932 1.271 4280494375
-0.0036275308 -0.087535754 1.261 4280560166
-0.00017917181 -0.087466329 1.2600001 4280560166
0.0032896413 -0.08809109 1.2690001 4280691752
0.0067810412 -0.088368766 1.273 4280823592
0.010294317 -0.088646434 1.2770001 4280625959
0.013818674 -0.088854693 1.2800001 4280625959
0.017400028 -0.089271195 1.286 4280494373
0.020932872 -0.089340612 1.2870001 4280362787
0.024414189 -0.089201778 1.2850001 4280494373
0.027841099 -0.08892411 1.281 4280428580
0.031466346 -0.089271195 1.286 4280362787
0.035010129 -0.089340612 1.2870001 4280691752
0.038379759 -0.088993527 1.2820001 4281283889
0.041787382 -0.088785268 1.279 4281086510
0.045391042 -0.088993527 1.2820001 4280494373
0.048820399 -0.088854693 1.2800001 4280231201
0.051952694 -0.088229932 1.271 4280231201
0.054294396 -0.086425066 1.245 4280362787
0.057606172 -0.086286232 1.243 4280625959
0.061201483 -0.0865639 1.2470001 4280757545
0.064974107 -0.087049827 1.2540001 4280757545
0.068785019 -0.087535754 1.261 4280889131
0.072347805 -0.087674588 1.263 4281020971
0.07574147 -0.087605171 1.2620001 4280955178
0.07869041 -0.087049827 1.2540001 4280954924
0.08192303 -0.086841576 1.251 4280691752
0.085002795 -0.086494491 1.2460001 4280625959
0.088622861 -0.086702742 1.2490001 4280625959
0.092185646 -0.086841576 1.251 4280362787
0.095988639 -0.087188661 1.256 4280165661
0.099739812 -0.087466329 1.2600001 4279968283
0.10384044 -0.088021681 1.268 4280231454
0.10849258 -0.088993527 1.2820001 4280297248
0.11269712 -0.089548863 1.2900001 4280099869
0.11622465 -0.089548863 1.2900001 4280363041
0.11891668 -0.08892411 1.281 4280428833
0.12175063 -0.088438183 1.274 4280297497
0.12493949 -0.088229932 1.271 4281417502
0.12861712 -0.088368766 1.273 4285825882
0.13303207 -0.088993527 1.2820001 4284180036
0.13824177 -0.090104207 1.2980001 4286811756
0.14725308 -0.093575098 1.348 4288390790
-0.13943179 -0.089355513 1.34 4282468683
-0.13617282 -0.089622244 1.3440001 4281876800
-0.13299057 -0.089955658 1.3490001 4282599753
-0.12776811 -0.088888727 1.3330001 4282533960
-0.12300562 -0.088088527 1.3210001 4281941823
-0.11894142 -0.087755114 1.3160001 4282533958
-0.11586869 -0.08815521 1.322 4282204993
-0.11140455 -0.087488383 1.312 4282139200
-0.1077347 -0.087421693 1.3110001 4282139970
-0.10446752 -0.087688431 1.3150001 4281678649
-0.10102506 -0.087821797 1.317 4281810235
-0.097275764 -0.087688431 1.3150001 4282468165
-0.093323678 -0.08735501 1.3100001 4282599751
-0.089467451 -0.087088279 1.3060001 4282402372
-0.08596196 -0.087154962 1.307 4281480757
-0.082577065 -0.08735501 1.3100001 4281152305
-0.078994855 -0.08735501 1.3100001 4282007614
-0.074376442 -0.086154714 1.2920001 4281678651
-0.070953123 -0.08628808 1.294 4281810237
-0.067466758 -0.086354762 1.2950001 4281810237
-0.064271115 -0.086821549 1.302 4281744960
-0.060197867 -0.086088032 1.291 4280626731
-0.056404248 -0.085687935 1.2850001 4280626731
-0.052643441 -0.085287832 1.279 4280889131
-0.049107581 -0.085221149 1.2780001 4280691754
-0.045898404 -0.085754618 1.286 4280691756
-0.042414781 -0.085821301 1.2870001 4280823338
-0.038865246 -0.085754618 1.286 4281087013
-0.035321176 -0.085687935 1.2850001 4281746449
-0.03180733 -0.085687935 1.2850001 4290827140
-0.028337523 -0.085821301 1.2870001 4290629255
-0.024798928 -0.085754618 1.286 4281877033
-0.021282347 -0.085754618 1.286 4280757545
-0.017738137 -0.085621253 1.284 4280495143
-0.014193785 -0.085421205 1.281 4280626731
-0.010699225 -0.08548788 1.2820001 4280691752
-0.0071486933 -0.084954418 1.274 4280691241
-0.0036361609 -0.084287591 1.2640001 4280560166
-0.0001798828 -0.084354267 1.2650001 4280560166
0.0032844567 -0.084487632 1.2670001 4280625959
0.0067650611 -0.084687687 1.2700001 4280560166
0.010262072 -0.084887736 1.273 4280823592
0.013818674 -0.085354514 1.2800001 4281020971
0.017427089 -0.085887983 1.2880001 4280889131
0.020981668 -0.086021349 1.2900001 4280757545
0.024528183 -0.086088032 1.291 4280560166
0.028014969 -0.085954666 1.289 4280560166
0.031735498 -0.086488128 1.2970001 4280428580
0.035146143 -0.086154714 1.2920001 4280428580
0.038379759 -0.08548788 1.2820001 4280296994
0.041526005 -0.08475437 1.271 4280691752
0.045249414 -0.085221149 1.2780001 4280954924
0.048744116 -0.085221149 1.2780001 4281152303
0.052157067 -0.085087784 1.276 4280757545
0.055515472 -0.084887736 1.273 4280560166
0.059274573 -0.085287832 1.279 4280362787
0.061397798 -0.083420709 1.251 4280362787
0.065077737 -0.083754115 1.256 4280231201
0.068566829 -0.083820805 1.2570001 4280231203
0.07200411 -0.083820805 1.2570001 4280362787
0.075261332 -0.083620749 1.2540001 4280297247
0.078502156 -0.083420709 1.251 4280296994
0.081988513 -0.083487384 1.2520001 4280296996
0.085343897 -0.083420709 1.251 4280296737
0.089119546 -0.083754115 1.256 4280296483
0.092775166 -0.08395417 1.2590001 4280428580
0.096752875 -0.084420957 1.266 4280692005
0.10061056 -0.08475437 1.271 4280494627
0.1042499 -0.084887736 1.273 4280692006
0.10790019 -0.085021101 1.2750001 4280494627
0.1111246 -0.084821053 1.2720001 4280165662
0.11442271 -0.084687687 1.2700001 4280494878
0.11743139 -0.084354267 1.2650001 4282008619
0.12089054 -0.084354267 1.2650001 4287338351
0.12425139 -0.084287591 1.2640001 4289049220
0.12861712 -0.084887736 1.273 4286943593
0.13334338 -0.085687935 1.2850001 4279903758
0.13866779 -0.086821549 1.302 4286615146
0.1456145 -0.088888727 1.3330001 4288982675
-0.13922368 -0.085563369 1.3380001 4281613374
-0.13485567 -0.085115731 1.3310001 4282337097
-0.13230047 -0.085819162 1.342 4283981922
-0.1279598 -0.085371524 1.335 4282731085
-0.12328497 -0.084668085 1.3240001 4281875776
-0.11948371 -0.084540188 1.322 4283455062
-0.11595633 -0.084604137 1.3230001 4283520855
-0.11174419 -0.084156498 1.3160001 4283257681
-0.10789904 -0.083964653 1.3130001 4282995279
-0.10407031 -0.083772808 1.3100001 4281481270
-0.10056481 -0.083836749 1.3110001 4281876028
-0.096536025 -0.083453059 1.3050001 4282599751
-0.092825003 -0.083325163 1.3030001 4282139200
-0.088713899 -0.082813576 1.2950001 4282007614
-0.085041173 -0.082685679 1.2930001 4281349684
-0.081946701 -0.083133318 1.3000001 4281152307
-0.078572743 -0.083325163 1.3030001 4281481272
-0.073685639 -0.081854343 1.2800001 4281547065
-0.070678957 -0.082429886 1.289 4281678651
-0.067102075 -0.08236593 1.2880001 4281744444
-0.063382573 -0.082110137 1.284 4281284663
-0.059591692 -0.081726447 1.2780001 4281087284
-0.056053091 -0.081662498 1.2770001 4280824110
-0.052561123 -0.081662498 1.2770001 4281020719
-0.049222857 -0.081918299 1.281 4280954926
-0.045969784 -0.08236593 1.2880001 4281086512
-0.042447735 -0.08236593 1.2880001 4281283883
-0.038865246 -0.082238033 1.286 4282205986
-0.035321176 -0.082174093 1.2850001 4290365573
-0.031782579 -0.082110137 1.284 4289510767
-0.028293487 -0.082174093 1.2850001 4289181561
-0.024779642 -0.082174093 1.2850001 4279837451
-0.02139819 -0.082685679 1.2930001 4280889385
-0.017945359 -0.083069369 1.299 4280560166
-0.014371069 -0.082941473 1.2970001 4280691754
-0.01076599 -0.082493827 1.2900001 4280625961
-0.007244084 -0.082557783 1.291 4280428582
-0.0037052019 -0.08236593 1.2880001 4280494373
-0.00018244241 -0.082046196 1.2830001 4280560168
0.0033103798 -0.081662498 1.2770001 4280691754
0.0068076756 -0.081726447 1.2780001 4280757545
0.010294317 -0.081662498 1.2770001 4280494373
0.013861857 -0.082110137 1.284 4280691752
0.017413558 -0.082301989 1.2870001 4281086510
0.020997932 -0.082557783 1.291 4281086510
0.024528183 -0.082557783 1.291 4281020717
0.027949765 -0.082238033 1.286 4280823338
0.031588688 -0.082557783 1.291 4280757545
0.034846913 -0.081918299 1.281 4280625959
0.038200133 -0.08159855 1.276 4280362787
0.041427992 -0.081086963 1.268 4280428580
0.044966161 -0.08121486 1.2700001 4280362787
0.048515271 -0.081342757 1.2720001 4280362787
0.052034441 -0.081406705 1.273 4280823338
0.055559084 -0.081470653 1.274 4281283891
0.05895016 -0.081342757 1.2720001 4281152305
0.06218306 -0.081023008 1.2670001 4280757547
0.065544054 -0.080895111 1.2650001 4280757545
0.068839565 -0.080703266 1.2620001 4280823338
0.072576933 -0.081023008 1.2670001 4280691752
0.075801492 -0.080767214 1.263 4280692006
0.079129674 -0.080639318 1.261 4280889131
0.082905322 -0.080959067 1.266 4280889131
0.086298987 -0.080895111 1.2650001 4280559916
0.089545272 -0.080703266 1.2620001 4278190080
0.092848845 -0.080575369 1.2600001 4280626213
0.096370757 -0.080639318 1.261 4280692005
0.099581495 -0.080447473 1.258 4280231455
0.10293961 -0.080383524 1.2570001 4280099868
0.10637689 -0.080383524 1.2570001 4280429087
0.10990154 -0.080447473 1.258 4282403892
0.11334155 -0.080447473 1.258 4286351974
0.11668873 -0.080383524 1.2570001 4288523646
0.12031715 -0.080511421 1.2590001 4288917634
0.12395649 -0.080639318 1.261 4286219619
0.12841505 -0.081278808 1.271 4280758303
0.13334338 -0.082174093 1.2850001 4281021224
0.13877429 -0.083325163 1.3030001 4280429588
0.14572375 -0.085307576 1.3340001 4290035116
-0.14320281 -0.082088239 1.3410001 4280561200
-0.13953583 -0.082088239 1.3410001 4280889652
-0.13556491 -0.081904598 1.3380001 4278190080
-0.1307231 -0.081170022 1.3260001 4281811267
-0.12642621 -0.080741525 1.319 4282599499
-0.12281939 -0.080741525 1.319 4281349432
-0.11957408 -0.080986381 1.3230001 4282467913
-0.11630692 -0.081231236 1.327 4282533706
-0.11208384 -0.080802739 1.3200001 4282468167
-0.10789904 -0.080374241 1.3130001 4282468935
-0.10367309 -0.079884522 1.3050001 4281547833
-0.099797726 -0.079639666 1.3010001 4280495147
-0.096388072 -0.079762094 1.3030001 4282732109
-0.093181208 -0.080068171 1.3080001 4278190080
-0.088987924 -0.079517238 1.299 4282731339
-0.084712319 -0.078843884 1.2880001 4281218100
-0.081442416 -0.07908874 1.2920001 4281415479
-0.077427015 -0.078599028 1.284 4281810237
-0.074318871 -0.079027526 1.291 4282007616
-0.070733786 -0.078966312 1.2900001 4281744444
-0.067206271 -0.078966312 1.2900001 4281482042
-0.063481301 -0.078721456 1.286 4281350456
-0.059964724 -0.078721456 1.286 4280626733
-0.05609699 -0.078231744 1.2780001 4280889903
-0.052684601 -0.078354172 1.2800001 4280955696
-0.049338128 -0.078599028 1.284 4280890155
-0.046041165 -0.078966312 1.2900001 4280955178
-0.042546604 -0.079027526 1.291 4280824844
-0.038986128 -0.078966312 1.2900001 4290497410
-0.035403639 -0.078843884 1.2880001 4289312869
-0.03180733 -0.078660242 1.2850001 4288983906
-0.028293487 -0.078660242 1.2850001 4288984173
-0.024798928 -0.078721456 1.286 4284443212
-0.021315444 -0.078843884 1.2880001 4280889385
-0.01780721 -0.078905098 1.289 4280889131
-0.014260268 -0.07878267 1.2870001 4280625961
-0.010740953 -0.07878267 1.2870001 4280494373
-0.0072160279 -0.078721456 1.286 4280494375
-0.0037052019 -0.078843884 1.2880001 4280560166
-0.00018244241 -0.078537814 1.2830001 4280494375
0.0033233413 -0.0784766 1.2820001 4280494373
0.0068343095 -0.078537814 1.2830001 4280560166
0.010334624 -0.0784766 1.2820001 4280494373
0.013786287 -0.07817053 1.2770001 4280494373
0.017305316 -0.078292958 1.279 4280691752
0.020802753 -0.078292958 1.279 4280954924
0.024357192 -0.0784766 1.2820001 4281218350
0.027732428 -0.078109317 1.276 4281152557
0.031221664 -0.078109317 1.276 4280890155
0.034574881 -0.077803247 1.271 4280824361
0.03811032 -0.077925675 1.273 4280955177
0.04159135 -0.077925675 1.273 4280955177
0.04507238 -0.077925675 1.273 4280823592
0.048515271 -0.077864461 1.2720001 4280626213
0.052034441 -0.077925675 1.273 4280494627
0.055559084 -0.077986889 1.274 4280428582
0.058996502 -0.077925675 1.273 4280560170
0.062330298 -0.077742033 1.2700001 4280560168
0.065699503 -0.077619605 1.268 4280691752
0.069003209 -0.077435955 1.2650001 4280626213
0.072462365 -0.077435955 1.2650001 4280560419
0.075861506 -0.077374749 1.2640001 4280363292
0.079882689 -0.077925675 1.273 4279573776
0.083298236 -0.077864461 1.2720001 4279639818
0.086776532 -0.077864461 1.2720001 4280297750
0.089332409 -0.077068672 1.2590001 4280363794
0.092775166 -0.077068672 1.2590001 4281548308
0.096065059 -0.076946244 1.2570001 4283588403
0.099660657 -0.077068672 1.2590001 4284970306
0.10293961 -0.076946244 1.2570001 4287076452
0.10629227 -0.07688503 1.256 4288720758
0.10990154 -0.077007458 1.258 4290102411
0.11325145 -0.076946244 1.2570001 4288193914
0.11678156 -0.077007458 1.258 4284903763
0.12050828 -0.0771911 1.261 4282863679
0.12434969 -0.077435955 1.2650001 4279902741
0.12922333 -0.078292958 1.279 4280757798
0.13406977 -0.07908874 1.2920001 4281349935
0.13962632 -0.080251813 1.3110001 4280626717
-0.14202815 -0.077777989 1.33 4280824372
-0.13818315 -0.07766103 1.3280001 4280692786
-0.13526094 -0.07807038 1.335 4280823859
-0.13121603 -0.077836461 1.3310001 4281350203
-0.1260428 -0.076900788 1.3150001 4281941569
-0.12235381 -0.076842308 1.314 4281678397
-0.11876067 -0.076842308 1.314 4281086260
-0.11525516 -0.076900788 1.3150001 4281612858
-0.1110649 -0.07649143 1.3080001 4281218100
-0.10724163 -0.076315992 1.3050001 4281679167
-0.10295811 -0.075789675 1.296 4281811007
-0.099490888 -0.075848155 1.2970001 4280692526
-0.096166149 -0.076023594 1.3000001 4280560940
-0.093751118 -0.076959267 1.3160001 4278190080
-0.089672968 -0.07654991 1.309 4281810237
-0.084843859 -0.075438797 1.2900001 4281481272
-0.081253305 -0.075380318 1.289 4280757549
-0.077849127 -0.075497277 1.291 4281020467
-0.074261308 -0.075438797 1.2900001 4281481018
-0.070733786 -0.075438797 1.2900001 4281678397
-0.066997878 -0.075204879 1.286 4281416249
-0.063481301 -0.075204879 1.286 4281482042
-0.059964724 -0.075204879 1.286 4280758317
-0.056184776 -0.074854001 1.2800001 4280626731
-0.052725766 -0.074912481 1.281 4280495143
-0.049453404 -0.075263359 1.2870001 4280626731
-0.046148237 -0.075614236 1.2930001 4280955431
-0.042645477 -0.075672716 1.294 4290167945
-0.039046574 -0.075555757 1.2920001 4288984423
-0.035403639 -0.075321838 1.2880001 4289246823
-0.03180733 -0.075146399 1.2850001 4289115241
-0.028293487 -0.075146399 1.2850001 4289049194
-0.024779642 -0.075146399 1.2850001 4290036108
-0.021282347 -0.075204879 1.286 4280231698
-0.017738137 -0.07508792 1.284 4280231708
-0.014215947 -0.07502944 1.2830001 4281218350
-0.010699225 -0.074970961 1.2820001 4281349682
-0.0071823606 -0.074854001 1.2800001 4281086764
-0.0036821882 -0.074854001 1.2800001 4281218096
-0.00018187361 -0.074795514 1.279 4281086764
0.0033129721 -0.074737042 1.2780001 4281152557
0.0068076756 -0.074737042 1.2780001 4281020971
0.01031044 -0.074795514 1.279 4280955177
0.013807878 -0.074795514 1.279 4280428834
0.017305316 -0.074795514 1.279 4280428834
0.020753959 -0.074620083 1.276 4280428834
0.024262194 -0.074678555 1.2770001 4280889385
0.027688961 -0.074503124 1.274 4281218350
0.031197194 -0.074561596 1.2750001 4280692773
0.034602087 -0.074386165 1.2720001 4280693288
0.038080383 -0.074386165 1.2720001 4280693288
0.04159135 -0.074444637 1.273 4280692775
0.04507238 -0.074444637 1.273 4280429603
0.048553411 -0.074444637 1.273 4280297247
0.052075319 -0.074503124 1.274 4279573524
0.055515472 -0.074444637 1.273 4279376145
0.05895016 -0.074386165 1.2720001 4279376145
0.062330298 -0.074269205 1.2700001 4279639569
0.065803126 -0.074269205 1.2700001 4279310602
0.069112308 -0.074093767 1.2670001 4281416231
0.072519653 -0.074035287 1.266 4283785030
0.075921521 -0.073976807 1.2650001 4285693277
0.079443432 -0.074035287 1.266 4289048969
0.082905322 -0.074035287 1.266 4290233997
0.086162545 -0.073859848 1.263 4289707651
0.089261457 -0.073567443 1.258 4289971077
0.092701472 -0.073567443 1.258 4290365583
0.096141487 -0.073567443 1.258 4290365332
0.099818975 -0.073742889 1.261 4290102160
0.1031853 -0.073684402 1.2600001 4288983679
0.10646152 -0.073567443 1.258 4284641091
0.10990154 -0.073567443 1.258 4281219101
0.11325145 -0.07350897 1.2570001 4280231704
0.11715289 -0.073801361 1.2620001 4279902489
0.12089054 -0.073976807 1.2650001 4280099868
0.1257259 -0.074795514 1.279 4280692005
0.13043575 -0.075497277 1.291 4280692259
0.13489993 -0.076023594 1.3000001 4281942324
0.14015885 -0.076959267 1.3160001 4281942573
-0.1384953 -0.07419683 1.3310001 4281350203
-0.13515963 -0.074364066 1.3340001 4281087030
-0.1308217 -0.073973849 1.327 4280955444
-0.1268096 -0.073750868 1.3230001 4278190080
-0.12151577 -0.072747454 1.3050001 4281481272
-0.11794724 -0.072747454 1.3050001 4281020467
-0.11394046 -0.072468735 1.3000001 4280889135
-0.11030069 -0.072412983 1.299 4281087284
-0.10641985 -0.072190002 1.2950001 4281547581
-0.103117 -0.072357245 1.2980001 4281679421
-0.099490888 -0.072301492 1.2970001 4280955698
-0.096166149 -0.072468735 1.3000001 4280429100
-0.092468813 -0.072357245 1.2980001 4280626733
-0.089330442 -0.072691716 1.304 4281612858
-0.084975399 -0.072022766 1.2920001 4281547065
-0.081064202 -0.071688294 1.286 4280889135
-0.078030027 -0.072134256 1.294 4281020721
-0.074606709 -0.072245747 1.296 4281349686
-0.070788622 -0.071967028 1.291 4281021491
-0.066997878 -0.071688294 1.286 4281942593
-0.063530661 -0.071744047 1.2870001 4281679421
-0.060011346 -0.071744047 1.2870001 4280758317
-0.056579825 -0.071855538 1.289 4280692524
-0.052931562 -0.071688294 1.286 4280626729
-0.049568683 -0.071911275 1.2900001 4280626729
-0.046219617 -0.072190002 1.2950001 4280101392
-0.042711385 -0.072245747 1.296 4290431627
-0.03913724 -0.072190002 1.2950001 4289313647
-0.035541076 -0.072078511 1.2930001 4288918376
-0.031931095 -0.071911275 1.2900001 4289246573
-0.028359542 -0.071799785 1.2880001 4289312620
-0.02481821 -0.071744047 1.2870001 4289312616
-0.021265795 -0.071632557 1.2850001 4290760315
-0.017751951 -0.071632557 1.2850001 4291089545
-0.014227026 -0.071576804 1.284 4290694800
-0.010724261 -0.071632557 1.2850001 4286615129
-0.0071935831 -0.071465313 1.2820001 4284312378
-0.0036879417 -0.071465313 1.2820001 4280890641
-0.00018215801 -0.071409576 1.281 4280824587
0.0033207489 -0.071409576 1.281 4279903233
0.0068236561 -0.071409576 1.281 4279705856
0.010334624 -0.071465313 1.2820001 4280100612
0.013851061 -0.071521066 1.2830001 4279442944
0.017318847 -0.07135383 1.2800001 4279508224
0.020753959 -0.071130849 1.276 4279705601
0.024262194 -0.071186587 1.2770001 4281021712
0.027732428 -0.071130849 1.276 4280627465
0.031246131 -0.071186587 1.2770001 4283588651
0.034656491 -0.071019359 1.274 4284312629
0.03814026 -0.071019359 1.274 4285431106
0.041722037 -0.071186587 1.2770001 4286878552
0.045249414 -0.07124234 1.2780001 4288918389
0.048705976 -0.071186587 1.2770001 4290826383
0.052157067 -0.071130849 1.276 4290497672
0.055602692 -0.071075097 1.2750001 4290826888
0.059089191 -0.071075097 1.2750001 4290629509
0.062477533 -0.070963606 1.273 4290366335
0.06606219 -0.071075097 1.2750001 4290103163
0.069439597 -0.070963606 1.273 4289445235
0.072863348 -0.070907868 1.2720001 4290629255
0.076341644 -0.070907868 1.2720001 4290497670
0.080070943 -0.071130849 1.276 4290365835
0.08369115 -0.07124234 1.2780001 4290299790
0.086981192 -0.071075097 1.2750001 4289971094
0.09039674 -0.071019359 1.274 4285496665
0.092848845 -0.070238918 1.2600001 4281877803
0.096370757 -0.070294671 1.261 4279639567
0.10021476 -0.070573397 1.266 4280100122
0.10375854 -0.070629142 1.2670001 4279770904
0.10705392 -0.070517652 1.2650001 4280034075
0.11051308 -0.070517652 1.2650001 4280165661
0.11415242 -0.070629142 1.2670001 4280165661
0.11900951 -0.071465313 1.2820001 4280494626
0.12337524 -0.071967028 1.291 4280231454
0.12769189 -0.072412983 1.299 4280099869
0.13195127 -0.072803199 1.3060001 4281218350
0.13624892 -0.073193423 1.3130001 4282139451
0.14143689 -0.074029595 1.3280001 4282073658
-0.13424775 -0.070239134 1.325 4281942339
-0.13062453 -0.070239134 1.325 4281482042
-0.1268096 -0.070133112 1.3230001 4280824112
-0.12216758 -0.069549993 1.312 4280824112
-0.1171338 -0.068701826 1.296 4281153077
-0.11332694 -0.068542793 1.2930001 4280495147
-0.10996105 -0.068648815 1.2950001 4280758065
-0.10715946 -0.069125913 1.304 4281350203
-0.103117 -0.068807848 1.2980001 4281744960
-0.0995676 -0.068807848 1.2980001 4281284409
-0.095796287 -0.068648815 1.2950001 4280560687
-0.092255093 -0.068648815 1.2950001 4280625709
-0.088919416 -0.068807848 1.2980001 4281283893
-0.085435793 -0.068860859 1.299 4281678138
-0.080938123 -0.068065695 1.284 4281415479
-0.07796973 -0.068542793 1.2930001 4280889135
-0.074606709 -0.068701826 1.296 4281678651
-0.070788622 -0.068436772 1.291 4281086514
-0.066945784 -0.068118706 1.2850001 4281152305
-0.063382573 -0.068065695 1.284 4281283891
-0.059778202 -0.067959674 1.2820001 4280691752
-0.056448143 -0.068171717 1.286 4280691754
-0.052931562 -0.068171717 1.286 4280758315
-0.049645536 -0.068489783 1.2920001 4280626983
-0.046255313 -0.068701826 1.296 4280101388
-0.042744342 -0.068754837 1.2970001 4290036869
-0.03913724 -0.068648815 1.2950001 4289182063
-0.035541076 -0.068542793 1.2930001 4289182063
-0.031931095 -0.068383761 1.2900001 4289247341
-0.02838156 -0.06833075 1.289 4289509997
-0.024856776 -0.06833075 1.289 4289904495
-0.021331994 -0.06833075 1.289 4290168176
-0.017793396 -0.068277739 1.2880001 4289839730
-0.014260268 -0.068224728 1.2870001 4290037364
-0.010740953 -0.068224728 1.2870001 4290037111
-0.0072104167 -0.068118706 1.2850001 4290037109
-0.0036936952 -0.068065695 1.284 4290365822
-0.0001825846 -0.068065695 1.284 4290233985
0.0033233413 -0.067959674 1.2820001 4290233217
0.0068289828 -0.067959674 1.2820001 4289970298
0.010350747 -0.068065695 1.284 4290233470
0.013905041 -0.068277739 1.2880001 4290825354
0.017372968 -0.068065695 1.284 4290628745
0.020786488 -0.06774763 1.2780001 4290497410
0.024281191 -0.06774763 1.2780001 4290168443
0.02779763 -0.067800641 1.279 4290037370
0.031319536 -0.067853652 1.2800001 4289840509
0.034765303 -0.06774763 1.2780001 4289774198
