# .PCD v0.7 - Point Cloud Data file format
VERSION 0.7
FIELDS x y z rgba
SIZE 4 4 4 4
TYPE F F F U
COUNT 1 1 1 1
WIDTH 1108
HEIGHT 1
VIEWPOINT 0 0 0 1 0 0 0
POINTS 1108
DATA ascii
0.10725534 0.075152569 1.4020001 4280297515
0.10831732 0.075045362 1.4000001 4280297515
0.10953231 0.075045362 1.4000001 4280165929
0.1108264 0.075098969 1.401 4280034343
0.11212224 0.075152569 1.4020001 4280165929
0.11333896 0.075152569 1.4020001 4280494894
0.11447397 0.075098969 1.401 4280889652
0.11568983 0.075098969 1.401 4281152824
0.12209693 0.070381828 1.3130001 4283258461
0.12333027 0.070435435 1.314 4283455840
0.12456535 0.070489034 1.3150001 4283784805
0.12561096 0.070435435 1.314 4284114028
0.12665486 0.070381828 1.3130001 4284311408
0.12750237 0.070221014 1.3100001 4284377201
0.12854105 0.070167415 1.309 4284442737
0.12957799 0.070113815 1.3080001 4284442736
0.13051328 0.070006602 1.3060001 4284574321
0.13164668 0.070006602 1.3060001 4284705907
0.13278009 0.070006602 1.3060001 4284771700
0.13401605 0.070060201 1.307 4284969079
0.13504691 0.070006602 1.3060001 4285100665
0.1362846 0.070060201 1.307 4285232251
0.13762917 0.070167415 1.309 4285363837
0.13876517 0.070167415 1.309 4285429630
0.14000808 0.070221014 1.3100001 4285561216
0.14114496 0.070221014 1.3100001 4285627009
0.14228183 0.070221014 1.3100001 4285561217
0.14341871 0.070221014 1.3100001 4285561218
0.1445556 0.070221014 1.3100001 4285758597
0.14580369 0.070274621 1.3110001 4285758597
0.14694144 0.070274621 1.3110001 4285692804
0.14841804 0.070435435 1.314 4285626755
0.1495584 0.070435435 1.314 4285429377
0.15081345 0.070489034 1.3150001 4285231998
0.15207022 0.070542648 1.3160001 4285166205
0.15332873 0.070596248 1.317 4285100412
0.15447168 0.070596248 1.317 4285034619
0.15573281 0.070649847 1.3180001 4284837240
0.15687664 0.070649847 1.3180001 4284639861
0.15790056 0.070596248 1.317 4284508532
0.15904352 0.070596248 1.317 4284574581
0.16140278 0.07113228 1.327 4284574580
0.16243191 0.07107868 1.3260001 4284442994
0.16358268 0.07107868 1.3260001 4284442994
0.16498192 0.071185887 1.3280001 4284574323
0.16625951 0.071239494 1.3290001 4284705908
0.16753887 0.071293093 1.33 4284574321
0.16907361 0.071453907 1.3330001 4284442735
0.17023046 0.071453907 1.3330001 4284376942
0.17151587 0.071507514 1.3340001 4284179562
0.17267358 0.071507514 1.3340001 4283916389
0.17357068 0.0714003 1.332 4283718753
0.17459548 0.0713467 1.3310001 4283455579
0.17522241 0.07113228 1.327 4283981923
0.17610823 0.071025081 1.325 4288653225
0.17699055 0.070917867 1.3230001 4294245114
0.17800409 0.070864268 1.322 4294705151
0.17915137 0.070864268 1.322 4294639615
0.18029867 0.070864268 1.322 4294639615
0.18144597 0.070864268 1.322 4294705151
0.18259327 0.070864268 1.322 4294639359
0.18387954 0.070917867 1.3230001 4294704895
0.1850277 0.070917867 1.3230001 4294836223
0.18617587 0.070917867 1.3230001 4294835967
0.18718246 0.070864268 1.322 4294901247
0.18832976 0.070864268 1.322 4294835455
0.18933372 0.070810661 1.3210001 4294835455
0.19048014 0.070810661 1.3210001 4293914097
0.19162658 0.070810661 1.3210001 4289308333
0.192773 0.070810661 1.3210001 4284505701
0.19406623 0.070864268 1.322 4285032301
0.19521353 0.070864268 1.322 4288256414
0.19650935 0.070917867 1.3230001 4291875286
0.19855392 0.071239494 1.3290001 4288783015
0.20000783 0.0713467 1.3310001 4282664266
0.20161635 0.071507514 1.3340001 4280953906
-0.052020397 0.074454553 1.3670001 4284967796
-0.050759673 0.074345626 1.365 4284309866
-0.049248189 0.07385543 1.3560001 4282731088
-0.048035935 0.073800966 1.355 4282204744
-0.04682542 0.073746502 1.3540001 4282928465
-0.04558292 0.073637567 1.3520001 4284639083
-0.044409588 0.073637567 1.3520001 4287336595
-0.043204278 0.073583104 1.3510001 4290428866
-0.042062923 0.073637567 1.3520001 4291744725
-0.040889591 0.073637567 1.3520001 4292139484
-0.039745633 0.073692031 1.353 4290297281
-0.038656957 0.07385543 1.3560001 4281744191
-0.037507799 0.073909894 1.3570001 4279770400
-0.036356896 0.073964357 1.358 4279836194
-0.035281979 0.074182227 1.3620001 4283323223
-0.034125004 0.074236691 1.363 4285165427
-0.032966293 0.074291155 1.3640001 4286349958
-0.031829149 0.07440009 1.3660001 4287271059
-0.030643666 0.07440009 1.3660001 4287600538
-0.029458184 0.07440009 1.3660001 4286942608
-0.028314097 0.074509017 1.368 4284903025
-0.02712688 0.074509017 1.368 4282205512
-0.025939662 0.074509017 1.368 4280626226
-0.024770539 0.074563481 1.3690001 4280757812
-0.023582453 0.074563481 1.3690001 4280823607
-0.022394368 0.074563481 1.3690001 4280692021
-0.021221774 0.074617945 1.3700001 4280692021
-0.020032819 0.074617945 1.3700001 4280757814
-0.018857621 0.074672416 1.3710001 4280757814
-0.017680686 0.07472688 1.3720001 4280823607
-0.016502017 0.074781343 1.373 4280757814
-0.01531046 0.074781343 1.373 4280692021
-0.014129185 0.074835815 1.3740001 4280626228
-0.012936761 0.074835815 1.3740001 4280560435
-0.011744336 0.074835815 1.3740001 4280560435
-0.010551911 0.074835815 1.3740001 4280560434
-0.0093594864 0.074835815 1.3740001 4280429360
-0.008167062 0.074835815 1.3740001 4280363567
-0.0069746366 0.074835815 1.3740001 4280297773
-0.0057822121 0.074835815 1.3740001 4280297773
-0.004586447 0.074781343 1.373 4280363566
-0.0033973625 0.074835815 1.3740001 4280363823
-0.0022065425 0.074890278 1.3750001 4280363821
-0.00101325 0.074890278 1.3750001 4280232235
0.00018030456 0.074999213 1.3770001 4280232235
0.0013753328 0.074999213 1.3770001 4280232235
0.0025722277 0.075053677 1.378 4280100649
0.0037681239 0.075053677 1.378 4280100649
0.0049640201 0.075053677 1.378 4280298028
0.0061554462 0.074999213 1.3770001 4280298028
0.0073558125 0.075053677 1.378 4280232235
0.0085517084 0.075053677 1.378 4280166442
0.0097546792 0.075108141 1.3790001 4280232235
0.010967325 0.075217068 1.381 4280232235
0.012174635 0.075271532 1.3820001 4280232235
0.013374003 0.075271532 1.3820001 4280232235
0.01459446 0.075380467 1.3840001 4280297772
0.015806977 0.075434938 1.3850001 4280363565
0.017021228 0.075489402 1.386 4280429358
0.018237216 0.075543866 1.3870001 4280363308
0.019440923 0.075543866 1.3870001 4280297771
0.020644629 0.075543866 1.3870001 4280297515
0.021895593 0.075707264 1.3900001 4280363308
0.023118524 0.075761728 1.391 4280363308
0.024343189 0.075816192 1.3920001 4280232235
0.025569592 0.075870655 1.393 4280166442
0.026759282 0.075816192 1.3920001 4280100649
0.027947236 0.075761728 1.391 4280100649
0.029070577 0.075543866 1.3870001 4280231978
0.030252457 0.075489402 1.386 4280363565
0.031409904 0.075380467 1.3840001 4280560687
0.032611009 0.075380467 1.3840001 4280560687
0.033812113 0.075380467 1.3840001 4280626480
0.035063811 0.075489402 1.386 4280560687
0.036318988 0.075598337 1.388 4280560686
0.037577629 0.075707264 1.3900001 4280626479
0.040047787 0.075816192 1.3920001 4280363307
0.041344747 0.07597959 1.3950001 4280297514
0.042555399 0.07597959 1.3950001 4280363307
0.043766048 0.07597959 1.3950001 4280363307
0.044944454 0.075925127 1.3940001 4280297514
0.046154235 0.075925127 1.3940001 4280297001
0.047330044 0.075870655 1.393 4280362793
0.048573799 0.075925127 1.3940001 4280362794
0.04978358 0.075925127 1.3940001 4280297001
0.051066522 0.076034054 1.396 4280231208
0.052278042 0.076034054 1.396 4280165416
0.053527877 0.076088525 1.3970001 4280165160
0.054701075 0.076034054 1.396 4280230952
0.055912592 0.076034054 1.396 4280230952
0.057124112 0.076034054 1.396 4280165159
0.058252055 0.075925127 1.3940001 4280230952
0.059419177 0.075870655 1.393 4280230952
0.060584571 0.075816192 1.3920001 4280165416
0.061703831 0.075707264 1.3900001 4280099879
0.062955409 0.075761728 1.391 4279968550
0.064162582 0.075761728 1.391 4279968550
0.065369762 0.075761728 1.391 4279968550
0.066576943 0.075761728 1.391 4279902757
0.067784116 0.075761728 1.391 4279902757
0.068991296 0.075761728 1.391 4279968550
0.070198476 0.075761728 1.391 4279968550
0.071456984 0.075816192 1.3920001 4280034343
0.07261283 0.075761728 1.391 4280034343
0.07382001 0.075761728 1.391 4280034343
0.074919313 0.075652801 1.3890001 4280034086
0.07612475 0.075652801 1.3890001 4280099622
0.077330194 0.075652801 1.3890001 4279968550
0.078535639 0.075652801 1.3890001 4279968550
0.079741083 0.075652801 1.3890001 4279968550
0.08094652 0.075652801 1.3890001 4280034343
0.082092822 0.075598337 1.388 4280100136
0.083297394 0.075598337 1.388 4280034343
0.084441088 0.075543866 1.3870001 4280034343
0.085521303 0.075434938 1.3850001 4279968550
0.086598039 0.075326003 1.383 4279902757
0.087480858 0.075053677 1.378 4279968550
0.088483699 0.074890278 1.3750001 4280100136
0.089611769 0.074835815 1.3740001 4280100136
0.090804189 0.074835815 1.3740001 4280100136
0.092197485 0.074999213 1.3770001 4280100136
0.093528159 0.075108141 1.3790001 4280034343
0.094862305 0.075217068 1.381 4279968550
0.097752295 0.075598337 1.388 4279902757
0.099170752 0.075761728 1.391 4279968550
0.10052225 0.075870655 1.393 4280034343
0.10216935 0.076197453 1.399 4280034343
0.10345737 0.076251924 1.4000001 4280034343
0.10482189 0.076360844 1.4020001 4280100136
0.10588735 0.076251924 1.4000001 4280231722
0.10694933 0.076142989 1.3980001 4280297515
0.10800784 0.076034054 1.396 4280363308
0.1092976 0.076088525 1.3970001 4280297515
0.11058909 0.076142989 1.3980001 4280231722
0.11196229 0.076251924 1.4000001 4280231465
0.11325812 0.07630638 1.401 4280362795
0.11447397 0.07630638 1.401 4280494637
0.1154421 0.076142989 1.3980001 4280494637
0.11657191 0.076088525 1.3970001 4280494637
0.11769998 0.076034054 1.396 4280757553
0.11754862 0.075162604 1.3800001 4281284154
0.11848811 0.074999213 1.3770001 4281613120
0.11942239 0.074835815 1.3740001 4281744963
0.12052703 0.074781343 1.373 4281810500
0.12162993 0.07472688 1.3720001 4281810501
0.13101293 0.071404479 1.3110001 4284442735
0.13204989 0.071350008 1.3100001 4284508528
0.1330851 0.071295545 1.309 4284574321
0.13411857 0.071241081 1.3080001 4284705907
0.13535713 0.071295545 1.309 4284837493
0.13649315 0.071295545 1.309 4285035128
0.13762917 0.071295545 1.309 4285166715
0.13876517 0.071295545 1.309 4285298300
0.13990119 0.071295545 1.309 4285495423
0.14082173 0.07118661 1.307 4285627009
0.141956 0.07118661 1.307 4285692802
0.1429808 0.071132146 1.3060001 4285758596
0.14400385 0.071077682 1.3050001 4285955976
0.14524762 0.071132146 1.3060001 4286021769
0.14638102 0.071132146 1.3060001 4285824390
0.1478533 0.071295545 1.309 4285627012
0.1489893 0.071295545 1.309 4285560963
0.15024002 0.071350008 1.3100001 4285363584
0.15149245 0.071404479 1.3110001 4285231998
0.15274662 0.071458943 1.312 4285231998
0.15400253 0.071513407 1.3130001 4285166205
0.15490569 0.071404479 1.3110001 4284968826
0.15604344 0.071404479 1.3110001 4284771447
0.15706131 0.071350008 1.3100001 4284574325
0.15856047 0.071513407 1.3130001 4284705911
0.15994322 0.071622334 1.3150001 4284706167
0.16259576 0.071785733 1.3180001 4284508787
0.16436075 0.072058067 1.3230001 4284640116
0.16575912 0.072166994 1.325 4284705909
0.16716096 0.072275922 1.327 4284574323
0.16869311 0.07243932 1.33 4284376943
0.16984734 0.07243932 1.33 4284311149
0.17113015 0.072493792 1.3310001 4284311148
0.17215583 0.07243932 1.33 4284047975
0.17317975 0.072384857 1.3290001 4283850338
0.1744643 0.07243932 1.33 4283455579
0.17535445 0.072330393 1.3280001 4283258200
0.17610823 0.072166994 1.325 4285889920
0.17712434 0.07211253 1.3240001 4291416017
0.17813872 0.072058067 1.3230001 4294376443
0.17928688 0.072058067 1.3230001 4294639359
0.18043505 0.072058067 1.3230001 4294705151
0.18158321 0.072058067 1.3230001 4294639359
0.18273138 0.072058067 1.3230001 4294573567
0.18401854 0.07211253 1.3240001 4294573567
0.18516757 0.07211253 1.3240001 4294704895
0.18631659 0.07211253 1.3240001 4294836223
0.18732403 0.072058067 1.3230001 4294901759
0.18832976 0.072003603 1.322 4294901503
0.18947704 0.072003603 1.322 4294835455
0.19048014 0.071949132 1.3210001 4294835455
0.19162658 0.071949132 1.3210001 4294835455
0.192773 0.071949132 1.3210001 4293124838
0.19406623 0.072003603 1.322 4289703604
0.19521353 0.072003603 1.322 4289045674
0.19650935 0.072058067 1.3230001 4287467155
0.19840454 0.072330393 1.3280001 4283124817
0.20000783 0.072493792 1.3310001 4280493354
0.20161635 0.07265719 1.3340001 4280296233
-0.052020397 0.075632669 1.3670001 4284441966
-0.050759673 0.075522013 1.365 4284113000
-0.04928451 0.075079396 1.3570001 4283323225
-0.048071384 0.075024061 1.3560001 4282270537
-0.046860002 0.07496874 1.355 4281809984
-0.04558292 0.074802756 1.3520001 4282138949
-0.044409588 0.074802756 1.3520001 4283783773
-0.043236256 0.074802756 1.3520001 4288060318
-0.042062923 0.074802756 1.3520001 4289836729
-0.040919833 0.074858077 1.353 4290626245
-0.039745633 0.074858077 1.353 4290757831
-0.038656957 0.075024061 1.3560001 4285560184
-0.037507799 0.075079396 1.3570001 4282994257
-0.036356896 0.075134717 1.358 4286481286
-0.035281979 0.075356036 1.3620001 4290757832
-0.034099966 0.075356036 1.3620001 4291876313
-0.032917958 0.075356036 1.3620001 4292468450
-0.031805847 0.075522013 1.365 4292929000
-0.030621234 0.075522013 1.365 4292863465
-0.02943662 0.075522013 1.365 4291547605
-0.028272701 0.075577341 1.3660001 4288258468
-0.027087221 0.075577341 1.3660001 4282797649
-0.025901739 0.075577341 1.3660001 4280823605
-0.024716256 0.075577341 1.3660001 4281020984
-0.023548001 0.075632669 1.3670001 4281020986
-0.022361651 0.075632669 1.3670001 4281020986
-0.021190792 0.075687997 1.368 4280824120
-0.020003574 0.075687997 1.368 4280955706
-0.018830111 0.075743325 1.3690001 4280889913
-0.017667798 0.075853981 1.3710001 4280889657
-0.016489998 0.075909302 1.3720001 4280757814
-0.01531046 0.07596463 1.373 4280757814
-0.014118902 0.07596463 1.373 4280560435
-0.012936761 0.076019965 1.3740001 4280626228
-0.011744336 0.076019965 1.3740001 4280626485
-0.010544232 0.07596463 1.373 4280560692
-0.0093526747 0.07596463 1.373 4280495153
-0.008167062 0.076019965 1.3740001 4280429360
-0.0069695604 0.07596463 1.373 4280363567
-0.0057780039 0.07596463 1.373 4280363567
-0.004586447 0.07596463 1.373 4280429360
-0.0033973625 0.076019965 1.3740001 4280495153
-0.0022049379 0.076019965 1.3740001 4280429614
-0.00101325 0.076075286 1.3750001 4280298028
0.00018030456 0.076185942 1.3770001 4280298028
0.0013753328 0.076185942 1.3770001 4280232235
0.0025703611 0.076185942 1.3770001 4280166442
0.0037681239 0.07624127 1.378 4280166442
0.0049604177 0.076185942 1.3770001 4280363821
0.0061509758 0.076130614 1.376 4280429614
0.0073504741 0.076185942 1.3770001 4280298028
0.0085517084 0.07624127 1.378 4280232235
0.0097546792 0.076296598 1.3790001 4280297515
0.010967325 0.076407254 1.381 4280297771
0.012165825 0.076407254 1.381 4280297772
0.013364324 0.076407254 1.381 4280363564
0.014583915 0.07651791 1.383 4280363308
0.01578415 0.07651791 1.383 4280363308
0.016996667 0.07657323 1.3840001 4280429101
0.018224066 0.076683894 1.386 4280297515
0.019426905 0.076683894 1.386 4280231722
0.020629745 0.076683894 1.386 4280231722
0.021879841 0.07684987 1.3890001 4280297515
0.023101903 0.076905198 1.3900001 4280297515
0.024325702 0.076960526 1.391 4280231722
0.025551235 0.077015854 1.3920001 4280166186
0.026740059 0.076960526 1.391 4280165929
0.027927145 0.076905198 1.3900001 4280100136
0.029049616 0.076683894 1.386 4280231722
0.030252457 0.076683894 1.386 4280429101
0.03138721 0.07651791 1.383 4280494894
0.032611009 0.07657323 1.3840001 4280429101
0.033812113 0.07657323 1.3840001 4280363308
0.035089113 0.076739214 1.3870001 4280297515
0.037550591 0.07684987 1.3890001 4280363307
0.040047787 0.077015854 1.3920001 4280231722
0.041344747 0.077181838 1.3950001 4280165928
0.042585902 0.077237159 1.396 4280231721
0.043766048 0.077181838 1.3950001 4280297257
0.044944454 0.07712651 1.3940001 4280297001
0.046121128 0.077071182 1.393 4280362537
0.047330044 0.077071182 1.393 4280428330
0.048538957 0.077071182 1.393 4280428330
0.049747869 0.077071182 1.393 4280362537
0.051029943 0.077181838 1.3950001 4280362537
0.052240595 0.077181838 1.3950001 4280230952
0.053489558 0.077237159 1.396 4280165159
0.054701075 0.077237159 1.396 4280230952
0.055912592 0.077237159 1.396 4280230952
0.057124112 0.077237159 1.396 4280165159
0.058252055 0.07712651 1.3940001 4280165159
0.059419177 0.077071182 1.393 4280165159
0.060584571 0.077015854 1.3920001 4280165159
0.061748229 0.076960526 1.391 4280165159
0.06291014 0.076905198 1.3900001 4280099623
0.064116456 0.076905198 1.3900001 4280099623
0.065322764 0.076905198 1.3900001 4280034087
0.066529073 0.076905198 1.3900001 4279968550
0.067735381 0.076905198 1.3900001 4280034343
0.06894169 0.076905198 1.3900001 4280034343
0.070198476 0.076960526 1.391 4280034343
0.071405657 0.076960526 1.391 4280034343
0.07261283 0.076960526 1.391 4280034343
0.073766932 0.076905198 1.3900001 4280034343
0.074919313 0.07684987 1.3890001 4280099623
0.07612475 0.07684987 1.3890001 4280165159
0.077330194 0.07684987 1.3890001 4280099623
0.078535639 0.07684987 1.3890001 4280034086
0.079741083 0.07684987 1.3890001 4280099622
0.08094652 0.07684987 1.3890001 4280165416
0.082151964 0.07684987 1.3890001 4280100136
0.083357409 0.07684987 1.3890001 4280034343
0.084501974 0.07679455 1.388 4280034343
0.085521303 0.076628566 1.3850001 4279968550
0.086598039 0.07651791 1.383 4279968550
0.087417372 0.076185942 1.3770001 4280034343
0.088483699 0.076075286 1.3750001 4280100136
0.089611769 0.076019965 1.3740001 4280100136
0.090804189 0.076019965 1.3740001 4280100136
0.092130527 0.076130614 1.376 4280100136
0.093460336 0.07624127 1.378 4280034343
0.09479361 0.076351926 1.3800001 4279968550
0.097822718 0.07684987 1.3890001 4279902757
0.099170752 0.076960526 1.391 4279968550
0.10052225 0.077071182 1.393 4280034343
0.10216935 0.077403143 1.399 4280034343
0.10345737 0.077458479 1.4000001 4280034343
0.10474712 0.077513799 1.401 4280100136
0.10581171 0.077403143 1.399 4280165929
0.10687283 0.077292494 1.3970001 4280231722
0.10793047 0.077181838 1.3950001 4280231722
0.10921936 0.077237159 1.396 4280297258
0.11050998 0.077292494 1.3970001 4280297258
0.11180235 0.077347822 1.3980001 4280362795
0.1130156 0.077347822 1.3980001 4280494124
0.11422884 0.077347822 1.3980001 4280494124
0.11527695 0.077237159 1.396 4280494124
0.11640502 0.077181838 1.3950001 4280494124
0.11753136 0.07712651 1.3940001 4280362538
0.1176338 0.076407254 1.381 4280428588
0.11874626 0.076351926 1.3800001 4280757553
0.1195093 0.076075286 1.3750001 4280955446
0.12070259 0.076075286 1.3750001 4281152569
0.12180724 0.076019965 1.3740001 4281349948
0.13121282 0.072644979 1.3130001 4283982184
0.1322515 0.072589658 1.312 4284047977
0.13339011 0.072589658 1.312 4284245356
0.13442619 0.07253433 1.3110001 4284376942
0.13556394 0.07253433 1.3110001 4284508784
0.13670169 0.07253433 1.3110001 4284706420
0.13783944 0.07253433 1.3110001 4284969592
0.13897718 0.07253433 1.3110001 4285100921
0.14000808 0.072478995 1.3100001 4285166458
0.14092946 0.072368346 1.3080001 4285298044
0.141956 0.072313018 1.307 4285561216
0.1429808 0.07225769 1.3060001 4285758595
0.14400385 0.072202362 1.3050001 4285890182
0.1451364 0.072202362 1.3050001 4285955976
0.14638102 0.07225769 1.3060001 4285824390
0.14774033 0.072368346 1.3080001 4285692805
0.1489893 0.072423674 1.309 4285626756
0.15012532 0.072423674 1.309 4285429377
0.1513769 0.072478995 1.3100001 4285297791
0.15274662 0.072589658 1.312 4285231998
0.15388523 0.072589658 1.312 4285166205
0.15490569 0.07253433 1.3110001 4285100412
0.15592442 0.072478995 1.3100001 4284837240
0.15706131 0.072478995 1.3100001 4284705654
0.15856047 0.072644979 1.3130001 4284771447
0.15982158 0.072700314 1.314 4284837240
0.16234903 0.07281097 1.3160001 4284705653
0.16436075 0.073198259 1.3230001 4284705909
0.16563402 0.073253587 1.3240001 4284705909
0.16703498 0.073364243 1.3260001 4284574323
0.16856626 0.073530219 1.3290001 4284376943
0.16959193 0.073474899 1.3280001 4284245356
0.17074445 0.073474899 1.3280001 4284245355
0.17189695 0.073474899 1.3280001 4284113768
0.17304945 0.073474899 1.3280001 4283981924
0.17420195 0.073474899 1.3280001 4283718751
0.17535445 0.073474899 1.3280001 4283192407
0.17650697 0.073474899 1.3280001 4283652958
0.17765947 0.073474899 1.3280001 4287139730
0.1789466 0.073530219 1.3290001 4292205276
0.18009998 0.073530219 1.3290001 4294441980
0.18138973 0.073585548 1.33 4294508030
0.18268122 0.073640883 1.3310001 4294639358
0.18383633 0.073640883 1.3310001 4294639102
0.18499143 0.073640883 1.3310001 4294441981
0.1862864 0.073696204 1.332 4294441723
0.18744238 0.073696204 1.332 4294573052
0.18831517 0.073585548 1.33 4294704382
0.18946941 0.073585548 1.33 4294835711
0.19048032 0.073530219 1.3290001 4294901247
0.1914895 0.073474899 1.3280001 4294835455
0.19264202 0.073474899 1.3280001 4294901247
0.19364858 0.073419563 1.327 4294901247
0.19494702 0.073474899 1.3280001 4294572284
0.19624718 0.073530219 1.3290001 4292203994
0.19740056 0.073530219 1.3290001 4285822330
-0.052020397 0.076810777 1.3670001 4283060569
-0.050759673 0.076698408 1.365 4283323741
-0.04928451 0.076248892 1.3570001 4283520604
-0.048071384 0.076192699 1.3560001 4284112741
-0.046860002 0.076136507 1.355 4286744459
-0.045616634 0.07602413 1.353 4289310386
-0.044442434 0.07602413 1.353 4291481552
-0.043268234 0.07602413 1.353 4292600034
-0.042094033 0.07602413 1.353 4293060585
-0.040919833 0.07602413 1.353 4293389549
-0.039775014 0.076080322 1.3540001 4293323758
-0.038656957 0.076192699 1.3560001 4292336863
-0.037507799 0.076248892 1.3570001 4291613139
-0.036356896 0.076305076 1.358 4293126120
-0.035230167 0.076417461 1.36 4294244858
-0.034074929 0.076473646 1.3610001 4294310653
-0.032917958 0.076529838 1.3620001 4294573566
-0.031782549 0.076642215 1.3640001 4294179068
-0.030598802 0.076642215 1.3640001 4293652724
-0.029415056 0.076642215 1.3640001 4291284176
-0.028231308 0.076642215 1.3640001 4286218372
-0.027047561 0.076642215 1.3640001 4282139206
-0.025863815 0.076642215 1.3640001 4280955191
-0.024680069 0.076642215 1.3640001 4281349949
-0.023496322 0.076642215 1.3640001 4281152571
-0.022312576 0.076642215 1.3640001 4281152571
-0.021144321 0.076698408 1.365 4281152572
-0.019974329 0.076754592 1.3660001 4280955450
-0.018802602 0.076810777 1.3670001 4281021243
-0.017654913 0.076979347 1.3700001 4281086779
-0.016477978 0.077035539 1.3710001 4280955193
-0.015299308 0.077091731 1.3720001 4280889400
-0.014118902 0.077147916 1.373 4280692021
-0.012936761 0.077204108 1.3740001 4280823607
-0.011735789 0.077147916 1.373 4280692534
-0.010544232 0.077147916 1.373 4280626741
-0.0093526747 0.077147916 1.373 4280560948
-0.0081611183 0.077147916 1.373 4280626741
-0.0069695604 0.077147916 1.373 4280626739
-0.0057780039 0.077147916 1.373 4280626739
-0.004586447 0.077147916 1.373 4280626739
-0.0033973625 0.077204108 1.3740001 4280626739
-0.0022049379 0.077204108 1.3740001 4280626993
-0.00101325 0.077260293 1.3750001 4280626993
0.00018017362 0.077316485 1.376 4280561200
0.0013753328 0.077372678 1.3770001 4280429614
0.0025703611 0.077372678 1.3770001 4280363821
0.003762655 0.077316485 1.376 4280429614
0.0049568154 0.077316485 1.376 4280495407
0.0061509758 0.077316485 1.376 4280561200
0.0073504741 0.077372678 1.3770001 4280429614
0.0085517084 0.077428862 1.378 4280363821
0.0097476048 0.077428862 1.378 4280363564
0.010959384 0.077541247 1.3800001 4280363308
0.012157016 0.077541247 1.3800001 4280363308
0.013354648 0.077541247 1.3800001 4280429101
0.014562825 0.077597432 1.381 4280363308
0.015772738 0.077653617 1.3820001 4280297515
0.016972106 0.077653617 1.3820001 4280363308
0.018197769 0.077766001 1.3840001 4280231722
0.019398874 0.077766001 1.3840001 4280231722
0.020614861 0.077822194 1.3850001 4280297515
0.021848336 0.077934571 1.3870001 4280363308
0.023068663 0.077990763 1.388 4280297515
0.024290726 0.078046948 1.3890001 4280297515
0.025514524 0.078103133 1.3900001 4280297515
0.026720835 0.078103133 1.3900001 4280231722
0.027907053 0.078046948 1.3890001 4280165929
0.029049616 0.077878378 1.386 4280231722
0.03023063 0.077822194 1.3850001 4280297515
0.03138721 0.077709809 1.383 4280363308
0.032611009 0.077766001 1.3840001 4280297515
0.033812113 0.077766001 1.3840001 4280231722
0.035089113 0.077934571 1.3870001 4280165929
0.037550591 0.078046948 1.3890001 4280165929
0.03881184 0.078159325 1.391 4280165929
0.040047787 0.078215517 1.3920001 4280165929
0.041374385 0.078440271 1.396 4280100135
0.042585902 0.078440271 1.396 4280100135
0.043766048 0.078384086 1.3950001 4280231208
0.044944454 0.078327894 1.3940001 4280296744
0.046154235 0.078327894 1.3940001 4280362537
0.047330044 0.078271702 1.393 4280362537
0.048538957 0.078271702 1.393 4280362537
0.049747869 0.078271702 1.393 4280362537
0.050993364 0.078327894 1.3940001 4280362538
0.052203145 0.078327894 1.3940001 4280230952
0.053451244 0.078384086 1.3950001 4280165159
0.054701075 0.078440271 1.396 4280165159
0.055912592 0.078440271 1.396 4280165159
0.057124112 0.078440271 1.396 4280165159
0.058252055 0.078327894 1.3940001 4280099366
0.059461839 0.078327894 1.3940001 4280099366
0.060628094 0.078271702 1.393 4280165159
0.061748229 0.078159325 1.391 4280165159
0.06291014 0.078103133 1.3900001 4280165159
0.064116456 0.078103133 1.3900001 4280165159
0.065275773 0.078046948 1.3890001 4280099623
0.06648121 0.078046948 1.3890001 4280099623
0.067686655 0.078046948 1.3890001 4280034086
0.068892099 0.078046948 1.3890001 4279968550
0.070148006 0.078103133 1.3900001 4280034343
0.071354315 0.078103133 1.3900001 4280034343
0.072560623 0.078103133 1.3900001 4280034343
0.073766932 0.078103133 1.3900001 4280100136
0.074919313 0.078046948 1.3890001 4280165416
0.07612475 0.078046948 1.3890001 4280165159
0.077330194 0.078046948 1.3890001 4280165159
0.078592174 0.078103133 1.3900001 4280099366
0.07979849 0.078103133 1.3900001 4280165159
0.081004798 0.078103133 1.3900001 4280296745
0.082211107 0.078103133 1.3900001 4280231209
0.083417416 0.078103133 1.3900001 4280165416
0.084501974 0.077990763 1.388 4280034343
0.085521303 0.077822194 1.3850001 4279968550
0.086660653 0.077766001 1.3840001 4279968550
0.087417372 0.077372678 1.3770001 4280034343
0.088483699 0.077260293 1.3750001 4280100136
0.089611769 0.077204108 1.3740001 4280100136
0.090804189 0.077204108 1.3740001 4280034343
0.092130527 0.077316485 1.376 4280034343
0.093460336 0.077428862 1.378 4280100136
0.09479361 0.077541247 1.3800001 4280034343
0.097822718 0.078046948 1.3890001 4279968550
0.099170752 0.078159325 1.391 4279968550
0.10052225 0.078271702 1.393 4279968550
0.10209632 0.078552648 1.3980001 4280034343
0.10338347 0.078608841 1.399 4280034343
0.10467236 0.078665033 1.4000001 4280034343
0.10573608 0.078552648 1.3980001 4280100136
0.10664333 0.078327894 1.3940001 4280100136
0.10777573 0.078271702 1.393 4280034343
0.10906289 0.078327894 1.3940001 4280165416
0.11027267 0.078327894 1.3940001 4280296745
0.11156242 0.078384086 1.3950001 4280362538
0.11277308 0.078384086 1.3950001 4280362538
0.11398371 0.078384086 1.3950001 4280494124
0.1151118 0.078327894 1.3940001 4280428331
0.11623813 0.078271702 1.393 4280428331
0.11736274 0.078215517 1.3920001 4280362538
0.11780416 0.077709809 1.383 4280362538
0.1188323 0.077597432 1.381 4280428331
0.11959622 0.077316485 1.376 4280297259
0.12079038 0.077316485 1.376 4280429101
0.12189589 0.077260293 1.3750001 4280626481
0.13141267 0.073888935 1.3150001 4282863702
0.13255391 0.073888935 1.3150001 4283061082
0.13359344 0.07383275 1.314 4283521633
0.13463128 0.073776558 1.3130001 4283785061
0.13577075 0.073776558 1.3130001 4284048490
0.13691024 0.073776558 1.3130001 4284311662
0.13804974 0.073776558 1.3130001 4284574834
0.13908321 0.073720373 1.312 4284706163
0.14011493 0.073664181 1.3110001 4284771700
0.14103721 0.073551804 1.309 4284969078
0.1420646 0.073495612 1.3080001 4285232250
0.14309028 0.073439419 1.307 4285429629
0.14400385 0.07332705 1.3050001 4285561216
0.1451364 0.07332705 1.3050001 4285627010
0.14626893 0.07332705 1.3050001 4285627011
0.1476274 0.073439419 1.307 4285627011
0.14887549 0.073495612 1.3080001 4285561218
0.15012532 0.073551804 1.309 4285363583
0.15126133 0.073551804 1.309 4285231998
0.1526302 0.073664181 1.3110001 4285166205
0.15376794 0.073664181 1.3110001 4285100412
0.15478754 0.073607989 1.3100001 4285034619
0.15580539 0.073551804 1.309 4284968826
0.15694141 0.073551804 1.309 4284903033
0.15843971 0.073720373 1.312 4284903033
0.15969996 0.073776558 1.3130001 4284837240
0.16108444 0.073888935 1.3150001 4284771447
0.16423652 0.074282266 1.322 4284705909
0.16550891 0.074338451 1.3230001 4284574323
0.16690902 0.074450836 1.325 4284442737
0.16831259 0.074563205 1.327 4284311150
0.16933651 0.07450702 1.3260001 4284179563
0.17048728 0.07450702 1.3260001 4284047977
0.17163806 0.07450702 1.3260001 4283982183
0.17278883 0.07450702 1.3260001 4283981925
0.17393959 0.07450702 1.3260001 4283784545
0.17535445 0.074619405 1.3280001 4283192407
0.17663987 0.07467559 1.3290001 4282731856
0.17779323 0.07467559 1.3290001 4283784287
0.17921589 0.074787967 1.3310001 4287468181
0.180371 0.074787967 1.3310001 4291678933
0.1816625 0.074844159 1.332 4293389552
0.18295573 0.074900344 1.3330001 4293521393
0.18425068 0.074956536 1.3340001 4293521391
0.1854084 0.074956536 1.3340001 4291876566
0.18670596 0.075012721 1.335 4290033849
0.18786454 0.075012721 1.335 4291020488
0.18873994 0.074900344 1.3330001 4293783280
0.18989679 0.074900344 1.3330001 4294835710
0.19091029 0.074844159 1.332 4294901503
0.19177788 0.074731775 1.33 4294901247
0.19293213 0.074731775 1.33 4294901247
0.19408637 0.074731775 1.33 4294835455
0.19538739 0.074787967 1.3310001 4294835455
0.19669017 0.074844159 1.332 4293651437
0.19784614 0.074844159 1.332 4287335569
-0.052058451 0.078045949 1.368 4282994776
-0.050796859 0.077931844 1.3660001 4283257691
-0.04935715 0.077532485 1.3590001 4285362808
-0.048142288 0.077475436 1.358 4290231489
-0.046963748 0.077475436 1.358 4292797156
-0.04571778 0.07736133 1.3560001 4293850100
-0.044540975 0.07736133 1.3560001 4294573823
-0.043332193 0.077304281 1.355 4294639359
-0.042156257 0.077304281 1.355 4294508031
-0.041010566 0.07736133 1.3560001 4294639615
-0.039833762 0.07736133 1.3560001 4294508030
-0.038685467 0.077418387 1.3570001 4294573823
-0.037507799 0.077418387 1.3570001 4294639359
-0.036330126 0.077418387 1.3570001 4294573823
-0.035178356 0.077475436 1.358 4294639615
-0.033999819 0.077475436 1.358 4294573823
-0.032821279 0.077475436 1.358 4294113017
-0.031642739 0.077475436 1.358 4291547348
-0.030441768 0.077418387 1.3570001 4288455077
-0.029264098 0.077418387 1.3570001 4285494392
-0.028065728 0.07736133 1.3560001 4282599500
-0.026849266 0.077247232 1.3540001 4281217847
-0.02569316 0.077304281 1.355 4280691505
-0.024517223 0.077304281 1.355 4280888884
-0.023341289 0.077304281 1.355 4280625969
-0.022214426 0.077475436 1.358 4280560176
-0.021051379 0.077532485 1.3590001 4280560433
-0.019886594 0.077589542 1.36 4280428848
-0.017577592 0.077817746 1.3640001 4281152571
-0.016405866 0.077874795 1.365 4281020986
-0.0152324 0.077931844 1.3660001 4280955193
-0.014067486 0.078045949 1.368 4280889400
-0.012870852 0.077988893 1.3670001 4281020986
-0.01169305 0.078045949 1.368 4280889657
-0.010498153 0.077988893 1.3670001 4280889400
-0.0093118027 0.077988893 1.3670001 4280758327
-0.0081313979 0.078045949 1.368 4280758327
-0.00694418 0.078045949 1.368 4280824119
-0.0057569621 0.078045949 1.368 4280889912
-0.0045730849 0.078102998 1.3690001 4280889911
-0.0033874721 0.078160048 1.3700001 4280889911
-0.0022001234 0.078217104 1.3710001 4280890167
-0.0010110392 0.078274153 1.3720001 4280890167
0.00018004268 0.078445308 1.3750001 4280890165
0.0013733353 0.078445308 1.3750001 4280758579
0.0025684945 0.078502357 1.376 4280692786
0.003762655 0.078502357 1.376 4280692786
0.0049568154 0.078502357 1.376 4280758579
0.0061509758 0.078502357 1.376 4280692786
0.0073451363 0.078502357 1.376 4280561200
0.0085392967 0.078502357 1.376 4280495407
0.0097334571 0.078502357 1.376 4280560687
0.010935559 0.078559414 1.3770001 4280494894
0.012121778 0.078502357 1.376 4280429101
0.013315938 0.078502357 1.376 4280429101
0.014499554 0.078445308 1.3750001 4280429101
0.015692847 0.078445308 1.3750001 4280363308
0.016886139 0.078445308 1.3750001 4280297515
0.018105729 0.078559414 1.3770001 4280297515
0.019300757 0.078559414 1.3770001 4280297515
0.02051067 0.078616463 1.378 4280363308
0.021738071 0.078730561 1.3800001 4280429101
0.022935703 0.078730561 1.3800001 4280363308
0.024150822 0.07878761 1.381 4280363308
0.025386034 0.078901716 1.383 4280363308
0.026567046 0.078844659 1.3820001 4280297515
0.027766414 0.078844659 1.3820001 4280231722
0.02892386 0.078730561 1.3800001 4280231722
0.030121492 0.078730561 1.3800001 4280231722
0.031319123 0.078730561 1.3800001 4280231722
0.032516755 0.078730561 1.3800001 4280165929
0.033738818 0.07878761 1.381 4280165929
0.035013214 0.078958765 1.3840001 4280165929
0.036266651 0.07907287 1.386 4280165929
0.037550591 0.079244025 1.3890001 4280231722
0.03881184 0.079358131 1.391 4280231722
0.041315109 0.079529278 1.3940001 4280165928
0.042555399 0.079586327 1.3950001 4280165928
0.043828793 0.079700433 1.3970001 4280231208
0.045008935 0.079643376 1.396 4280296745
0.046187345 0.079586327 1.3950001 4280296745
0.047296066 0.07941518 1.3920001 4280296745
0.048469264 0.079358131 1.391 4280296744
0.04964073 0.079301074 1.3900001 4280296744
0.050847042 0.079301074 1.3900001 4280296745
0.052053351 0.079301074 1.3900001 4280230952
0.053297978 0.079358131 1.391 4280165159
0.054583527 0.079472221 1.393 4280230952
0.05579244 0.079472221 1.393 4280165159
0.057042275 0.079529278 1.3940001 4280165159
0.058210265 0.079472221 1.393 4280165159
0.059419177 0.079472221 1.393 4280165159
0.060584571 0.07941518 1.3920001 4280230952
0.061703831 0.079301074 1.3900001 4280230952
0.062864885 0.079244025 1.3890001 4280165159
0.063885823 0.079015821 1.3850001 4280099366
0.065087795 0.079015821 1.3850001 4280099366
0.06628976 0.079015821 1.3850001 4280099366
0.067491733 0.079015821 1.3850001 4280033830
0.068693705 0.079015821 1.3850001 4280033830
0.069895677 0.079015821 1.3850001 4280034343
0.071148977 0.07907287 1.386 4280034343
0.072351821 0.07907287 1.386 4280034343
0.073607728 0.079129919 1.3870001 4280100136
0.074865371 0.079186976 1.388 4280165416
0.076069951 0.079186976 1.388 4280165159
0.077274524 0.079186976 1.388 4280165159
0.078592174 0.079301074 1.3900001 4280165159
0.079855904 0.079358131 1.391 4280165159
0.081063077 0.079358131 1.391 4280230952
0.082270257 0.079358131 1.391 4280230952
0.083477437 0.079358131 1.391 4280230952
0.084623732 0.079301074 1.3900001 4280165416
0.085644796 0.079129919 1.3870001 4280099623
0.086785883 0.07907287 1.386 4279968550
0.087861754 0.078958765 1.3840001 4279968550
0.0886124 0.078559414 1.3770001 4280034343
0.089742206 0.078502357 1.376 4280034343
0.090804189 0.078388259 1.3740001 4280034343
0.092197485 0.078559414 1.3770001 4280034343
0.093528159 0.078673512 1.3790001 4280100136
0.094930999 0.078844659 1.3820001 4280034343
0.097822718 0.079244025 1.3890001 4279968550
0.099170752 0.079358131 1.391 4279968550
0.10052225 0.079472221 1.393 4279968550
0.10202329 0.079700433 1.3970001 4279968550
0.10330957 0.079757482 1.3980001 4280034343
0.10459759 0.079814531 1.399 4280034343
0.10550918 0.079586327 1.3950001 4280034343
0.10641382 0.079358131 1.391 4280034343
0.10731152 0.079129919 1.3870001 4280034343
0.10843699 0.07907287 1.386 4280034087
0.10963982 0.07907287 1.386 4280099879
0.11076269 0.079015821 1.3850001 4280165416
0.11196467 0.079015821 1.3850001 4280230952
0.11316664 0.079015821 1.3850001 4280296745
0.11428603 0.078958765 1.3840001 4280362538
0.11548713 0.078958765 1.3840001 4280362538
0.11668823 0.078958765 1.3840001 4280296745
0.1176338 0.07878761 1.381 4280230952
0.11874626 0.078730561 1.3800001 4280296745
0.11968314 0.078559414 1.3770001 4280231465
0.12087817 0.078559414 1.3770001 4280297515
0.1220732 0.078559414 1.3770001 4280363308
0.12308918 0.078445308 1.3750001 4280429101
0.12419209 0.078388259 1.3740001 4280560688
0.12529325 0.078331202 1.373 4280757811
0.12611632 0.078102998 1.3690001 4280955191
0.12721142 0.078045949 1.368 4281218363
0.12746005 0.077475436 1.358 4281481535
0.12863858 0.077475436 1.358 4281678914
0.12981713 0.077475436 1.358 4281679170
0.13847028 0.075136341 1.317 4284048489
0.13950725 0.075079292 1.3160001 4284179818
0.14064933 0.075079292 1.3160001 4284376940
0.14146818 0.07490813 1.3130001 4284705905
0.14249906 0.074851081 1.312 4285034870
0.14341871 0.074736983 1.3100001 4285166457
0.14411421 0.074508779 1.3060001 4285363837
0.14524762 0.074508779 1.3060001 4285429630
0.14638102 0.074508779 1.3060001 4285363838
0.14751443 0.074508779 1.3060001 4285298046
0.14876167 0.074565828 1.307 4285298046
0.15001063 0.074622884 1.3080001 4285166461
0.15126133 0.074679933 1.309 4285100668
0.15239735 0.074679933 1.309 4285100412
0.15353337 0.074679933 1.309 4285100412
0.15466937 0.074679933 1.309 4285034619
0.15580539 0.074679933 1.309 4285034619
0.15694141 0.074679933 1.309 4285100412
0.15831894 0.074794039 1.3110001 4285034619
0.15969996 0.07490813 1.3130001 4284968826
0.16096194 0.074965186 1.314 4284903033
0.16398804 0.075307496 1.3200001 4284771702
0.16538382 0.075421602 1.322 4284640116
0.16678305 0.0755357 1.3240001 4284376944
0.16805892 0.075592749 1.325 4284179565
0.16920882 0.075592749 1.325 4284113770
0.17023015 0.0755357 1.3240001 4283982184
0.17137918 0.0755357 1.3240001 4283916391
0.17265852 0.075592749 1.325 4283850597
0.17380843 0.075592749 1.325 4283652960
0.17535445 0.075763904 1.3280001 4283389531
0.17663987 0.075820953 1.3290001 4282929235
0.17792702 0.075878002 1.33 4282731599
0.1794852 0.076049156 1.3330001 4284112739
0.18077755 0.076106213 1.3340001 4286810252
0.18207166 0.076163262 1.335 4288652456
0.18336749 0.076220311 1.3360001 4288652456
0.18452694 0.076220311 1.3360001 4288060318
0.18582535 0.076277368 1.337 4285625977
0.18712553 0.076334417 1.3380001 4283059793
0.18828671 0.076334417 1.3380001 4283717723
0.18944789 0.076334417 1.3380001 4286481029
0.19032416 0.076220311 1.3360001 4291283661
0.19134028 0.076163262 1.335 4294507004
0.19221048 0.076049156 1.3330001 4294770175
0.19336732 0.076049156 1.3330001 4294770175
0.19452415 0.076049156 1.3330001 4294901759
0.1958278 0.076106213 1.3340001 4294835967
0.1969855 0.076106213 1.3340001 4293059558
0.19829175 0.076163262 1.335 4286677639
-0.052096505 0.079282843 1.3690001 4284902773
-0.050834049 0.079167008 1.3670001 4288521388
-0.049393468 0.078761622 1.36 4292073433
-0.048177741 0.078703709 1.3590001 4294047223
-0.046998333 0.078703709 1.3590001 4294639615
-0.045751497 0.078587882 1.3570001 4294639615
-0.044540975 0.078529969 1.3560001 4294639615
-0.043364171 0.078529969 1.3560001 4294573823
-0.042187367 0.078529969 1.3560001 4294639359
-0.041040812 0.078587882 1.3570001 4294573823
-0.039833762 0.078529969 1.3560001 4294639615
-0.038685467 0.078587882 1.3570001 4294639615
-0.037507799 0.078587882 1.3570001 4294573823
-0.036330126 0.078587882 1.3570001 4294508031
-0.035152454 0.078587882 1.3570001 4294442239
-0.033974782 0.078587882 1.3570001 4294310653
-0.032797113 0.078587882 1.3570001 4291613141
-0.031572837 0.078472055 1.355 4286810252
-0.030396901 0.078472055 1.355 4283717981
-0.029156271 0.078298315 1.3520001 4281941570
-0.027982939 0.078298315 1.3520001 4281086261
-0.026809607 0.078298315 1.3520001 4280954675
-0.025636274 0.078298315 1.3520001 4280823090
-0.024462942 0.078298315 1.3520001 4280757297
-0.023306837 0.078356229 1.353 4280559919
-0.02218171 0.078529969 1.3560001 4280888884
-0.021004908 0.078529969 1.3560001 4281415485
-0.019842727 0.078587882 1.3570001 4281546814
-0.018720074 0.078819536 1.3610001 4281020984
-0.017551819 0.078877449 1.3620001 4281086777
-0.016381826 0.078935362 1.363 4281218365
-0.0152101 0.078993276 1.3640001 4281020986
-0.014036637 0.079051189 1.365 4281152572
-0.012842607 0.078993276 1.3640001 4281218365
-0.01165886 0.078993276 1.3640001 4281152572
-0.010475114 0.078993276 1.3640001 4281086779
-0.0092913676 0.078993276 1.3640001 4281020986
-0.0081076212 0.078993276 1.3640001 4281020986
-0.0069289515 0.079051189 1.365 4281087292
-0.0057485458 0.079109102 1.3660001 4281153085
-0.0045630638 0.079109102 1.3660001 4281218876
-0.0033849995 0.079282843 1.3690001 4281218876
-0.0021985187 0.079340748 1.3700001 4281218876
-0.0010103023 0.079398669 1.3710001 4281153083
0.00017991175 0.079572402 1.3740001 4281087289
0.0013723365 0.079572402 1.3740001 4280955704
0.0025666279 0.079630315 1.3750001 4280890165
0.003762655 0.079688229 1.376 4280890165
0.0049568154 0.079688229 1.376 4281021751
0.0061509758 0.079688229 1.376 4280955958
0.0073451363 0.079688229 1.376 4280890165
0.0085392967 0.079688229 1.376 4280758579
0.0097334571 0.079688229 1.376 4280692529
0.010919676 0.079630315 1.3750001 4280626736
0.01211297 0.079630315 1.3750001 4280692273
0.013296584 0.079572402 1.3740001 4280626480
0.014478464 0.079514489 1.373 4280494894
0.01567002 0.079514489 1.373 4280363308
0.016861577 0.079514489 1.373 4280429101
0.018066283 0.079572402 1.3740001 4280429101
0.019258708 0.079572402 1.3740001 4280429101
0.020466017 0.079630315 1.3750001 4280429101
0.021690814 0.079746142 1.3770001 4280429101
0.022885842 0.079746142 1.3770001 4280429101
0.024098357 0.079804055 1.378 4280429101
0.02531261 0.079861969 1.3790001 4280429101
0.026509374 0.079861969 1.3790001 4280363308
0.027686046 0.079804055 1.378 4280363308
0.028881943 0.079804055 1.378 4280297515
0.030077839 0.079804055 1.378 4280297515
0.031273734 0.079804055 1.378 4280165929
0.03246963 0.079804055 1.378 4280231722
0.033689957 0.079861969 1.3790001 4280231722
0.034987915 0.080093622 1.383 4280231722
0.036240485 0.080209449 1.3850001 4280165929
0.037496526 0.080325268 1.3870001 4280231722
0.038728137 0.080383189 1.388 4280297515
0.041315109 0.080730662 1.3940001 4280165929
0.042555399 0.080788575 1.3950001 4280231722
0.043797418 0.080846488 1.396 4280297002
0.045008935 0.080846488 1.396 4280362538
0.046220452 0.080846488 1.396 4280296745
0.047296066 0.080614835 1.3920001 4280230952
0.048469264 0.080556929 1.391 4280230952
0.049605019 0.080441095 1.3890001 4280296745
0.050773881 0.080383189 1.388 4280296745
0.052015904 0.080441095 1.3890001 4280296745
0.053221345 0.080441095 1.3890001 4280230952
0.054505154 0.080556929 1.391 4280165159
0.055712335 0.080556929 1.391 4280165159
0.056960434 0.080614835 1.3920001 4280165159
0.058168478 0.080614835 1.3920001 4280230952
0.059376523 0.080614835 1.3920001 4280230952
0.060541049 0.080556929 1.391 4280296745
0.061659444 0.080441095 1.3890001 4280296745
0.062774368 0.080325268 1.3870001 4280230696
0.063839689 0.080151528 1.3840001 4280164903
0.06504079 0.080151528 1.3840001 4280164903
0.066194035 0.080093622 1.383 4280165159
0.067394271 0.080093622 1.383 4280165159
0.068594508 0.080093622 1.383 4280165159
0.069794744 0.080093622 1.383 4280165415
0.07109765 0.080209449 1.3850001 4280165416
0.072299622 0.080209449 1.3850001 4280034343
0.073554657 0.080267362 1.386 4280034343
0.074811429 0.080325268 1.3870001 4280165159
0.076015137 0.080325268 1.3870001 4280165159
0.077274524 0.080383189 1.388 4280165159
0.078592174 0.080499008 1.3900001 4280165159
0.079741083 0.080441095 1.3890001 4280165159
0.081004798 0.080499008 1.3900001 4280165159
0.082270257 0.080556929 1.391 4280165159
0.083417416 0.080499008 1.3900001 4280165159
0.084623732 0.080499008 1.3900001 4280230952
0.085644796 0.080325268 1.3870001 4280230952
0.086785883 0.080267362 1.386 4280034343
0.08792524 0.080209449 1.3850001 4279968550
0.088741101 0.079861969 1.3790001 4279968550
0.089807428 0.079746142 1.3770001 4280034343
0.09093637 0.079688229 1.376 4280034343
0.092264444 0.079804055 1.378 4280100136
0.093595982 0.079919882 1.3800001 4280100136
0.094930999 0.080035701 1.3820001 4280034343
0.097822718 0.080441095 1.3890001 4279968550
0.09909945 0.080499008 1.3900001 4280034343
0.10045009 0.080614835 1.3920001 4279968550
0.10195026 0.080846488 1.396 4279968550
0.10323568 0.080904402 1.3970001 4280034343
0.10452282 0.080962315 1.3980001 4280034343
0.10528228 0.080614835 1.3920001 4280034343
0.10633732 0.080499008 1.3900001 4280034343
0.10723415 0.080267362 1.386 4280034343
0.10835876 0.080209449 1.3850001 4280034343
0.10956072 0.080209449 1.3850001 4280100136
0.11060274 0.080093622 1.383 4280099880
0.11180298 0.080093622 1.383 4280165416
0.11300322 0.080093622 1.383 4280231208
0.11412088 0.080035701 1.3820001 4280296745
0.1152368 0.079977795 1.381 4280296745
0.1164353 0.079977795 1.381 4280230952
0.11746344 0.079861969 1.3790001 4280230952
0.11848811 0.079746142 1.3770001 4280296745
0.1195093 0.079630315 1.3750001 4280297258
0.12079038 0.079688229 1.376 4280297515
0.12198454 0.079688229 1.376 4280363308
0.12308918 0.079630315 1.3750001 4280363308
0.12419209 0.079572402 1.3740001 4280297515
0.12538451 0.079572402 1.3740001 4280363308
0.12620844 0.079340748 1.3700001 4280363309
0.1273044 0.079282843 1.3690001 4280428846
0.12755391 0.078703709 1.3590001 4280692018
0.12882803 0.078761622 1.36 4280955446
0.13000831 0.078761622 1.36 4281152825
0.13857543 0.076329276 1.3180001 4283127130
0.13961324 0.076271363 1.317 4283456095
0.1407562 0.076271363 1.317 4283916389
0.14168367 0.076155536 1.3150001 4284508526
0.14260767 0.076039709 1.3130001 4284969077
0.14363767 0.075981796 1.312 4285100664
0.14422455 0.075692229 1.307 4285166458
0.14535883 0.075692229 1.307 4285232251
0.14649312 0.075692229 1.307 4285100665
0.1476274 0.075692229 1.307 4285034872
0.14887549 0.07575015 1.3080001 4285100667
0.15012532 0.075808063 1.309 4285166460
0.15126133 0.075808063 1.309 4285166460
0.15251377 0.075865969 1.3100001 4285166204
0.15365066 0.075865969 1.3100001 4285100412
0.15478754 0.075865969 1.3100001 4285100412
0.15592442 0.075865969 1.3100001 4285166205
0.15706131 0.075865969 1.3100001 4285231998
0.15843971 0.075981796 1.312 4285166205
0.15969996 0.076039709 1.3130001 4285034619
0.16083945 0.076039709 1.3130001 4284968826
0.16361535 0.076271363 1.317 4284837495
0.1648834 0.076329276 1.3180001 4284640116
0.16627917 0.076445103 1.3200001 4284311151
0.16742472 0.076445103 1.3200001 4284113772
0.16844259 0.076387197 1.319 4284047979
0.16958728 0.076387197 1.319 4283916392
0.17086141 0.076445103 1.3200001 4283784805
0.17213729 0.076503016 1.3210001 4283719011
0.17509036 0.076792583 1.3260001 4283258203
0.17663987 0.076966323 1.3290001 4283060823
0.17806078 0.07708215 1.3310001 4282929237
0.18002379 0.077429622 1.337 4283060821
0.18145514 0.077545457 1.3390001 4283981666
0.18275356 0.077603363 1.34 4284375912
0.18432823 0.077777103 1.3430001 4283981153
0.18563189 0.077835016 1.3440001 4283520601
0.18679827 0.077835016 1.3440001 4283060050
0.18824436 0.077950843 1.3460001 4282796878
0.18941249 0.077950843 1.3460001 4283125586
0.19058061 0.077950843 1.3460001 4283651930
0.19146383 0.077835016 1.3440001 4285296498
0.19248688 0.077777103 1.3430001 4289309358
0.19336402 0.077661276 1.3410001 4293191144
-0.052172612 0.080580227 1.3710001 4287665567
-0.050871234 0.080403902 1.368 4293455344
-0.049611378 0.080286354 1.3660001 4294639359
-0.048213191 0.079933703 1.36 4294639359
-0.046998333 0.079874925 1.3590001 4294639615
-0.045785211 0.079816155 1.358 4294705151
-0.044573825 0.079757385 1.3570001 4294639359
-0.043396153 0.079757385 1.3570001 4294573823
-0.042187367 0.0796986 1.3560001 4294639615
-0.041040812 0.079757385 1.3570001 4294179067
-0.039863139 0.079757385 1.3570001 4292073691
-0.038713977 0.079816155 1.358 4290297280
-0.037507799 0.079757385 1.3570001 4290099902
-0.036330126 0.079757385 1.3570001 4290231487
-0.035100643 0.07963983 1.355 4290560455
-0.03392471 0.07963983 1.355 4290692041
-0.032748774 0.07963983 1.355 4288718249
-0.031526234 0.079522274 1.353 4285033841
-0.030329604 0.079463504 1.3520001 4282402121
-0.029091576 0.079287179 1.3490001 4281283640
-0.027920846 0.079287179 1.3490001 4281086261
-0.026750118 0.079287179 1.3490001 4281349433
-0.025579389 0.079287179 1.3490001 4282270535
-0.024426755 0.079345956 1.35 4284704876
-0.023255158 0.079345956 1.35 4285954944
-0.022132637 0.079522274 1.353 4288389285
-0.020973928 0.07958106 1.3540001 4289507767
-0.019813482 0.07963983 1.355 4288191907
