# .PCD v0.7 - Point Cloud Data file format
VERSION 0.7
FIELDS x y z rgba
SIZE 4 4 4 4
TYPE F F F U
COUNT 1 1 1 1
WIDTH 1109
HEIGHT 1
VIEWPOINT 0 0 0 1 0 0 0
POINTS 1109
DATA ascii
0.2173887 0.059953749 1.414 4294836222
-0.037936468 0.061302155 1.4170001 4293389552
-0.036654919 0.061215628 1.4150001 4294573823
-0.035401873 0.06117237 1.414 4294639615
-0.034005553 0.060869534 1.4070001 4294508030
-0.032761186 0.060826272 1.406 4291744727
-0.031473693 0.060696486 1.4030001 4288718248
-0.0302561 0.060696486 1.4030001 4287533975
-0.029038507 0.060696486 1.4030001 4287402389
-0.027801087 0.060653221 1.4020001 4285954943
-0.026584363 0.060653221 1.4020001 4284968564
-0.025367638 0.060653221 1.4020001 4284508013
-0.024150914 0.060653221 1.4020001 4284442220
-0.022934189 0.060653221 1.4020001 4284573806
-0.021717465 0.060653221 1.4020001 4284311149
-0.020456871 0.060523435 1.399 4284179563
-0.019228995 0.060480174 1.3980001 4283982184
-0.017964195 0.06030713 1.3940001 4283653219
-0.016766433 0.060350388 1.3950001 4283390047
-0.015555783 0.060350388 1.3950001 4283324254
-0.014345133 0.060350388 1.3950001 4283389532
-0.013153316 0.060436916 1.3970001 4283389532
-0.011949477 0.060480174 1.3980001 4282600270
-0.010743903 0.060523435 1.399 4283718751
-0.0095297825 0.060523435 1.399 4288191905
-0.008315661 0.060523435 1.399 4292665828
-0.0071015405 0.060523435 1.399 4294705151
-0.0058790031 0.060436916 1.3970001 4294508031
-0.0046666176 0.060436916 1.3970001 4294573823
-0.0034492873 0.060350388 1.3950001 4294639359
-0.0022354282 0.060263865 1.393 4293257964
-0.0010265143 0.060263865 1.393 4289770937
0.00018226866 0.060220603 1.3920001 4283783774
0.0013913135 0.060263865 1.393 4281678398
0.0026039607 0.060350388 1.3950001 4282204742
0.0038146102 0.060350388 1.3950001 4282796879
0.0050432715 0.060566701 1.4000001 4282599500
0.0062672007 0.060653221 1.4020001 4282204742
0.0074892635 0.060696486 1.4030001 4281941570
0.0087378854 0.060912799 1.4080001 4283125844
0.0099668903 0.060956057 1.409 4286613643
0.011197631 0.060999319 1.4100001 4288521640
0.012447727 0.061129104 1.4130001 4288061089
0.013673997 0.061129104 1.4130001 4285231990
0.014900268 0.061129104 1.4130001 4281481789
0.01612654 0.061129104 1.4130001 4281021238
0.01735281 0.061129104 1.4130001 4280890164
0.018579081 0.061129104 1.4130001 4281153336
0.01981937 0.06117237 1.414 4280824372
0.021061393 0.061215628 1.4150001 4281021751
0.022289399 0.061215628 1.4150001 4281153083
0.023583885 0.061388675 1.419 4281284669
0.024850339 0.061475199 1.4210001 4281416255
0.026120264 0.061561726 1.4230001 4281482048
0.027451333 0.061778031 1.4280001 4281482048
0.028710712 0.061821297 1.429 4281547841
0.029971829 0.061864555 1.4300001 4281547841
0.031234678 0.061907817 1.4310001 4281350462
0.032431182 0.061821297 1.429 4281284669
0.033647772 0.061778031 1.4280001 4281218876
0.034764908 0.061561726 1.4230001 4281021497
0.03594926 0.061475199 1.4210001 4280824118
0.037025478 0.061215628 1.4150001 4280824374
0.038280517 0.06125889 1.416 4280824117
0.039565194 0.061345413 1.4180001 4280758579
0.040824577 0.061388675 1.419 4280626993
0.042115331 0.061475199 1.4210001 4280561200
0.043348543 0.061475199 1.4210001 4280495407
0.044581756 0.061475199 1.4210001 4280429614
0.045911696 0.061604984 1.424 4280363821
0.047180623 0.061648246 1.4250001 4280298028
0.048451282 0.061691511 1.4260001 4280298028
0.049653992 0.061648246 1.4250001 4280166442
0.050854966 0.061604984 1.424 4280166442
0.0520542 0.061561726 1.4230001 4280363308
0.053289149 0.061561726 1.4230001 4280429101
0.054562416 0.061604984 1.424 4280429101
0.055837419 0.061648246 1.4250001 4280363308
0.057114158 0.061691511 1.4260001 4280494894
0.058392629 0.061734769 1.427 4280429101
0.05963105 0.061734769 1.427 4280494894
0.060741503 0.061604984 1.424 4280297515
0.061890271 0.061518461 1.4220001 4280165929
0.06303557 0.061431941 1.4200001 4280231722
0.063905843 0.061085843 1.4120001 4280165929
0.065038994 0.060999319 1.4100001 4280231722
0.065933697 0.060696486 1.4030001 4280297515
0.067055568 0.060609959 1.401 4280363309
0.06817396 0.060523435 1.399 4280757812
0.06918969 0.060350388 1.3950001 4281349949
0.070450805 0.06039365 1.396 4281810756
0.071662322 0.06039365 1.396 4282205771
0.07521461 0.058446866 1.3510001 4284377455
0.076273993 0.058360342 1.3490001 4284838006
0.077157676 0.058144029 1.3440001 4285101178
0.078207508 0.058057509 1.342 4285298557
0.079313017 0.058014244 1.3410001 4285364096
0.080176748 0.057797931 1.3360001 4285429889
0.081275307 0.057754673 1.335 4285495682
0.082372144 0.057711415 1.3340001 4285561475
0.083592467 0.057754673 1.335 4285495682
0.084751047 0.057754673 1.335 4285429889
0.085973978 0.057797931 1.3360001 4285364096
0.08726386 0.057884458 1.3380001 4285429889
0.08842504 0.057884458 1.3380001 4285364096
0.089586228 0.057884458 1.3380001 4285298303
0.090679586 0.0578412 1.337 4285298303
0.091839902 0.0578412 1.337 4285364096
0.093000218 0.0578412 1.337 4285429631
0.093949251 0.057711415 1.3340001 4285495424
0.095106959 0.057711415 1.3340001 4285364094
0.096192509 0.057668146 1.3330001 4285298044
0.097276315 0.057624888 1.332 4285298044
0.0983584 0.05758163 1.3310001 4285363837
0.099513501 0.05758163 1.3310001 4285429630
0.10074424 0.057624888 1.332 4285363837
0.10197672 0.057668146 1.3330001 4285232252
0.10313357 0.057668146 1.3330001 4285100667
0.10444688 0.057754673 1.335 4285034872
0.10568457 0.057797931 1.3360001 4285100921
0.10684402 0.057797931 1.3360001 4285100921
0.10824598 0.057927724 1.3390001 4284706420
0.10948974 0.057970986 1.34 4284508529
0.11073524 0.058014244 1.3410001 4284508530
0.11231624 0.058230557 1.3460001 4284640116
0.11356868 0.058273815 1.3470001 4284771702
0.11482286 0.05831708 1.348 4284640115
0.11616481 0.0584036 1.35 4284376942
0.11742333 0.058446866 1.3510001 4284048233
0.11859579 0.058446866 1.3510001 4283850853
0.12191682 0.057797931 1.3360001 4283192922
0.12289201 0.057711415 1.3340001 4282666578
0.12386374 0.057624888 1.332 4282206028
0.12501971 0.057624888 1.332 4282600786
0.1261757 0.057624888 1.332 4283784803
0.12742727 0.057668146 1.3330001 4284705905
0.12858412 0.057668146 1.3330001 4284705906
0.12974095 0.057668146 1.3330001 4284311148
0.13119239 0.057797931 1.3360001 4284179562
0.13245089 0.0578412 1.337 4284245099
0.13381109 0.057927724 1.3390001 4284179307
0.13664353 0.058144029 1.3440001 4284310893
0.13801499 0.058230557 1.3460001 4284442222
0.13938993 0.05831708 1.348 4284508016
0.14097688 0.058490127 1.3520001 4284573809
0.14215021 0.058490127 1.3520001 4284639603
0.14332354 0.058490127 1.3520001 4284770932
0.14449687 0.058490127 1.3520001 4284770676
0.14556247 0.058446866 1.3510001 4284704882
0.14662632 0.0584036 1.35 4284507247
0.14779791 0.0584036 1.35 4284310123
0.14896952 0.0584036 1.35 4284244330
0.15014111 0.0584036 1.35 4284112744
0.15131271 0.0584036 1.35 4283651936
0.1524843 0.0584036 1.35 4283915108
0.1536559 0.0584036 1.35 4285033588
0.15482749 0.0584036 1.35 4285560188
0.15611465 0.058446866 1.3510001 4284704622
0.15740353 0.058490127 1.3520001 4283783263
0.15869415 0.058533385 1.353 4283651677
0.15998651 0.058576651 1.3540001 4284178019
0.1612806 0.058619913 1.355 4286349188
0.16245654 0.058619913 1.355 4291020490
0.16375324 0.058663171 1.3560001 4294310138
0.16493005 0.058663171 1.3560001 4294704895
0.16635184 0.058749698 1.358 4294704895
0.16765374 0.058792956 1.3590001 4294704895
0.16883315 0.058792956 1.3590001 4290362815
0.17026275 0.058879483 1.3610001 4284836204
0.17144389 0.058879483 1.3610001 4283454551
0.17275189 0.058922749 1.3620001 4285691513
0.1741893 0.059009269 1.3640001 4291415502
0.17550163 0.059052534 1.365 4294705151
0.17681567 0.059095796 1.3660001 4294705151
0.17826177 0.05918232 1.368 4294705151
0.17944899 0.05918232 1.368 4291218123
0.18063621 0.05918232 1.368 4286744201
0.18235508 0.059355367 1.3720001 4288915370
0.18367955 0.059398625 1.373 4293455085
0.18514039 0.059485152 1.3750001 4294705151
0.18834528 0.059744723 1.381 4292468191
0.18968104 0.059787981 1.3820001 4288651942
0.19101852 0.059831247 1.383 4286875788
0.19263572 0.059961032 1.386 4288191648
0.19383857 0.059961032 1.386 4290099389
0.1950414 0.059961032 1.386 4290165182
0.19737695 0.06030713 1.3940001 4288388771
0.19872919 0.060350388 1.3950001 4287204496
0.19993983 0.060350388 1.3950001 4288520869
0.20100631 0.06030713 1.3940001 4291547090
0.20221609 0.06030713 1.3940001 4293718259
0.20342587 0.06030713 1.3940001 4294441981
0.20463565 0.06030713 1.3940001 4294113015
0.20584543 0.06030713 1.3940001 4293520621
0.20705521 0.06030713 1.3940001 4293125350
0.20856379 0.06039365 1.396 4293191143
0.20977531 0.06039365 1.396 4294046452
0.21113797 0.060436916 1.3970001 4294638845
0.2137184 0.060826272 1.406 4294836222
0.21539721 0.060956057 1.409 4294836222
0.21723495 0.061129104 1.4130001 4294836222
-0.03151856 0.061993871 1.4050001 4284112739
-0.030320795 0.062037997 1.406 4284112739
-0.029100599 0.062037997 1.406 4284178532
-0.027880404 0.062037997 1.406 4283849567
-0.026641248 0.061993871 1.4050001 4284244841
-0.025421919 0.061993871 1.4050001 4284310634
-0.024168137 0.061905626 1.4030001 4284508270
-0.022950545 0.061905626 1.4030001 4284574319
-0.021717465 0.0618615 1.4020001 4284508528
-0.020456871 0.061729129 1.399 4284245356
-0.019215241 0.061640885 1.3970001 4284047977
-0.01795131 0.061464388 1.393 4283916391
-0.016754415 0.061508514 1.3940001 4283850598
-0.015544632 0.061508514 1.3940001 4283850598
-0.014334851 0.061508514 1.3940001 4283981669
-0.013143899 0.061596759 1.396 4284047462
-0.01194093 0.061640885 1.3970001 4283981923
-0.010736224 0.061685007 1.3980001 4283718751
-0.0095229708 0.061685007 1.3980001 4284573290
-0.0083097173 0.061685007 1.3980001 4285823357
-0.0070913886 0.061640885 1.3970001 4289376178
-0.0058663781 0.061508514 1.3940001 4292863208
-0.0046532559 0.061464388 1.393 4294639615
-0.0034418695 0.061420266 1.3920001 4294705151
-0.002230614 0.061332017 1.3900001 4294639615
-0.0010235667 0.061287895 1.3890001 4294178808
0.00018187585 0.061287895 1.3890001 4292731619
0.0013883171 0.061332017 1.3900001 4287731353
0.0025946274 0.061332017 1.3900001 4283191636
0.0038036723 0.061376143 1.391 4282467914
0.0050252597 0.061552636 1.3950001 4282796878
0.0062403795 0.061596759 1.396 4282665292
0.0074572344 0.061640885 1.3970001 4282796878
0.0086944439 0.061817378 1.401 4284310117
0.0099173747 0.0618615 1.4020001 4288192674
0.011142041 0.061905626 1.4030001 4290627015
0.012377251 0.061993871 1.4050001 4290955981
0.013596579 0.061993871 1.4050001 4290232258
0.014815907 0.061993871 1.4050001 4286614156
0.016035236 0.061993871 1.4050001 4282008646
0.017254563 0.061993871 1.4050001 4280758578
0.018473892 0.061993871 1.4050001 4280955957
0.019721253 0.062082119 1.4070001 4280758579
0.020942317 0.062082119 1.4070001 4280824372
0.022179132 0.062126249 1.4080001 4280955703
0.027432108 0.062964596 1.427 4281613634
0.028670529 0.062964596 1.427 4281613634
0.02990895 0.062964596 1.427 4281547841
0.031125542 0.062920474 1.4260001 4281416255
0.032340404 0.062876344 1.4250001 4281284669
0.033577088 0.062876344 1.4250001 4281218876
0.034691621 0.062655732 1.4200001 4281021497
0.035822768 0.062479232 1.416 4280824118
0.036973145 0.062346861 1.4130001 4280824118
0.038199414 0.062346861 1.4130001 4280824118
0.039453588 0.062390991 1.414 4280758325
0.040680729 0.062390991 1.414 4280692531
0.041937504 0.062435113 1.4150001 4280626993
0.043165509 0.062435113 1.4150001 4280561200
0.044393517 0.062435113 1.4150001 4280495407
0.045718245 0.06256748 1.4180001 4280363821
0.046948858 0.06256748 1.4180001 4280298028
0.048247423 0.062655732 1.4200001 4280166442
0.04951461 0.062699854 1.4210001 4280166442
0.050747827 0.062699854 1.4210001 4280232235
0.051981039 0.062699854 1.4210001 4280297515
0.053289149 0.062788107 1.4230001 4280297515
0.054600734 0.062876344 1.4250001 4280363308
0.055876601 0.062920474 1.4260001 4280297515
0.057234313 0.063052848 1.429 4280363308
0.058515389 0.063096963 1.4300001 4280429101
0.059756413 0.063096963 1.4300001 4280494894
0.060826816 0.062920474 1.4260001 4280297515
0.061977319 0.062832221 1.424 4280231722
0.063079961 0.062699854 1.4210001 4280231722
0.063951105 0.062346861 1.4130001 4280297515
0.06508512 0.06225862 1.411 4280231722
0.066074677 0.062037997 1.406 4280297515
0.067247018 0.061993871 1.4050001 4280297515
0.068417616 0.061949749 1.404 4280429358
0.069487281 0.061817378 1.401 4280626737
0.070703134 0.061817378 1.401 4280955959
0.071918994 0.061817378 1.401 4281613889
0.073030442 0.061729129 1.399 4282074185
0.074191496 0.061685007 1.3980001 4282271564
0.075296871 0.061596759 1.396 4282469456
0.07521461 0.059611194 1.3510001 4283522144
0.076273993 0.059522942 1.3490001 4284114282
0.077215083 0.059346452 1.345 4284903799
0.078207508 0.059214082 1.342 4285298557
0.079253875 0.059125829 1.34 4285298559
0.080116726 0.05890521 1.335 4285364096
0.081275307 0.05890521 1.335 4285364096
0.082372144 0.058861088 1.3340001 4285364096
0.083529852 0.058861088 1.3340001 4285364096
0.084751047 0.05890521 1.335 4285232510
0.08590962 0.05890521 1.335 4285298303
0.087133422 0.058949333 1.3360001 4285298303
0.088292874 0.058949333 1.3360001 4285298303
0.089452319 0.058949333 1.3360001 4285232510
0.090543941 0.05890521 1.335 4285298303
0.091702513 0.05890521 1.335 4285364096
0.092861094 0.05890521 1.335 4285495424
0.093878821 0.058816962 1.3330001 4285495423
0.09496437 0.05877284 1.332 4285298044
0.096120343 0.05877284 1.332 4285232251
0.097203292 0.058728717 1.3310001 4285298044
0.0983584 0.058728717 1.3310001 4285429630
0.099438742 0.058684591 1.33 4285363837
0.10074424 0.05877284 1.332 4285298044
0.10190022 0.05877284 1.332 4285166460
0.10313357 0.058816962 1.3330001 4285100667
0.10444688 0.05890521 1.335 4285100665
0.10560546 0.05890521 1.335 4285298044
0.10684402 0.058949333 1.3360001 4285363837
0.10824598 0.059081711 1.3390001 4285166715
0.10948974 0.059125829 1.34 4284706165
0.11073524 0.059169952 1.3410001 4284311151
0.11214936 0.059302323 1.3440001 4284245358
0.11348437 0.059390571 1.3460001 4284640116
0.11473767 0.059434693 1.3470001 4284837494
0.11607876 0.059522942 1.3490001 4284574321
0.11724949 0.059522942 1.3490001 4284113769
0.11824466 0.059434693 1.3470001 4283784803
0.12164305 0.058816962 1.3330001 4282732370
0.12270777 0.05877284 1.332 4282205770
0.12367777 0.058684591 1.33 4282139977
0.12492586 0.058728717 1.3310001 4282666321
0.12598625 0.058684591 1.33 4283850595
0.12723607 0.058728717 1.3310001 4284903027
0.12839118 0.058728717 1.3310001 4285100406
0.12964362 0.05877284 1.332 4285100406
0.13099599 0.058861088 1.3340001 4285100407
0.13235185 0.058949333 1.3360001 4284968564
0.13361122 0.058993459 1.337 4284705393
0.13527554 0.059214082 1.342 4284573808
0.13791247 0.059346452 1.345 4284573808
0.13928652 0.059434693 1.3470001 4284508015
0.14087261 0.059611194 1.3510001 4284573809
0.14204508 0.059611194 1.3510001 4284704883
0.14321753 0.059611194 1.3510001 4284507504
0.14428313 0.059567064 1.35 4284375661
0.14534697 0.059522942 1.3490001 4284112489
0.14640909 0.059478823 1.348 4283849316
0.14757895 0.059478823 1.348 4283651936
0.14874882 0.059478823 1.348 4283783522
0.14991868 0.059478823 1.348 4284836209
0.15108854 0.059478823 1.348 4286810254
0.1522584 0.059478823 1.348 4288784042
0.15354207 0.059522942 1.3490001 4290363074
0.15482749 0.059567064 1.35 4291086284
0.15599909 0.059567064 1.35 4288586150
0.15740353 0.059655316 1.3520001 4285164915
0.15857686 0.059655316 1.3520001 4283717468
0.15975019 0.059655316 1.3520001 4283454296
0.1612806 0.059787687 1.355 4283914847
0.16245654 0.059787687 1.355 4288125599
0.16375324 0.059831806 1.3560001 4293191658
0.16505168 0.059875935 1.3570001 4294639103
0.16647434 0.059964176 1.3590001 4294639103
0.16765374 0.059964176 1.3590001 4294704895
0.16895738 0.060008306 1.36 4290757572
0.17038786 0.060096554 1.3620001 4285033583
0.17156987 0.060096554 1.3620001 4283059793
0.17287871 0.060140677 1.363 4285691513
0.17431702 0.060228925 1.365 4291415504
0.17563018 0.060273048 1.3660001 4294704895
0.17694512 0.06031717 1.3670001 4294704895
0.17839208 0.060405418 1.3690001 4294639358
0.17958017 0.060405418 1.3690001 4292205019
0.18076825 0.060405418 1.3690001 4290033851
0.18248799 0.060581911 1.373 4292402398
0.1839471 0.06067016 1.3750001 4294441980
0.18540969 0.060758412 1.3770001 4293981685
0.18848166 0.060979024 1.3820001 4286876044
0.18995553 0.061067272 1.3840001 4282073155
0.19143288 0.061155524 1.386 4281217847
0.1929137 0.061243773 1.388 4281875777
0.1939784 0.061199646 1.3870001 4282073156
0.19518211 0.061199646 1.3870001 4281283640
0.19766013 0.061596759 1.396 4280230952
0.19887166 0.061596759 1.396 4279967780
0.20008317 0.061596759 1.396 4282533707
0.20115049 0.061552636 1.3950001 4287928476
0.20236114 0.061552636 1.3950001 4292139227
0.20357178 0.061552636 1.3950001 4293520880
0.20463565 0.061508514 1.3940001 4293455087
0.20584543 0.061508514 1.3940001 4293059815
0.20705521 0.061508514 1.3940001 4292993764
0.20856379 0.061596759 1.396 4293322729
0.20977531 0.061596759 1.396 4294178038
0.21113797 0.061640885 1.3970001 4294769918
0.21356638 0.061993871 1.4050001 4294901503
0.21539721 0.062170368 1.409 4294901503
0.21723495 0.062346861 1.4130001 4294901502
-0.031563427 0.063294709 1.4070001 4283454809
-0.030342363 0.063294709 1.4070001 4283981153
-0.029141996 0.063339695 1.4080001 4284441704
-0.027920064 0.063339695 1.4080001 4284244325
-0.026679169 0.063294709 1.4070001 4284047462
-0.025458107 0.063294709 1.4070001 4284310634
-0.024185365 0.063159749 1.404 4284574319
-0.022950545 0.06311477 1.4030001 4284705905
-0.021732954 0.06311477 1.4030001 4284508528
-0.020456871 0.062934823 1.399 4284245356
-0.019228995 0.062889837 1.3980001 4284113770
-0.017964195 0.062709898 1.3940001 4284113770
-0.016754415 0.062709898 1.3940001 4284113770
-0.015544632 0.062709898 1.3940001 4284442735
-0.014334851 0.062709898 1.3940001 4285231736
-0.013153316 0.062844858 1.3970001 4285823873
-0.01194093 0.062844858 1.3970001 4285824127
-0.010736224 0.062889837 1.3980001 4285034611
-0.0095229708 0.062889837 1.3980001 4284112739
-0.0083037745 0.062844858 1.3970001 4283717981
-0.0070863124 0.062799864 1.396 4284441704
-0.0058663781 0.062709898 1.3940001 4286086529
-0.0046532559 0.062664911 1.393 4290428866
-0.0034418695 0.062619925 1.3920001 4293850102
-0.002230614 0.062529951 1.3900001 4294639615
-0.0010235667 0.062484968 1.3890001 4294639615
0.00018174491 0.062439986 1.388 4294508031
0.0013873184 0.062484968 1.3890001 4293652464
0.0025946274 0.062529951 1.3900001 4290231487
0.0038036723 0.062574945 1.391 4284441703
0.0050216573 0.062709898 1.3940001 4282533706
0.0062314393 0.062709898 1.3940001 4282665292
0.0074465596 0.062754884 1.3950001 4283323735
0.0086820321 0.062934823 1.399 4284245094
0.009903227 0.06297981 1.4000001 4285824126
0.011126157 0.063024797 1.401 4288521639
0.012350824 0.063069776 1.4020001 4290758859
0.013567548 0.063069776 1.4020001 4290956494
0.014784272 0.063069776 1.4020001 4290166978
0.016000995 0.063069776 1.4020001 4287206293
0.01721772 0.063069776 1.4020001 4282271817
0.018434444 0.063069776 1.4020001 4280626993
0.019665187 0.06311477 1.4030001 4280692786
0.020897664 0.063159749 1.404 4280824372
0.022116125 0.063159749 1.404 4280824118
0.027412884 0.064149439 1.4260001 4281613634
0.028650437 0.064149439 1.4260001 4281613634
0.029887989 0.064149439 1.4260001 4281547841
0.031081889 0.064059466 1.424 4281416255
0.032295011 0.06401448 1.4230001 4281284669
0.033506397 0.063969493 1.4220001 4281153083
0.034642756 0.063789554 1.4180001 4280955705
0.035797469 0.063654594 1.4150001 4280692533
0.036946975 0.063519634 1.4120001 4280758325
0.038172379 0.063519634 1.4120001 4280758325
0.039425686 0.063564621 1.4130001 4280758325
0.040651958 0.063564621 1.4130001 4280692532
0.041878227 0.063564621 1.4130001 4280692531
0.0431045 0.063564621 1.4130001 4280692531
0.044330768 0.063564621 1.4130001 4280495408
0.045621522 0.063654594 1.4150001 4280363821
0.046882641 0.063699581 1.416 4280363821
0.048145492 0.063744567 1.4170001 4280298028
0.049444925 0.063834533 1.419 4280298028
0.050676402 0.063834533 1.419 4280298028
0.051907878 0.063834533 1.419 4280231978
0.053289149 0.06401448 1.4230001 4280231722
0.054600734 0.064104445 1.4250001 4280362795
0.055876601 0.064149439 1.4260001 4280428588
0.06086947 0.064194418 1.427 4280429101
0.062020842 0.064104445 1.4250001 4280363308
0.063124351 0.063969493 1.4220001 4280363308
0.063951105 0.063564621 1.4130001 4280297515
0.065131247 0.063519634 1.4120001 4280231722
0.066121683 0.063294709 1.4070001 4280363308
0.067294873 0.063249722 1.406 4280429101
0.068466343 0.063204736 1.4050001 4280298028
0.069586471 0.06311477 1.4030001 4280298028
0.070804067 0.06311477 1.4030001 4280495407
0.072021656 0.06311477 1.4030001 4280692786
0.073134847 0.063024797 1.401 4281350717
0.074297637 0.06297981 1.4000001 4282074440
0.075458683 0.062934823 1.399 4282403406
0.080236755 0.060145721 1.337 4285364096
0.081336193 0.060100731 1.3360001 4285298303
0.082433887 0.060055748 1.335 4285298303
0.083467238 0.059965774 1.3330001 4285166717
0.084624082 0.059965774 1.3330001 4285100924
0.085845277 0.060010765 1.3340001 4285166717
0.087002985 0.060010765 1.3340001 4285232510
0.088160694 0.060010765 1.3340001 4285232510
0.089318402 0.060010765 1.3340001 4285232510
0.090408295 0.059965774 1.3330001 4285298046
0.09156514 0.059965774 1.3330001 4285429632
0.092652418 0.059920792 1.332 4285495424
0.093667544 0.059830818 1.33 4285495423
0.094750486 0.059785835 1.3290001 4285232250
0.095831692 0.059740849 1.3280001 4285232250
0.0969842 0.059740849 1.3280001 4285363580
0.098210596 0.059785835 1.3290001 4285429373
0.099363968 0.059785835 1.3290001 4285297788
0.10066861 0.059875809 1.3310001 4285297789
0.10182372 0.059875809 1.3310001 4285298046
0.10305619 0.059920792 1.332 4285232253
0.10436865 0.060010765 1.3340001 4285298045
0.10560546 0.060055748 1.335 4285495423
0.10684402 0.060100731 1.3360001 4285561216
0.10816514 0.060190704 1.3380001 4285495423
0.10932633 0.060190704 1.3380001 4285166459
0.11048751 0.060190704 1.3380001 4284639859
0.11189902 0.06032566 1.3410001 4284245357
0.11323144 0.060415633 1.3430001 4284442736
0.11448213 0.060460616 1.3440001 4284837493
0.11573458 0.060505606 1.345 4284705907
0.11672799 0.060415633 1.3430001 4284179562
0.11780573 0.06037065 1.342 4283719010
0.11852712 0.060145721 1.337 4283455837
0.1195084 0.060055748 1.335 4283192665
0.12012466 0.059785835 1.3290001 4282666576
0.12118679 0.059740849 1.3280001 4282271818
0.12233929 0.059740849 1.3280001 4284048229
0.1233988 0.059695862 1.327 4286877071
0.12455043 0.059695862 1.327 4288653225
0.12570207 0.059695862 1.327 4289508533
0.1268537 0.059695862 1.327 4289113521
0.12800534 0.059695862 1.327 4286942353
0.12925431 0.059740849 1.3280001 4285297785
0.130505 0.059785835 1.3290001 4285231736
0.13175744 0.059830818 1.33 4285231736
0.13301161 0.059875809 1.3310001 4284836978
0.13436833 0.059965774 1.3330001 4284508014
0.13552517 0.059965774 1.3330001 4284376429
0.13678454 0.060010765 1.3340001 4284310380
0.13918312 0.060550589 1.3460001 4284310379
0.14035124 0.060550589 1.3460001 4284178538
0.14151937 0.060550589 1.3460001 4284244075
0.14279351 0.060595572 1.3470001 4284112489
0.14385562 0.060550589 1.3460001 4283783524
0.14502373 0.060550589 1.3460001 4283520096
0.14608327 0.060505606 1.345 4283059543
0.14725052 0.060505606 1.345 4282467662
0.14841777 0.060505606 1.345 4282928468
0.14958504 0.060505606 1.345 4286612618
0.15075229 0.060505606 1.345 4292205020
0.15203249 0.060550589 1.3460001 4294704895
0.15331444 0.060595572 1.3470001 4294639103
0.15459812 0.060640562 1.348 4294704895
0.15588354 0.060685545 1.3490001 4293389037
0.15728711 0.060775518 1.3510001 4288520357
0.15869415 0.060865484 1.353 4284506984
0.15998651 0.060910475 1.3540001 4283651675
0.16151866 0.061045431 1.3570001 4283914847
0.16293612 0.061135396 1.3590001 4287467669
0.16435705 0.06122537 1.3610001 4292599521
0.16565982 0.06127036 1.3620001 4294704895
0.16696432 0.061315343 1.363 4294704895
0.16814721 0.061315343 1.363 4294770687
0.16933008 0.061315343 1.363 4290625987
0.17113847 0.061540276 1.368 4284836204
0.17219971 0.061495285 1.3670001 4283257172
0.17325923 0.061450303 1.3660001 4287138959
0.19093657 0.06297981 1.4000001 4280954675
0.19201431 0.062934823 1.399 4279573022
0.19295219 0.062844858 1.3970001 4279836194
0.19458154 0.06297981 1.4000001 4280033573
0.19579652 0.06297981 1.4000001 4280033573
0.19715223 0.063024797 1.401 4279967780
0.19850968 0.063069776 1.4020001 4279638815
0.19958393 0.063024797 1.401 4279441436
0.20065647 0.06297981 1.4000001 4280099366
0.20158307 0.062889837 1.3980001 4283652188
0.20265126 0.062844858 1.3970001 4289113007
0.20371772 0.062799864 1.396 4292402656
0.20478244 0.062754884 1.3950001 4293520880
0.20599309 0.062754884 1.3950001 4293915124
0.20720373 0.062754884 1.3950001 4294112245
0.20856379 0.062799864 1.396 4294375417
0.20992558 0.062844858 1.3970001 4294704382
0.21113797 0.062844858 1.3970001 4294835967
-0.031585857 0.064553149 1.4080001 4284178791
-0.030385491 0.064598992 1.409 4284639598
-0.029183391 0.064644836 1.4100001 4284639599
-0.027959723 0.064644836 1.4100001 4284244841
-0.026717095 0.064598992 1.409 4284047720
-0.025476201 0.064553149 1.4080001 4284179306
-0.024219817 0.064461455 1.406 4284376943
-0.022966905 0.064369753 1.404 4284705908
-0.021732954 0.06432391 1.4030001 4284442735
-0.020471495 0.064186364 1.4000001 4284311149
-0.019228995 0.06409467 1.3980001 4284245356
-0.018002857 0.064048827 1.3970001 4284245356
-0.016766433 0.063957125 1.3950001 4284376684
-0.015555783 0.063957125 1.3950001 4284705649
-0.014345133 0.063957125 1.3950001 4285363320
-0.013153316 0.064048827 1.3970001 4285889921
-0.011949477 0.06409467 1.3980001 4286547080
-0.010736224 0.06409467 1.3980001 4286283908
-0.0095229708 0.06409467 1.3980001 4285362806
-0.0083037745 0.064048827 1.3970001 4284639083
-0.0070863124 0.064002976 1.396 4283586395
-0.0058663781 0.063911282 1.3940001 4283652188
-0.0046532559 0.063865431 1.393 4285165427
-0.0034418695 0.063819587 1.3920001 4287533975
-0.0022290091 0.063682042 1.3890001 4292007898
-0.0010235667 0.063682042 1.3890001 4294639615
0.00018174491 0.063636199 1.388 4294639615
0.0013863195 0.063636199 1.388 4294705151
0.0025927608 0.063682042 1.3890001 4294113272
0.0038009379 0.063727893 1.3900001 4291284430
0.0050144526 0.063819587 1.3920001 4284639079
0.006226969 0.063865431 1.393 4282994253
0.0074412208 0.063911282 1.3940001 4283126098
0.0086696204 0.064048827 1.3970001 4283586905
0.0098890793 0.06409467 1.3980001 4284112993
0.011110274 0.064140514 1.399 4284902509
0.012324396 0.064140514 1.399 4286613129
0.013548193 0.064186364 1.4000001 4289047726
0.014752638 0.064140514 1.399 4290363330
0.015955346 0.06409467 1.3980001 4290034365
0.017180879 0.064140514 1.399 4286153348
0.018395001 0.064140514 1.399 4281613374
0.019623138 0.064186364 1.4000001 4280429357
0.020853011 0.064232215 1.401 4280824116
0.027393661 0.065332547 1.4250001 4281416255
0.028610256 0.065286703 1.424 4281613634
0.029825112 0.06524086 1.4230001 4281547841
0.031016408 0.065149158 1.4210001 4281416255
0.032249622 0.065149158 1.4210001 4281218876
0.033459272 0.065103315 1.4200001 4281153083
0.034618326 0.064965777 1.4170001 4280758326
0.035772175 0.064828232 1.414 4280758325
0.036920812 0.064690687 1.411 4280692532
0.038145348 0.064690687 1.411 4280692532
0.039397784 0.064736538 1.4120001 4280692532
0.040623184 0.064736538 1.4120001 4280692532
0.041848589 0.064736538 1.4120001 4280626994
0.043073993 0.064736538 1.4120001 4280626994
0.044268023 0.064690687 1.411 4280626993
0.045557041 0.064782381 1.4130001 4280495407
0.04681642 0.064828232 1.414 4280495407
0.04804356 0.064828232 1.414 4280429614
0.049375236 0.064965777 1.4170001 4280429614
0.050640687 0.065011621 1.4180001 4280429614
0.051871296 0.065011621 1.4180001 4280363564
0.053289149 0.06524086 1.4230001 4280232235
0.054600734 0.065332547 1.4250001 4280297515
0.055915788 0.065424241 1.427 4280363308
0.062064368 0.065378398 1.4260001 4280429101
0.063168749 0.06524086 1.4230001 4280429101
0.063996367 0.064828232 1.414 4280363308
0.065131247 0.064736538 1.4120001 4280429101
0.066121683 0.064507298 1.4070001 4280363308
0.067294873 0.064461455 1.406 4280363308
0.068466343 0.064415596 1.4050001 4280298028
0.069636077 0.064369753 1.404 4280298028
0.070804067 0.06432391 1.4030001 4280363821
0.072072998 0.064369753 1.404 4280429614
0.073239252 0.06432391 1.4030001 4280626993
0.07440377 0.064278059 1.4020001 4281350716
0.075620495 0.064278059 1.4020001 4282074696
0.080356777 0.061389677 1.3390001 4285298558
0.081397071 0.061297979 1.337 4285298303
0.082495637 0.061252128 1.3360001 4285232510
0.083467238 0.061114587 1.3330001 4285100924
0.084624082 0.061114587 1.3330001 4285100667
0.085780926 0.061114587 1.3330001 4285166460
0.08693777 0.061114587 1.3330001 4285166460
0.088160694 0.061160438 1.3340001 4285100667
0.089251451 0.061114587 1.3330001 4285100411
0.090408295 0.061114587 1.3330001 4285166460
0.09156514 0.061114587 1.3330001 4285298046
0.092721984 0.061114587 1.3330001 4285363839
0.093667544 0.060977045 1.33 4285298045
0.094750486 0.060931198 1.3290001 4285166459
0.095831692 0.060885355 1.3280001 4285232251
0.0969842 0.060885355 1.3280001 4285363581
0.098136701 0.060885355 1.3280001 4285363580
0.099363968 0.060931198 1.3290001 4285231995
0.10066861 0.061022896 1.3310001 4285297788
0.10182372 0.061022896 1.3310001 4285363838
0.10305619 0.06106874 1.332 4285429631
0.10436865 0.061160438 1.3340001 4285495424
0.10560546 0.061206285 1.335 4285561217
0.10684402 0.061252128 1.3360001 4285561217
0.1080843 0.061297979 1.337 4285561217
0.10932633 0.061343826 1.3380001 4285495424
0.11048751 0.061343826 1.3380001 4285166459
0.11189902 0.061481368 1.3410001 4284705651
0.11314712 0.061527219 1.342 4284376942
0.11431178 0.061527219 1.342 4284508527
0.11556247 0.061573066 1.3430001 4284574320
0.11664108 0.061527219 1.342 4284245355
0.11780573 0.061527219 1.342 4283784803
0.11852712 0.061297979 1.337 4283456093
0.1195084 0.061206285 1.335 4282863955
0.12003428 0.060885355 1.3280001 4282403147
0.12118679 0.060885355 1.3280001 4284311144
0.12233929 0.060885355 1.3280001 4289179568
0.1233988 0.060839504 1.327 4292863720
0.12455043 0.060839504 1.327 4294179835
0.12570207 0.060839504 1.327 4294508543
0.1268537 0.060839504 1.327 4293916407
0.12800534 0.060839504 1.327 4290889931
0.12915698 0.060839504 1.327 4286744717
0.130505 0.060931198 1.3290001 4285099892
0.13165838 0.060931198 1.3290001 4285099892
0.13291168 0.060977045 1.33 4284836719
0.13426752 0.06106874 1.332 4284179048
0.13552517 0.061114587 1.3330001 4283916133
0.13668202 0.061114587 1.3330001 4283981414
0.13897631 0.061618909 1.3440001 4283981157
0.14024697 0.06166476 1.345 4283849570
0.14141423 0.06166476 1.345 4284375913
0.14268748 0.061710607 1.3460001 4286744204
0.14385562 0.061710607 1.3460001 4288191651
0.14502373 0.061710607 1.3460001 4288322981
0.14608327 0.06166476 1.345 4286809230
0.14725052 0.06166476 1.345 4283782497
0.14841777 0.06166476 1.345 4282664015
0.14958504 0.06166476 1.345 4286611594
0.15086436 0.061710607 1.3460001 4292204252
0.15203249 0.061710607 1.3460001 4294770175
0.15342826 0.061802302 1.348 4294770431
0.15459812 0.061802302 1.348 4294770431
0.15588354 0.061848149 1.3490001 4294704895
0.15740353 0.06198569 1.3520001 4290757317
0.15869415 0.062031534 1.353 4285559672
0.16010466 0.062123232 1.355 4283717724
0.16139963 0.062169075 1.3560001 4283783260
0.1631759 0.062398314 1.3610001 4287336338
0.16447781 0.062444169 1.3620001 4292599777
0.16590308 0.06253586 1.3640001 4294704895
0.16720933 0.062581711 1.365 4294704895
0.16839394 0.062581711 1.365 4294573566
0.16945432 0.06253586 1.3640001 4290165436
0.17270359 0.062856793 1.3710001 4285428597
0.17351291 0.062719248 1.368 4290626244
0.19134572 0.06432391 1.4030001 4279836195
0.1922888 0.064232215 1.401 4279770401
0.19322842 0.064140514 1.399 4280231209
0.19472051 0.064232215 1.401 4280757296
0.19607623 0.064278059 1.4020001 4280823346
0.19743368 0.06432391 1.4030001 4280888882
0.19865127 0.06432391 1.4030001 4280625710
0.1997264 0.064278059 1.4020001 4280165159
0.20079979 0.064232215 1.401 4280428331
0.20158307 0.06409467 1.3980001 4282862672
0.20265126 0.064048827 1.3970001 4287139217
0.20371772 0.064002976 1.396 4291086796
0.20478244 0.063957125 1.3950001 4293389294
0.20599309 0.063957125 1.3950001 4294375931
0.20720373 0.063957125 1.3950001 4294770174
0.20856379 0.064002976 1.396 4294770174
0.20992558 0.064048827 1.3970001 4294901503
0.21128909 0.06409467 1.3980001 4294901503
-0.02803904 0.066046856 1.414 4284047719
-0.026830863 0.066093557 1.4150001 4283916391
-0.025602857 0.066093557 1.4150001 4283982185
-0.024254268 0.065766595 1.4080001 4284245358
-0.023015978 0.065719888 1.4070001 4284508530
-0.021779424 0.06567318 1.406 4284574321
-0.020515362 0.065533049 1.4030001 4284574321
-0.019284016 0.065486334 1.4020001 4284574321
-0.018054403 0.065439627 1.401 4284442735
-0.016802488 0.065299504 1.3980001 4284376940
-0.015578086 0.065252796 1.3970001 4284508526
-0.0143657 0.065252796 1.3970001 4284903027
-0.013143899 0.065206081 1.396 4285165943
-0.01194093 0.065252796 1.3970001 4285626748
-0.010728545 0.065252796 1.3970001 4285692541
-0.0095093474 0.065206081 1.396 4285954943
-0.0082918853 0.065159373 1.3950001 4285757564
-0.0070761601 0.065112665 1.3940001 4285099634
-0.0058537531 0.064972542 1.391 4284046946
-0.0046465751 0.064972542 1.391 4284046946
-0.0034369242 0.064925827 1.3900001 4284573290
-0.0022274044 0.064832412 1.388 4286283907
-0.0010220929 0.064785697 1.3870001 4290626245
0.00018148302 0.064738989 1.386 4294573565
0.0013843219 0.064738989 1.386 4294573822
0.0025890276 0.064785697 1.3870001 4294705151
0.0037927344 0.064785697 1.3870001 4294310393
0.005003646 0.064879119 1.3890001 4291613136
0.0062090885 0.064879119 1.3890001 4284836713
0.0074145305 0.064879119 1.3890001 4282731337
0.0086261788 0.064925827 1.3900001 4282731337
0.0098395636 0.064972542 1.391 4282731339
0.0110388 0.064925827 1.3900001 4282862925
0.0122363 0.064879119 1.3890001 4283126098
0.013441742 0.064879119 1.3890001 4283981406
0.014626096 0.064785697 1.3870001 4285165682
0.015829803 0.064785697 1.3870001 4287007630
0.01703351 0.064785697 1.3870001 4286482056
0.018237216 0.064785697 1.3870001 4282666062
0.019440923 0.064785697 1.3870001 4280758066
0.020659514 0.064832412 1.388 4280889652
0.041670766 0.06567318 1.406 4280561201
0.042829949 0.065579757 1.404 4280561200
0.04404841 0.065579757 1.404 4280626993
0.045234628 0.065533049 1.4030001 4280561200
0.046485331 0.065579757 1.404 4280561200
0.047737766 0.065626465 1.4050001 4280561200
0.049096476 0.065813303 1.409 4280561200
0.050390698 0.065906726 1.411 4280561200
0.051688395 0.066000141 1.4130001 4280495407
0.053176805 0.06632711 1.4200001 4280363821
0.054485783 0.066420518 1.4220001 4280298028
0.055837419 0.066560648 1.4250001 4280232235
0.063996367 0.066046856 1.414 4280494894
0.065177381 0.066000141 1.4130001 4280626480
0.066168673 0.065766595 1.4080001 4280560687
0.067294873 0.06567318 1.406 4280429101
0.068466343 0.065626465 1.4050001 4280297772
0.069685668 0.065626465 1.4050001 4280232235
0.070905 0.065626465 1.4050001 4280363821
0.072175659 0.06567318 1.406 4280429614
0.073500261 0.065766595 1.4080001 4280298285
0.074722193 0.065766595 1.4080001 4280758836
0.075944126 0.065766595 1.4080001 4281285181
0.07694684 0.065579757 1.404 4281679940
0.078109622 0.065533049 1.4030001 4282074698
0.079157591 0.065392926 1.4000001 4282272077
0.083592467 0.062356818 1.335 4285232510
0.084751047 0.062356818 1.335 4285166460
0.08590962 0.062356818 1.335 4285100924
0.087002985 0.062310115 1.3340001 4285166460
0.088094607 0.062263399 1.3330001 4285100154
0.089251451 0.062263399 1.3330001 4285034361
0.090408295 0.062263399 1.3330001 4285034874
0.091496445 0.062216692 1.332 4285166460
0.092652418 0.062216692 1.332 4285298046
0.093526691 0.062029857 1.3280001 4285232253
0.094607897 0.061983146 1.327 4285232253
0.095615208 0.06188973 1.325 4285363839
0.096765108 0.06188973 1.325 4285363838
0.097915009 0.06188973 1.325 4285298044
0.099139668 0.061936438 1.3260001 4285232251
0.10051734 0.062076565 1.3290001 4285298044
0.10174722 0.062123273 1.33 4285363837
0.10297883 0.062169984 1.3310001 4285495423
0.10436865 0.062310115 1.3340001 4285561216
0.10560546 0.062356818 1.335 4285495424
0.10684402 0.062403526 1.3360001 4285495424
0.1080843 0.062450241 1.337 4285495424
0.10916291 0.062403526 1.3360001 4285561216
0.11023977 0.062356818 1.335 4285495423
0.11156525 0.062450241 1.337 4285166458
0.11280987 0.062496949 1.3380001 4284508528
0.11405624 0.06254366 1.3390001 4284245354
0.11530433 0.062590368 1.34 4284376940
0.11646724 0.062590368 1.34 4284376939
0.11754239 0.06254366 1.3390001 4283982181
0.11843848 0.062403526 1.3360001 4283587678
0.11941888 0.062310115 1.3340001 4282863955
0.12003428 0.062029857 1.3280001 4284310887
0.12118679 0.062029857 1.3280001 4289245105
0.12233929 0.062029857 1.3280001 4293390063
0.1233988 0.061983146 1.327 4294508543
0.12455043 0.061983146 1.327 4294508543
0.12570207 0.061983146 1.327 4294508543
0.1268537 0.061983146 1.327 4294574079
0.12800534 0.061983146 1.327 4293915894
0.12915698 0.061983146 1.327 4290297281
0.13040681 0.062029857 1.3280001 4286481287
0.13155931 0.062029857 1.3280001 4285231219
0.13281174 0.062076565 1.3290001 4284704875
0.13416672 0.062169984 1.3310001 4284047202
0.1354235 0.062216692 1.332 4283718494
0.13668202 0.062263399 1.3330001 4283784290
0.13876951 0.062683791 1.342 4283586912
0.14003842 0.062730499 1.3430001 4283981666
0.14130908 0.062777199 1.3440001 4287336592
0.14268748 0.062870622 1.3460001 4292073431
0.14385562 0.062870622 1.3460001 4294376186
0.144916 0.062823914 1.345 4294704639
0.14608327 0.062823914 1.345 4293453807
0.14725052 0.062823914 1.345 4289176498
0.14841777 0.062823914 1.345 4284965233
0.14958504 0.062823914 1.345 4284439144
0.15086436 0.062870622 1.3460001 4289637300
0.15191954 0.062823914 1.345 4294177525
0.15331444 0.062917329 1.3470001 4294901503
0.15459812 0.062964045 1.348 4294770431
0.15588354 0.063010752 1.3490001 4294704895
0.15751995 0.063197583 1.353 4291875798
0.15881145 0.063244298 1.3540001 4286349443
0.16022283 0.063337713 1.3560001 4283257171
0.16151866 0.063384429 1.3570001 4283520342
0.16341569 0.063664682 1.363 4287731350
0.16602471 0.063758098 1.365 4294639615
0.16733181 0.063804805 1.3660001 4294705151
0.16864067 0.063851513 1.3670001 4294047479
0.16970278 0.063804805 1.3660001 4289770935
0.1730815 0.064178482 1.3740001 4288389538
0.17402025 0.064085059 1.3720001 4292534240
0.17508323 0.064038359 1.3710001 4293718515
0.17923023 0.065112665 1.3940001 4292797412
0.18056944 0.065159373 1.3950001 4289770936
0.18191041 0.065206081 1.396 4283981153
0.18351546 0.065346211 1.399 4279967780
0.18472958 0.065346211 1.399 4279507229
0.18607661 0.065392926 1.4000001 4279770401
0.18742537 0.065439627 1.401 4279770401
0.18864122 0.065439627 1.401 4279704608
0.18999261 0.065486334 1.4020001 4280230953
0.19134572 0.065533049 1.4030001 4280757298
0.19242606 0.065486334 1.4020001 4280626224
0.19364278 0.065486334 1.4020001 4280494894
0.1948595 0.065486334 1.4020001 4280560687
0.19621609 0.065533049 1.4030001 4280626480
0.19757439 0.065579757 1.404 4280757809
0.19879285 0.065579757 1.404 4280889139
0.1997264 0.065486334 1.4020001 4280757296
0.20079979 0.065439627 1.401 4281152054
0.20158307 0.065299504 1.3980001 4283915360
0.20265126 0.065252796 1.3970001 4287139217
0.20371772 0.065206081 1.396 4289113006
0.20478244 0.065159373 1.3950001 4290889160
0.20599309 0.065159373 1.3950001 4292731364
0.20720373 0.065159373 1.3950001 4293784052
0.20871319 0.065252796 1.3970001 4294375932
0.21007584 0.065299504 1.3980001 4294770174
0.21144024 0.065346211 1.399 4294901759
-0.026849827 0.06736061 1.416 4283521633
-0.025639046 0.067408189 1.4170001 4283587426
-0.024271496 0.067027614 1.409 4283719271
-0.023032337 0.066980049 1.4080001 4284113772
-0.021794915 0.06693247 1.4070001 4284376944
-0.020544607 0.066837326 1.4050001 4284574323
-0.019297769 0.066742189 1.4030001 4284771700
-0.018067291 0.066694617 1.4020001 4284640114
-0.016814508 0.066551901 1.399 4284508527
-0.015589235 0.066504337 1.3980001 4284508527
-0.0143657 0.066456765 1.3970001 4284705392
-0.013143899 0.066409193 1.396 4284705392
-0.011932382 0.066409193 1.396 4284837232
-0.010720865 0.066409193 1.396 4285034611
-0.0094957231 0.066314049 1.3940001 4285625978
-0.0082859416 0.066314049 1.3940001 4286218115
-0.0070710839 0.066266477 1.393 4286020736
-0.0058495449 0.066123761 1.3900001 4285362806
-0.0046432344 0.066123761 1.3900001 4285362293
-0.0034369242 0.066123761 1.3900001 4285362293
-0.0022257997 0.065981053 1.3870001 4284770668
-0.001021356 0.065933481 1.386 4286020735
0.00018135208 0.065885916 1.3850001 4289968314
0.0013833232 0.065885916 1.3850001 4293652979
0.002587161 0.065933481 1.386 4294508029
0.0037899998 0.065933481 1.386 4294574079
0.0050000437 0.066028625 1.388 4294376443
0.0062046181 0.066028625 1.388 4291021256
0.0074091926 0.066028625 1.388 4283586646
0.0086137671 0.066028625 1.388 4282994509
0.009825415 0.066076197 1.3890001 4282994511
0.011014976 0.065981053 1.3870001 4283126097
0.012218682 0.065981053 1.3870001 4282797132
0.013412711 0.065933481 1.386 4282402374
0.01459446 0.065838337 1.3840001 4282599753
0.015795564 0.065838337 1.3840001 4283126098
0.016984386 0.065790772 1.383 4283520601
0.018184621 0.065790772 1.383 4282270791
0.019398874 0.065838337 1.3840001 4281021238
0.020599976 0.065838337 1.3840001 4281021238
0.041611489 0.066789761 1.404 4280561200
0.042768937 0.066694617 1.4020001 4280561200
0.04395429 0.066647045 1.401 4280561200
0.045170147 0.066647045 1.401 4280561200
0.04641911 0.066694617 1.4020001 4280561200
0.047635835 0.066694617 1.4020001 4280561200
0.049026784 0.06693247 1.4070001 4280626993
0.050319273 0.067027614 1.409 4280561200
0.051615234 0.067122757 1.411 4280561200
0.053101908 0.067455754 1.4180001 4280429614
0.054409154 0.067550898 1.4200001 4280363821
0.055759046 0.067693613 1.4230001 4280232235
0.063996367 0.067265473 1.414 4280626480
0.06508512 0.067122757 1.411 4280758066
0.066121683 0.06693247 1.4070001 4280692530
0.067294873 0.066884905 1.406 4280560943
0.068466343 0.066837326 1.4050001 4280363821
0.069636077 0.066789761 1.404 4280298028
0.070905 0.066837326 1.4050001 4280363821
0.072175659 0.066884905 1.406 4280363821
0.073500261 0.066980049 1.4080001 4280298028
0.074722193 0.066980049 1.4080001 4280429614
0.075944126 0.066980049 1.4080001 4280561458
0.077056445 0.066884905 1.406 4281022010
0.078165293 0.066789761 1.404 4281614147
0.079270668 0.066694617 1.4020001 4282008905
0.083655089 0.063554928 1.3360001 4285232765
0.084814534 0.063554928 1.3360001 4285298301
0.08590962 0.063507356 1.335 4285298045
0.087002985 0.063459791 1.3340001 4285166460
0.088160694 0.063459791 1.3340001 4285100410
0.089318402 0.063459791 1.3340001 4285034618
0.090408295 0.063412212 1.3330001 4285034874
0.091496445 0.063364647 1.332 4285100667
0.092652418 0.063364647 1.332 4285232253
0.093526691 0.06317436 1.3280001 4285363839
0.094536602 0.063079216 1.3260001 4285363839
0.095615208 0.063031651 1.325 4285429632
0.096692078 0.062984072 1.3240001 4285495423
0.097915009 0.063031651 1.325 4285363837
0.099064909 0.063031651 1.325 4285232251
0.10044171 0.06317436 1.3280001 4285166458
0.10167071 0.063221931 1.3290001 4285232251
0.10290146 0.063269503 1.33 4285298044
0.10436865 0.063459791 1.3340001 4285429630
0.10560546 0.063507356 1.335 4285495423
0.10684402 0.063554928 1.3360001 4285429630
0.10800346 0.063554928 1.3360001 4285429630
0.10908119 0.063507356 1.335 4285429630
0.11023977 0.063507356 1.335 4285561216
0.1114818 0.063554928 1.3360001 4285363837
0.11272556 0.0636025 1.337 4284771699
0.11397105 0.063650072 1.3380001 4284179562
0.11530433 0.063745216 1.34 4284245354
0.11638033 0.063697644 1.3390001 4284377195
0.11754239 0.063697644 1.3390001 4284114022
0.11834983 0.063507356 1.335 4283456092
0.11932937 0.063412212 1.3330001 4283258456
0.12012466 0.063221931 1.3290001 4287666587
0.12127803 0.063221931 1.3290001 4292929511
0.12233929 0.06317436 1.3280001 4294574079
0.12349179 0.06317436 1.3280001 4294574079
0.12455043 0.063126788 1.327 4294574079
0.12570207 0.063126788 1.327 4294574079
0.1267581 0.063079216 1.3260001 4294574079
0.12790887 0.063079216 1.3260001 4294639359
0.12905964 0.063079216 1.3260001 4293455343
0.13021041 0.063079216 1.3260001 4290494659
0.13136117 0.063079216 1.3260001 4287205010
0.13251194 0.063079216 1.3260001 4285099633
0.13386433 0.06317436 1.3280001 4283849567
0.13522016 0.063269503 1.33 4283783774
0.13657947 0.063364647 1.332 4283915619
0.13825247 0.0636025 1.337 4283520861
0.13962133 0.063697644 1.3390001 4284244582
0.14109881 0.063840359 1.342 4289836985
0.14268748 0.06403064 1.3460001 4294244601
0.14385562 0.06403064 1.3460001 4294639359
0.14502373 0.06403064 1.3460001 4294770431
0.14619187 0.06403064 1.3460001 4294835711
0.14735998 0.06403064 1.3460001 4294111736
0.14852811 0.06403064 1.3460001 4290229696
0.14969625 0.06403064 1.3460001 4285492600
0.15086436 0.06403064 1.3460001 4287137680
0.15214545 0.064078212 1.3470001 4292335836
0.15354207 0.064173356 1.3490001 4294704638
0.15482749 0.06422092 1.35 4294770431
0.15611465 0.0642685 1.3510001 4294704895
0.1577528 0.06445878 1.355 4292007127
0.1592806 0.064601488 1.358 4286348931
0.16069545 0.064696632 1.36 4282796621
0.16211379 0.064791776 1.3620001 4284046688
0.16341569 0.064839348 1.363 4289441712
0.16520238 0.065077208 1.368 4294047222
0.16651122 0.065124772 1.3690001 4294705151
0.16794431 0.065219916 1.3710001 4294507773
0.17036778 0.065695629 1.381 4292271068
0.17181475 0.065790772 1.383 4288323489
0.17314008 0.065838337 1.3840001 4286678664
0.17484507 0.066028625 1.388 4288586662
0.17617649 0.066076197 1.3890001 4289968316
0.17738193 0.066076197 1.3890001 4288652456
0.1793588 0.066361621 1.3950001 4285823357
0.18069889 0.066409193 1.396 4282073156
0.18204072 0.066456765 1.3970001 4279704608
0.18351546 0.066551901 1.399 4279507229
0.18472958 0.066551901 1.399 4279704608
0.18581077 0.066504337 1.3980001 4279770401
0.18715781 0.066551901 1.399 4280033830
0.18837194 0.066551901 1.399 4280560174
0.18972158 0.066599481 1.4000001 4280625968
0.19093657 0.066599481 1.4000001 4280625712
0.19215156 0.066599481 1.4000001 4280494638
0.19336654 0.066599481 1.4000001 4280363308
0.19472051 0.066647045 1.401 4280429102
0.19607623 0.066694617 1.4020001 4280626480
0.19743368 0.066742189 1.4030001 4280758066
0.19850968 0.066694617 1.4020001 4280889652
0.19958393 0.066647045 1.401 4280889395
0.20065647 0.066599481 1.4000001 4281941570
0.20143889 0.066456765 1.3970001 4285297013
0.2025062 0.066409193 1.396 4288323491
0.20357178 0.066361621 1.3950001 4289113007
0.20478244 0.066361621 1.3950001 4289046956
0.20599309 0.066361621 1.3950001 4288783784
0.20720373 0.066361621 1.3950001 4289244335
0.20886259 0.066504337 1.3980001 4291481039
0.21037638 0.066599481 1.4000001 4294112244
0.21174251 0.066647045 1.401 4294835967
-0.02688775 0.06867782 1.4180001 4283258463
-0.02565714 0.06867782 1.4180001 4283324513
-0.024288721 0.06829036 1.4100001 4283324514
-0.023048695 0.068241931 1.409 4283587686
-0.021825897 0.068241931 1.409 4283850857
-0.020573851 0.068145059 1.4070001 4284179822
-0.019325279 0.068048194 1.4050001 4284508530
-0.018080177 0.067951329 1.4030001 4284640116
-0.016802488 0.067709163 1.3980001 4284640114
-0.015589235 0.067709163 1.3980001 4284574321
-0.0143657 0.067660734 1.3970001 4284508269
-0.013143899 0.067612298 1.396 4284508269
-0.011932382 0.067612298 1.396 4284508269
-0.010720865 0.067612298 1.396 4284574062
-0.0094889123 0.067466997 1.393 4285099634
-0.0082740532 0.067418568 1.3920001 4285428599
-0.0070609315 0.067370139 1.391 4285954943
-0.0058495449 0.067321703 1.3900001 4286086529
-0.0046398942 0.067273274 1.3890001 4286415494
-0.0034344515 0.067273274 1.3890001 4286086529
-0.0022257997 0.067176402 1.3870001 4285954942
