# .PCD v0.7 - Point Cloud Data file format
VERSION 0.7
FIELDS x y z rgba
SIZE 4 4 4 4
TYPE F F F U
COUNT 1 1 1 1
WIDTH 1145
HEIGHT 1
VIEWPOINT 0 0 0 1 0 0 0
POINTS 1145
DATA ascii
0.15384227 0.11243185 1.302 4282732376
0.15497221 0.11243185 1.302 4282929755
0.15610215 0.11243185 1.302 4282929755
0.15735285 0.11251821 1.3030001 4282929755
0.15848365 0.11251821 1.3030001 4282995548
0.15961447 0.11251821 1.3030001 4283127134
0.16074528 0.11251821 1.3030001 4283258976
0.16187608 0.11251821 1.3030001 4283325026
0.163132 0.11260456 1.304 4283455843
0.16426367 0.11260456 1.304 4283521378
0.16539535 0.11260456 1.304 4283521379
0.16652702 0.11260456 1.304 4283521635
0.1676587 0.11260456 1.304 4283587428
0.16879037 0.11260456 1.304 4283717986
0.16992204 0.11260456 1.304 4284044898
0.17105372 0.11260456 1.304 4284567648
0.17218539 0.11260456 1.304 4285417566
0.17318416 0.11251821 1.3030001 4286398044
0.17418118 0.11243185 1.302 4286986331
0.17517649 0.1123455 1.3010001 4287182683
0.17630555 0.1123455 1.3010001 4287577184
0.17729823 0.11225915 1.3000001 4287774818
0.1785637 0.1123455 1.3010001 4287185761
0.17969276 0.1123455 1.3010001 4286400353
0.18082184 0.1123455 1.3010001 4285747299
0.18195091 0.1123455 1.3010001 4285027683
0.1832207 0.11243185 1.302 4284307554
0.18435064 0.11243185 1.302 4284177766
0.18562303 0.11251821 1.3030001 4284113000
0.18661052 0.11243185 1.302 4284112744
0.18774046 0.11243185 1.302 4284113257
0.18872534 0.1123455 1.3010001 4283916393
0.18970847 0.11225915 1.3000001 4283850600
0.19068988 0.1121728 1.299 4283784807
0.19181721 0.1121728 1.299 4283784807
0.19309309 0.11225915 1.3000001 4283785322
0.1943707 0.1123455 1.3010001 4283916651
0.19565003 0.11243185 1.302 4283916138
0.19738452 0.11277726 1.3060001 4283784552
0.19866994 0.11286362 1.307 4283653479
0.19980422 0.11286362 1.307 4283587686
0.20155345 0.11320902 1.3110001 4283521893
0.20284581 0.11329538 1.312 4283455843
0.20429538 0.11346809 1.314 4283390050
0.20736216 0.11389986 1.319 4283258207
0.20866492 0.1139862 1.3200001 4283060828
0.21012838 0.11415892 1.322 4282928986
0.21175513 0.11441798 1.325 4282862936
0.2130657 0.11450432 1.3260001 4282796629
0.21437803 0.11459068 1.327 4282533457
0.21617933 0.1149361 1.3310001 4282467152
0.21733443 0.1149361 1.3310001 4282664531
0.21865371 0.11502246 1.332 4283125082
0.22030474 0.11528151 1.335 4283388254
0.22162922 0.11536786 1.3360001 4283388253
0.22295542 0.11545422 1.337 4283519839
0.22445099 0.11562692 1.3390001 4283783523
0.22561304 0.11562692 1.3390001 4283388508
0.22677509 0.11562692 1.3390001 4283717729
-0.011470814 0.11704255 1.342 4284045414
-0.010298481 0.11695534 1.3410001 4283913827
-0.0091346959 0.11695534 1.3410001 4283848291
-0.0079709096 0.11695534 1.3410001 4283848291
-0.0068172761 0.11712977 1.3430001 4283915111
-0.005655963 0.11721699 1.3440001 4283915111
-0.0044962545 0.11739141 1.3460001 4283586405
-0.0033306021 0.11747863 1.3470001 4283520869
-0.0021616092 0.11747863 1.3470001 4283455076
-0.00099335343 0.11756583 1.348 4283521126
0.0001765073 0.11756583 1.348 4283652968
0.001346368 0.11756583 1.348 4283718761
0.0025124953 0.11739141 1.3460001 4283653225
0.0036751514 0.11721699 1.3440001 4283653225
0.0048379381 0.11712977 1.3430001 4283719274
0.0059945192 0.11695534 1.3410001 4283850860
0.0071529672 0.11686812 1.34 4283916653
0.0083158845 0.11686812 1.34 4283785067
0.0094363606 0.11634483 1.3340001 4283850859
0.01058613 0.11625762 1.3330001 4283916651
0.011698926 0.11582154 1.3280001 4283850858
0.012841753 0.11573432 1.327 4283850858
0.013982843 0.11564711 1.3260001 4283982444
0.015076545 0.11521103 1.3210001 4283916651
0.016210694 0.11512382 1.3200001 4283850857
0.017329957 0.11494939 1.3180001 4283916906
0.018445749 0.11477496 1.3160001 4283982956
0.019587839 0.11477496 1.3160001 4283982956
0.02074568 0.11486217 1.317 4283916905
0.021872018 0.11477496 1.3160001 4283981928
0.023014108 0.11477496 1.3160001 4284112487
0.024119485 0.11460052 1.314 4284308326
0.025259838 0.11460052 1.314 4284766309
0.026380101 0.11451332 1.3130001 4285354082
0.027477669 0.11433888 1.3110001 4286596706
0.028615417 0.11433888 1.3110001 4287315553
0.029730475 0.11425167 1.3100001 4287313243
0.030843792 0.11416446 1.309 4287312729
0.03195538 0.11407723 1.3080001 4287379035
0.033090524 0.11407723 1.3080001 4286855771
0.034225672 0.11407723 1.3080001 4285611095
0.035360821 0.11407723 1.3080001 4284629334
0.036495965 0.11407723 1.3080001 4284171863
0.037631113 0.11407723 1.3080001 4283714392
0.038795896 0.11416446 1.309 4283387739
0.039931908 0.11416446 1.309 4283060570
0.041099299 0.11425167 1.3100001 4282929755
0.04220394 0.11416446 1.309 4282732889
0.043339953 0.11416446 1.309 4282601560
0.044475969 0.11416446 1.309 4282601560
0.045611981 0.11416446 1.309 4282601304
0.046747997 0.11416446 1.309 4282667096
0.047884014 0.11416446 1.309 4282601303
0.049020026 0.11416446 1.309 4282601303
0.050156042 0.11416446 1.309 4282600790
0.051370423 0.11433888 1.3110001 4282534740
0.052548226 0.1144261 1.312 4282534740
0.053727765 0.11451332 1.3130001 4282403411
0.054992612 0.11477496 1.3160001 4282403411
0.056134701 0.11477496 1.3160001 4282403411
0.057320319 0.11486217 1.317 4282469203
0.058552053 0.11503661 1.319 4282468947
0.059696749 0.11503661 1.319 4282402896
0.060841441 0.11503661 1.319 4282271566
0.061939143 0.11494939 1.3180001 4282139980
0.063035108 0.11486217 1.317 4282074187
0.06412933 0.11477496 1.3160001 4282205516
0.065122619 0.11451332 1.3130001 4282139724
0.066262111 0.11451332 1.3130001 4282139209
0.067401595 0.11451332 1.3130001 4282139208
0.06854108 0.11451332 1.3130001 4282138695
0.069733642 0.11460052 1.314 4282072902
0.070927933 0.11468774 1.3150001 4282007622
0.072178766 0.11486217 1.317 4282007879
0.073321722 0.11486217 1.317 4282138439
0.074521221 0.11494939 1.3180001 4282400327
0.075722449 0.11503661 1.319 4282858311
0.076867141 0.11503661 1.319 4283447368
0.078070976 0.11512382 1.3200001 4284429899
0.079276554 0.11521103 1.3210001 4285216077
0.080483861 0.11529826 1.322 4285215052
0.081631161 0.11529826 1.322 4285017930
0.082903691 0.11547268 1.3240001 4285083980
0.084052727 0.11547268 1.3240001 4284953934
0.085266106 0.1155599 1.325 4284299855
0.086481221 0.11564711 1.3260001 4283514446
0.087764166 0.11582154 1.3280001 4282794317
0.088916674 0.11582154 1.3280001 4282270796
0.090136997 0.11590876 1.3290001 4282074188
0.091359064 0.11599597 1.33 4282008654
0.092582859 0.11608319 1.3310001 4282074447
0.093667544 0.11599597 1.33 4282074447
0.094821781 0.11599597 1.33 4282074447
0.095976025 0.11599597 1.33 4282140239
0.096838139 0.11564711 1.3260001 4282140239
0.097841114 0.11547268 1.3240001 4282074446
0.098915376 0.11538546 1.3230001 4282008653
0.099987909 0.11529826 1.322 4282008653
0.1012117 0.11538546 1.3230001 4282008654
0.10235987 0.11538546 1.3230001 4282074446
0.10374274 0.11564711 1.3260001 4282140240
0.10497262 0.11573432 1.327 4282206032
0.10620423 0.11582154 1.3280001 4282140239
0.10743757 0.11590876 1.3290001 4282140239
0.10859095 0.11590876 1.3290001 4282140496
0.10982689 0.11599597 1.33 4282075216
0.11081424 0.11582154 1.3280001 4282074959
0.11179812 0.11564711 1.3260001 4282008653
0.11286371 0.1155599 1.325 4281943117
0.11392757 0.11547268 1.3240001 4282009423
0.11507659 0.11547268 1.3240001 4282140752
0.11622563 0.11547268 1.3240001 4282205775
0.117286 0.11538546 1.3230001 4282139726
0.11843417 0.11538546 1.3230001 4282271055
0.11958233 0.11538546 1.3230001 4282270798
0.1207305 0.11538546 1.3230001 4282336078
0.12197079 0.11547268 1.3240001 4282401357
0.1233058 0.11564711 1.3260001 4282597451
0.12445657 0.11564711 1.3260001 4282989643
0.12570207 0.11573432 1.327 4283512650
0.1269493 0.11582154 1.3280001 4284298315
0.12790887 0.11564711 1.3260001 4285084750
0.12905964 0.11564711 1.3260001 4285542991
0.13001402 0.11547268 1.3240001 4285542477
0.13106398 0.11538546 1.3230001 4285477454
0.13211222 0.11529826 1.322 4285085007
0.13295712 0.11503661 1.319 4284561999
0.13410181 0.11503661 1.319 4283776333
0.13514395 0.11494939 1.3180001 4282793032
0.13618436 0.11486217 1.317 4282269256
0.13732733 0.11486217 1.317 4282138697
0.13847028 0.11486217 1.317 4282204746
0.13971925 0.11494939 1.3180001 4282139468
0.14086308 0.11494939 1.3180001 4282139725
0.1420069 0.11494939 1.3180001 4282139725
0.1429335 0.11477496 1.3160001 4282139212
0.14396611 0.11468774 1.3150001 4281942346
0.14499699 0.11460052 1.314 4282008138
0.14591491 0.1144261 1.312 4282074187
0.14694144 0.11433888 1.3110001 4282139980
0.14807919 0.11433888 1.3110001 4282139980
0.1489893 0.11416446 1.309 4282205773
0.15012532 0.11416446 1.309 4282271822
0.15114577 0.11407723 1.3080001 4282337872
0.15181524 0.11372838 1.304 4282469202
0.15294692 0.11372838 1.304 4282600790
0.15384227 0.11355395 1.302 4282666583
0.15497221 0.11355395 1.302 4282798169
0.15610215 0.11355395 1.302 4282798169
0.15723209 0.11355395 1.302 4282798169
0.15836203 0.11355395 1.302 4282863962
0.15949197 0.11355395 1.302 4282929755
0.16074528 0.11364117 1.3030001 4283061341
0.16187608 0.11364117 1.3030001 4283258976
0.16300689 0.11364117 1.3030001 4283258720
0.16426367 0.11372838 1.304 4283324256
0.16539535 0.11372838 1.304 4283324256
0.16652702 0.11372838 1.304 4283521122
0.1676587 0.11372838 1.304 4283652708
0.16879037 0.11372838 1.304 4283783522
0.16992204 0.11372838 1.304 4283979360
0.17092255 0.11364117 1.3030001 4284305246
0.17205335 0.11364117 1.3030001 4285220958
0.17318416 0.11364117 1.3030001 4286595422
0.17418118 0.11355395 1.302 4287248989
0.17531112 0.11355395 1.302 4287115863
0.17644106 0.11355395 1.302 4287312728
0.17743462 0.11346674 1.3010001 4287511132
0.1785637 0.11346674 1.3010001 4286922075
0.17969276 0.11346674 1.3010001 4286071902
0.18096082 0.11355395 1.302 4285419105
0.18209076 0.11355395 1.302 4284831331
0.18336143 0.11364117 1.3030001 4284373604
0.18449223 0.11364117 1.3030001 4284177765
0.18562303 0.11364117 1.3030001 4284112742
0.18661052 0.11355395 1.302 4284375145
0.18774046 0.11355395 1.302 4284178280
0.18872534 0.11346674 1.3010001 4283916392
0.18970847 0.11337952 1.3000001 4283785063
0.19068988 0.1132923 1.299 4283719014
0.19181721 0.1132923 1.299 4283719271
0.19294456 0.1132923 1.299 4283916138
0.1943707 0.11346674 1.3010001 4283982444
0.19565003 0.11355395 1.302 4283916651
0.19723338 0.11381559 1.3050001 4283785321
0.19836593 0.11381559 1.3050001 4283653992
0.19965135 0.11390281 1.3060001 4283588199
0.20139973 0.11425167 1.3100001 4283521893
0.2026912 0.11433888 1.3110001 4283456099
0.20413992 0.11451332 1.3130001 4283456099
0.20720494 0.11494939 1.3180001 4283324256
0.20850685 0.11503661 1.319 4283126877
0.20965154 0.11503661 1.319 4282994778
0.21143548 0.11538546 1.3230001 4282994521
0.21274434 0.11547268 1.3240001 4282928215
0.21405493 0.1155599 1.325 4282599250
0.2158545 0.11590876 1.3290001 4282467152
0.21717116 0.11599597 1.33 4282598738
0.21848954 0.11608319 1.3310001 4282993496
0.22013971 0.11634483 1.3340001 4283585633
0.22146332 0.11643205 1.335 4283783011
0.22278866 0.11651926 1.3360001 4283585632
0.22428335 0.1166937 1.3380001 4283586145
0.22544454 0.1166937 1.3380001 4283454559
0.22660573 0.1166937 1.3380001 4283454557
-0.011462267 0.11811105 1.3410001 4283979876
-0.010290802 0.11802297 1.34 4283914083
-0.0091210706 0.11793488 1.3390001 4284044900
-0.0079709096 0.11811105 1.3410001 4284176742
-0.0068122 0.11819912 1.342 4283980647
-0.0056517543 0.1182872 1.3430001 4283718246
-0.0044962545 0.11855143 1.3460001 4283652198
-0.0033306021 0.11863951 1.3470001 4283586918
-0.0021616092 0.11863951 1.3470001 4283586661
-0.00099261652 0.11863951 1.3470001 4283652711
0.00017624542 0.11855143 1.3460001 4283784553
0.0013433716 0.11846334 1.345 4283850346
0.0025087621 0.11837528 1.3440001 4283719274
0.0036751514 0.11837528 1.3440001 4283587688
0.0048379381 0.1182872 1.3430001 4283653481
0.0059989896 0.11819912 1.342 4283785067
0.0071583046 0.11811105 1.3410001 4283785067
0.0083220908 0.11811105 1.3410001 4283785067
0.0094575817 0.11775874 1.337 4283850860
0.010594071 0.11749451 1.3340001 4283850859
0.011698926 0.11696605 1.3280001 4283785065
0.012832074 0.11678988 1.3260001 4283719272
0.013972297 0.11670182 1.325 4283785065
0.01505372 0.11617336 1.319 4283850858
0.016186133 0.11608528 1.3180001 4283850344
0.017277362 0.11573296 1.314 4283916137
0.018431732 0.11582104 1.3150001 4284047979
0.019572955 0.11582104 1.3150001 4284047979
0.020729927 0.11590913 1.3160001 4283982186
0.021855399 0.11582104 1.3150001 4284047466
0.022996619 0.11582104 1.3150001 4284046951
0.024119485 0.11573296 1.314 4284308326
0.025240615 0.11564489 1.3130001 4284765797
0.026380101 0.11564489 1.3130001 4285353314
0.027477669 0.11546873 1.3110001 4286399072
0.028615417 0.11546873 1.3110001 4287315297
0.029730475 0.11538067 1.3100001 4287576158
0.030867357 0.11538067 1.3100001 4287772766
0.03195538 0.11520451 1.3080001 4287838815
0.033090524 0.11520451 1.3080001 4287577697
0.034225672 0.11520451 1.3080001 4286398043
0.035333782 0.11511643 1.307 4285350232
0.036495965 0.11520451 1.3080001 4284433750
0.037631113 0.11520451 1.3080001 4283713877
0.038795896 0.11529259 1.309 4283255894
0.039931908 0.11529259 1.309 4282928726
0.041099299 0.11538067 1.3100001 4282666326
0.042268422 0.11546873 1.3110001 4282535511
0.04340617 0.11546873 1.3110001 4282469974
0.0445779 0.11555681 1.312 4282404181
0.045716517 0.11555681 1.312 4282469204
0.046819422 0.11546873 1.3110001 4282469460
0.047993753 0.11555681 1.312 4282338388
0.049132373 0.11555681 1.312 4282272851
0.05027099 0.11555681 1.312 4282338131
0.051487975 0.11573296 1.314 4282403411
0.052668381 0.11582104 1.3150001 4282403411
0.05385052 0.11590913 1.3160001 4282337618
0.055117976 0.11617336 1.319 4282337617
0.056305327 0.11626142 1.3200001 4282337618
0.057450883 0.11626142 1.3200001 4282337873
0.058640838 0.1163495 1.3210001 4282337872
0.05978727 0.1163495 1.3210001 4282337359
0.060933698 0.1163495 1.3210001 4282271309
0.061986133 0.11617336 1.319 4282139724
0.063082963 0.11608528 1.3180001 4282008394
0.064178064 0.1159972 1.317 4281943114
0.065172225 0.11573296 1.314 4281877321
0.066312581 0.11573296 1.314 4281942344
0.06745293 0.11573296 1.314 4281942088
0.068593286 0.11573296 1.314 4282007367
0.069733642 0.11573296 1.314 4282072647
0.070927933 0.11582104 1.3150001 4282007111
0.072178766 0.1159972 1.317 4282072904
0.073377393 0.11608528 1.3180001 4282269256
0.074521221 0.11608528 1.3180001 4282596425
0.075779855 0.11626142 1.3200001 4283119944
0.076983698 0.1163495 1.3210001 4283709000
0.078189269 0.11643758 1.322 4284560716
0.079456598 0.11661374 1.3240001 4285347408
0.080666505 0.11670182 1.325 4285477968
0.081878148 0.11678988 1.3260001 4285346382
0.083091542 0.11687797 1.327 4285281359
0.084306657 0.11696605 1.3280001 4285085777
0.085459165 0.11696605 1.3280001 4284628050
0.086611666 0.11696605 1.3280001 4283973200
0.087830253 0.11705413 1.3290001 4283383630
0.089050584 0.11714219 1.33 4282794060
0.090204827 0.11714219 1.33 4282401612
0.091496445 0.11731835 1.332 4282271566
0.092652418 0.11731835 1.332 4282206287
0.093878821 0.11740643 1.3330001 4282206032
0.095035665 0.11740643 1.3330001 4282140239
0.096120343 0.11731835 1.332 4282140239
0.097057223 0.11705413 1.3290001 4282140240
0.098136701 0.11696605 1.3280001 4282140240
0.099214442 0.11687797 1.327 4282074447
0.10036608 0.11687797 1.327 4282074447
0.10151771 0.11687797 1.327 4282008654
0.10274672 0.11696605 1.3280001 4282074447
0.10413393 0.11723027 1.3310001 4282206033
0.10536814 0.11731835 1.332 4282206033
0.10652412 0.11731835 1.332 4282140240
0.10784177 0.11749451 1.3340001 4282206033
0.10908119 0.11758259 1.335 4282206033
0.11023977 0.11758259 1.335 4282140239
0.11123147 0.11740643 1.3330001 4282205775
0.11230399 0.11731835 1.332 4282271568
0.11337479 0.11723027 1.3310001 4282271568
0.1143578 0.11705413 1.3290001 4282206032
0.11551117 0.11705413 1.3290001 4282271825
0.11657677 0.11696605 1.3280001 4282271568
0.11764061 0.11687797 1.327 4282140239
0.11870272 0.11678988 1.3260001 4282139982
0.1198535 0.11678988 1.3260001 4282336591
0.12100426 0.11678988 1.3260001 4282532687
0.12224716 0.11687797 1.327 4282597966
0.12358477 0.11705413 1.3290001 4282728524
0.12473814 0.11705413 1.3290001 4283251788
0.12589152 0.11705413 1.3290001 4284037711
0.12714049 0.11714219 1.33 4284627794
0.12829472 0.11714219 1.33 4284758611
0.12935163 0.11705413 1.3290001 4284758354
0.13030861 0.11687797 1.327 4284692560
0.13126212 0.11670182 1.325 4284561488
0.13221215 0.11652566 1.3230001 4284562256
0.13295712 0.11617336 1.319 4284431440
0.13400012 0.11608528 1.3180001 4284037708
0.13514395 0.11608528 1.3180001 4283316295
0.13608098 0.11590913 1.3160001 4282661189
0.13722306 0.11590913 1.3160001 4282334278
0.13847028 0.1159972 1.317 4282269513
0.13961324 0.1159972 1.317 4282138954
0.14086308 0.11608528 1.3180001 4281942601
0.14211465 0.11617336 1.319 4281877064
0.14315073 0.11608528 1.3180001 4281942088
0.14418507 0.1159972 1.317 4281876296
0.14521769 0.11590913 1.3160001 4281942088
0.14624856 0.11582104 1.3150001 4281942345
0.1472777 0.11573296 1.314 4282008394
0.14841804 0.11573296 1.314 4282139980
0.14944459 0.11564489 1.3130001 4282205773
0.15046938 0.11555681 1.312 4282337359
0.15160801 0.11555681 1.312 4282403408
0.15239735 0.11529259 1.309 4282534738
0.15306419 0.11494027 1.3050001 4282600788
0.15396042 0.11476412 1.3030001 4282666581
0.15509124 0.11476412 1.3030001 4282601045
0.15610215 0.11467604 1.302 4282666837
0.15723209 0.11467604 1.302 4282732631
0.15824041 0.11458798 1.3010001 4282798423
0.15936947 0.11458798 1.3010001 4282798424
0.16049854 0.11458798 1.3010001 4282930010
0.16175184 0.11467604 1.302 4283127134
0.16288178 0.11467604 1.302 4283127134
0.16413769 0.11476412 1.3030001 4283126877
0.16526851 0.11476412 1.3030001 4283192670
0.16639931 0.11476412 1.3030001 4283455328
0.1676587 0.1148522 1.304 4283521121
0.16866092 0.11476412 1.3030001 4283586400
0.16979173 0.11476412 1.3030001 4283847775
0.17105372 0.1148522 1.304 4284238939
0.17218539 0.1148522 1.304 4285089114
0.17331707 0.1148522 1.304 4286464093
0.17444874 0.1148522 1.304 4287381088
0.17544577 0.11476412 1.3030001 4287707742
0.17657658 0.11476412 1.3030001 4287576412
0.17770739 0.11476412 1.3030001 4287249500
0.17883819 0.11476412 1.3030001 4286463834
0.179969 0.11476412 1.3030001 4285679710
0.1810998 0.11476412 1.3030001 4285223779
0.18223062 0.11476412 1.3030001 4284635236
0.18336143 0.11476412 1.3030001 4284308324
0.18449223 0.11476412 1.3030001 4284243045
0.18562303 0.11476412 1.3030001 4284046693
0.18661052 0.11467604 1.302 4284112488
0.18759628 0.11458798 1.3010001 4283916136
0.18872534 0.11458798 1.3010001 4283719784
0.18956254 0.11441181 1.299 4283653991
0.19068988 0.11441181 1.299 4283719271
0.19166955 0.11432374 1.2980001 4283784807
0.19279602 0.11432374 1.2980001 4283981674
0.19407189 0.11441181 1.299 4283982187
0.19519922 0.11441181 1.299 4283981930
0.19662884 0.11458798 1.3010001 4283850601
0.19790991 0.11467604 1.302 4283785064
0.19903985 0.11467604 1.302 4283719271
0.20078476 0.11502835 1.3060001 4283587685
0.20222738 0.11520451 1.3080001 4283521636
0.203518 0.11529259 1.309 4283455842
0.20543574 0.11573296 1.314 4283390306
0.20657609 0.11573296 1.314 4283324256
0.20771645 0.11573296 1.314 4283126877
0.20933364 0.1159972 1.317 4283060571
0.21031679 0.11590913 1.3160001 4282994778
0.21161956 0.1159972 1.317 4282862679
0.21964465 0.11723027 1.3310001 4283715935
0.22096565 0.11731835 1.332 4283979619
0.22212163 0.11731835 1.332 4283782241
0.22361284 0.11749451 1.3340001 4283585632
0.22477056 0.11749451 1.3340001 4283717474
0.22609764 0.11758259 1.335 4283585886
-0.011445171 0.11908887 1.3390001 4284110179
-0.010275442 0.11899994 1.3380001 4284109923
-0.0091142599 0.11899994 1.3380001 4284373094
-0.007964965 0.11917781 1.34 4284505193
-0.0068122 0.11935569 1.342 4284176743
-0.0056517543 0.11944463 1.3430001 4283783268
-0.0044962545 0.11971144 1.3460001 4283586917
-0.0033281294 0.11971144 1.3460001 4283521893
-0.0021616092 0.11980039 1.3470001 4283652966
-0.0009911427 0.1196225 1.345 4283718759
0.00017598354 0.11953357 1.3440001 4283784552
0.001341374 0.11944463 1.3430001 4283784552
0.0025068955 0.11944463 1.3430001 4283653481
0.0036724168 0.11944463 1.3430001 4283587688
0.0048379381 0.11944463 1.3430001 4283587688
0.0060034599 0.11944463 1.3430001 4283719273
0.0071636434 0.11935569 1.342 4283785067
0.0083282972 0.11935569 1.342 4283785067
0.0094575817 0.118911 1.337 4283785065
0.010594071 0.11864419 1.3340001 4283719272
0.011698926 0.11811055 1.3280001 4283719272
0.012832074 0.11793266 1.3260001 4283653479
0.013961752 0.11775479 1.3240001 4283719272
0.015030893 0.11713222 1.317 4283785065
0.01616157 0.11704329 1.3160001 4283850600
0.017264213 0.11677647 1.3130001 4283785064
0.018417716 0.1168654 1.314 4283916136
0.019558068 0.1168654 1.314 4283916136
0.020714177 0.11695434 1.3150001 4283916136
0.021855399 0.11695434 1.3150001 4283981929
0.022996619 0.11695434 1.3150001 4283915878
0.024119485 0.1168654 1.314 4284111716
0.025240615 0.11677647 1.3130001 4284503138
0.026380101 0.11677647 1.3130001 4285156448
0.027477669 0.11659858 1.3110001 4286398815
0.028615417 0.11659858 1.3110001 4287446370
0.029730475 0.11650965 1.3100001 4287707744
0.030867357 0.11650965 1.3100001 4287839073
0.03195538 0.11633177 1.3080001 4287708257
0.033090524 0.11633177 1.3080001 4287381345
0.034225672 0.11633177 1.3080001 4286595679
0.035360821 0.11633177 1.3080001 4285876062
0.036468063 0.11624284 1.307 4284827995
0.037631113 0.11633177 1.3080001 4283713364
0.038795896 0.11642072 1.309 4283058258
0.039962418 0.11650965 1.3100001 4282665554
0.041130669 0.11659858 1.3110001 4282337361
0.042268422 0.11659858 1.3110001 4282272339
0.04340617 0.11659858 1.3110001 4282272595
0.044611879 0.11677647 1.3130001 4282206802
0.045716517 0.11668753 1.312 4282206545
0.046890851 0.11677647 1.3130001 4282141265
0.048030335 0.11677647 1.3130001 4282141265
0.049169824 0.11677647 1.3130001 4282009936
0.050309308 0.11677647 1.3130001 4282075472
0.051527161 0.11695434 1.3150001 4282141265
0.052708432 0.11704329 1.3160001 4282206288
0.053891443 0.11713222 1.317 4282206031
0.055159763 0.11739903 1.3200001 4282140494
0.056305327 0.11739903 1.3200001 4282140493
0.057494409 0.11748797 1.3210001 4282140493
0.058685228 0.11757692 1.322 4282140493
0.059832525 0.11757692 1.322 4282140237
0.060979821 0.11757692 1.322 4282139980
0.061986133 0.11731011 1.319 4282074187
0.063082963 0.11722116 1.3180001 4282074187
0.064178064 0.11713222 1.317 4281943114
0.065221824 0.11695434 1.3150001 4281877321
0.066312581 0.1168654 1.314 4281942345
0.06745293 0.1168654 1.314 4281942088
0.068593286 0.1168654 1.314 4282007368
0.069786705 0.11695434 1.3150001 4282007111
0.070927933 0.11695434 1.3150001 4282072904
0.072178766 0.11713222 1.317 4282138440
0.073377393 0.11722116 1.3180001 4282269513
0.074521221 0.11722116 1.3180001 4282596425
0.075837269 0.11748797 1.3210001 4283185481
0.077041976 0.11757692 1.322 4283971659
0.078248411 0.11766585 1.3230001 4284495436
0.079516605 0.11784373 1.325 4284691019
0.080727383 0.11793266 1.3260001 4284821835
0.081939906 0.11802161 1.327 4284756298
0.083216771 0.11819949 1.3290001 4284559690
0.084306657 0.11811055 1.3280001 4284429130
0.085459165 0.11811055 1.3280001 4284299342
0.086611666 0.11811055 1.3280001 4284104273
0.087896347 0.11828842 1.33 4283581266
0.089050584 0.11828842 1.33 4282860367
0.090204827 0.11828842 1.33 4282467405
0.091496445 0.11846631 1.332 4282337103
0.092652418 0.11846631 1.332 4282403153
0.09380839 0.11846631 1.332 4282403154
0.095035665 0.11855524 1.3330001 4282403154
0.096120343 0.11846631 1.332 4282271568
0.097130261 0.11828842 1.33 4282205776
0.098210596 0.11819949 1.3290001 4282140240
0.099289209 0.11811055 1.3280001 4282140240
0.10044171 0.11811055 1.3280001 4282140240
0.10159422 0.11811055 1.3280001 4282074447
0.10282408 0.11819949 1.3290001 4282140240
0.10421217 0.11846631 1.332 4282206033
0.10544726 0.11855524 1.3330001 4282206033
0.1066041 0.11855524 1.3330001 4282140240
0.10800346 0.11882205 1.3360001 4282206033
0.10916291 0.11882205 1.3360001 4282206033
0.11032236 0.11882205 1.3360001 4282205776
0.11139835 0.11873312 1.335 4282206289
0.11247262 0.11864419 1.3340001 4282141009
0.11354516 0.11855524 1.3330001 4282140753
0.11444385 0.11828842 1.33 4282206032
0.11551117 0.11819949 1.3290001 4282271825
0.11666454 0.11819949 1.3290001 4282271568
0.11764061 0.11802161 1.327 4282205775
0.11879225 0.11802161 1.327 4282206032
0.11976311 0.11784373 1.325 4282336848
0.12100426 0.11793266 1.3260001 4282532944
0.12215503 0.11793266 1.3260001 4282663502
0.12349179 0.11811055 1.3280001 4282859339
0.12464429 0.11811055 1.3280001 4283120458
0.12589152 0.11819949 1.3290001 4283578956
0.12714049 0.11828842 1.33 4284169040
0.12829472 0.11828842 1.33 4284561744
0.12944897 0.11828842 1.33 4284561231
0.13030861 0.11802161 1.327 4284626511
0.13126212 0.11784373 1.325 4284495694
0.13231207 0.11775479 1.3240001 4284299341
0.13295712 0.11731011 1.319 4284102988
0.13400012 0.11722116 1.3180001 4283841099
0.13514395 0.11722116 1.3180001 4283382602
0.13608098 0.11704329 1.3160001 4282661959
0.13722306 0.11704329 1.3160001 4282203204
0.13847028 0.11713222 1.317 4282072390
0.13971925 0.11722116 1.3180001 4282073161
0.14086308 0.11722116 1.3180001 4282008137
0.14211465 0.11731011 1.319 4281876808
0.14325935 0.11731011 1.319 4281942088
0.14429456 0.11722116 1.3180001 4281942088
0.14532803 0.11713222 1.317 4281876295
0.14635977 0.11704329 1.3160001 4281876551
0.14738978 0.11695434 1.3150001 4281942601
0.148531 0.11695434 1.3150001 4282008651
0.1495584 0.1168654 1.314 4282140236
0.15058407 0.11677647 1.3130001 4282206030
0.15172356 0.11677647 1.3130001 4282337359
0.15239735 0.11642072 1.309 4282468945
0.15341607 0.11633177 1.3080001 4282534738
0.15396042 0.11588708 1.3030001 4282600532
0.15509124 0.11588708 1.3030001 4282469460
0.15622205 0.11588708 1.3030001 4282534997
0.15711133 0.11570921 1.3010001 4282666839
0.15824041 0.11570921 1.3010001 4282732376
0.15936947 0.11570921 1.3010001 4282797912
0.16049854 0.11570921 1.3010001 4282863705
0.16175184 0.11579814 1.302 4282995548
0.16288178 0.11579814 1.302 4283061341
0.16413769 0.11588708 1.3030001 4283061341
0.16526851 0.11588708 1.3030001 4283061341
0.1662716 0.11579814 1.302 4283192155
0.16753012 0.11588708 1.3030001 4283257691
0.16866092 0.11588708 1.3030001 4283322971
0.16979173 0.11588708 1.3030001 4283584090
0.17105372 0.11597603 1.304 4284172631
0.17218539 0.11597603 1.304 4285088600
0.17331707 0.11597603 1.304 4286595679
0.17431496 0.11588708 1.3030001 4287578980
0.17544577 0.11588708 1.3030001 4287905634
0.17657658 0.11588708 1.3030001 4287840097
0.17770739 0.11588708 1.3030001 4287513185
0.17883819 0.11588708 1.3030001 4286530654
0.179969 0.11588708 1.3030001 4285549664
0.1810998 0.11588708 1.3030001 4284896354
0.18223062 0.11588708 1.3030001 4284307297
0.1832207 0.11579814 1.302 4284046179
0.18435064 0.11579814 1.302 4284112230
0.18548058 0.11579814 1.302 4283981415
0.1864672 0.11570921 1.3010001 4283915880
0.18759628 0.11570921 1.3010001 4283785064
0.18858027 0.11562026 1.3000001 4283719528
0.18956254 0.11553133 1.299 4283654248
0.19068988 0.11553133 1.299 4283850601
0.19166955 0.1154424 1.2980001 4283916137
0.19294456 0.11553133 1.299 4283850601
0.19407189 0.11553133 1.299 4283850857
0.19519922 0.11553133 1.299 4283916137
0.19662884 0.11570921 1.3010001 4283850345
0.19790991 0.11579814 1.302 4283916138
0.19903985 0.11579814 1.302 4283784552
0.20063101 0.11606495 1.3050001 4283587686
0.20207278 0.11624284 1.307 4283456100
0.20336252 0.11633177 1.3080001 4283390049
0.20512305 0.11668753 1.312 4283324256
0.20626166 0.11668753 1.312 4283192670
0.20740029 0.11668753 1.312 4283126877
0.20885679 0.1168654 1.314 4283126364
0.20999715 0.1168654 1.314 4282994778
0.2112982 0.11695434 1.3150001 4282731606
0.21947964 0.11828842 1.33 4283714907
0.22063388 0.11828842 1.33 4284109923
0.22195487 0.11837737 1.3310001 4283979107
0.2232776 0.11846631 1.332 4283650911
0.22460207 0.11855524 1.3330001 4283585889
0.22575893 0.11855524 1.3330001 4283914852
-0.013779555 0.12033266 1.34 4284307044
-0.012607221 0.12024286 1.3390001 4284372067
-0.011419529 0.11997345 1.3360001 4284765029
-0.010252402 0.11988366 1.335 4285093737
-0.0090938238 0.11988366 1.335 4284963178
-0.007964965 0.12033266 1.34 4284438374
-0.0068122 0.12051225 1.342 4283979106
-0.005655963 0.12069187 1.3440001 4283651681
-0.0044995951 0.12096126 1.3470001 4283586660
-0.0033281294 0.12087146 1.3460001 4283587173
-0.0021600046 0.12087146 1.3460001 4283653222
-0.00098966889 0.12060206 1.3430001 4283718758
0.00017559071 0.12042247 1.3410001 4283653222
0.0013383777 0.12033266 1.34 4283718758
0.0024994288 0.12024286 1.3390001 4283719272
0.0036642135 0.12033266 1.34 4283719272
0.0048307339 0.12042247 1.3410001 4283653479
0.0059989896 0.12051225 1.342 4283719272
0.0071636434 0.12051225 1.342 4283719272
0.0083220908 0.12042247 1.3410001 4283653479
0.0094575817 0.12006326 1.337 4283653479
0.01058613 0.11970405 1.3330001 4283653479
0.011672497 0.11898565 1.325 4283719272
0.012803043 0.11880604 1.3230001 4283719272
0.013919571 0.11853664 1.3200001 4283719272
0.014973829 0.11781824 1.312 4283785065
0.016100166 0.11772844 1.3110001 4283916393
0.017224768 0.11763865 1.3100001 4283850600
0.018375667 0.11772844 1.3110001 4283915367
0.019528301 0.11781824 1.312 4283849574
0.020682672 0.11790805 1.3130001 4283915110
0.021822156 0.11790805 1.3130001 4283849830
0.022961643 0.11790805 1.3130001 4283849572
0.024101129 0.11790805 1.3130001 4283979617
0.025240615 0.11790805 1.3130001 4284305759
0.026380101 0.11790805 1.3130001 4285024862
0.027477669 0.11772844 1.3110001 4286530914
0.028615417 0.11772844 1.3110001 4287513446
0.029753167 0.11772844 1.3110001 4287380321
0.030867357 0.11763865 1.3100001 4287182685
0.031979807 0.11754885 1.309 4287051869
0.033115823 0.11754885 1.309 4286789981
0.034251835 0.11754885 1.309 4286594653
0.035387851 0.11754885 1.309 4286268511
0.036495965 0.11745904 1.3080001 4285483103
0.037631113 0.11745904 1.3080001 4284171350
0.038825534 0.11763865 1.3100001 4283188305
0.039962418 0.11763865 1.3100001 4282664528
0.042300664 0.11781824 1.312 4282206288
0.043472391 0.11790805 1.3130001 4282272338
0.044645853 0.11799784 1.314 4282141009
0.045890741 0.11826724 1.317 4282140495
0.047105122 0.11844685 1.319 4282140239
0.048286397 0.11853664 1.3200001 4282271568
0.049506854 0.11871625 1.322 4282206032
0.050654151 0.11871625 1.322 4282205775
0.051762268 0.11862645 1.3210001 4282140239
0.052988797 0.11880604 1.3230001 4282008908
0.054177884 0.11889585 1.3240001 4282008907
0.055326916 0.11889585 1.3240001 4282008907
0.056561258 0.11907545 1.3260001 4282008907
0.057712022 0.11907545 1.3260001 4282008907
0.058818404 0.11898565 1.325 4282008907
0.059968304 0.11898565 1.325 4282008651
0.060979821 0.11871625 1.322 4282008394
0.062033128 0.11853664 1.3200001 4281942601
0.063130826 0.11844685 1.319 4281942601
0.064178064 0.11826724 1.317 4281876810
0.065221824 0.11808764 1.3150001 4281876810
0.066312581 0.11799784 1.314 4281876810
0.06745293 0.11799784 1.314 4281876810
0.068593286 0.11799784 1.314 4282007626
0.069786705 0.11808764 1.3150001 4282007370
0.070927933 0.11808764 1.3150001 4282138443
0.072178766 0.11826724 1.317 4282269515
0.073377393 0.11835705 1.3180001 4282466380
0.074577756 0.11844685 1.319 4282531403
0.075894676 0.11871625 1.322 4282858571
0.077041976 0.11871625 1.322 4283383631
0.078248411 0.11880604 1.3230001 4283317838
0.079576619 0.11907545 1.3260001 4282923850
0.08078827 0.11916525 1.327 4282596167
0.081939906 0.11916525 1.327 4282465094
0.083216771 0.11934486 1.3290001 4282595910
0.084370136 0.11934486 1.3290001 4282858313
0.085523508 0.11934486 1.3290001 4283251788
0.086676881 0.11934486 1.3290001 4283711312
0.087896347 0.11943465 1.33 4283712082
0.089050584 0.11943465 1.33 4283384657
0.09027265 0.11952446 1.3310001 4282991954
0.091496445 0.11961426 1.332 4282665043
0.092652418 0.11961426 1.332 4282533971
0.09380839 0.11961426 1.332 4282600020
0.095035665 0.11970405 1.3330001 4282665557
0.096120343 0.11961426 1.332 4282534227
0.097130261 0.11943465 1.33 4282337105
0.098284498 0.11943465 1.33 4282271313
0.099363968 0.11934486 1.3290001 4282337106
0.10051734 0.11934486 1.3290001 4282271313
0.10167071 0.11934486 1.3290001 4282205776
0.10290146 0.11943465 1.33 4282206033
0.10429041 0.11970405 1.3330001 4282271826
0.10552636 0.11979385 1.3340001 4282271826
0.10668407 0.11979385 1.3340001 4282206033
0.1080843 0.12006326 1.337 4282271826
0.10924461 0.12006326 1.337 4282337106
0.11048751 0.12015306 1.3380001 4282336849
0.1114818 0.11997345 1.3360001 4282337106
0.11255693 0.11988366 1.335 4282402899
0.11363033 0.11979385 1.3340001 4282337362
0.11452989 0.11952446 1.3310001 4282402641
0.11559809 0.11943465 1.33 4282402641
0.11675233 0.11943465 1.33 4282337105
0.11764061 0.11916525 1.327 4282337361
0.11879225 0.11916525 1.327 4282403154
0.11976311 0.11898565 1.325 4282337361
0.12091301 0.11898565 1.325 4282402382
0.12206291 0.11898565 1.325 4282466892
0.1233988 0.11916525 1.327 4282662987
0.12464429 0.11925505 1.3280001 4282793804
0.12589152 0.11934486 1.3290001 4282925133
0.12714049 0.11943465 1.33 4282925646
0.12829472 0.11943465 1.33 4282860366
0.12944897 0.11943465 1.33 4282729036
0.13040681 0.11925505 1.3280001 4282663242
0.13136117 0.11907545 1.3260001 4282728265
0.13231207 0.11889585 1.3240001 4282792775
0.13295712 0.11844685 1.319 4282988870
0.13400012 0.11835705 1.3180001 4283382858
0.13514395 0.11835705 1.3180001 4283449421
0.13618436 0.11826724 1.317 4282924874
0.13732733 0.11826724 1.317 4282399814
0.13836515 0.11817745 1.3160001 4282072134
0.13961324 0.11826724 1.317 4282007368
0.14086308 0.11835705 1.3180001 4282007881
0.14211465 0.11844685 1.319 4282007881
0.14325935 0.11844685 1.319 4282073161
0.14440404 0.11844685 1.319 4282007368
0.14543839 0.11835705 1.3180001 4281876552
0.14647098 0.11826724 1.317 4281811015
0.14750187 0.11817745 1.3160001 4281877065
0.14864396 0.11817745 1.3160001 4281943114
0.14967223 0.11808764 1.3150001 4282008907
0.15069875 0.11799784 1.314 4282140237
0.15183911 0.11799784 1.314 4282271567
0.15251377 0.11763865 1.3100001 4282337360
0.15341607 0.11745904 1.3080001 4282403153
0.15407859 0.11709984 1.304 4282403410
0.15509124 0.11701004 1.3030001 4282403411
0.15622205 0.11701004 1.3030001 4282534997
0.15711133 0.11683045 1.3010001 4282666583
0.15824041 0.11683045 1.3010001 4282666583
0.15936947 0.11683045 1.3010001 4282732119
0.16049854 0.11683045 1.3010001 4282797912
0.16162762 0.11683045 1.3010001 4282929498
0.16288178 0.11692023 1.302 4282929498
0.16413769 0.11701004 1.3030001 4282995035
0.16514166 0.11692023 1.302 4282994778
0.1662716 0.11692023 1.302 4283059798
0.16740154 0.11692023 1.302 4283125079
0.16866092 0.11701004 1.3030001 4283321431
0.16979173 0.11701004 1.3030001 4283582293
0.17092255 0.11701004 1.3030001 4284433493
0.17205335 0.11701004 1.3030001 4285350232
0.17318416 0.11701004 1.3030001 4286727008
0.17431496 0.11701004 1.3030001 4287513444
0.17544577 0.11701004 1.3030001 4287512673
0.17657658 0.11701004 1.3030001 4287578466
0.17770739 0.11701004 1.3030001 4287514212
0.17883819 0.11701004 1.3030001 4286728546
0.179969 0.11701004 1.3030001 4285812323
0.18096082 0.11692023 1.302 4284895840
0.18209076 0.11692023 1.302 4284372833
0.1832207 0.11692023 1.302 4284111715
0.18435064 0.11692023 1.302 4284177766
0.18548058 0.11692023 1.302 4284112487
0.1864672 0.11683045 1.3010001 4284112489
0.18745208 0.11674064 1.3000001 4283981417
0.18858027 0.11674064 1.3000001 4283915880
0.18956254 0.11665083 1.299 4283916137
0.19068988 0.11665083 1.299 4284047211
0.19181721 0.11665083 1.299 4283981674
0.19294456 0.11665083 1.299 4283850345
0.19407189 0.11665083 1.299 4283784552
0.19519922 0.11665083 1.299 4283850088
0.19662884 0.11683045 1.3010001 4283850089
0.19775791 0.11683045 1.3010001 4283850345
0.19903985 0.11692023 1.302 4283784552
0.20063101 0.11718964 1.3050001 4283587686
0.20191817 0.11727944 1.3060001 4283456100
0.20320706 0.11736925 1.307 4283390049
0.20465402 0.11754885 1.309 4283258463
0.20594725 0.11763865 1.3100001 4283192670
0.20708413 0.11763865 1.3100001 4283126877
0.2085389 0.11781824 1.312 4283060827
0.20967753 0.11781824 1.312 4282863449
0.21081614 0.11781824 1.312 4282797655
0.2191496 0.11925505 1.3280001 4283648601
0.22046798 0.11934486 1.3290001 4284239713
0.22162135 0.11934486 1.3290001 4284306276
0.22310998 0.11952446 1.3310001 4284174946
0.22426508 0.11952446 1.3310001 4283978851
0.22542019 0.11952446 1.3310001 4283914083
-0.013779555 0.12148751 1.34 4284829795
-0.012597806 0.12130619 1.3380001 4285092454
-0.011419529 0.12112485 1.3360001 4285552235
-0.010252402 0.1210342 1.335 4286144372
-0.0090938238 0.1210342 1.335 4285356653
-0.007964965 0.12148751 1.34 4284108639
-0.0068122 0.12166882 1.342 4283650655
-0.0056517543 0.12175949 1.3430001 4283521122
-0.0044995951 0.12212215 1.3470001 4283521379
-0.0033281294 0.12203148 1.3460001 4283587685
-0.0021600046 0.12203148 1.3460001 4283587428
-0.00098966889 0.12175949 1.3430001 4283653221
0.00017559071 0.12157817 1.3410001 4283587428
0.0013383777 0.12148751 1.34 4283653221
0.0024994288 0.12139684 1.3390001 4283719272
0.0036642135 0.12148751 1.34 4283785065
0.0048271315 0.12148751 1.34 4283719272
0.0059945192 0.12157817 1.3410001 4283785065
0.0071529672 0.12148751 1.34 4283785065
0.0083158845 0.12148751 1.34 4283719272
0.0094363606 0.12094353 1.3340001 4283653479
0.010578188 0.12076221 1.332 4283719272
0.011663687 0.12003691 1.3240001 4283785065
0.012793366 0.11985558 1.322 4283653479
0.013909027 0.1195836 1.319 4283653479
0.014973829 0.11894896 1.312 4283719272
0.016100166 0.11885829 1.3110001 4283916393
0.017224768 0.11876764 1.3100001 4283916393
0.018375667 0.11885829 1.3110001 4283784037
0.019528301 0.11894896 1.312 4283652708
0.020682672 0.11903962 1.3130001 4283652452
0.021822156 0.11903962 1.3130001 4283586915
0.022961643 0.11903962 1.3130001 4283586913
0.024101129 0.11903962 1.3130001 4283716702
0.025240615 0.11903962 1.3130001 4284108637
0.026360011 0.11894896 1.312 4284762204
0.027477669 0.11885829 1.3110001 4286203233
0.028615417 0.11885829 1.3110001 4287120485
0.029753167 0.11885829 1.3110001 4286790750
0.030867357 0.11876764 1.3100001 4286264919
0.032004241 0.11876764 1.3100001 4286002774
0.033141121 0.11876764 1.3100001 4285544020
0.034278005 0.11876764 1.3100001 4285479253
0.035387851 0.11867698 1.309 4285547099
0.036523867 0.11867698 1.309 4285220701
0.03765988 0.11867698 1.309 4284303192
0.038795896 0.11867698 1.309 4283319890
0.039962418 0.11876764 1.3100001 4282533198
0.042332906 0.11903962 1.3130001 4282140751
0.043505497 0.11913028 1.314 4282337618
0.044679832 0.11922094 1.3150001 4282271825
0.04596043 0.1195836 1.319 4282271825
0.047140837 0.11967425 1.3200001 4282206288
0.048359558 0.11985558 1.322 4282271825
0.049581755 0.12003691 1.3240001 4282271825
0.050730787 0.12003691 1.3240001 4282140239
0.051879819 0.12003691 1.3240001 4281943374
0.053108957 0.12021822 1.3260001 4281943115
0.054259725 0.12021822 1.3260001 4281943114
0.055452276 0.12030889 1.327 4281943114
0.056646571 0.12039956 1.3280001 4282008907
0.057799075 0.12039956 1.3280001 4282008652
0.058907188 0.12030889 1.327 4281942860
0.060013559 0.12021822 1.3260001 4281942603
0.061164327 0.12021822 1.3260001 4281876810
0.062174112 0.11994624 1.3230001 4281811017
0.063274413 0.11985558 1.322 4281811017
0.064372987 0.11976492 1.3210001 4281811017
0.06542021 0.1195836 1.319 4281876810
0.066564903 0.1195836 1.319 4281942603
0.067709602 0.1195836 1.319 4281942603
0.068854295 0.1195836 1.319 4282007884
0.069998987 0.1195836 1.319 4282007628
0.071143679 0.1195836 1.319 4282138957
0.072343171 0.11967425 1.3200001 4282204237
0.073544413 0.11976492 1.3210001 4282400589
0.074747384 0.11985558 1.322 4282662477
0.076009497 0.12003691 1.3240001 4282989645
0.077275082 0.12021822 1.3260001 4283186254
0.078484997 0.12030889 1.327 4283120716
0.079756655 0.12049022 1.3290001 4282858313
0.081031792 0.12067155 1.3310001 4282662474
0.082248643 0.12076221 1.332 4282597195
0.083467238 0.12085287 1.3330001 4282531658
0.084687561 0.12094353 1.3340001 4282793804
0.085845277 0.12094353 1.3340001 4283121487
0.08693777 0.12085287 1.3330001 4283318353
0.088094607 0.12085287 1.3330001 4283384146
0.089184493 0.12076221 1.332 4283319380
0.090340465 0.12076221 1.332 4283189077
0.091496445 0.12076221 1.332 4282926932
0.092652418 0.12076221 1.332 4282730323
0.09380839 0.12076221 1.332 4282730836
0.095035665 0.12085287 1.3330001 4282796629
0.096120343 0.12076221 1.332 4282730836
0.097276315 0.12076221 1.332 4282533715
0.098432295 0.12076221 1.332 4282468179
0.099513501 0.12067155 1.3310001 4282468179
0.10074424 0.12076221 1.332 4282337106
0.10197672 0.12085287 1.3330001 4282271313
0.10321093 0.12094353 1.3340001 4282206033
0.10452513 0.12112485 1.3360001 4282271826
0.10576367 0.12121551 1.337 4282206033
0.10700396 0.12130619 1.3380001 4282206033
0.10832682 0.12148751 1.34 4282271826
0.10957145 0.12157817 1.3410001 4282337619
0.11081781 0.12166882 1.342 4282337619
0.11181558 0.12148751 1.34 4282337875
0.11289418 0.12139684 1.3390001 4282272596
0.11388586 0.12121551 1.337 4282206290
0.11470199 0.12085287 1.3330001 4282271313
0.11577192 0.12076221 1.332 4282337105
0.11684011 0.12067155 1.3310001 4282468434
0.11772927 0.12039956 1.3280001 4282468434
0.11888178 0.12039956 1.3280001 4282403154
0.11976311 0.12012757 1.325 4282533713
0.12100426 0.12021822 1.3260001 4282598221
0.12224716 0.12030889 1.327 4282662987
0.12473814 0.12049022 1.3290001 4282925646
0.12589152 0.12049022 1.3290001 4282860110
0.12723607 0.12067155 1.3310001 4282663501
0.12839118 0.12067155 1.3310001 4282729294
0.12954628 0.12067155 1.3310001 4282664013
0.13040681 0.12039956 1.3280001 4282663755
0.13136117 0.12021822 1.3260001 4282597705
0.13231207 0.12003691 1.3240001 4282531399
0.13305791 0.11967425 1.3200001 4282792775
0.13420346 0.11967425 1.3200001 4283186250
0.13534902 0.11967425 1.3200001 4283252813
0.13639119 0.1195836 1.319 4282990667
0.13753588 0.1195836 1.319 4282466120
0.13857543 0.11949293 1.3180001 4282072903
0.13982527 0.1195836 1.319 4281876295
0.14096996 0.1195836 1.319 4281942601
0.14222239 0.11967425 1.3200001 4281942858
0.14347656 0.11976492 1.3210001 4282008139
0.144623 0.11976492 1.3210001 4281942346
0.14565907 0.11967425 1.3200001 4281811015
0.14680463 0.11967425 1.3200001 4281811015
0.14795019 0.11967425 1.3200001 4281745481
0.14898281 0.1195836 1.319 4281811274
0.15001369 0.11949293 1.3180001 4281942859
0.15104282 0.11940227 1.317 4282008652
0.15218577 0.11940227 1.317 4282139982
0.15286304 0.11903962 1.3130001 4282205775
0.15376794 0.11885829 1.3110001 4282271568
0.15466937 0.11867698 1.309 4282337362
0.15532929 0.11831432 1.3050001 4282337619
0.15634194 0.11822367 1.304 4282469205
0.15735285 0.118133 1.3030001 4282600791
0.15836203 0.11804233 1.302 4282600534
0.15949197 0.11804233 1.302 4282600534
0.1606219 0.11804233 1.302 4282666327
0.16175184 0.11804233 1.302 4282732119
0.1627567 0.11795168 1.3010001 4282732119
0.16401172 0.11804233 1.302 4282863192
0.16514166 0.11804233 1.302 4282862935
0.16614391 0.11795168 1.3010001 4282796884
0.16740154 0.11804233 1.302 4282927700
0.16853148 0.11804233 1.302 4283058772
0.16979173 0.118133 1.3030001 4283516243
0.17105372 0.11822367 1.304 4284564309
0.17218539 0.11822367 1.304 4285547097
0.17331707 0.11822367 1.304 4286463323
0.17444874 0.11822367 1.304 4286855771
0.17558043 0.11822367 1.304 4286920794
0.1767121 0.11822367 1.304 4286921564
0.17784378 0.11822367 1.304 4286923103
0.17897545 0.11822367 1.304 4286728548
0.179969 0.118133 1.3030001 4286140775
0.18096082 0.11804233 1.302 4285092193
0.18195091 0.11795168 1.3010001 4284503649
0.18307999 0.11795168 1.3010001 4284242787
0.18420905 0.11795168 1.3010001 4284243559
0.18519567 0.11786101 1.3000001 4284112744
0.18632387 0.11786101 1.3000001 4284112232
0.18745208 0.11786101 1.3000001 4284112232
0.18858027 0.11786101 1.3000001 4284046696
0.18970847 0.11786101 1.3000001 4284046953
0.19083668 0.11786101 1.3000001 4284112747
0.19196488 0.11786101 1.3000001 4283981675
0.19309309 0.11786101 1.3000001 4283850345
0.19422129 0.11786101 1.3000001 4283653479
0.1953495 0.11786101 1.3000001 4283719015
0.1964777 0.11786101 1.3000001 4283719016
0.19775791 0.11795168 1.3010001 4283784552
0.19903985 0.11804233 1.302 4283784552
0.20047729 0.11822367 1.304 4283653478
0.20176356 0.11831432 1.3050001 4283521892
0.2028961 0.11831432 1.3050001 4283390049
0.20434134 0.11849565 1.307 4283324256
0.20563282 0.1185863 1.3080001 4283192927
0.20692605 0.11867698 1.309 4283192670
0.20806207 0.11867698 1.309 4282995291
0.2093579 0.11876764 1.3100001 4282863705
0.21049479 0.11876764 1.3100001 4282797912
0.21881954 0.12021822 1.3260001 4283779418
0.22013621 0.12030889 1.327 4284435553
0.22145461 0.12039956 1.3280001 4284961383
0.22277473 0.12049022 1.3290001 4284895590
0.22392809 0.12049022 1.3290001 4284502628
0.22525084 0.12058088 1.33 4284109666
-0.013779555 0.12264235 1.34 4286728296
-0.012597806 0.12245931 1.3380001 4287254127
-0.011419529 0.12227625 1.3360001 4287452533
-0.010252402 0.12218474 1.335 4287389306
-0.0090938238 0.12218474 1.335 4285879660
-0.007964965 0.12264235 1.34 4284172636
-0.0068122 0.12282539 1.342 4283650142
-0.005655963 0.12300845 1.3440001 4283586658
-0.0044995951 0.12328302 1.3470001 4283521122
-0.0033306021 0.12328302 1.3470001 4283587428
-0.0021600046 0.1231915 1.3460001 4283587428
-0.00098966889 0.12291692 1.3430001 4283653221
0.00017559071 0.12273388 1.3410001 4283653221
0.0013383777 0.12264235 1.34 4283653221
0.0024975622 0.12245931 1.3380001 4283719271
0.0036614789 0.12255082 1.3390001 4283785064
0.0048235292 0.12255082 1.3390001 4283653479
0.0059900493 0.12264235 1.34 4283719272
0.0071476293 0.12255082 1.3390001 4283719272
0.0083096791 0.12255082 1.3390001 4283719272
0.0094292862 0.12200168 1.3330001 4283653479
0.010570247 0.12181863 1.3310001 4283653479
0.011654879 0.12108643 1.3230001 4283785065
0.012783688 0.12090339 1.3210001 4283719272
0.01383521 0.12007967 1.312 4283653479
0.014973829 0.12007967 1.312 4283719272
0.016100166 0.11998814 1.3110001 4283784807
0.017237917 0.11998814 1.3110001 4283719014
0.018375667 0.11998814 1.3110001 4283586915
0.019528301 0.12007967 1.312 4283521122
0.020682672 0.1201712 1.3130001 4283586402
0.021822156 0.1201712 1.3130001 4283586145
0.022961643 0.1201712 1.3130001 4283716959
0.024101129 0.1201712 1.3130001 4283847262
0.025221393 0.12007967 1.312 4284174173
0.026360011 0.12007967 1.312 4284566878
0.027498629 0.12007967 1.312 4285090655
0.028615417 0.11998814 1.3110001 4285287264
0.029753167 0.11998814 1.3110001 4284958556
0.030890917 0.11998814 1.3110001 4284564825
0.032004241 0.11989663 1.3100001 4284236886
0.033141121 0.11989663 1.3100001 4284040277
0.034278005 0.11989663 1.3100001 4284105814
0.035414886 0.11989663 1.3100001 4284368986
0.036523867 0.1198051 1.309 4284435548
0.037631113 0.11971357 1.3080001 4284304733
0.038795896 0.1198051 1.309 4283779415
0.039962418 0.11989663 1.3100001 4282925647
0.042332906 0.1201712 1.3130001 4282466894
0.043505497 0.12026272 1.314 4282336591
0.044713806 0.12044577 1.3160001 4282271568
0.046030123 0.12090339 1.3210001 4282141265
0.047212262 0.12099492 1.322 4281944657
0.048432723 0.12117796 1.3240001 4282009680
0.049694099 0.12145253 1.327 4282009423
0.050845735 0.12145253 1.327 4282074446
0.051997371 0.12145253 1.327 4282008653
0.053189058 0.12154406 1.3280001 4282008908
0.054382484 0.12163559 1.3290001 4282008907
0.055535853 0.12163559 1.3290001 4282008653
0.05673188 0.12172711 1.33 4282008653
0.057842594 0.12163559 1.3290001 4282008653
0.058995966 0.12163559 1.3290001 4281942860
0.060058825 0.12145253 1.327 4281877067
0.061210461 0.12145253 1.327 4281877067
0.06222111 0.12117796 1.3240001 4281811018
0.063322276 0.12108643 1.3230001 4281810762
0.064421713 0.12099492 1.322 4281876555
0.065469809 0.12081186 1.3200001 4281942348
0.066615373 0.12081186 1.3200001 4281942348
0.067760929 0.12081186 1.3200001 4282008141
0.068906493 0.12081186 1.3200001 4282073934
