# .PCD v0.7 - Point Cloud Data file format
VERSION 0.7
FIELDS x y z rgba
SIZE 4 4 4 4
TYPE F F F U
COUNT 1 1 1 1
WIDTH 1093
HEIGHT 1
VIEWPOINT 0 0 0 1 0 0 0
POINTS 1093
DATA ascii
0.020903204 0.069988638 1.327 4285815918
0.022021597 0.06988316 1.325 4286338669
0.023171498 0.06988316 1.325 4287124076
0.024321398 0.06988316 1.325 4287975535
0.025452076 0.06983041 1.3240001 4288498799
0.026601108 0.06983041 1.3240001 4288694638
0.027771099 0.06988316 1.325 4289088369
0.028920999 0.06988316 1.325 4288760688
0.030093595 0.069935903 1.3260001 4287776618
0.031315051 0.070094123 1.3290001 4286990951
0.032492854 0.070146866 1.33 4286272362
0.03364709 0.070146866 1.33 4285684845
0.034827501 0.070199609 1.3310001 4285161838
0.037249319 0.070410579 1.335 4284573039
0.03843667 0.070463315 1.3360001 4284508016
0.039418288 0.070146866 1.33 4284574066
0.040572528 0.070146866 1.33 4284639860
0.041726768 0.070146866 1.33 4284574581
0.042816523 0.070041388 1.3280001 4284574581
0.043969028 0.070041388 1.3280001 4284508532
0.045087554 0.069988638 1.327 4284705654
0.046134658 0.06983041 1.3240001 4284836982
0.047247976 0.069777675 1.3230001 4284705397
0.048359558 0.069724932 1.322 4284639859
0.049506854 0.069724932 1.322 4284574066
0.050692469 0.069777675 1.3230001 4284376944
0.051879819 0.06983041 1.3240001 4284376944
0.057243746 0.070779778 1.342 4284180079
0.058451924 0.070832513 1.3430001 4284246129
0.059661835 0.070885256 1.3440001 4284443251
0.060737707 0.070779778 1.342 4284574324
0.06181011 0.070674285 1.34 4284574323
0.062879033 0.0705688 1.3380001 4284507761
0.063848771 0.070357837 1.3340001 4284573041
0.06500648 0.070357837 1.3340001 4284639091
0.0674733 0.070516065 1.337 4284639091
0.068736278 0.07062155 1.3390001 4284573555
0.070002735 0.070727028 1.3410001 4284770420
0.071378797 0.070937999 1.345 4284770420
0.0726 0.070990741 1.3460001 4284573041
0.073822923 0.071043476 1.3470001 4284375662
0.074936248 0.070990741 1.3460001 4284310126
0.075991288 0.070885256 1.3440001 4284441455
0.077157676 0.070885256 1.3440001 4284310383
0.078382343 0.070937999 1.345 4284179053
0.079667889 0.071043476 1.3470001 4284047724
0.082249396 0.071254455 1.3510001 4283982187
0.083483607 0.07130719 1.3520001 4283916651
0.084656939 0.07130719 1.3520001 4283850858
0.085957237 0.071412675 1.3540001 4283785065
0.087196656 0.071465418 1.355 4283785064
0.088437818 0.07151816 1.3560001 4283719271
0.089746788 0.071623646 1.358 4283587685
0.090925328 0.071623646 1.358 4283456099
0.092036046 0.071570903 1.3570001 4283324768
0.094460949 0.071623646 1.358 4283192413
0.095780343 0.071729131 1.36 4283126619
0.097031914 0.071781866 1.3610001 4283060313
0.098501705 0.071992844 1.365 4282797141
0.099832378 0.072098322 1.3670001 4282534481
0.10109263 0.072151065 1.368 4282468688
0.10242938 0.072256543 1.3700001 4282402638
0.10369396 0.072309293 1.3710001 4282467147
0.10488378 0.072309293 1.3710001 4282662472
0.10599624 0.072256543 1.3700001 4282858311
0.10702872 0.072151065 1.368 4283580495
0.10813683 0.072098322 1.3670001 4283909460
0.10932317 0.072098322 1.3670001 4283253071
0.11059037 0.072151065 1.368 4282597195
0.111941 0.072256543 1.3700001 4282400842
0.11321253 0.072309293 1.3710001 4282138953
0.11448579 0.072362036 1.3720001 4281942344
0.11737826 0.072678484 1.378 4281942859
0.11874626 0.072783969 1.3800001 4281942860
0.12011772 0.072889447 1.3820001 4282008140
0.12175599 0.073153161 1.3870001 4282139470
0.1229597 0.073153161 1.3870001 4282205263
0.12425294 0.073205911 1.388 4282139470
0.12563828 0.073311388 1.3900001 4282205007
0.12684458 0.073311388 1.3900001 4282271056
0.12814303 0.073364131 1.391 4282205519
-0.11828627 0.077028707 1.437 4283785067
-0.11695772 0.0769751 1.4360001 4283653225
-0.11555033 0.076867893 1.434 4283587175
-0.11295074 0.075956628 1.4170001 4283521641
-0.11156332 0.075849421 1.4150001 4283587177
-0.11010139 0.075688608 1.4120001 4283521898
-0.10879888 0.075635009 1.411 4283390825
-0.10749809 0.075581402 1.4100001 4283259751
-0.10589758 0.075313382 1.4050001 4283193958
-0.10460374 0.075259775 1.404 4283260007
-0.10323801 0.075152569 1.4020001 4283456873
-0.097669952 0.073705271 1.3750001 4283980648
-0.096476659 0.073705271 1.3750001 4284242793
-0.095283367 0.073705271 1.3750001 4284635241
-0.094021648 0.073651664 1.3740001 4285093995
-0.09282922 0.073651664 1.3740001 4286078580
-0.091636799 0.073651664 1.3740001 4286208369
-0.09051019 0.073705271 1.3750001 4285943400
-0.089381859 0.07375887 1.376 4286271852
-0.088251792 0.073812477 1.3770001 4286404721
-0.087309644 0.07402689 1.381 4285616488
-0.086173505 0.07408049 1.3820001 4284763489
-0.085097112 0.074187703 1.3840001 4284304991
-0.084077865 0.074348509 1.3870001 4283912287
-0.082814403 0.07429491 1.386 4283651168
-0.081552684 0.07424131 1.3850001 4283586145
-0.080234684 0.074134097 1.383 4283390049
-0.078977302 0.07408049 1.3820001 4283390307
-0.077721648 0.07402689 1.381 4283259491
-0.076578565 0.07408049 1.3820001 4283128162
-0.075433739 0.074134097 1.383 4283062369
-0.074340858 0.07424131 1.3850001 4282996576
-0.073138885 0.07424131 1.3850001 4282864990
-0.071884975 0.074187703 1.3840001 4282798940
-0.070683874 0.074187703 1.3840001 4282864733
-0.069432564 0.074134097 1.383 4282930526
-0.068281665 0.074187703 1.3840001 4282864733
-0.067080565 0.074187703 1.3840001 4282864733
-0.065736651 0.07402689 1.381 4282864476
-0.064444691 0.073919684 1.3790001 4282929755
-0.062881008 0.073490858 1.3710001 4282863962
-0.061601188 0.073383644 1.3690001 4283060827
-0.060324848 0.073276438 1.3670001 4283126621
-0.058878928 0.072954811 1.3610001 4283192414
-0.05765539 0.072901212 1.36 4283257950
-0.056392062 0.072794005 1.358 4283257950
-0.055132207 0.072686791 1.3560001 4283257950
-0.053995196 0.072740398 1.3570001 4283389792
-0.052817523 0.072740398 1.3570001 4283455329
-0.05179207 0.072954811 1.3610001 4283126877
-0.050648116 0.073008418 1.3620001 4282797656
-0.049502421 0.073062025 1.363 4282927958
-0.048496798 0.073330045 1.368 4282862422
-0.047378749 0.073437244 1.3700001 4282665556
-0.04625722 0.073544458 1.3720001 4282731606
-0.045066532 0.073544458 1.3720001 4282797912
-0.043843865 0.073490858 1.3710001 4282732119
-0.042529598 0.073276438 1.3670001 4282796886
-0.041313004 0.073222831 1.3660001 4282928215
-0.040127523 0.073222831 1.3660001 4283125081
-0.038885027 0.073115624 1.3640001 4282994008
-0.037701279 0.073115624 1.3640001 4282994008
-0.036490761 0.073062025 1.363 4283060314
-0.035281979 0.073008418 1.3620001 4283191644
-0.034125004 0.073062025 1.363 4283191387
-0.032942124 0.073062025 1.363 4283190874
-0.031735945 0.073008418 1.3620001 4283125081
-0.0305315 0.072954811 1.3610001 4283190874
-0.029350357 0.072954811 1.3610001 4283125594
-0.028107122 0.072794005 1.358 4282995034
-0.026908755 0.072740398 1.3570001 4282929498
-0.0256742 0.072579592 1.3540001 4282995548
-0.024481038 0.072525978 1.353 4283192670
-0.02328961 0.072472379 1.3520001 4283323743
-0.022050846 0.072257966 1.348 4283323743
-0.020880984 0.072257966 1.348 4283323743
-0.019696502 0.072204359 1.3470001 4283323743
-0.018486245 0.072043546 1.3440001 4283520608
-0.017319856 0.072043546 1.3440001 4283520609
-0.016153466 0.072043546 1.3440001 4283586145
-0.014975926 0.071989946 1.3430001 4283520352
-0.013810405 0.071989946 1.3430001 4283651938
-0.012644882 0.071989946 1.3430001 4284046696
-0.011479361 0.071989946 1.3430001 4284112489
-0.01031384 0.071989946 1.3430001 4283783524
-0.0091415066 0.071936347 1.342 4283454559
-0.007964965 0.071829133 1.34 4283454559
-0.0068020476 0.071829133 1.34 4283586145
-0.0056349211 0.071775533 1.3390001 4283651938
-0.0044628498 0.071614712 1.3360001 4283652708
-0.0033009308 0.071561113 1.335 4283587428
-0.0021407474 0.071507514 1.3340001 4283521635
-0.0009822998 0.071453907 1.3330001 4283587685
0.00017454319 0.071453907 1.3330001 4283587685
0.0013323849 0.071507514 1.3340001 4283587685
0.0024882292 0.071453907 1.3330001 4283653478
0.003645072 0.071453907 1.3330001 4283653478
0.004801915 0.071453907 1.3330001 4283785064
0.0059632282 0.071507514 1.3340001 4283982443
0.007120939 0.071507514 1.3340001 4284114029
0.0082848556 0.071561113 1.335 4284048236
0.0094575817 0.071668327 1.337 4284113772
0.010617896 0.071668327 1.337 4284179565
0.01177821 0.071668327 1.337 4284311151
0.012938525 0.071668327 1.337 4284245358
0.014098839 0.071668327 1.337 4284179565
0.015224915 0.071507514 1.3340001 4284179052
0.016370343 0.071453907 1.3330001 4284375918
0.017514039 0.0714003 1.332 4284703856
0.018613948 0.071185887 1.3280001 4285031024
0.019766452 0.071185887 1.3280001 4285357936
0.020903204 0.07113228 1.327 4285946735
0.022004979 0.070971467 1.3240001 4286469228
0.023154011 0.070971467 1.3240001 4287123050
0.024284687 0.070917867 1.3230001 4287908715
0.025432851 0.070917867 1.3230001 4288366187
0.026581017 0.070917867 1.3230001 4288562539
0.02775014 0.070971467 1.3240001 4288890992
0.028920999 0.071025081 1.325 4288761460
0.030093595 0.07107868 1.3260001 4288172403
0.031291489 0.071185887 1.3280001 4287190384
0.032468423 0.071239494 1.3290001 4285814892
0.03364709 0.071293093 1.33 4284964203
0.03480133 0.071293093 1.33 4284834413
0.036036674 0.071453907 1.3330001 4284573038
0.037221421 0.071507514 1.3340001 4284508017
0.038407899 0.071561113 1.335 4284508530
0.039418288 0.071293093 1.33 4284640116
0.040542025 0.071239494 1.3290001 4284705909
0.041664023 0.071185887 1.3280001 4284640374
0.042784281 0.07113228 1.327 4284574581
0.043935917 0.07113228 1.327 4284508275
0.045053579 0.07107868 1.3260001 4284639861
0.046134658 0.070971467 1.3240001 4284836726
0.047212262 0.070864268 1.322 4284836727
0.048322979 0.070810661 1.3210001 4284771446
0.049469408 0.070810661 1.3210001 4284640116
0.050654151 0.070864268 1.322 4284442737
0.051840633 0.070917867 1.3230001 4284376944
0.057201091 0.07188274 1.3410001 4284114799
0.058408398 0.071936347 1.342 4284246385
0.059573051 0.071936347 1.342 4284377714
0.060692448 0.07188274 1.3410001 4284508786
0.061763979 0.071775533 1.3390001 4284574323
0.062879033 0.071721926 1.3380001 4284639089
0.063848771 0.071507514 1.3340001 4284638833
0.06500648 0.071507514 1.3340001 4284507762
0.067422837 0.071614712 1.3360001 4284376176
0.068684943 0.071721926 1.3380001 4284441969
0.069950536 0.071829133 1.34 4284704627
0.071325727 0.072043546 1.3440001 4284770420
0.072492115 0.072043546 1.3440001 4284507248
0.07371331 0.072097152 1.345 4284309869
0.074824899 0.072043546 1.3440001 4284309869
0.075878203 0.071936347 1.342 4284441455
0.077100269 0.071989946 1.3430001 4284375919
0.078324065 0.072043546 1.3440001 4284244590
0.079608746 0.072150759 1.3460001 4284179310
0.082249396 0.072418779 1.3510001 4283982444
0.083421856 0.072418779 1.3510001 4283982444
0.084656939 0.072472379 1.3520001 4283916650
0.085957237 0.072579592 1.3540001 4283719272
0.087196656 0.072633192 1.355 4283653478
0.088372596 0.072633192 1.355 4283587685
0.089680709 0.072740398 1.3570001 4283521892
0.090791427 0.072686791 1.3560001 4283456099
0.091900401 0.072633192 1.355 4283390304
0.093213722 0.072740398 1.3570001 4283258717
0.094460949 0.072794005 1.358 4283061082
0.09570992 0.072847605 1.3590001 4282929240
0.098357379 0.073062025 1.363 4282600788
0.099686325 0.073169231 1.365 4282468687
0.10094483 0.073222831 1.3660001 4282337101
0.10227985 0.073330045 1.368 4282336844
0.1035427 0.073383644 1.3690001 4282467403
0.10473078 0.073383644 1.3690001 4282662472
0.10576413 0.073276438 1.3670001 4282857798
0.10687224 0.073222831 1.3660001 4283645774
0.10805772 0.073222831 1.3660001 4284106068
0.10924321 0.073222831 1.3660001 4283384399
0.11050953 0.073276438 1.3670001 4282662987
0.1118593 0.073383644 1.3690001 4282466633
0.11312996 0.073437244 1.3700001 4282270281
0.11440236 0.073490858 1.3710001 4282008136
0.11729308 0.073812477 1.3770001 4282008139
0.11874626 0.073973291 1.3800001 4282073932
0.12011772 0.07408049 1.3820001 4282073932
0.12175599 0.074348509 1.3870001 4282139469
0.1229597 0.074348509 1.3870001 4282205006
0.12416341 0.074348509 1.3870001 4282138957
0.12563828 0.074509323 1.3900001 4282138957
0.12693585 0.07456293 1.391 4282205007
0.12823516 0.074616536 1.3920001 4282073933
-0.11953337 0.07826715 1.437 4283981933
-0.11663997 0.077177837 1.4170001 4283850860
-0.11508445 0.076959968 1.4130001 4283784554
-0.11377759 0.076905504 1.4120001 4283587432
-0.1125522 0.076905504 1.4120001 4283455848
-0.11140563 0.076959968 1.4130001 4283390568
-0.10994543 0.076796576 1.4100001 4283325288
-0.10856755 0.076687649 1.4080001 4283325288
-0.10726938 0.076633178 1.4070001 4283259493
-0.10559608 0.07630638 1.401 4283259237
-0.10430572 0.076251924 1.4000001 4283325543
-0.10161801 0.075162604 1.3800001 4283456872
-0.10020208 0.074999213 1.3770001 4283521893
-0.098935142 0.074944742 1.376 4283521380
-0.097527884 0.074781343 1.373 4283849575
-0.096266165 0.07472688 1.3720001 4284439402
-0.095075473 0.07472688 1.3720001 4284831079
-0.093816362 0.074672416 1.3710001 4285616745
-0.092626542 0.074672416 1.3710001 4287191157
-0.091570102 0.074781343 1.373 4287583348
-0.090444371 0.074835815 1.3740001 4287319663
-0.089316897 0.074890278 1.3750001 4287583605
-0.087246433 0.075162604 1.3800001 4286272365
-0.086173505 0.075271532 1.3820001 4285025378
-0.085097112 0.075380467 1.3840001 4284042076
-0.084077865 0.075543866 1.3870001 4283584348
-0.082874157 0.075543866 1.3870001 4283389023
-0.081493802 0.075380467 1.3840001 4283324000
-0.080176666 0.075271532 1.3820001 4283258464
-0.07886301 0.075162604 1.3800001 4283390307
-0.07755281 0.075053677 1.378 4283258978
-0.076412328 0.075108141 1.3790001 4283062112
-0.075270109 0.075162604 1.3800001 4282996319
-0.074126147 0.075217068 1.381 4282930526
-0.072874844 0.075162604 1.3800001 4282930526
-0.071573332 0.075053677 1.378 4282930013
-0.070377432 0.075053677 1.378 4282864220
-0.069231749 0.075108141 1.3790001 4282930012
-0.068034984 0.075108141 1.3790001 4282864219
-0.066935152 0.075217068 1.381 4282733147
-0.065593854 0.075053677 1.378 4282798940
-0.064351223 0.074999213 1.3770001 4282929756
-0.062881008 0.074672416 1.3710001 4282929755
-0.061646186 0.074617945 1.3700001 4283060571
-0.060413104 0.074563481 1.3690001 4283126364
-0.059008714 0.074291155 1.3640001 4283192157
-0.057740174 0.074182227 1.3620001 4283192157
-0.056475114 0.074073292 1.36 4283322716
-0.055213522 0.073964357 1.358 4283125851
-0.054034986 0.073964357 1.358 4283191644
-0.052856445 0.073964357 1.358 4283257950
-0.05179207 0.074127756 1.3610001 4283126364
-0.050648116 0.074182227 1.3620001 4282731862
-0.049502421 0.074236691 1.363 4282730836
-0.048461348 0.074454553 1.3670001 4282665299
-0.047309581 0.074509017 1.368 4282468434
-0.046189792 0.074617945 1.3700001 4282468434
-0.045033686 0.074672416 1.3710001 4282665043
-0.043811888 0.074617945 1.3700001 4282665043
-0.042529598 0.074454553 1.3670001 4282730836
-0.041343249 0.074454553 1.3670001 4282862422
-0.040156901 0.074454553 1.3670001 4282993752
-0.038942039 0.07440009 1.3660001 4283059801
-0.037756559 0.07440009 1.3660001 4283059801
-0.036571074 0.07440009 1.3660001 4283191644
-0.035411499 0.074454553 1.3670001 4283256667
-0.034250185 0.074509017 1.368 4283059288
-0.033087134 0.074563481 1.3690001 4283059288
-0.03185245 0.074454553 1.3670001 4282927959
-0.030643666 0.07440009 1.3660001 4283059545
-0.02943662 0.074345626 1.365 4282994521
-0.028169217 0.074127756 1.3610001 4282863449
-0.026968243 0.074073292 1.36 4282797912
-0.025787968 0.074073292 1.36 4282863705
-0.024499131 0.073746502 1.3540001 4282929498
-0.02328961 0.073637567 1.3520001 4283126364
-0.022034487 0.073365234 1.3470001 4283192157
-0.020865494 0.073365234 1.3470001 4283257950
-0.01968188 0.07331077 1.3460001 4283257950
-0.018486245 0.073201843 1.3440001 4283454559
-0.017306969 0.073147379 1.3430001 4283454559
-0.016129429 0.073092915 1.342 4283454559
-0.014953624 0.073038444 1.3410001 4283388766
-0.013789838 0.073038444 1.3410001 4283520352
-0.012626053 0.073038444 1.3410001 4283980903
-0.011470814 0.073092915 1.342 4283915109
-0.010298481 0.073038444 1.3410001 4283717729
-0.0091346959 0.073038444 1.3410001 4283388765
-0.0079709096 0.073038444 1.3410001 4283388764
-0.0068071238 0.073038444 1.3410001 4283454559
-0.005643338 0.073038444 1.3410001 4283586145
-0.0044695307 0.072875045 1.3380001 4283521122
-0.0033083486 0.072875045 1.3380001 4283390049
-0.002143957 0.07276611 1.3360001 4283390049
-0.00098377361 0.072711654 1.335 4283390306
0.00017493602 0.07276611 1.3360001 4283324513
0.0013343825 0.07276611 1.3360001 4283390306
0.002493829 0.07276611 1.3360001 4283521892
0.0036532755 0.07276611 1.3360001 4283521892
0.0048091197 0.072711654 1.335 4283653478
0.0059721684 0.07276611 1.3360001 4283850857
0.0071369526 0.072820581 1.337 4284113772
0.0082972664 0.072820581 1.337 4284113772
0.0094646551 0.072875045 1.3380001 4284113772
0.010617896 0.072820581 1.337 4284179565
0.01177821 0.072820581 1.337 4284376431
0.012928847 0.07276611 1.3360001 4284310895
0.014077749 0.072711654 1.335 4284244845
0.015213501 0.072602719 1.3330001 4284244845
0.016358063 0.072548255 1.332 4284506991
0.017514039 0.072548255 1.332 4284769135
0.018627964 0.072384857 1.3290001 4284964974
0.019766452 0.072330393 1.3280001 4285291628
0.020918954 0.072330393 1.3280001 4285750382
0.022038219 0.072221458 1.3260001 4285945451
0.023188988 0.072221458 1.3260001 4286206311
0.024321398 0.072166994 1.325 4286599016
0.025471298 0.072166994 1.325 4287056999
0.026601108 0.07211253 1.3240001 4287383655
0.02775014 0.07211253 1.3240001 4288039533
0.028920999 0.072166994 1.325 4288368499
0.030070899 0.072166994 1.325 4288238710
0.031267922 0.072275922 1.327 4287388020
0.032419559 0.072275922 1.327 4285749613
0.033571195 0.072275922 1.327 4284767595
0.034722831 0.072275922 1.327 4284637549
0.035901502 0.072330393 1.3280001 4284441966
0.037081908 0.072384857 1.3290001 4284508017
0.038264051 0.07243932 1.33 4284574323
0.039359014 0.072330393 1.3280001 4284640117
0.040481012 0.072275922 1.327 4284640117
0.041601274 0.072221458 1.3260001 4284640117
0.042687561 0.07211253 1.3240001 4284574581
0.0438697 0.072166994 1.325 4284574324
0.045019601 0.072166994 1.325 4284574325
0.046064965 0.072003603 1.322 4284771191
0.047105122 0.071840204 1.319 4284902776
0.04821324 0.071785733 1.3180001 4284771447
0.049357064 0.071785733 1.3180001 4284640374
0.050500888 0.071785733 1.3180001 4284640116
0.052988797 0.072058067 1.3230001 4284442737
0.054259725 0.072221458 1.3260001 4284311151
0.055535853 0.072384857 1.3290001 4284179822
0.056945156 0.072711654 1.335 4284180078
0.058103736 0.072711654 1.335 4284245871
0.059351098 0.072820581 1.337 4284311665
0.060511414 0.072820581 1.337 4284442737
0.061625604 0.07276611 1.3360001 4284508530
0.062738054 0.072711654 1.335 4284573810
0.063800909 0.072602719 1.3330001 4284573553
0.064957753 0.072602719 1.3330001 4284441969
0.066213787 0.072711654 1.335 4284310383
0.067422837 0.07276611 1.3360001 4284310383
0.069846131 0.072875045 1.3380001 4284507505
0.071166523 0.073038444 1.3410001 4284638834
0.072330303 0.073038444 1.3410001 4284507248
0.073494092 0.073038444 1.3410001 4284375662
0.074602209 0.07298398 1.34 4284309869
0.075708576 0.072929516 1.3390001 4284441455
0.076985449 0.073038444 1.3410001 4284310383
0.078324065 0.073201843 1.3440001 4284244590
0.079608746 0.07331077 1.3460001 4284245103
0.082249396 0.073583104 1.3510001 4284047981
0.083483607 0.073637567 1.3520001 4283982444
0.084656939 0.073637567 1.3520001 4283916650
0.085893758 0.073692031 1.353 4283719271
0.087067954 0.073692031 1.353 4283587685
0.088242158 0.073692031 1.353 4283521892
0.089350268 0.073637567 1.3520001 4283456098
0.090456642 0.073583104 1.3510001 4283324512
0.09162911 0.073583104 1.3510001 4283193182
0.09293896 0.073692031 1.353 4283061596
0.094252273 0.073800966 1.355 4282929753
0.095498636 0.07385543 1.3560001 4282797910
0.098213054 0.074127756 1.3610001 4282534737
0.099540256 0.074236691 1.363 4282468174
0.10087094 0.074345626 1.365 4282401867
0.10213032 0.07440009 1.3660001 4282401610
0.10324016 0.074345626 1.365 4282532683
0.10434827 0.074291155 1.3640001 4282728009
0.10545465 0.074236691 1.363 4283054407
0.10663753 0.074236691 1.363 4284104015
0.10789951 0.074291155 1.3640001 4284761431
0.10916323 0.074345626 1.365 4284040018
0.11042869 0.07440009 1.3660001 4283055690
0.1118593 0.074563481 1.3690001 4282597192
0.11312996 0.074617945 1.3700001 4282270024
0.11440236 0.074672416 1.3710001 4282204745
0.11737826 0.075053677 1.378 4282205003
0.1188323 0.075217068 1.381 4282270540
0.12029155 0.075380467 1.3840001 4282270542
0.12193158 0.075652801 1.3890001 4282204749
0.12313702 0.075652801 1.3890001 4282138957
0.12434246 0.075652801 1.3890001 4282139214
-0.119367 0.079394937 1.4350001 4283850604
-0.11672229 0.078454368 1.4180001 4283785067
-0.11508445 0.078177728 1.4130001 4283784554
-0.11377759 0.078122407 1.4120001 4283521895
-0.1125522 0.078122407 1.4120001 4283390567
-0.11132679 0.078122407 1.4120001 4283325287
-0.10986746 0.077956423 1.409 4283193958
-0.10856755 0.077901095 1.4080001 4283259751
-0.10726938 0.077845767 1.4070001 4283259237
-0.10552071 0.077458479 1.4000001 4283193444
-0.10415672 0.077347822 1.3980001 4283325285
-0.10169164 0.076407254 1.381 4283325541
-0.10027484 0.07624127 1.378 4283456100
-0.098935142 0.076130614 1.376 4283456100
-0.097527884 0.07596463 1.373 4283718758
-0.096266165 0.075909302 1.3720001 4284242536
-0.095075473 0.075909302 1.3720001 4284830565
-0.093816362 0.075853981 1.3710001 4285681254
-0.092626542 0.075853981 1.3710001 4287188591
-0.091570102 0.07596463 1.373 4287712368
-0.090444371 0.076019965 1.3740001 4287777648
-0.089316897 0.076075286 1.3750001 4287581808
-0.087246433 0.076351926 1.3800001 4286008423
-0.086173505 0.076462574 1.3820001 4284893535
-0.085035622 0.07651791 1.383 4283976283
-0.084077865 0.076739214 1.3870001 4283452762
-0.082814403 0.076683894 1.386 4283257437
-0.08143492 0.07651791 1.383 4283258206
-0.080118649 0.076407254 1.381 4283324256
-0.07886301 0.076351926 1.3800001 4283258721
-0.07755281 0.07624127 1.378 4283192928
-0.076356918 0.07624127 1.378 4282996319
-0.075215563 0.076296598 1.3790001 4282996319
-0.073965125 0.07624127 1.378 4282930526
-0.072769225 0.07624127 1.378 4282930526
-0.071521394 0.076185942 1.3770001 4283061342
-0.070326366 0.076185942 1.3770001 4282995549
-0.069181539 0.07624127 1.378 4282929756
-0.067985639 0.07624127 1.378 4282863963
-0.06683822 0.076296598 1.3790001 4282733147
-0.065546252 0.076185942 1.3770001 4282733147
-0.064304493 0.076130614 1.376 4282929756
-0.062881008 0.075853981 1.3710001 4282863963
-0.061646186 0.075798646 1.3700001 4283060316
-0.060457233 0.075798646 1.3700001 4283060572
-0.059051968 0.075522013 1.365 4283191644
-0.057782572 0.075411357 1.363 4283125851
-0.056558166 0.075356036 1.3620001 4283322202
-0.055254184 0.075190045 1.3590001 4283125337
-0.054074775 0.075190045 1.3590001 4283125337
-0.052895371 0.075190045 1.3590001 4283125851
-0.05179207 0.075300701 1.3610001 4283060058
-0.050648116 0.075356036 1.3620001 4282731092
-0.049502421 0.075411357 1.363 4282599250
-0.048461348 0.075632669 1.3670001 4282665043
-0.047309581 0.075687997 1.368 4282533714
-0.046156075 0.075743325 1.3690001 4282467920
-0.04500084 0.075798646 1.3700001 4282598737
-0.043779906 0.075743325 1.3690001 4282598737
-0.042529598 0.075632669 1.3670001 4282730323
-0.041343249 0.075632669 1.3670001 4282730580
-0.040156901 0.075632669 1.3670001 4282730836
-0.038970549 0.075632669 1.3670001 4282994008
-0.0377842 0.075632669 1.3670001 4283125081
-0.036624622 0.075687997 1.368 4283190874
-0.035463307 0.075743325 1.3690001 4283125081
-0.034250185 0.075687997 1.368 4282927702
-0.033087134 0.075743325 1.3690001 4282928215
-0.031875752 0.075687997 1.368 4282797142
-0.030666102 0.075632669 1.3670001 4282731606
-0.029458184 0.075577341 1.3660001 4282732119
-0.028189914 0.075356036 1.3620001 4282732119
-0.026988074 0.075300701 1.3610001 4282666583
-0.02569316 0.07496874 1.355 4282732119
-0.024499131 0.074913412 1.3540001 4282797912
-0.02328961 0.074802756 1.3520001 4282929242
-0.022050846 0.074581444 1.348 4282929498
-0.020880984 0.074581444 1.348 4283125594
-0.019696502 0.074526116 1.3470001 4283125594
-0.0185 0.074415468 1.345 4283257180
-0.017319856 0.074360132 1.3440001 4283322973
-0.016141446 0.074304812 1.3430001 4283322973
-0.014964774 0.074249484 1.342 4283322973
-0.013789838 0.074194148 1.3410001 4283454557
-0.012635468 0.074249484 1.342 4283651936
-0.011470814 0.074249484 1.342 4283586143
-0.010298481 0.074194148 1.3410001 4283454557
-0.0091346959 0.074194148 1.3410001 4283322971
-0.0079709096 0.074194148 1.3410001 4283257178
-0.0068071238 0.074194148 1.3410001 4283322972
-0.005643338 0.074194148 1.3410001 4283520350
-0.0044728713 0.0740835 1.3390001 4283454814
-0.0033083486 0.074028172 1.3380001 4283258205
-0.0021471665 0.074028172 1.3380001 4283324256
-0.00098451052 0.073917516 1.3360001 4283258720
0.00017493602 0.073917516 1.3360001 4283192927
0.0013353813 0.073972844 1.337 4283258721
0.0024956956 0.073972844 1.337 4283456100
0.0036560099 0.073972844 1.337 4283521892
0.0048163245 0.073972844 1.337 4283521893
0.0059766388 0.073972844 1.337 4283653479
0.0071369526 0.073972844 1.337 4283982186
0.008291061 0.073917516 1.3360001 4284047979
0.0094575817 0.073972844 1.337 4284047723
0.010617896 0.073972844 1.337 4284113516
0.011769401 0.073917516 1.3360001 4284310125
0.012928847 0.073917516 1.3360001 4284310125
0.014077749 0.073862188 1.335 4284310124
0.015213501 0.073751532 1.3330001 4284310124
0.016370343 0.073751532 1.3330001 4284572268
0.017514039 0.073696204 1.332 4284637292
0.01864198 0.073585548 1.33 4285030509
0.019781334 0.073530219 1.3290001 4285226604
0.020934707 0.073530219 1.3290001 4285553516
0.02205484 0.073419563 1.327 4285486440
0.023206474 0.073419563 1.327 4285813607
0.024358111 0.073419563 1.327 4286075240
0.025490524 0.073364243 1.3260001 4286402408
0.026641291 0.073364243 1.3260001 4286663014
0.027771099 0.073308915 1.325 4287317608
0.028920999 0.073308915 1.325 4287711082
0.030093595 0.073364243 1.3260001 4287910002
0.031244364 0.073364243 1.3260001 4287256179
0.032395132 0.073364243 1.3260001 4285552235
0.0335459 0.073364243 1.3260001 4284636267
0.034696668 0.073364243 1.3260001 4284506220
0.035901502 0.073474899 1.3280001 4284310382
0.037054006 0.073474899 1.3280001 4284376431
0.038235281 0.073530219 1.3290001 4284442737
0.039359014 0.073474899 1.3280001 4284508275
0.040481012 0.073419563 1.327 4284574068
0.041601274 0.073364243 1.3260001 4284508788
0.042687561 0.073253587 1.3240001 4284508788
0.0438697 0.073308915 1.325 4284574581
0.045019601 0.073308915 1.325 4284640374
0.046064965 0.073142931 1.322 4284771447
0.047176551 0.073087603 1.3210001 4284771447
0.04821324 0.072921619 1.3180001 4284705910
0.049319614 0.072866291 1.317 4284706167
0.05046257 0.072866291 1.317 4284705910
0.051801451 0.073142931 1.322 4284508531
0.054177884 0.073253587 1.3240001 4284311408
0.055452276 0.073419563 1.327 4284245615
0.056859847 0.073751532 1.3330001 4284245615
0.058060214 0.07380686 1.3340001 4284245615
0.059262313 0.073862188 1.335 4284311408
0.060420893 0.073862188 1.335 4284376944
0.061579473 0.073862188 1.335 4284376944
0.062691055 0.07380686 1.3340001 4284442737
0.063800909 0.073751532 1.3330001 4284508274
0.064957753 0.073751532 1.3330001 4284441969
0.067422837 0.073917516 1.3360001 4284375919
0.068633616 0.073972844 1.337 4284375919
0.069846131 0.074028172 1.3380001 4284441455
0.071166523 0.074194148 1.3410001 4284573041
0.072384238 0.074249484 1.342 4284572784
0.073494092 0.074194148 1.3410001 4284441199
0.07465788 0.074194148 1.3410001 4284375406
0.075765125 0.074138828 1.34 4284375662
0.077042855 0.074249484 1.342 4284244590
0.078324065 0.074360132 1.3440001 4284178797
0.079667889 0.074526116 1.3470001 4284179054
0.08237116 0.074858077 1.353 4283916394
0.083545357 0.074858077 1.353 4283850858
0.084719561 0.074858077 1.353 4283850857
0.085957237 0.074913412 1.3540001 4283719271
0.087003604 0.074802756 1.3520001 4283587684
0.088111714 0.074747428 1.3510001 4283456354
0.089284182 0.074747428 1.3510001 4283390304
0.090456642 0.074747428 1.3510001 4283193181
0.09162911 0.074747428 1.3510001 4282995802
0.093007647 0.074913412 1.3540001 4282863960
0.094252273 0.07496874 1.355 4282732630
0.095569059 0.075079396 1.3570001 4282600787
0.098357379 0.075411357 1.363 4282402894
0.099613287 0.075466685 1.3640001 4282402380
0.10094483 0.075577341 1.3660001 4282336074
0.10220508 0.075632669 1.3670001 4282270024
0.10339142 0.075632669 1.3670001 4282466376
0.10434827 0.075466685 1.3640001 4282793031
0.10553202 0.075466685 1.3640001 4283381575
0.10663753 0.075411357 1.363 4284562512
0.10797862 0.075522013 1.365 4285350488
0.10916323 0.075522013 1.365 4284825941
0.11042869 0.075577341 1.3660001 4283710540
0.111941 0.075798646 1.3700001 4282858567
0.11321253 0.075853981 1.3710001 4282466375
0.11448579 0.075909302 1.3720001 4282335817
0.11754862 0.076351926 1.3800001 4282336075
0.11891834 0.076462574 1.3820001 4282401869
0.12037846 0.076628566 1.3850001 4282401870
0.12210714 0.076960526 1.391 4282336079
0.12331431 0.076960526 1.391 4282270542
0.12461102 0.077015854 1.3920001 4282402129
-0.11920064 0.080519274 1.4330001 4283653481
-0.11672229 0.079676434 1.4180001 4283587688
-0.11516589 0.07945168 1.414 4283521895
-0.11369701 0.079283118 1.411 4283390566
-0.1125522 0.079339303 1.4120001 4283325030
-0.11132679 0.079339303 1.4120001 4283325543
-0.10986746 0.079170734 1.409 4283128678
-0.10856755 0.079114549 1.4080001 4283194470
-0.10719314 0.079002164 1.406 4283259237
-0.10544534 0.078608841 1.399 4283193444
-0.10408221 0.078496464 1.3970001 4283259491
-0.10176528 0.077653617 1.3820001 4283259491
-0.10034761 0.077485055 1.3790001 4283455843
-0.099007048 0.077372678 1.3770001 4283652452
-0.09745685 0.077091731 1.3720001 4283980133
-0.096266165 0.077091731 1.3720001 4284372324
-0.095006183 0.077035539 1.3710001 4284960611
-0.093816362 0.077035539 1.3710001 4285811300
-0.092626542 0.077035539 1.3710001 4286989928
-0.091570102 0.077147916 1.373 4287579755
-0.090444371 0.077204108 1.3740001 4287646061
-0.089316897 0.077260293 1.3750001 4286727783
-0.087246433 0.077541247 1.3800001 4284893791
-0.086173505 0.077653617 1.3820001 4284042076
-0.085035622 0.077709809 1.383 4283452762
-0.084017247 0.077878378 1.386 4283256410
-0.082754649 0.077822194 1.3850001 4283126107
-0.081376031 0.077653617 1.3820001 4283192413
-0.080118649 0.077597432 1.381 4283258463
-0.078805856 0.077485055 1.3790001 4283061342
-0.077496536 0.077372678 1.3770001 4282995549
-0.076246098 0.077316485 1.376 4282930526
-0.075106479 0.077372678 1.3770001 4282930526
-0.073911451 0.077372678 1.3770001 4282995805
-0.072716422 0.077372678 1.3770001 4282930013
-0.071469456 0.077316485 1.376 4282995549
-0.070224218 0.077260293 1.3750001 4282995549
-0.069081135 0.077316485 1.376 4282929756
-0.067936309 0.077372678 1.3770001 4282863963
-0.066789746 0.077428862 1.378 4282667354
-0.065546252 0.077372678 1.3770001 4282667354
-0.064211026 0.077204108 1.3740001 4282863963
-0.062881008 0.077035539 1.3710001 4282798170
-0.061691187 0.077035539 1.3710001 4282928730
-0.060457233 0.076979347 1.3700001 4282928730
-0.059095234 0.076754592 1.3660001 4283125594
-0.057824966 0.076642215 1.3640001 4283059801
-0.056599692 0.076586023 1.363 4282994265
-0.055294842 0.076417461 1.36 4282994265
-0.054114565 0.076417461 1.36 4283059801
-0.052934289 0.076417461 1.36 4283191387
-0.05179207 0.076473646 1.3610001 4282994521
-0.050648116 0.076529838 1.3620001 4282731349
-0.049502421 0.076586023 1.363 4282533970
-0.048425894 0.076754592 1.3660001 4282533970
-0.047274999 0.076810777 1.3670001 4282468177
-0.046122361 0.076866977 1.368 4282336591
-0.04496799 0.076923162 1.3690001 4282336591
-0.043747928 0.076866977 1.368 4282402384
-0.042529598 0.076810777 1.3670001 4282598994
-0.041343249 0.076810777 1.3670001 4282598994
-0.040156901 0.076810777 1.3670001 4282599250
-0.038999058 0.076866977 1.368 4282796629
-0.037811838 0.076866977 1.368 4283059288
-0.036624622 0.076866977 1.368 4282927702
-0.035463307 0.076923162 1.3690001 4282796116
-0.03430026 0.076979347 1.3700001 4282862165
-0.033135474 0.077035539 1.3710001 4282796886
-0.031922355 0.076979347 1.3700001 4282665813
-0.030688534 0.076866977 1.368 4282534484
-0.029479751 0.076810777 1.3670001 4282600533
-0.028189914 0.076529838 1.3620001 4282600790
-0.026988074 0.076473646 1.3610001 4282600790
-0.025787968 0.076417461 1.36 4282600790
-0.024499131 0.076080322 1.3540001 4282600790
-0.023306837 0.07602413 1.353 4282666071
-0.022067204 0.075799376 1.3490001 4282666071
-0.020880984 0.075743191 1.348 4282797142
-0.019711124 0.075743191 1.348 4282862935
-0.018513756 0.075630806 1.3460001 4283059801
-0.017332742 0.075574622 1.345 4283059801
-0.016153466 0.075518429 1.3440001 4283125594
-0.014975926 0.075462237 1.3430001 4283257180
-0.013800121 0.075406052 1.342 4283257178
-0.012635468 0.075406052 1.342 4283322971
-0.011470814 0.075406052 1.342 4283388764
-0.010298481 0.07534986 1.3410001 4283388764
-0.0091346959 0.07534986 1.3410001 4283257178
-0.0079709096 0.07534986 1.3410001 4283125592
-0.0068122 0.075406052 1.342 4283191385
-0.0056475461 0.075406052 1.342 4283322971
-0.004476212 0.075293675 1.34 4283322971
-0.0033108213 0.075237483 1.3390001 4283192155
-0.0021471665 0.075181291 1.3380001 4283258206
-0.00098524743 0.075125106 1.337 4283127134
0.00017506696 0.075125106 1.337 4283127135
0.0013353813 0.075125106 1.337 4283258721
0.0024975622 0.075181291 1.3380001 4283521893
0.0036587445 0.075181291 1.3380001 4283521893
0.0048199268 0.075181291 1.3380001 4283587428
0.0059766388 0.075125106 1.337 4283653222
0.0071369526 0.075125106 1.337 4283850600
0.0082972664 0.075125106 1.337 4283850600
0.0094575817 0.075125106 1.337 4283981673
0.010617896 0.075125106 1.337 4283981673
0.011769401 0.075068913 1.3360001 4284112489
0.012919171 0.075012721 1.335 4284178282
0.014077749 0.075012721 1.335 4284243819
0.015213501 0.074900344 1.3330001 4284375147
0.016370343 0.074900344 1.3330001 4284505705
0.017514039 0.074844159 1.332 4284505705
0.018655997 0.074787967 1.3310001 4284768107
0.019811105 0.074787967 1.3310001 4284899693
0.020950459 0.074731775 1.33 4284833129
0.022088079 0.07467559 1.3290001 4284701287
0.023241449 0.07467559 1.3290001 4284963176
0.024394821 0.07467559 1.3290001 4285093992
0.025528969 0.074619405 1.3280001 4285225321
0.026661383 0.074563205 1.327 4285355111
0.027792059 0.07450702 1.3260001 4285747302
0.028942827 0.07450702 1.3260001 4286140006
0.030093595 0.07450702 1.3260001 4286666353
0.031220799 0.074450836 1.325 4286537077
0.032370698 0.074450836 1.325 4285225324
0.033520598 0.074450836 1.325 4284570987
0.034670498 0.074450836 1.325 4284440684
0.035874467 0.074563205 1.327 4284244588
0.037026104 0.074563205 1.327 4284244846
0.03820651 0.074619405 1.3280001 4284310896
0.039329376 0.074563205 1.327 4284442225
0.040450506 0.07450702 1.3260001 4284508275
0.041601274 0.07450702 1.3260001 4284574068
0.0427198 0.074450836 1.325 4284574325
0.043836594 0.074394643 1.3240001 4284574582
0.044985626 0.074394643 1.3240001 4284640376
0.046064965 0.074282266 1.322 4284639862
0.047140837 0.074169889 1.3200001 4284574068
0.048176657 0.07400132 1.317 4284574581
0.049319614 0.07400132 1.317 4284640374
0.050424255 0.073945127 1.3160001 4284640117
0.051762268 0.074226074 1.3210001 4284442482
0.052988797 0.074338451 1.3230001 4284311152
0.055410489 0.07450702 1.3260001 4284311408
0.056817189 0.074844159 1.332 4284311408
0.058016691 0.074900344 1.3330001 4284311408
0.059173536 0.074900344 1.3330001 4284311408
0.060375635 0.074956536 1.3340001 4284311408
0.06148722 0.074900344 1.3330001 4284311408
0.062597066 0.074844159 1.332 4284377201
0.063800909 0.074900344 1.3330001 4284442994
0.064957753 0.074900344 1.3330001 4284508017
0.067422837 0.075068913 1.3360001 4284507504
0.068633616 0.075125106 1.337 4284441455
0.069846131 0.075181291 1.3380001 4284441455
0.071219586 0.075406052 1.342 4284573041
0.072384238 0.075406052 1.342 4284704114
0.073548898 0.075406052 1.342 4284506735
0.07465788 0.07534986 1.3410001 4284244076
0.075765125 0.075293675 1.34 4284244076
0.077042855 0.075406052 1.342 4284244333
0.078382343 0.075574622 1.345 4284178797
0.080896892 0.075743191 1.348 4283981931
0.082432039 0.076080322 1.3540001 4283719271
0.083607107 0.076080322 1.3540001 4283719271
0.084782168 0.076080322 1.3540001 4283719271
0.085893758 0.07602413 1.353 4283653478
0.087003604 0.075967945 1.3520001 4283521891
0.088111714 0.075911753 1.3510001 4283456096
0.089218095 0.075855561 1.35 4283258718
0.090389691 0.075855561 1.35 4283061339
0.091561288 0.075855561 1.35 4282929239
0.093007647 0.076080322 1.3540001 4282731861
0.094321832 0.076192699 1.3560001 4282534995
0.095569059 0.076248892 1.3570001 4282468945
0.098429538 0.076642215 1.3640001 4282402380
0.099686325 0.076698408 1.365 4282401866
0.10101873 0.076810777 1.3670001 4282401095
0.10227985 0.076866977 1.368 4282465861
0.10346707 0.076866977 1.368 4282661700
0.10442477 0.076698408 1.365 4283250244
0.10560939 0.076698408 1.365 4284036167
0.10671576 0.076642215 1.3640001 4285085520
0.10797862 0.076698408 1.365 4285742423
0.10924321 0.076754592 1.3660001 4285612120
0.11050953 0.076810777 1.3670001 4284628306
0.11202271 0.077035539 1.3710001 4283645003
0.11329512 0.077091731 1.3720001 4283055945
0.11456925 0.077147916 1.373 4282794058
0.1176338 0.077597432 1.381 4282729293
0.1190044 0.077709809 1.383 4282795088
0.12046538 0.077878378 1.386 4282664273
0.12219492 0.078215517 1.3920001 4282533714
0.12349162 0.078271702 1.393 4282599507
0.12470053 0.078271702 1.393 4282468179
-0.12019212 0.08158312 1.4300001 4283587687
-0.11878473 0.081469014 1.4280001 4283390566
-0.11688691 0.081012607 1.4200001 4283324773
-0.11549167 0.080898508 1.4180001 4283258980
-0.11369701 0.08049915 1.411 4283193444
-0.11239277 0.080442093 1.4100001 4283259493
-0.11109026 0.080385044 1.409 4283259750
-0.10955556 0.08015684 1.4050001 4283194214
-0.10818201 0.080042742 1.4030001 4283194214
-0.10688818 0.079985686 1.4020001 4283259237
-0.10514385 0.079586327 1.3950001 4283127651
-0.10363518 0.079358131 1.391 4283127905
-0.10176528 0.078844659 1.3820001 4283258978
-0.10042038 0.078730561 1.3800001 4283389794
-0.099007048 0.078559414 1.3770001 4283651939
-0.09745685 0.078274153 1.3720001 4283979106
-0.096196003 0.078217104 1.3710001 4284371554
-0.094936885 0.078160048 1.3700001 4285156964
-0.093816362 0.078217104 1.3710001 4286007909
-0.092626542 0.078217104 1.3710001 4286989415
-0.091570102 0.078331202 1.373 4287448169
-0.090444371 0.078388259 1.3740001 4287252587
-0.089316897 0.078445308 1.3750001 4286202978
-0.087183207 0.078673512 1.3790001 4284106842
-0.084974132 0.078844659 1.3820001 4283125081
-0.083896011 0.078958765 1.3840001 4283059801
-0.082635157 0.078901716 1.383 4282994778
-0.081317149 0.07878761 1.381 4283060828
-0.080002621 0.078673512 1.3790001 4283126877
-0.078691565 0.078559414 1.3770001 4282995292
-0.077327698 0.078388259 1.3740001 4282929756
-0.076135278 0.078388259 1.3740001 4282930012
-0.07494285 0.078388259 1.3740001 4282930013
-0.073750429 0.078388259 1.3740001 4282929756
-0.072505191 0.078331202 1.373 4282863963
-0.071261689 0.078274153 1.3720001 4282929500
-0.070019938 0.078217104 1.3710001 4282995292
-0.068880312 0.078274153 1.3720001 4282863963
-0.067738965 0.078331202 1.373 4282732634
-0.066595875 0.078388259 1.3740001 4282535768
-0.065355852 0.078331202 1.373 4282535768
-0.064164296 0.078331202 1.373 4282732377
-0.062926866 0.078274153 1.3720001 4282666584
-0.061691187 0.078217104 1.3710001 4282797400
-0.060501367 0.078217104 1.3710001 4282731608
-0.059225015 0.078102998 1.3690001 4282994008
-0.057994537 0.078045949 1.368 4282928728
-0.056765798 0.077988893 1.3670001 4282928985
-0.055457473 0.077817746 1.3640001 4282928985
-0.054273728 0.077817746 1.3640001 4283125081
-0.053051058 0.077760696 1.363 4283322203
-0.051868178 0.077760696 1.363 4283190874
-0.050685301 0.077760696 1.363 4282993494
-0.049502421 0.077760696 1.363 4282665043
-0.048354995 0.077817746 1.3640001 4282533201
-0.047205832 0.077874795 1.365 4282467408
-0.046021219 0.077874795 1.365 4282401871
-0.044869449 0.077931844 1.3660001 4282336335
-0.043683968 0.077931844 1.3660001 4282402127
-0.042529598 0.077988893 1.3670001 4282598736
-0.041373491 0.078045949 1.368 4282664273
-0.040215649 0.078102998 1.3690001 4282796115
-0.039056074 0.078160048 1.3700001 4282795859
-0.03783948 0.078102998 1.3690001 4282796116
-0.036678165 0.078160048 1.3700001 4282665043
-0.03554102 0.078274153 1.3720001 4282664785
-0.034350332 0.078274153 1.3720001 4282599762
-0.033183813 0.078331202 1.373 4282468689
-0.031968951 0.078274153 1.3720001 4282534482
-0.030733401 0.078160048 1.3700001 4282403409
-0.029501315 0.078045949 1.368 4282403409
-0.02821061 0.077760696 1.363 4282469204
-0.027027732 0.077760696 1.363 4282469204
-0.025825894 0.077703647 1.3620001 4282338132
-0.024553413 0.077418387 1.3570001 4282338132
-0.023358515 0.07736133 1.3560001 4282468949
-0.022132637 0.077190176 1.353 4282403412
-0.020973928 0.077247232 1.3540001 4282600020
-0.019813482 0.077304281 1.355 4282665813
-0.018541263 0.07690493 1.348 4282797143
-0.017358515 0.076847874 1.3470001 4282797142
-0.016177505 0.076790825 1.3460001 4282862422
-0.01500938 0.076790825 1.3460001 4282994008
-0.013820688 0.076676719 1.3440001 4283059799
-0.012654299 0.076676719 1.3440001 4283125592
-0.011479361 0.07661967 1.3430001 4283257178
-0.01031384 0.07661967 1.3430001 4283388764
-0.0091415066 0.076562621 1.342 4283257178
-0.007982797 0.07661967 1.3430001 4282994006
-0.0068223523 0.076676719 1.3440001 4283059799
-0.005655963 0.076676719 1.3440001 4283191385
-0.0044895737 0.076676719 1.3440001 4283191385
-0.0033207117 0.07661967 1.3430001 4283060569
-0.0021551903 0.07661967 1.3430001 4283061084
-0.00098819507 0.076505564 1.3410001 4283061341
0.00017559071 0.076505564 1.3410001 4283061342
0.0013393764 0.076505564 1.3410001 4283192927
0.0025031622 0.076505564 1.3410001 4283324513
0.0036642135 0.076448515 1.34 4283390306
0.0048271315 0.076448515 1.34 4283521635
0.005985579 0.076391466 1.3390001 4283587428
0.0071476293 0.076391466 1.3390001 4283719014
0.0083034728 0.076334417 1.3380001 4283719014
0.0094575817 0.076277368 1.337 4283915623
0.010609955 0.076220311 1.3360001 4283981159
0.011760592 0.076163262 1.335 4283980647
0.012909492 0.076106213 1.3340001 4284046183
0.014067204 0.076106213 1.3340001 4284178024
0.015213501 0.076049156 1.3330001 4284440426
0.016370343 0.076049156 1.3330001 4284439655
0.017527187 0.076049156 1.3330001 4284505448
0.01868403 0.076049156 1.3330001 4284439655
0.019840872 0.076049156 1.3330001 4284571241
0.020997716 0.076049156 1.3330001 4284505448
0.022137938 0.075992107 1.332 4284505448
0.023311401 0.076049156 1.3330001 4284505191
0.024468245 0.076049156 1.3330001 4284636777
0.025605865 0.075992107 1.332 4284570730
0.026741749 0.075935058 1.3310001 4284767082
0.027875895 0.075878002 1.33 4285225066
0.028964652 0.075706847 1.327 4285355112
0.030093595 0.075649798 1.3260001 4285946223
0.031197239 0.0755357 1.3240001 4286013043
0.032346271 0.0755357 1.3240001 4285094764
0.033470005 0.075478651 1.3230001 4284636780
0.034618169 0.075478651 1.3230001 4284440428
0.035766333 0.075478651 1.3230001 4284178797
0.0369424 0.0755357 1.3240001 4284244590
0.038120199 0.075592749 1.325 4284310896
0.039270099 0.075592749 1.325 4284442225
0.040389497 0.0755357 1.3240001 4284508275
0.041538529 0.0755357 1.3240001 4284574068
0.042655319 0.075478651 1.3230001 4284574581
0.043803483 0.075478651 1.3230001 4284508790
0.044917669 0.075421602 1.322 4284508790
0.045995276 0.075307496 1.3200001 4284442739
0.047069412 0.07519339 1.3180001 4284442738
0.048140075 0.075079292 1.3160001 4284574325
0.049244717 0.075022236 1.3150001 4284443508
0.050347622 0.074965186 1.314 4284442482
0.05160553 0.075136341 1.317 4284376689
0.052868642 0.075307496 1.3200001 4284245615
0.054096043 0.075421602 1.322 4284311408
0.056603912 0.075706847 1.327 4284311408
0.057755552 0.075706847 1.327 4284311408
0.058951575 0.075763904 1.3280001 4284311408
0.06010408 0.075763904 1.3280001 4284377201
0.061256584 0.075763904 1.3280001 4284377201
0.062503077 0.075878002 1.33 4284377201
0.063705184 0.075935058 1.3310001 4284442994
0.064957753 0.076049156 1.3330001 4284442737
0.0674733 0.076277368 1.337 4284573297
0.068684943 0.076334417 1.3380001 4284507248
0.06989833 0.076391466 1.3390001 4284506735
0.071219586 0.076562621 1.342 4284703857
0.072384238 0.076562621 1.342 4284835443
0.073494092 0.076505564 1.3410001 4284506735
0.074602209 0.076448515 1.34 4284178026
0.075765125 0.076448515 1.34 4284178283
0.076813221 0.076334417 1.3380001 4284178797
0.07803268 0.076391466 1.3390001 4284178797
0.079313017 0.076505564 1.3410001 4284047467
0.082432039 0.077247232 1.3540001 4283719014
0.083607107 0.077247232 1.3540001 4283719271
0.084782168 0.077247232 1.3540001 4283719271
0.085893758 0.077190176 1.353 4283587685
0.086874902 0.077019028 1.35 4283455841
0.087916054 0.07690493 1.348 4283324254
0.089019835 0.076847874 1.3470001 4283192412
0.090255775 0.07690493 1.348 4282995032
0.091425635 0.07690493 1.348 4282863190
0.092870258 0.077133127 1.3520001 4282665811
0.094252273 0.077304281 1.355 4282468688
0.095569059 0.077418387 1.3570001 4282402638
0.098429538 0.077817746 1.3640001 4282401610
0.099832378 0.077988893 1.3670001 4282401352
0.10124043 0.078160048 1.3700001 4282466374
0.10242938 0.078160048 1.3700001 4282727749
0.10361833 0.078160048 1.3700001 4283053891
0.10473078 0.078102998 1.3690001 4283839044
0.10568676 0.077931844 1.3660001 4284887625
0.10687224 0.077931844 1.3660001 4285739856
0.10813683 0.077988893 1.3670001 4286330967
0.10940316 0.078045949 1.368 4286660189
0.11067121 0.078102998 1.3690001 4286136155
0.11337768 0.078331202 1.373 4283907663
0.11473612 0.078445308 1.3750001 4283318092
0.11609805 0.078559414 1.3770001 4283187790
-0.12010806 0.082757615 1.429 4283456359
-0.11878473 0.082699701 1.4280001 4283325030
-0.11688691 0.082236402 1.4200001 4283193701
-0.11549167 0.082120575 1.4180001 4283193700
-0.11361644 0.081657268 1.4100001 4283128164
-0.11231306 0.081599355 1.409 4283128164
-0.11093257 0.081483528 1.4070001 4283128164
-0.10932163 0.081193961 1.4020001 4283193957
-0.10810491 0.081193961 1.4020001 4283193957
-0.1067357 0.081078142 1.4000001 4283193444
-0.10484236 0.080556929 1.391 4283127651
-0.10356069 0.080499008 1.3900001 4283127905
-0.10176528 0.080035701 1.3820001 4283192928
-0.10034761 0.079861969 1.3790001 4283323488
-0.099007048 0.079746142 1.3770001 4283650913
-0.09745685 0.079456575 1.3720001 4284174689
-0.096196003 0.079398669 1.3710001 4284829282
-0.095006183 0.079398669 1.3710001 4285942887
-0.093816362 0.079398669 1.3710001 4286860138
-0.092626542 0.079398669 1.3710001 4287449453
-0.091570102 0.079514489 1.373 4287580269
-0.090444371 0.079572402 1.3740001 4287187563
-0.08925195 0.079572402 1.3740001 4286203491
-0.087183207 0.079861969 1.3790001 4283843671
-0.086111151 0.079977795 1.381 4283124310
-0.085035622 0.080093622 1.383 4282863192
-0.083835386 0.080093622 1.383 4282863448
-0.082575403 0.080035701 1.3820001 4282732632
-0.081199385 0.079861969 1.3790001 4282732633
-0.079886593 0.079746142 1.3770001 4282864219
-0.078634419 0.079688229 1.376 4282995293
-0.077271417 0.079514489 1.373 4282929756
-0.076135278 0.079572402 1.3740001 4282732891
-0.07494285 0.079572402 1.3740001 4282732891
-0.073696747 0.079514489 1.373 4282798170
-0.072505191 0.079514489 1.373 4282798170
-0.071261689 0.079456575 1.3720001 4282797914
-0.070019938 0.079398669 1.3710001 4282798170
-0.068830118 0.079398669 1.3710001 4282732377
-0.067689627 0.079456575 1.3720001 4282601048
-0.066547409 0.079514489 1.373 4282404182
-0.065355852 0.079514489 1.373 4282404182
-0.064117558 0.079456575 1.3720001 4282601304
-0.062926866 0.079456575 1.3720001 4282601304
-0.061691187 0.079398669 1.3710001 4282666071
-0.060501367 0.079398669 1.3710001 4282665814
-0.059268281 0.079340748 1.3700001 4282928215
-0.058036931 0.079282843 1.3690001 4282797399
-0.056807321 0.079224929 1.368 4282863192
