# .PCD v0.7 - Point Cloud Data file format
VERSION 0.7
FIELDS x y z rgba
SIZE 4 4 4 4
TYPE F F F U
COUNT 1 1 1 1
WIDTH 1089
HEIGHT 1
VIEWPOINT 0 0 0 1 0 0 0
POINTS 1089
DATA ascii
-0.18425423 0.0039578197 1.4360001 4280894828
-0.18176176 0.0039578197 1.4360001 4280960621
-0.17914444 0.0039550634 1.4350001 4281091694
-0.17653063 0.0039523076 1.434 4281157486
-0.17392027 0.0039495509 1.4330001 4281091691
-0.17119375 0.0039440389 1.4310001 4281091691
-0.16870996 0.0039440389 1.4310001 4281025898
-0.16599385 0.0039385268 1.429 4281223277
-0.16328469 0.0039330143 1.427 4281289070
-0.16080785 0.0039330143 1.427 4281354862
-0.15822005 0.0039302581 1.4260001 4281157482
-0.15585417 0.0039330143 1.427 4281025896
-0.15337732 0.0039330143 1.427 4281025897
-0.15090048 0.0039330143 1.427 4280960362
-0.14852765 0.0039357701 1.4280001 4280697447
-0.14604908 0.0039357701 1.4280001 4280829033
-0.1435705 0.0039357701 1.4280001 4280894827
-0.14089431 0.0039302581 1.4260001 4280894828
-0.13822508 0.0039247461 1.424 4281026414
-0.1356581 0.0039219894 1.4230001 4280894315
-0.13309461 0.0039192336 1.4220001 4280959852
-0.13071831 0.0039219894 1.4230001 4280959851
-0.12824841 0.0039219894 1.4230001 4280959852
-0.12551333 0.0039137215 1.4200001 4280894059
-0.12270203 0.0039026965 1.416 4280828266
-0.1199046 0.003891672 1.4120001 4280893802
-0.1174538 0.003891672 1.4120001 4280893545
-0.11500299 0.003891672 1.4120001 4280893800
-0.11239277 0.0038861597 1.4100001 4280762213
-0.10978948 0.0038806475 1.4080001 4280564833
-0.10734562 0.0038806475 1.4080001 4280564575
-0.10475275 0.0038751354 1.406 4280630112
-0.10216682 0.0038696232 1.404 4280432733
-0.099658869 0.0038668667 1.4030001 4280498526
-0.097154386 0.0038641109 1.4020001 4280498526
-0.094653375 0.0038613547 1.401 4280301660
-0.092090011 0.0038558424 1.399 4280367453
-0.08959768 0.0038530859 1.3980001 4280301660
-0.087046467 0.0038475737 1.396 4280630626
-0.084623426 0.0038475737 1.396 4280696166
-0.082200393 0.0038475737 1.396 4280630374
-0.079834506 0.0038503301 1.3970001 4280894059
-0.077409729 0.0038503301 1.3970001 4281157231
-0.074931294 0.0038475737 1.396 4281091438
-0.072456315 0.0038448179 1.3950001 4281091438
-0.069984809 0.0038420616 1.3940001 4281091437
-0.067565247 0.0038420616 1.3940001 4280959338
-0.065192416 0.0038448179 1.3950001 4280761700
-0.06295111 0.0038558424 1.399 4280695389
-0.060652651 0.0038641109 1.4020001 4281089118
-0.21891937 0.0065001785 1.4510001 4291615710
-0.21490946 0.0064553809 1.4410001 4291550948
-0.21226092 0.0064509008 1.4400001 4283326329
-0.20917885 0.0064329817 1.4360001 4281288308
-0.20668639 0.0064329817 1.4360001 4281092211
-0.20419392 0.0064329817 1.4360001 4281092464
-0.20184192 0.0064374614 1.437 4281026671
-0.19948643 0.0064419415 1.4380001 4281092977
-0.1969905 0.0064419415 1.4380001 4281158514
-0.19435932 0.0064374614 1.437 4281026672
-0.19186513 0.0064374614 1.437 4281026414
-0.18910736 0.0064285016 1.4350001 4281092207
-0.18648659 0.0064240224 1.434 4280894828
-0.18386929 0.0064195422 1.4330001 4280829035
-0.18138203 0.0064195422 1.4330001 4281157999
-0.17876993 0.0064150626 1.432 4280894827
-0.17603822 0.0064061028 1.4300001 4280960619
-0.17355616 0.0064061028 1.4300001 4281223534
-0.17095448 0.0064016231 1.429 4281289070
-0.16847417 0.0064016231 1.429 4281091691
-0.16564536 0.0063881837 1.4260001 4281223277
-0.16317026 0.0063881837 1.4260001 4281289069
-0.16058247 0.006383704 1.4250001 4281157483
-0.1581091 0.006383704 1.4250001 4280960104
-0.15563573 0.006383704 1.4250001 4280960104
-0.15316236 0.006383704 1.4250001 4281025897
-0.15068899 0.006383704 1.4250001 4280960106
-0.14821562 0.006383704 1.4250001 4280828776
-0.14584452 0.0063881837 1.4260001 4280894312
-0.14336942 0.0063881837 1.4260001 4280894569
-0.1406967 0.0063792244 1.424 4280763241
-0.13793387 0.0063657844 1.4210001 4280894828
-0.1353721 0.0063613052 1.4200001 4281091694
-0.13281383 0.0063568251 1.419 4281223023
-0.13044272 0.0063613052 1.4200001 4280959852
-0.12797803 0.0063613052 1.4200001 4280959596
-0.12533656 0.0063523455 1.4180001 4280893803
-0.12235541 0.0063254666 1.4120001 4281025131
-0.11973478 0.0063165068 1.4100001 4280959338
-0.11720425 0.0063120276 1.409 4280959338
-0.11484011 0.0063165068 1.4100001 4281090922
-0.11223335 0.0063075474 1.4080001 4280827748
-0.10963354 0.0062985881 1.406 4280695905
-0.10719314 0.0062985881 1.406 4280498526
-0.10452924 0.0062851482 1.4030001 4280366940
-0.10187574 0.0062717092 1.4000001 4280366940
-0.099374734 0.0062672296 1.399 4280564319
-0.096738607 0.0062537896 1.396 4280432733
-0.094248004 0.0062493104 1.3950001 4280432733
-0.091826707 0.0062493104 1.3950001 4280301403
-0.08927723 0.0062403507 1.393 4280366942
-0.08673469 0.0062313909 1.391 4280170077
-0.084380955 0.006235871 1.3920001 4280630627
-0.082082622 0.0062448303 1.3940001 4280630373
-0.079720214 0.0062493104 1.3950001 4280894059
-0.077243499 0.0062448303 1.3940001 4280828782
-0.074823938 0.0062448303 1.3940001 4280960368
-0.072300494 0.006235871 1.3920001 4281091954
-0.069834195 0.0062313909 1.391 4281026161
-0.067419842 0.0062313909 1.391 4281354097
-0.065052219 0.006235871 1.3920001 4281353837
-0.062726118 0.0062448303 1.3940001 4281024356
-0.06039308 0.0062537896 1.396 4281089634
-0.058260728 0.0062851482 1.4030001 4281023067
-0.21876848 0.0089949919 1.45 4291352538
-0.21476033 0.0089329574 1.4400001 4291221731
-0.21211353 0.0089267539 1.439 4280761177
-0.20917885 0.0089081442 1.4360001 4281288046
-0.20654245 0.0089019407 1.4350001 4281355122
-0.20405172 0.0089019407 1.4350001 4281224304
-0.20184192 0.0089143477 1.437 4281092978
-0.19948643 0.0089205503 1.4380001 4281027441
-0.1969905 0.0089205503 1.4380001 4281026927
-0.19435932 0.0089143477 1.437 4280763755
-0.19173162 0.0089081442 1.4360001 4281026414
-0.1888438 0.0088895336 1.4330001 4280960621
-0.18609644 0.0088771265 1.4310001 4280894828
-0.18348436 0.008870923 1.4300001 4280894828
-0.18087573 0.0088647194 1.429 4281092208
-0.17839542 0.0088647194 1.429 4281026414
-0.17579201 0.0088585168 1.4280001 4280960620
-0.17331342 0.0088585168 1.4280001 4280960362
-0.17083485 0.0088585168 1.4280001 4281025898
-0.16812047 0.0088461088 1.4260001 4281025898
-0.16552921 0.0088399053 1.4250001 4281091435
-0.16294143 0.0088337017 1.424 4281223020
-0.16035709 0.0088274991 1.4230001 4281025641
-0.15788719 0.0088274991 1.4230001 4280960105
-0.15541729 0.0088274991 1.4230001 4280960105
-0.1529474 0.0088274991 1.4230001 4281025898
-0.1504775 0.0088274991 1.4230001 4280960105
-0.14790359 0.0088212956 1.4220001 4281025898
-0.14543542 0.0088212956 1.4220001 4280960105
-0.14286672 0.008815092 1.4210001 4280960105
-0.14030148 0.0088088885 1.4200001 4280762984
-0.13764265 0.0087964823 1.4180001 4280894570
-0.1350861 0.0087902779 1.4170001 4281025900
-0.13253303 0.0087840743 1.416 4280894058
-0.13007528 0.0087840743 1.416 4280828265
-0.12770765 0.0087902779 1.4170001 4280894058
-0.12507139 0.0087778708 1.4150001 4280828009
-0.12218211 0.008746855 1.4100001 4280959338
-0.11956494 0.008734447 1.4080001 4280893545
-0.11703789 0.0087282434 1.4070001 4280893800
-0.11467721 0.008734447 1.4080001 4281024872
-0.11207393 0.0087220399 1.406 4280893285
-0.10947758 0.0087096337 1.404 4280893027
-0.10688818 0.0086972266 1.4020001 4280761184
-0.10430572 0.0086848196 1.4000001 4280563805
-0.10158467 0.0086600063 1.396 4280563805
-0.099090606 0.0086538028 1.3950001 4280630112
-0.096530713 0.0086413957 1.393 4280564319
-0.093977757 0.0086289886 1.391 4280301147
-0.091563404 0.0086289886 1.391 4280235354
-0.088892691 0.0086041754 1.3870001 4280301149
-0.086547628 0.008610378 1.388 4280301149
-0.084259719 0.0086227851 1.3900001 4280564580
-0.081905976 0.0086289886 1.391 4280696166
-0.079548769 0.0086351931 1.3920001 4281025388
-0.07713268 0.0086351931 1.3920001 4281156977
-0.074662909 0.0086289886 1.391 4280894575
-0.072196618 0.0086227851 1.3900001 4281091954
-0.069733791 0.0086165816 1.3890001 4281223540
-0.067274436 0.008610378 1.388 4281420403
-0.064865284 0.008610378 1.388 4281617268
-0.062546134 0.0086227851 1.3900001 4281551729
-0.060176771 0.0086289886 1.391 4281090149
-0.058011569 0.0086662089 1.3970001 4280563544
-0.21831585 0.011470503 1.447 4291154389
-0.21461119 0.011407087 1.439 4291089888
-0.21167131 0.011383306 1.4360001 4280563796
-0.20903318 0.011375379 1.4350001 4281287789
-0.20639852 0.011367451 1.434 4281485936
-0.20405172 0.011375379 1.4350001 4281486961
-0.20170146 0.011383306 1.4360001 4281224563
-0.19934772 0.011391234 1.437 4281158770
-0.19685352 0.011391234 1.437 4280697962
-0.19408882 0.011375379 1.4350001 4280960878
-0.19146457 0.011367451 1.434 4280960621
-0.18858023 0.01134367 1.4310001 4280894828
-0.18570632 0.01131989 1.4280001 4280894828
-0.18322773 0.01131989 1.4280001 4281092207
-0.18074916 0.01131989 1.4280001 4281158000
-0.17814575 0.011311962 1.427 4281092207
-0.17566891 0.011311962 1.427 4281026156
-0.17307068 0.011304035 1.4260001 4281025899
-0.17047594 0.011296107 1.4250001 4280959850
-0.16776678 0.011280254 1.4230001 4281091181
-0.16529688 0.011280254 1.4230001 4281025131
-0.16271256 0.011272326 1.4220001 4281156716
-0.16024441 0.011272326 1.4220001 4281091180
-0.15788719 0.011280254 1.4230001 4280959851
-0.15530808 0.011272326 1.4220001 4280894057
-0.15283991 0.011272326 1.4220001 4280762471
-0.15037175 0.011272326 1.4220001 4280762213
-0.14769556 0.011256472 1.4200001 4280893799
-0.14512859 0.011248546 1.419 4280828006
-0.14266564 0.011248546 1.419 4281091178
-0.14010388 0.011240618 1.4180001 4281091433
-0.13744853 0.011224763 1.416 4281025640
-0.13489544 0.011216836 1.4150001 4281025641
-0.13234583 0.01120891 1.414 4280762470
-0.12989156 0.01120891 1.414 4280828520
-0.12743728 0.01120891 1.414 4280894058
-0.12462945 0.011177202 1.4100001 4280893802
-0.1220088 0.011161347 1.4080001 4280827752
-0.11948002 0.01115342 1.4070001 4280696420
-0.11695471 0.011145493 1.406 4280761957
-0.11451431 0.011145493 1.406 4280893284
-0.11199421 0.011137567 1.4050001 4280826977
-0.10924365 0.011105858 1.401 4280761184
-0.10665946 0.011090003 1.399 4280563805
-0.10400771 0.011066223 1.396 4280563805
-0.10136637 0.01104244 1.393 4280432219
-0.098877504 0.011034514 1.3920001 4280366940
-0.09632282 0.01101866 1.3900001 4280498526
-0.093842641 0.011010733 1.3890001 4280366940
-0.091365926 0.011002805 1.388 4280301147
-0.088764511 0.010979024 1.3850001 4280432734
-0.08642292 0.010986951 1.386 4280564321
-0.084138475 0.011002805 1.388 4280630372
-0.081788212 0.011010733 1.3890001 4280827752
-0.079434477 0.01101866 1.3900001 4281091184
-0.07702186 0.01101866 1.3900001 4281222772
-0.074609235 0.01101866 1.3900001 4281289335
-0.072144672 0.011010733 1.3890001 4281092469
-0.069683582 0.011002805 1.388 4281355384
-0.06722597 0.010994879 1.3870001 4281486712
-0.064818554 0.010994879 1.3870001 4281750138
-0.062456135 0.011002805 1.388 4281749367
-0.060133513 0.01101866 1.3900001 4281617522
-0.057928517 0.011058295 1.3950001 4280826975
-0.21801411 0.013945324 1.4450001 4290167238
-0.21431291 0.013868119 1.437 4290365395
-0.21152391 0.013848817 1.4350001 4280694612
-0.20888752 0.013839167 1.434 4281222508
-0.20625459 0.013829516 1.4330001 4281354863
-0.20376733 0.013829516 1.4330001 4281355375
-0.20142053 0.013839167 1.434 4281158000
-0.19907026 0.013848817 1.4350001 4281026671
-0.19657955 0.013848817 1.4350001 4280895084
-0.19381832 0.013829516 1.4330001 4281092207
-0.19106402 0.013810215 1.4310001 4281223793
-0.18818489 0.013781263 1.4280001 4281092207
-0.18544622 0.013761961 1.4260001 4280960621
-0.1829711 0.013761961 1.4260001 4281223793
-0.18049601 0.013761961 1.4260001 4281157743
-0.17802089 0.013761961 1.4260001 4281025899
-0.1754227 0.01375231 1.4250001 4280960105
-0.17282796 0.013742658 1.424 4280960106
-0.16999741 0.013713706 1.4210001 4280959851
-0.16753098 0.013713706 1.4210001 4281091437
-0.16506456 0.013713706 1.4210001 4280893801
-0.16259813 0.013713706 1.4210001 4280959338
-0.16013171 0.013713706 1.4210001 4280893545
-0.15777624 0.013723358 1.4220001 4280893802
-0.15530808 0.013723358 1.4220001 4280959338
-0.15273242 0.013713706 1.4210001 4280893545
-0.15016025 0.013704056 1.4200001 4280893544
-0.14748754 0.013684754 1.4180001 4280959592
-0.14492404 0.013675104 1.4170001 4280893799
-0.14246456 0.013675104 1.4170001 4280893799
-0.13990627 0.013665453 1.416 4281091176
-0.13725439 0.013646152 1.414 4280959590
-0.13470478 0.013636501 1.4130001 4280959592
-0.13215864 0.01362685 1.4120001 4280762213
-0.12961598 0.013617199 1.411 4280762213
-0.1271669 0.013617199 1.411 4280696933
-0.12436428 0.013578597 1.4070001 4280696420
-0.12183549 0.013568945 1.406 4280564834
-0.11931018 0.013559295 1.4050001 4280498785
-0.11678835 0.013549645 1.404 4280498528
-0.11435143 0.013549645 1.404 4280629344
-0.11167537 0.013520692 1.401 4280629599
-0.10893175 0.013482088 1.3970001 4280563805
-0.1063545 0.013462787 1.3950001 4280432219
-0.10370969 0.013433835 1.3920001 4280235097
-0.10114806 0.013414534 1.3900001 4280235354
-0.098735444 0.013414534 1.3900001 4280169561
-0.096184224 0.013395232 1.388 4280301147
-0.093639955 0.01337593 1.386 4280235354
-0.091168448 0.01336628 1.3850001 4280366940
-0.088700421 0.013356629 1.3840001 4280695905
-0.086298212 0.013356629 1.3840001 4280696420
-0.083956622 0.01336628 1.3850001 4280762472
-0.081611566 0.01337593 1.386 4280630887
-0.079263039 0.013385582 1.3870001 4280959598
-0.076911032 0.013395232 1.388 4281026161
-0.07450188 0.013395232 1.388 4281289848
-0.071988851 0.01337593 1.386 4281289848
-0.069583178 0.01337593 1.386 4281618813
-0.067177497 0.01337593 1.386 4281553018
-0.064725086 0.01336628 1.3850001 4281552759
-0.062366143 0.01337593 1.386 4281815161
-0.059960466 0.01337593 1.386 4281683061
-0.057720892 0.013414534 1.3900001 4281353835
-0.05554701 0.013472439 1.396 4280563544
-0.053238139 0.013501391 1.399 4280562255
-0.21801411 0.016435999 1.4450001 4290036680
-0.21431291 0.016345004 1.437 4288194998
-0.21152391 0.016322257 1.4350001 4280826455
-0.20874184 0.016299507 1.4330001 4281419116
-0.20625459 0.016299507 1.4330001 4281288559
-0.20376733 0.016299507 1.4330001 4281026156
-0.20142053 0.016310882 1.434 4280894829
-0.19879283 0.016299507 1.4330001 4280829035
-0.19603159 0.016276758 1.4310001 4280763242
-0.19341256 0.016265385 1.4300001 4280894828
-0.19079697 0.01625401 1.429 4281092207
-0.18805312 0.016231259 1.427 4281157744
-0.18531618 0.016208513 1.4250001 4281289072
-0.18284281 0.016208513 1.4250001 4281420401
-0.18049601 0.016219886 1.4260001 4281223021
-0.17789607 0.016208513 1.4250001 4280960105
-0.1752996 0.016197138 1.424 4280894313
-0.17270657 0.016185762 1.4230001 4280894057
-0.16999741 0.016163014 1.4210001 4280894058
-0.16753098 0.016163014 1.4210001 4281025644
-0.16506456 0.016163014 1.4210001 4280959338
-0.16259813 0.016163014 1.4210001 4280959338
-0.16013171 0.016163014 1.4210001 4280959338
-0.15777624 0.016174387 1.4220001 4280959338
-0.15508963 0.016151641 1.4200001 4280959338
-0.15251747 0.016140265 1.419 4280959338
-0.15005451 0.016140265 1.419 4280893800
-0.14738353 0.016117517 1.4170001 4280959592
-0.1447195 0.016094768 1.4150001 4280893799
-0.14226347 0.016094768 1.4150001 4280828006
-0.13970867 0.016083393 1.414 4280959335
-0.13706024 0.016060645 1.4120001 4280827749
-0.13460945 0.016060645 1.4120001 4280696418
-0.13197145 0.016037896 1.4100001 4280564833
-0.12943225 0.016026521 1.409 4280564834
-0.12680641 0.016003773 1.4070001 4280499040
-0.12418749 0.015981024 1.4050001 4280367455
-0.12166218 0.015969649 1.404 4280564579
-0.11914034 0.015958276 1.4030001 4280695907
-0.1165388 0.015935525 1.401 4280695907
-0.11402563 0.015924152 1.4000001 4280432220
-0.11143623 0.015901404 1.3980001 4280366426
-0.10869782 0.015855907 1.3940001 4280629598
-0.10612578 0.015833156 1.3920001 4280563805
-0.10356069 0.015810408 1.3900001 4280563805
-0.10107529 0.015799034 1.3890001 4280432734
-0.098593377 0.015787659 1.388 4280366941
-0.096045636 0.015764909 1.386 4280498526
-0.093572393 0.015753536 1.3850001 4280301147
-0.09110263 0.015742162 1.3840001 4280367453
-0.088636331 0.015730787 1.383 4280433248
-0.086235859 0.015730787 1.383 4280564834
-0.083835386 0.015730787 1.383 4280630884
-0.081493802 0.015742162 1.3840001 4281222510
-0.079091594 0.015742162 1.3840001 4281354610
-0.076689392 0.015742162 1.3840001 4281486710
-0.074287184 0.015742162 1.3840001 4281487223
-0.071884975 0.015742162 1.3840001 4281618809
-0.069482774 0.015742162 1.3840001 4281421430
-0.067080565 0.015742162 1.3840001 4281619064
-0.064678356 0.015742162 1.3840001 4281750137
-0.062276151 0.015742162 1.3840001 4281684344
-0.059873946 0.015742162 1.3840001 4281683315
-0.057554789 0.015764909 1.386 4281748593
-0.055308267 0.015810408 1.3900001 4281287524
-0.052971758 0.015833156 1.3920001 4280891738
-0.050628304 0.015855907 1.3940001 4280627276
-0.21725973 0.018861184 1.4400001 4291155163
-0.21386549 0.018782595 1.434 4285957786
-0.2112291 0.018769499 1.4330001 4280826716
-0.20845051 0.018743303 1.4310001 4281156459
-0.2058228 0.018730205 1.4300001 4281025386
-0.20334075 0.018730205 1.4300001 4281025644
-0.20071822 0.018717105 1.429 4280894571
-0.19837666 0.018730205 1.4300001 4280960621
-0.1958946 0.018730205 1.4300001 4280894828
-0.19314204 0.018704008 1.4280001 4280763242
-0.19052996 0.018690908 1.427 4280960621
-0.18792132 0.018677812 1.4260001 4281157743
-0.18518613 0.018651616 1.424 4281223279
-0.18284281 0.018664714 1.4250001 4281354864
-0.18036944 0.018664714 1.4250001 4281025898
-0.17777123 0.018651616 1.424 4281091691
-0.17517649 0.018638518 1.4230001 4281025898
-0.17246383 0.018612321 1.4210001 4280828519
-0.16987778 0.018599223 1.4200001 4280828264
-0.1674131 0.018599223 1.4200001 4281090924
-0.16506456 0.018612321 1.4210001 4280959338
-0.16259813 0.018612321 1.4210001 4280893545
-0.15990633 0.018586125 1.419 4280893544
-0.15755433 0.018599223 1.4200001 4280828007
-0.15498042 0.018586125 1.419 4280827750
-0.1523025 0.018559931 1.4170001 4280828006
-0.14984301 0.018559931 1.4170001 4280630627
-0.14717551 0.018533733 1.4150001 4280630627
-0.14451495 0.018507537 1.4130001 4280828006
-0.14206241 0.018507537 1.4130001 4280828006
-0.13941225 0.01848134 1.411 4280762213
-0.13686612 0.018468244 1.4100001 4280630626
-0.13432345 0.018455144 1.409 4280630625
-0.13178425 0.018442048 1.4080001 4280762212
-0.1293404 0.018442048 1.4080001 4280828006
-0.12662615 0.018402753 1.4050001 4280828004
-0.12409911 0.018389653 1.404 4280761955
-0.12148888 0.018363459 1.4020001 4280761700
-0.11888558 0.018337263 1.4000001 4280959079
-0.11637243 0.018324163 1.399 4280695907
-0.11386275 0.018311067 1.3980001 4280564062
-0.11127681 0.01828487 1.396 4280761184
-0.10854188 0.018232478 1.3920001 4280827234
-0.10604954 0.01821938 1.391 4280629855
-0.10348618 0.018193185 1.3890001 4280499039
-0.10100252 0.018180085 1.388 4280564832
-0.098522343 0.018166989 1.3870001 4280498783
-0.095976338 0.018140791 1.3850001 4280499039
-0.093504839 0.018127695 1.3840001 4280301660
-0.091036804 0.018114595 1.383 4280367453
-0.088572241 0.018101498 1.3820001 4280564834
-0.086173505 0.018101498 1.3820001 4280959592
-0.083774768 0.018101498 1.3820001 4281288816
-0.081317149 0.018088399 1.381 4281683317
-0.078920148 0.018088399 1.381 4281618552
-0.076578565 0.018101498 1.3820001 4281486966
-0.074179828 0.018101498 1.3820001 4281552759
-0.071833037 0.018114595 1.383 4281618809
-0.069432564 0.018114595 1.383 4281750137
-0.067032091 0.018114595 1.383 4281684344
-0.064631626 0.018114595 1.383 4281815414
-0.062231153 0.018114595 1.383 4281683828
-0.05983068 0.018114595 1.383 4281617520
-0.057471737 0.018127695 1.3840001 4281814899
-0.055188898 0.018166989 1.3870001 4281813870
-0.052857593 0.018193185 1.3890001 4281483876
-0.050591983 0.018245576 1.393 4280956243
-0.21680711 0.021298775 1.437 4291549926
-0.21371636 0.021239489 1.4330001 4283326074
-0.2109343 0.021209845 1.4310001 4280826721
-0.20830485 0.021195024 1.4300001 4281024617
-0.20553493 0.02116538 1.4280001 4280893800
-0.20291416 0.021150557 1.427 4281157228
-0.20043732 0.021150557 1.427 4281091437
-0.1980992 0.02116538 1.4280001 4281091437
-0.19548364 0.021150557 1.427 4281288816
-0.19273628 0.021120917 1.4250001 4280960364
-0.1901294 0.021106094 1.424 4280960108
-0.18752597 0.021091273 1.4230001 4281025643
-0.18492603 0.02107645 1.4220001 4281223277
-0.18258618 0.021091273 1.4230001 4281091691
-0.17998971 0.02107645 1.4220001 4280894054
-0.17752154 0.02107645 1.4220001 4280959847
-0.17493027 0.021061629 1.4210001 4280959848
-0.17209974 0.021017164 1.4180001 4280828006
-0.16963851 0.021017164 1.4180001 4280893799
-0.16717729 0.021017164 1.4180001 4280959337
-0.16471608 0.021017164 1.4180001 4280959338
-0.16225486 0.021017164 1.4180001 4280893545
-0.15968095 0.021002343 1.4170001 4280828006
-0.15711051 0.02098752 1.416 4280696420
-0.15454355 0.020972699 1.4150001 4280499041
-0.15187258 0.020943055 1.4130001 4280564834
-0.14931427 0.020928234 1.4120001 4280564834
-0.14665546 0.02089859 1.4100001 4280696420
-0.14410584 0.020883767 1.409 4280828006
-0.14155971 0.020868946 1.4080001 4280828006
-0.13901705 0.020854125 1.4070001 4280828006
-0.13638078 0.020824483 1.4050001 4280762211
-0.13384679 0.02080966 1.404 4280828004
-0.13140987 0.02080966 1.404 4280828006
-0.12906481 0.020824483 1.4050001 4280959592
-0.12644589 0.020794839 1.4030001 4280827748
-0.12383394 0.020765195 1.401 4280827491
-0.12131556 0.020750374 1.4000001 4280827492
-0.11871576 0.02072073 1.3980001 4280761700
-0.11612289 0.020691086 1.396 4280564320
-0.1136184 0.020676265 1.3950001 4280630112
-0.11095797 0.020631799 1.3920001 4280630112
-0.10838593 0.020602155 1.3900001 4280564319
-0.10589706 0.020587334 1.3890001 4280367453
-0.10341167 0.020572513 1.388 4280367453
-0.10092976 0.020557692 1.3870001 4280499039
-0.098451309 0.020542869 1.386 4280630625
-0.095699146 0.02046876 1.381 4280696418
-0.093302146 0.02046876 1.381 4280696418
-0.090839326 0.020453939 1.3800001 4280762213
-0.088444062 0.020453939 1.3800001 4281025385
-0.085986443 0.020439118 1.3790001 4281420145
-0.083532296 0.020424295 1.378 4281617781
-0.081140503 0.020424295 1.378 4281683574
-0.07874871 0.020424295 1.378 4281684344
-0.076412328 0.020439118 1.3790001 4281552758
-0.074018799 0.020439118 1.3790001 4281486965
-0.07162527 0.020439118 1.3790001 4281355378
-0.069281951 0.020453939 1.3800001 4281355120
-0.066886686 0.020453939 1.3800001 4281618033
-0.064491421 0.020453939 1.3800001 4281749106
-0.062141154 0.02046876 1.381 4281551727
-0.059744153 0.02046876 1.381 4281485934
-0.057388682 0.020483583 1.3820001 4281683313
-0.055069529 0.020513227 1.3840001 4281880433
-0.052705374 0.020528048 1.3850001 4281813357
-0.050483026 0.020602155 1.3900001 4281614689
-0.21665624 0.023759115 1.4360001 4291484390
-0.21371636 0.023709482 1.4330001 4280826199
-0.2109343 0.02367639 1.4310001 4281353066
-0.20815916 0.023643298 1.429 4281024871
-0.20553493 0.023626754 1.4280001 4281156969
-0.20305635 0.023626754 1.4280001 4281090921
-0.20057778 0.023626754 1.4280001 4281288303
-0.19796048 0.023610208 1.427 4281288559
-0.19534664 0.023593662 1.4260001 4281354352
-0.19260104 0.023560572 1.424 4281091180
-0.18999587 0.023544027 1.4230001 4281025643
-0.1873942 0.023527481 1.4220001 4281025898
-0.18479598 0.023510937 1.4210001 4281025898
-0.18245786 0.023527481 1.4220001 4281091691
-0.17998971 0.023527481 1.4220001 4280959847
-0.17727186 0.023494391 1.4200001 4281025383
-0.17468408 0.023477845 1.419 4280893798
-0.17197837 0.023444755 1.4170001 4280762213
-0.16927962 0.023411665 1.4150001 4280564834
-0.16670571 0.023395117 1.414 4280498786
-0.1643676 0.023411665 1.4150001 4280498787
-0.16179717 0.023395117 1.414 4280498787
-0.1591175 0.023362029 1.4120001 4280499042
-0.1564448 0.023328938 1.4100001 4280630627
-0.15388824 0.023312392 1.409 4280630627
-0.15122768 0.023279302 1.4070001 4280762213
-0.14878555 0.023279302 1.4070001 4280893799
-0.1462394 0.023262756 1.406 4280959592
-0.14369674 0.02324621 1.4050001 4280762211
-0.14115755 0.023229664 1.404 4280893797
-0.13862182 0.02321312 1.4030001 4280959591
-0.13599251 0.023180028 1.401 4280893798
-0.13337013 0.023146939 1.399 4280959590
-0.13112909 0.023180028 1.401 4280893542
-0.12869737 0.023180028 1.401 4280827493
-0.12626566 0.023180028 1.401 4280827491
-0.12374554 0.023163484 1.4000001 4280893284
-0.12114227 0.023130393 1.3980001 4280695907
-0.11846101 0.023080757 1.3950001 4280761698
-0.11587334 0.023047667 1.393 4280695905
-0.11329261 0.023014575 1.391 4280761698
-0.11063912 0.022964939 1.388 4280761698
-0.108152 0.022948395 1.3870001 4280630112
-0.10566834 0.022931848 1.386 4280827747
-0.10318816 0.022915304 1.3850001 4280827491
-0.10078422 0.022915304 1.3850001 4280761698
-0.098309249 0.02289876 1.3840001 4280761698
-0.095421962 0.02278294 1.3770001 4280367197
-0.092964344 0.022766396 1.376 4280170074
-0.090444371 0.022733305 1.3740001 4280762213
-0.088059522 0.022733305 1.3740001 4281222764
-0.085674673 0.022733305 1.3740001 4281091691
-0.083289824 0.022733305 1.3740001 4280829033
-0.080904976 0.022733305 1.3740001 4280894826
-0.078462973 0.022716759 1.373 4280894826
-0.07607986 0.022716759 1.373 4280894826
-0.073696747 0.022716759 1.373 4280895081
-0.071261689 0.022700215 1.3720001 4280894311
-0.068930522 0.022716759 1.373 4280828517
-0.066595875 0.022733305 1.3740001 4281091176
-0.064211026 0.022733305 1.3740001 4281156967
-0.061916169 0.022766396 1.376 4281091174
-0.059614368 0.022799486 1.378 4281288296
-0.057264104 0.022816032 1.3790001 4281683313
-0.054950159 0.022849122 1.381 4281748847
-0.05262927 0.022882212 1.383 4281879150
-0.050337754 0.022931848 1.386 4282338925
-0.048001241 0.022964939 1.388 4281220183
-0.045723479 0.023031121 1.3920001 4280561734
-0.21590187 0.026142934 1.4310001 4290168786
-0.21341808 0.026142934 1.4310001 4280957784
-0.21078689 0.026124666 1.4300001 4281418858
-0.2080135 0.026088126 1.4280001 4281156457
-0.20553493 0.026088126 1.4280001 4281156969
-0.20291416 0.026069857 1.427 4281222763
-0.20029685 0.026051588 1.4260001 4281090924
-0.19768302 0.02603332 1.4250001 4281090923
-0.19493566 0.025996782 1.4230001 4281091180
-0.19219527 0.025960244 1.4210001 4280959593
-0.18959531 0.025941975 1.4200001 4280893799
-0.18713063 0.025941975 1.4200001 4280893799
-0.18466593 0.025941975 1.4200001 4280893799
-0.18220125 0.025941975 1.4200001 4280959592
-0.17973655 0.025941975 1.4200001 4280893798
-0.17727186 0.025941975 1.4200001 4280630625
-0.17431477 0.025868898 1.416 4280433247
-0.17161427 0.025832361 1.414 4280499041
-0.16904037 0.025814092 1.4130001 4280630627
-0.16646992 0.025795823 1.4120001 4280828007
-0.16390295 0.025777554 1.411 4280893800
-0.16145389 0.025777554 1.411 4280762214
-0.15877943 0.025741015 1.409 4280762213
-0.15600097 0.025686208 1.406 4280893797
-0.15345137 0.025667939 1.4050001 4280762212
-0.15090524 0.025649671 1.404 4280828005
-0.14836256 0.025631402 1.4030001 4281091176
-0.14592737 0.025631402 1.4030001 4280893797
-0.14349219 0.025631402 1.4030001 4280827748
-0.14095646 0.025613133 1.4020001 4280827747
-0.13832541 0.025576595 1.4000001 4280893541
-0.13550717 0.025503518 1.396 4280959077
-0.13308413 0.025503518 1.396 4281024613
-0.13084829 0.025540056 1.3980001 4281024613
-0.12842178 0.025540056 1.3980001 4280761441
-0.1260854 0.025558325 1.399 4280958564
-0.12348037 0.025521789 1.3970001 4280761441
-0.12096895 0.025503518 1.396 4280629599
-0.11829116 0.025448712 1.393 4280695391
-0.11562379 0.025393905 1.3900001 4280695648
-0.11312972 0.025375636 1.3890001 4280893027
-0.1104797 0.025320828 1.386 4280826977
-0.10791808 0.02528429 1.3840001 4280826977
-0.10543963 0.025266021 1.383 4280892770
-0.10296465 0.025247753 1.3820001 4281024356
-0.10042038 0.025211215 1.3800001 4280498012
-0.097740985 0.02513814 1.376 4279774801
-0.095006183 0.025046794 1.3710001 4279709264
-0.092626542 0.025046794 1.3710001 4280169561
-0.090181068 0.025028525 1.3700001 4281090663
-0.087803163 0.025028525 1.3700001 4281551727
-0.085425258 0.025028525 1.3700001 4281485933
-0.083047345 0.025028525 1.3700001 4281683313
-0.080610558 0.025010256 1.3690001 4281880692
-0.078234382 0.025010256 1.3690001 4281551982
-0.075802803 0.024991985 1.368 4281551982
-0.073374696 0.024973718 1.3670001 4281749359
-0.071001992 0.024973718 1.3670001 4281485929
-0.068679497 0.024991985 1.368 4281222501
-0.066305056 0.024991985 1.368 4281091171
-0.064024091 0.025028525 1.3700001 4281090400
-0.061736178 0.025065063 1.3720001 4281024607
-0.059441328 0.0251016 1.3740001 4281221986
-0.057181057 0.025156409 1.3770001 4280892767
-0.054870576 0.025192946 1.3790001 4281090145
-0.052515104 0.025211215 1.3800001 4281155682
-0.050228797 0.025266021 1.383 4281352289
-0.048035823 0.025375636 1.3890001 4281417564
-0.045789175 0.025466982 1.3940001 4280824908
-0.22333896 0.028929358 1.447 4292207593
-0.21975914 0.02878941 1.4400001 4291418332
-0.21575099 0.028589483 1.4300001 4289115848
-0.21311979 0.028569493 1.429 4280957530
-0.21049209 0.0285495 1.4280001 4281418859
-0.20786785 0.028529506 1.427 4281353323
-0.20524706 0.028509516 1.4260001 4281156457
-0.20262976 0.028489523 1.4250001 4280959593
-0.20001593 0.028469529 1.424 4280696163
-0.19726685 0.028429544 1.4220001 4280498785
-0.19452471 0.028389556 1.4200001 4280499041
-0.19178949 0.028349573 1.4180001 4280564834
-0.18932828 0.028349573 1.4180001 4280367455
-0.18686706 0.028349573 1.4180001 4280367455
-0.18440583 0.028349573 1.4180001 4280630627
-0.18194462 0.028349573 1.4180001 4280893798
-0.1794834 0.028349573 1.4180001 4281025383
-0.17689735 0.028329579 1.4170001 4280893797
-0.17419165 0.028289596 1.4150001 4280696419
-0.1714929 0.028249608 1.4130001 4280762213
-0.16892073 0.028229618 1.4120001 4280893799
-0.16611622 0.028169638 1.409 4280893799
-0.16355447 0.028149646 1.4080001 4280959592
-0.16099618 0.028129654 1.4070001 4280893799
-0.158216 0.028069675 1.404 4280959591
-0.15533525 0.027989706 1.4000001 4280959590
-0.15290527 0.027989706 1.4000001 4280893797
-0.15036781 0.027969712 1.399 4280828004
-0.14793958 0.027969712 1.399 4280762211
-0.14561534 0.027989706 1.4000001 4280630625
-0.14318536 0.027989706 1.4000001 4280827748
-0.14065485 0.027969712 1.399 4280959077
-0.13773258 0.02786975 1.3940001 4280893026
-0.13511889 0.027829764 1.3920001 4280826976
-0.13270278 0.027829764 1.3920001 4280958306
-0.1303803 0.027849756 1.393 4280892512
-0.12796247 0.027849756 1.393 4280760413
-0.12545452 0.027829764 1.3920001 4280497754
-0.12277325 0.027769787 1.3890001 4280431961
-0.12018907 0.027729802 1.3870001 4280563547
-0.11744197 0.027649829 1.383 4280694877
-0.11479195 0.027589852 1.3800001 4280694876
-0.11231525 0.02756986 1.3790001 4280760926
-0.10968259 0.027509883 1.376 4280826719
-0.10110205 0.027130021 1.3570001 4280168274
-0.099037781 0.027209993 1.3610001 4279905102
-0.096391365 0.027130021 1.3570001 4279576905
-0.094174609 0.027170006 1.3590001 4280234836
-0.091748238 0.027150013 1.358 4280760924
-0.089325339 0.027130021 1.3570001 4281419112
-0.056848846 0.027369933 1.3690001 4280958299
-0.054552257 0.027409919 1.3710001 4281155680
-0.052248724 0.027449904 1.373 4281089887
-0.050083522 0.02756986 1.3790001 4281352543
-0.047966659 0.027729802 1.3870001 4280891477
-0.045690633 0.027809771 1.391 4280561738
-0.22318462 0.031401765 1.4460001 4291746787
-0.21945392 0.031228036 1.4380001 4291023580
-0.2156001 0.03103259 1.429 4285233811
-0.21311979 0.03103259 1.429 4281089119
-0.21049209 0.031010872 1.4280001 4281352807
-0.20786785 0.030989155 1.427 4280761184
-0.20524706 0.03096744 1.4260001 4280366430
-0.20262976 0.030945724 1.4250001 4280235356
-0.19987547 0.030902289 1.4230001 4280301147
-0.19712812 0.030858858 1.4210001 4280169563
-0.19438772 0.030815426 1.419 4280564321
-0.19178949 0.03079371 1.4180001 4280630371
-0.18932828 0.03079371 1.4180001 4280630626
-0.18686706 0.03079371 1.4180001 4280696418
-0.18440583 0.03079371 1.4180001 4280762211
-0.18168801 0.030750278 1.416 4280959590
-0.17923026 0.030750278 1.416 4281222762
-0.17677251 0.030750278 1.416 4281156969
-0.17406856 0.030706843 1.414 4281025383
-0.1714929 0.030685127 1.4130001 4280959590
-0.16892073 0.030663412 1.4120001 4280893797
-0.16623414 0.030619977 1.4100001 4280893797
-0.16343832 0.030554829 1.4070001 4280893798
-0.16088176 0.030533114 1.406 4280828004
-0.1581033 0.030467967 1.4030001 4280893797
-0.15522431 0.0303811 1.399 4280564832
-0.15268685 0.030359384 1.3980001 4280564832
-0.1499379 0.030294234 1.3950001 4280367452
-0.14762233 0.030315952 1.396 4280367451
-0.14530331 0.030337665 1.3970001 4280564572
-0.14277627 0.030315952 1.396 4280696158
-0.14025269 0.030294234 1.3950001 4280695644
-0.13753498 0.030229086 1.3920001 4280892254
-0.22133248 0.033612885 1.434 4289115580
-0.21792781 0.033472244 1.4280001 4287799985
-0.21514748 0.033425368 1.4260001 4281747042
-0.21252324 0.033401925 1.4250001 4280628825
-0.20990248 0.033378486 1.424 4280497754
-0.20728517 0.033355042 1.4230001 4280498526
-0.20481527 0.033355042 1.4230001 4280432735
-0.20220317 0.033331607 1.4220001 4280498527
-0.19931363 0.033261288 1.419 4280761700
-0.19671194 0.033237845 1.4180001 4280761444
-0.19397675 0.033190966 1.416 4280959079
-0.19138373 0.033167526 1.4150001 4281090921
-0.18892772 0.033167526 1.4150001 4281091176
-0.18647172 0.033167526 1.4150001 4281091176
-0.18401571 0.033167526 1.4150001 4280893797
-0.18143138 0.033144087 1.414 4281025383
-0.1789771 0.033144087 1.414 4281156969
-0.17627314 0.033097208 1.4120001 4281091176
-0.17369924 0.033073764 1.411 4280959590
-0.17100742 0.033026889 1.409 4280827748
-0.16856183 0.033026889 1.409 4280959333
-0.16576254 0.032956567 1.406 4280761954
-0.16297367 0.032886248 1.4030001 4280893284
-0.16042405 0.032862809 1.4020001 4280696161
-0.15753986 0.032769047 1.3980001 4280564574
-0.15466952 0.032675285 1.3940001 4280235608
-0.15224996 0.032675285 1.3940001 4280235607
-0.14972292 0.032651849 1.393 4280301399
-0.14719935 0.032628406 1.3920001 4280564313
-0.14478324 0.032628406 1.3920001 4280432471
-0.14226489 0.032604966 1.391 4280431957
-0.13934782 0.032487769 1.386 4280300626
-0.22009769 0.035883293 1.4260001 4289773511
-0.21716475 0.0358078 1.4230001 4286089372
-0.21439311 0.035757471 1.4210001 4280430930
-0.21192668 0.035757471 1.4210001 4280760925
-0.20916545 0.035707146 1.419 4281024356
-0.20655683 0.035681982 1.4180001 4281024615
-0.2040956 0.035681982 1.4180001 4281024869
-0.20149219 0.035656817 1.4170001 4280959077
-0.19861132 0.035581328 1.414 4281155945
-0.19587959 0.035531003 1.4120001 4281024616
-0.19315481 0.035480671 1.4100001 4280958822
-0.19084273 0.035505835 1.411 4281025127
-0.18852717 0.035531003 1.4120001 4280959590
-0.18607637 0.035531003 1.4120001 4281091176
-0.18362556 0.035531003 1.4120001 4281025382
-0.18117476 0.035531003 1.4120001 4281025125
-0.17847081 0.035480671 1.4100001 4280893539
-0.17589863 0.03545551 1.409 4280761953
-0.17320682 0.035405181 1.4070001 4280564574
-0.17052196 0.035354856 1.4050001 4280498781
-0.16796368 0.035329692 1.404 4280564060
-0.16529095 0.035279363 1.4020001 4280366680
-0.16239287 0.03517871 1.3980001 4280366680
-0.15973751 0.035128385 1.396 4280300373
-0.15675102 0.035002563 1.391 4280300116
-0.15389286 0.03490191 1.3870001 4280365652
-0.1511578 0.03482642 1.3840001 4280431700
-0.14875558 0.03482642 1.3840001 4280431955
-0.081009634 0.031806789 1.2640001 4280891471
-0.079002768 0.031882279 1.2670001 4281023057
-0.07680364 0.031882279 1.2670001 4281286230
-0.074663393 0.031907443 1.268 4280825935
-0.072519675 0.031932604 1.2690001 4279970879
-0.070704952 0.03210875 1.276 4280102206
-0.06897328 0.032335222 1.2850001 4280627779
-0.066950671 0.032435875 1.289 4279838260
-0.062912256 0.032662351 1.2980001 4279509295
-0.061126649 0.032913983 1.3080001 4279245867
-0.059081346 0.033039805 1.3130001 4279574834
-0.057364777 0.03336693 1.3260001 4279706678
-0.055395443 0.033568241 1.3340001 4279904059
-0.053119812 0.033593401 1.335 4280167233
-0.22210455 0.038260553 1.4230001 4290299594
-0.21932596 0.038206778 1.4210001 4288391607
-0.21655431 0.038153008 1.419 4281483358
-0.21394049 0.038126118 1.4180001 4281417831
-0.21147926 0.038126118 1.4180001 4281418859
-0.20887065 0.038099229 1.4170001 4281287528
-0.20626549 0.038072344 1.416 4281221736
-0.20366381 0.038045458 1.4150001 4280958564
-0.2007812 0.037964795 1.4120001 4280695648
-0.19790901 0.037884135 1.409 4280827236
-0.19532469 0.037857246 1.4080001 4280893029
-0.19274385 0.037830357 1.4070001 4280761442
-0.19016646 0.037803471 1.406 4280827491
-0.18772607 0.037803471 1.406 4280827747
-0.18528567 0.037803471 1.406 4280893795
-0.18258519 0.037749697 1.404 4280893538
-0.17989166 0.037695922 1.4020001 4280827487
-0.17695192 0.037588373 1.3980001 4280630108
-0.17440055 0.037561484 1.3970001 4280432729
-0.17209889 0.037588373 1.3980001 4280498521
-0.17027922 0.037722811 1.4030001 4280301143
-0.1677244 0.037695922 1.4020001 4280432215
-0.16505516 0.037642147 1.4000001 4280300370
-0.16216055 0.037534598 1.396 4280431443
-0.15950866 0.037480824 1.3940001 4280365393
-0.15630028 0.037292611 1.3870001 4280430929
-0.15311618 0.037104405 1.3800001 4280430929
-0.1506117 0.037077516 1.3790001 4280496977
-0.14811069 0.037050627 1.378 4280299597
-0.11090327 0.035114747 1.3060001 4280101701
-0.10805417 0.034926534 1.299 4280035908
-0.10555516 0.034845874 1.296 4279970115
-0.10314627 0.034792099 1.294 4279904323
-0.10066635 0.034711439 1.291 4280035908
-0.098120607 0.03460389 1.2870001 4279970115
-0.095737748 0.034550112 1.2850001 4280233287
-0.09328907 0.034469452 1.2820001 4280430666
-0.087314211 0.033877932 1.2600001 4280628299
-0.085194796 0.033904821 1.261 4281023056
-0.082874432 0.033851046 1.2590001 4281088848
-0.080560997 0.033797272 1.2570001 4281023055
-0.078379229 0.033797272 1.2570001 4281023056
-0.076258078 0.033824161 1.258 4280496710
-0.074251212 0.033904821 1.261 4279970365
-0.072233938 0.033985484 1.2640001 4279641655
-0.070427902 0.034173694 1.271 4280364863
-0.068704903 0.034415677 1.2800001 4279377966
-0.066742912 0.034550112 1.2850001 4278916901
-0.064964384 0.034792099 1.294 4279048487
-0.060986452 0.035087857 1.3050001 4280166968
-0.059036348 0.03527607 1.312 4280495933
-0.057234991 0.035571828 1.3230001 4280561983
-0.055270866 0.035786927 1.3310001 4280627522
-0.053080022 0.03586759 1.3340001 4280627523
-0.050992925 0.036028914 1.34 4280825674
-0.22378536 0.040570255 1.4180001 4291811812
-0.22116807 0.040541641 1.4170001 4288325552
-0.21855424 0.040513035 1.416 4285693840
-0.21579127 0.040455811 1.414 4281352027
-0.21333699 0.040455811 1.414 4281549672
-0.21088271 0.040455811 1.414 4281024099
-0.20842843 0.040455811 1.414 4280695390
-0.20568281 0.04039859 1.4120001 4280761185
-0.20308807 0.04036998 1.411 4280563551
-0.20021242 0.040284146 1.4080001 4280498014
-0.19734718 0.040198315 1.4050001 4280498270
-0.19490853 0.040198315 1.4050001 4280498014
-0.19219588 0.040141094 1.4030001 4280629598
-0.1894902 0.04008387 1.401 4280498267
-0.18665794 0.039998036 1.3980001 4280564059
-0.18383609 0.039912205 1.3950001 4280629850
-0.18115468 0.039854985 1.393 4280564057
-0.11997056 0.037365835 1.3060001 4280364873
-0.11743336 0.037280001 1.3030001 4280233287
-0.11526013 0.037308615 1.304 4280364873
-0.11299678 0.037308615 1.304 4280430666
-0.11047868 0.03722278 1.3010001 4280430666
-0.10780463 0.037079725 1.296 4280233287
-0.10522937 0.036965281 1.2920001 4280299080
-0.10298685 0.036965281 1.2920001 4280364873
-0.10043243 0.03685084 1.2880001 4280496459
-0.097815648 0.036707785 1.2830001 4280430921
-0.09543974 0.036650561 1.281 4280430920
-0.093070768 0.03659334 1.279 4280496713
-0.087106317 0.0359639 1.2570001 4281088850
-0.084924549 0.0359639 1.2570001 4281023055
-0.082611121 0.03590668 1.2550001 4280694089
-0.080368735 0.035878066 1.2540001 4280694088
-0.078254521 0.03590668 1.2550001 4280101951
-0.076136842 0.035935286 1.256 4279706934
-0.07419233 0.036049731 1.2600001 4279575091
-0.072119646 0.036106952 1.2620001 4279970103
-0.070372485 0.036335841 1.2700001 4280364860
-0.068704903 0.036621951 1.2800001 4278916901
-0.066639036 0.036707785 1.2830001 4279245866
-0.064964384 0.037022505 1.294 4280166966
-0.061033189 0.037365835 1.3060001 4280824896
-0.059036348 0.0375375 1.312 4280956482
-0.057234991 0.03785222 1.3230001 4281351494
-0.05522934 0.038052496 1.33 4281614667
-0.053000443 0.038109716 1.332 4281680205
-0.050878763 0.038252775 1.337 4280825158
-0.22362755 0.042984057 1.4170001 4289444289
-0.22085589 0.042923387 1.4150001 4286746780
-0.21839988 0.042923387 1.4150001 4282470504
-0.21563865 0.042862717 1.4130001 4281023319
-0.21318612 0.042862717 1.4130001 4280628822
-0.21058443 0.042832386 1.4120001 4280431703
-0.20798622 0.042802051 1.411 4280498009
-0.2053915 0.042771712 1.4100001 4280563548
-0.20280021 0.042741381 1.409 4280563547
-0.19992803 0.042650379 1.406 4280563548
-0.19720672 0.042589705 1.404 4280431962
-0.19463107 0.042559374 1.4030001 4280497241
-0.19192192 0.042498704 1.401 4280431703
-0.18908444 0.042407699 1.3980001 4280300372
-0.18612385 0.042286362 1.3940001 4280234321
-0.18304537 0.042134691 1.3890001 4280234320
-0.18037441 0.042074017 1.3870001 4280365905
-0.14405861 0.040011272 1.319 4280167495
-0.14166175 0.039980933 1.3180001 4280035908
-0.1391626 0.039920267 1.3160001 4280101701
-0.13667041 0.0398596 1.314 4280233287
-0.13459423 0.039920267 1.3160001 4280233287
-0.13200845 0.039829265 1.3130001 4280299080
-0.12963067 0.039798927 1.312 4280299080
-0.12686808 0.039647255 1.307 4280299080
-0.12421821 0.039525919 1.3030001 4280364873
-0.121863 0.039495584 1.302 4280496459
-0.11932754 0.039404579 1.299 4280430666
-0.11689261 0.039343912 1.2970001 4280496459
-0.11464141 0.039343912 1.2970001 4280562252
-0.11204359 0.039222572 1.2930001 4280562252
-0.10971441 0.039192237 1.2920001 4280562252
-0.10722234 0.039101232 1.289 4280562252
-0.10474069 0.03901023 1.286 4280693838
-0.10242887 0.038979895 1.2850001 4280759886
-0.099886596 0.038858559 1.281 4280759885
-0.097205728 0.038676552 1.2750001 4280825678
-0.093800649 0.038191196 1.2590001 4280694092
-0.091397099 0.038100194 1.256 4280759885
-0.089074992 0.038039524 1.2540001 4280628045
-0.086690538 0.037948523 1.251 4280891471
-0.084519178 0.037948523 1.251 4281023055
-0.082347818 0.037948523 1.251 4279509816
-0.080176465 0.037948523 1.251 4279575607
-0.078129813 0.038009189 1.253 4279312689
-0.076015599 0.038039524 1.2540001 4279443504
-0.074015684 0.038130529 1.2570001 4279904309
-0.071948208 0.038191196 1.2590001 4280759618
-0.070261665 0.038464211 1.268 4279443758
-0.0684902 0.038706884 1.276 4278983207
-0.066535152 0.038858559 1.281 4279838516
-0.06159398 0.039980933 1.3180001 4281350725
-0.05939633 0.040041607 1.3200001 4281811275
-0.057321511 0.040193278 1.325 4281811275
-0.055187814 0.040314615 1.3290001 4281087553
-0.052881069 0.040314615 1.3290001 4279640107
-0.050726548 0.040435955 1.3330001 4279508525
-0.04870341 0.040678628 1.3410001 4279180076
-0.046583336 0.040860638 1.3470001 4280890953
-0.22790137 0.045298234 1.4130001 4292074979
-0.22544883 0.045298234 1.4130001 4290628045
-0.22283846 0.045266178 1.4120001 4288457391
-0.22023158 0.045234121 1.411 4285562507
-0.21762817 0.045202062 1.4100001 4280364874
-0.21472299 0.045105886 1.4070001 4280496719
-0.21212998 0.04507383 1.406 4280431697
-0.20954046 0.04504177 1.4050001 4280431700
-0.2069544 0.045009714 1.404 4280300372
-0.20422615 0.044945598 1.4020001 4280431959
-0.20150483 0.044881478 1.4000001 4280431701
-0.19850607 0.04475325 1.396 4280234067
-0.19594258 0.04472119 1.3950001 4280299860
-0.19379872 0.044785306 1.3970001 4280365396
-0.15923053 0.042669464 1.3310001 4280167753
-0.15633082 0.042509172 1.3260001 4280101703
-0.15414545 0.042541232 1.327 4280101702
-0.15172775 0.042509172 1.3260001 4280233030
-0.14886276 0.042348884 1.3210001 4280167237
-0.146348 0.042284764 1.319 4280035908
-0.14329408 0.042060357 1.312 4280233287
-0.14101686 0.042060357 1.312 4280430666
-0.13852812 0.041996241 1.3100001 4280430666
-0.13604634 0.041932125 1.3080001 4280364873
-0.13357149 0.041868009 1.3060001 4280430666
-0.13110359 0.041803893 1.304 4280430666
-0.12874144 0.041771833 1.3030001 4280430409
-0.12628569 0.041707721 1.3010001 4280496459
-0.12364621 0.041579485 1.2970001 4280430666
-0.12130142 0.041547425 1.296 4280430666
-0.11877636 0.041451253 1.2930001 4280430666
-0.11635186 0.041387137 1.291 4280562252
-0.11393429 0.041323017 1.289 4280628045
-0.11143702 0.041226845 1.286 4280627788
-0.10954458 0.041355077 1.2900001 4280496459
-0.10705598 0.041258905 1.2870001 4280693838
-0.10449634 0.041130669 1.2830001 4280891217
-0.10218973 0.04109861 1.2820001 4281023057
-0.099574693 0.040938322 1.2770001 4280825678
-0.096824527 0.040713914 1.2700001 4281088595
-0.093651637 0.040297158 1.2570001 4281286231
-0.091106027 0.040136866 1.2520001 4280825936
-0.088790864 0.04007275 1.25 4280628301
-0.086551949 0.04004069 1.2490001 4280759885
-0.084384061 0.04004069 1.2490001 4281154641
-0.082281992 0.04007275 1.25 4279115058
-0.080176465 0.04010481 1.251 4278851886
-0.078067459 0.040136866 1.2520001 4278983471
-0.075954981 0.040168922 1.253 4279575607
-0.074015684 0.040297158 1.2570001 4280365376
-0.071891062 0.040329218 1.258 4279970617
-0.070206255 0.040617738 1.2670001 4278522913
-0.068382852 0.040842146 1.274 4279246125
-0.066379339 0.040970381 1.2780001 4280430655
-0.06159398 0.042252705 1.3180001 4281877068
-0.059441321 0.042348884 1.3210001 4281482311
-0.057364777 0.042509172 1.3260001 4280231985
-0.055187814 0.042605348 1.3290001 4279574053
-0.05284128 0.042573288 1.3280001 4279508263
-0.050688494 0.04270152 1.332 4279442215
-0.048594456 0.042893872 1.3380001 4279508525
-0.046445005 0.043054163 1.3430001 4280693571
-0.22693363 0.047531061 1.4070001 4291154134
-0.22433195 0.047497284 1.406 4286944152
-0.22173373 0.047463499 1.4050001 4285891728
-0.21898292 0.047395937 1.4030001 4280759883
-0.2163934 0.047362156 1.4020001 4280430925
-0.21334951 0.047227025 1.3980001 4280431186
-0.21047038 0.047125682 1.3950001 4280431441
-0.20789993 0.047091898 1.3940001 4280365905
-0.17698342 0.045369025 1.3430001 4280299082
-0.17504251 0.045470372 1.3460001 4280496460
-0.17193639 0.045267679 1.34 4280496459
-0.1693574 0.045200113 1.3380001 4280430666
-0.16641083 0.045031209 1.3330001 4280364873
-0.16360474 0.044896077 1.3290001 4280299081
-0.16117662 0.044862296 1.3280001 4280168008
-0.15851271 0.04476095 1.325 4279970629
-0.15597713 0.044693388 1.3230001 4279970372
-0.15344848 0.044625826 1.3210001 4280036165
-0.15092677 0.044558261 1.319 4280233287
-0.148412 0.044490699 1.317 4280233287
-0.14590418 0.044423133 1.3150001 4280233287
-0.14318487 0.044288006 1.3110001 4280496459
-0.14080188 0.044254225 1.3100001 4280430666
-0.13810514 0.044119097 1.3060001 4280430666
-0.1357343 0.044085313 1.3050001 4280364873
-0.13326466 0.044017751 1.3030001 4280299080
-0.13090251 0.04398397 1.302 4280299080
-0.12854382 0.043950189 1.3010001 4280364873
-0.12599447 0.043848842 1.2980001 4280562252
-0.12345555 0.043747496 1.2950001 4280430666
-0.12111422 0.043713715 1.294 4280430666
-0.11859265 0.043612368 1.291 4280496459
-0.11608148 0.043511026 1.2880001 4280628045
-0.11358073 0.043409675 1.2850001 4280562252
-0.11091709 0.043240767 1.2800001 4280628045
-0.10852556 0.043173205 1.2780001 4280628045
-0.10639052 0.043206986 1.279 4280891217
-0.10213439 0.04236244 1.2540001 4281088596
-0.099638976 0.042227313 1.25 4281023059
-0.09754733 0.042261094 1.251 4280891217
-0.09537597 0.042261094 1.251 4281089109
-0.093130104 0.042227313 1.25 4281286489
-0.090742178 0.042125966 1.2470001 4281154903
-0.088506736 0.042092185 1.2460001 4280891988
-0.086344056 0.042092185 1.2460001 4281023316
-0.08424893 0.042125966 1.2470001 4281549147
-0.082150348 0.042159751 1.248 4279838783
-0.080048285 0.042193528 1.2490001 4279049266
-0.077942744 0.042227313 1.25 4279115058
-0.075833745 0.042261094 1.251 4279904572
-0.073897921 0.042396225 1.2550001 4280299584
-0.071833909 0.042463787 1.2570001 4279641654
-0.069984607 0.042666476 1.263 4280233791
-0.064075507 0.044659607 1.322 4281153603
-0.061874378 0.044727173 1.3240001 4280298034
-0.059621312 0.04476095 1.325 4279508259
