# .PCD v0.7 - Point Cloud Data file format
VERSION 0.7
FIELDS x y z rgba
SIZE 4 4 4 4
TYPE F F F U
COUNT 1 1 1 1
WIDTH 1092
HEIGHT 1
VIEWPOINT 0 0 0 1 0 0 0
POINTS 1092
DATA ascii
-0.099910997 0.032183047 1.373 4279113493
-0.097812019 0.032276805 1.3770001 4279178515
-0.095560551 0.032323688 1.3790001 4279244309
-0.093167022 0.032323688 1.3790001 4279310101
-0.090839326 0.032347128 1.3800001 4279178515
-0.088508144 0.032370567 1.381 4279112723
-0.086048797 0.032347128 1.3800001 4279046930
-0.083653532 0.032347128 1.3800001 4279244310
-0.081258267 0.032347128 1.3800001 4279244310
-0.07874871 0.032300249 1.378 4279309849
-0.07619068 0.032229926 1.3750001 4279309849
-0.073804095 0.032229926 1.3750001 4279310619
-0.071261689 0.032159608 1.3720001 4279244827
-0.068779908 0.032112729 1.3700001 4279310620
-0.066305056 0.032065846 1.368 4279310879
-0.063790426 0.031995527 1.365 4279442467
-0.061331205 0.031948648 1.363 4279508260
-0.058878928 0.031901769 1.3610001 4279442726
-0.056433592 0.03185489 1.3590001 4279441956
-0.054034986 0.031831447 1.358 4279573800
-0.051601797 0.031784568 1.3560001 4279442729
-0.049175553 0.031737689 1.3540001 4279705388
-0.046790835 0.031714249 1.353 4280297784
-0.044442434 0.031714249 1.353 4280232761
-0.042156257 0.031761128 1.355 4279706417
-0.039833762 0.031784568 1.3560001 4279246379
-0.037563078 0.03185489 1.3590001 4279706676
-0.035333786 0.031972088 1.3640001 4279904056
-0.032990463 0.031995527 1.365 4280166976
-0.030733401 0.032112729 1.3700001 4280101955
-0.028417585 0.032183047 1.373 4280365387
-0.026053432 0.032206487 1.3740001 4280628305
-0.023720263 0.032276805 1.3770001 4280957785
-0.021361185 0.032323688 1.3790001 4281024095
-0.018981412 0.032347128 1.3800001 4281418599
-0.016610185 0.032394007 1.3820001 4281155940
-0.014232018 0.032440886 1.3840001 4281221735
-0.011855453 0.032511204 1.3870001 4281748077
-0.0094684763 0.032581527 1.3900001 4281419112
-0.0070609315 0.032604966 1.391 4281090145
-0.0046499153 0.032628406 1.3920001 4281156193
-0.0022370329 0.032675285 1.3940001 4281484645
0.00018279243 0.032722168 1.396 4281483875
0.0026114271 0.032792486 1.399 4281549409
0.0050612832 0.032933127 1.4050001 4281548633
0.0075159534 0.033003446 1.4080001 4280890694
0.010016407 0.033190966 1.416 4279771689
0.012518202 0.033308167 1.4210001 4279179544
0.015005721 0.033355042 1.4230001 4279245339
0.017512461 0.033425368 1.4260001 4279376672
0.020015601 0.033472244 1.4280001 4279508260
0.022525683 0.033519123 1.4300001 4279705898
0.025060194 0.033589445 1.4330001 4279969841
0.027643569 0.033706646 1.4380001 4280298554
0.030202381 0.033776965 1.4410001 4280298813
0.032907777 0.033987924 1.45 4280101434
0.035668846 0.034222323 1.46 4280101435
-0.21226467 0.033845037 1.345 4287995819
-0.20961802 0.033794712 1.3430001 4280561479
-0.20697828 0.033744384 1.3410001 4280956244
-0.2044981 0.033719223 1.34 4280496463
-0.20217226 0.033719223 1.34 4280496461
-0.19954814 0.033668894 1.3380001 4280496459
-0.19707838 0.03364373 1.337 4280364874
-0.1949034 0.033668894 1.3380001 4280299081
-0.19229318 0.033618566 1.3360001 4280299080
-0.1896899 0.033568241 1.3340001 4280364873
-0.18723401 0.033543076 1.3330001 4280430664
-0.18478161 0.033517912 1.332 4280232770
-0.18233266 0.033492748 1.3310001 4279969596
-0.18002245 0.033492748 1.3310001 4279969595
-0.17784575 0.033517912 1.332 4279838007
-0.1755338 0.033517912 1.332 4279838006
-0.1733519 0.033543076 1.3330001 4279772469
-0.17103821 0.033543076 1.3330001 4279771955
-0.16885111 0.033568241 1.3340001 4279772211
-0.16653569 0.033568241 1.3340001 4279706675
-0.16422026 0.033568241 1.3340001 4279772211
-0.16190484 0.033568241 1.3340001 4279640881
-0.15970905 0.033593401 1.335 4279640626
-0.15739189 0.033593401 1.335 4279772212
-0.15495858 0.033568241 1.3340001 4279509040
-0.15252872 0.033543076 1.3330001 4279574832
-0.15010235 0.033517912 1.332 4279706673
-0.1477904 0.033517912 1.332 4279640879
-0.14547846 0.033517912 1.332 4279706415
-0.14338148 0.033568241 1.3340001 4279706158
-0.14117178 0.033593401 1.335 4279705900
-0.13906266 0.03364373 1.337 4279771435
-0.13684431 0.033668894 1.3380001 4279574311
-0.13472302 0.033719223 1.34 4279639847
-0.13259478 0.033769548 1.342 4279508516
-0.13036256 0.033794712 1.3430001 4279639845
-0.12841283 0.03389537 1.3470001 4279705381
-0.12221 0.034121841 1.3560001 4279639072
-0.11676264 0.034599949 1.3750001 4279376154
-0.11420968 0.03454962 1.373 4279310360
-0.11190802 0.034574784 1.3740001 4279244309
-0.10992172 0.034700602 1.3790001 4279178515
-0.10776212 0.034776092 1.3820001 4279178514
-0.10536338 0.034776092 1.3820001 4279112977
-0.10296465 0.034776092 1.3820001 4279112721
-0.10049314 0.034750927 1.381 4279112977
-0.098167181 0.034776092 1.3820001 4279112722
-0.095837742 0.034801256 1.383 4279178515
-0.093504839 0.03482642 1.3840001 4279244308
-0.091234274 0.034876749 1.386 4279244308
-0.088828601 0.034876749 1.386 4279244308
-0.08642292 0.034876749 1.386 4279178517
-0.084017247 0.034876749 1.386 4279375641
-0.081552684 0.034851585 1.3850001 4279244056
-0.079091594 0.03482642 1.3840001 4279244827
-0.076523148 0.034750927 1.381 4279310620
-0.07407248 0.034725767 1.3800001 4279442206
-0.071521394 0.034650274 1.3770001 4279573538
-0.069030926 0.034599949 1.3750001 4279573538
-0.066595875 0.034574784 1.3740001 4279508259
-0.064070828 0.034499291 1.3710001 4279639846
-0.061601188 0.034448966 1.3690001 4279508260
-0.059181754 0.034423802 1.368 4279639333
-0.056641221 0.034323145 1.3640001 4279574055
-0.054273728 0.034323145 1.3640001 4279508007
-0.05179207 0.034247655 1.3610001 4279705388
-0.04935715 0.03419733 1.3590001 4279442475
-0.046963748 0.034172166 1.358 4280100405
-0.044573825 0.034147006 1.3570001 4280429370
-0.042218484 0.034147006 1.3570001 4280298040
-0.039863139 0.034147006 1.3570001 4279772212
-0.037590716 0.034222495 1.36 4279246125
-0.035333786 0.034323145 1.3640001 4279575091
-0.032966293 0.034323145 1.3640001 4280298814
-0.030710965 0.034448966 1.3690001 4280101437
-0.028417585 0.03454962 1.373 4280299334
-0.026034471 0.03454962 1.373 4280364874
-0.023685809 0.034599949 1.3750001 4280365135
-0.021330206 0.034650274 1.3770001 4281023324
-0.018953905 0.034675438 1.378 4280892509
-0.016598169 0.034750927 1.381 4280892766
-0.014221734 0.034801256 1.383 4281222503
-0.011846907 0.034876749 1.386 4281419112
-0.009454852 0.034927074 1.388 4281287526
-0.0070507792 0.034952238 1.3890001 4281090145
-0.0046465751 0.035002563 1.391 4281090400
-0.0022354282 0.035052892 1.393 4281220957
0.00018266149 0.03510322 1.3950001 4281418332
0.0026114271 0.035203874 1.399 4281615194
0.0050612832 0.035354856 1.4050001 4281548883
0.0075159534 0.035430346 1.4080001 4280166967
0.0099951848 0.035556164 1.4130001 4279245598
0.012491775 0.035681982 1.4180001 4279179547
0.014974085 0.035732307 1.4200001 4279310882
0.01747562 0.0358078 1.4230001 4279311140
0.019987566 0.035883293 1.4260001 4279640105
0.022494178 0.035933618 1.4280001 4279838255
0.025042707 0.036034275 1.432 4280035380
0.027643569 0.036185253 1.4380001 4279970102
0.030202381 0.036260746 1.4410001 4280101434
0.032930471 0.036512382 1.4510001 4280167228
-0.21242251 0.036190238 1.3460001 4287667370
-0.20977409 0.03613646 1.3440001 4282207068
-0.20713261 0.036082689 1.342 4280759885
-0.2048033 0.036082689 1.342 4280496972
-0.202474 0.036082689 1.342 4280430923
-0.19984642 0.036028914 1.34 4280430667
-0.19722578 0.035975136 1.3380001 4280299081
-0.19504908 0.036002025 1.3390001 4280299081
-0.19258104 0.035975136 1.3380001 4280364872
-0.18997428 0.035921365 1.3360001 4280233286
-0.18737447 0.03586759 1.3340001 4280167491
-0.18492033 0.035840701 1.3330001 4280101182
-0.18246965 0.035813816 1.332 4280035644
-0.18015771 0.035813816 1.332 4279903800
-0.17797926 0.035840701 1.3330001 4279903542
-0.17579737 0.03586759 1.3340001 4280035384
-0.17348196 0.03586759 1.3340001 4279903797
-0.17116652 0.03586759 1.3340001 4279838003
-0.16885111 0.03586759 1.3340001 4279838002
-0.16666052 0.035894476 1.335 4279706416
-0.16446646 0.035921365 1.3360001 4279640623
-0.16214757 0.035921365 1.3360001 4279640623
-0.15994832 0.035948254 1.337 4279640622
-0.15762769 0.035948254 1.337 4279706415
-0.15519089 0.035921365 1.3360001 4279443499
-0.152872 0.035921365 1.3360001 4279443242
-0.15055311 0.035921365 1.3360001 4279508778
-0.14801231 0.03586759 1.3340001 4279442984
-0.14569689 0.03586759 1.3340001 4279508777
-0.14370392 0.035948254 1.337 4279508519
-0.14148903 0.035975136 1.3380001 4279508517
-0.1394787 0.0360558 1.3410001 4279705382
-0.13735569 0.036109574 1.3430001 4279508001
-0.13512518 0.03613646 1.3440001 4279508001
-0.13299 0.036190238 1.3460001 4279442463
-0.13084789 0.036244009 1.348 4279639585
-0.1288895 0.036351562 1.3520001 4279705377
-0.12275076 0.036620431 1.3620001 4279375897
-0.1171023 0.037077516 1.3790001 4279244308
-0.11520787 0.03723884 1.3850001 4279178514
-0.11288538 0.037265729 1.386 4279244307
-0.11071883 0.037346389 1.3890001 4279178513
-0.10838593 0.037373275 1.3900001 4279178513
-0.1059733 0.037373275 1.3900001 4279244306
-0.10348618 0.037346389 1.3890001 4279112720
-0.10100252 0.0373195 1.388 4279178513
-0.098522343 0.037292611 1.3870001 4279112722
-0.096114933 0.037292611 1.3870001 4279178515
-0.093707517 0.037292611 1.3870001 4279244310
-0.091365926 0.0373195 1.388 4279244310
-0.089020871 0.037346389 1.3890001 4279178517
-0.086609982 0.037346389 1.3890001 4279310103
-0.084259719 0.037373275 1.3900001 4279507228
-0.081788212 0.037346389 1.3890001 4279441436
-0.079320177 0.0373195 1.388 4279442206
-0.076689392 0.037211951 1.3840001 4279507745
-0.074233502 0.037185065 1.383 4279573538
-0.071729153 0.037131291 1.381 4279574053
-0.069281951 0.037104405 1.3800001 4279508260
-0.066886686 0.037104405 1.3800001 4279705639
-0.064351223 0.037023738 1.3770001 4279705639
-0.061916169 0.036996856 1.376 4279640359
-0.059484586 0.036969967 1.3750001 4279639846
-0.057056479 0.036943078 1.3740001 4279574055
-0.054592047 0.036889303 1.3720001 4279639593
-0.052096505 0.036808643 1.3690001 4279574315
-0.049611378 0.036727984 1.3660001 4279705647
-0.04717125 0.036674205 1.3640001 4279640367
-0.044705212 0.036593545 1.3610001 4280035382
-0.042311817 0.03656666 1.36 4280298554
-0.039921891 0.036539771 1.3590001 4280232761
-0.037590716 0.03656666 1.36 4279509038
-0.03530788 0.03664732 1.363 4279311660
-0.032966293 0.036674205 1.3640001 4280035384
-0.030710965 0.036808643 1.3690001 4280167228
-0.028438281 0.036943078 1.3740001 4280233023
-0.026072394 0.036969967 1.3750001 4280167748
-0.023720263 0.037023738 1.3770001 4280233288
-0.021361185 0.037077516 1.3790001 4280891477
-0.018967656 0.037077516 1.3790001 4280957785
-0.016610185 0.037158176 1.3820001 4280695129
-0.014232018 0.037211951 1.3840001 4281287524
-0.01183836 0.03723884 1.3850001 4281155938
-0.0094412286 0.037265729 1.386 4281287267
-0.0070406268 0.037292611 1.3870001 4281484645
-0.0046365536 0.0373195 1.388 4281089887
-0.0022338235 0.037427049 1.3920001 4281155160
0.00018253055 0.037480824 1.3940001 4281549661
0.0026114271 0.037615262 1.399 4281878112
0.0050540785 0.037722811 1.4030001 4281088330
0.0075052772 0.037803471 1.406 4279245863
0.009981038 0.037937906 1.411 4279179557
0.012474155 0.038072344 1.416 4279311142
0.014952994 0.038126118 1.4180001 4279574312
0.017463339 0.038233668 1.4220001 4279771693
0.019987566 0.038341217 1.4260001 4279772208
0.022494178 0.038394991 1.4280001 4279838003
0.025077682 0.038556315 1.434 4280101175
0.027682016 0.038717639 1.4400001 4280101434
0.030265257 0.038825188 1.4440001 4280233020
0.03297586 0.039067172 1.4530001 4280101435
-0.21305376 0.038624715 1.35 4288324785
-0.21039841 0.038567491 1.348 4282996070
-0.20759565 0.03848166 1.345 4280825160
-0.20526114 0.03848166 1.345 4280694090
-0.20277575 0.038453046 1.3440001 4280496714
-0.20029384 0.03842444 1.3430001 4280562251
-0.19781539 0.038395826 1.342 4280299336
-0.19548607 0.038395826 1.342 4280233287
-0.19301285 0.038367216 1.3410001 4280364871
-0.19025868 0.038281381 1.3380001 4280036162
-0.18765539 0.038224161 1.3360001 4279970109
-0.18505906 0.03816694 1.3340001 4279969851
-0.18260664 0.03813833 1.3330001 4279904056
-0.18029295 0.03813833 1.3330001 4279838006
-0.1782463 0.03819555 1.335 4279838005
-0.17619272 0.038252775 1.337 4279772210
-0.17387208 0.038252775 1.337 4279706417
-0.17155147 0.038252775 1.337 4279706416
-0.16923083 0.038252775 1.337 4279706159
-0.16703504 0.038281381 1.3380001 4279639852
-0.16483577 0.038309995 1.3390001 4279640108
-0.16251168 0.038309995 1.3390001 4279574571
-0.16030721 0.038338605 1.34 4279508778
-0.15821716 0.038395826 1.342 4279574826
-0.1557717 0.038367216 1.3410001 4279508776
-0.15344413 0.038367216 1.3410001 4279377189
-0.15111655 0.038367216 1.3410001 4279508775
-0.14878899 0.038367216 1.3410001 4279377188
-0.14657062 0.038395826 1.342 4279442467
-0.14445628 0.038453046 1.3440001 4279508258
-0.14222924 0.03848166 1.345 4279574050
-0.14031079 0.038596101 1.3490001 4279705122
-0.13817388 0.038653322 1.3510001 4279573278
-0.13603003 0.038710546 1.353 4279441947
-0.13397804 0.03879638 1.3560001 4279573532
-0.13181858 0.038853601 1.358 4279376154
-0.12984282 0.038968045 1.3620001 4279375640
-0.12794678 0.039111096 1.3670001 4279310102
-0.12594153 0.039225541 1.3710001 4279244308
-0.12419277 0.03942582 1.378 4279112721
-0.12215453 0.039540261 1.3820001 4279244306
-0.11984245 0.039568875 1.383 4279310097
-0.11769672 0.039654706 1.386 4279178768
-0.11545742 0.039711926 1.388 4279178767
-0.11304827 0.039711926 1.388 4279178767
-0.11087825 0.039797761 1.391 4279112974
-0.10861985 0.039854985 1.393 4279178513
-0.10612578 0.039826371 1.3920001 4279178513
-0.10363518 0.039797761 1.391 4279178514
-0.10114806 0.039769147 1.3900001 4279112722
-0.09866441 0.03974054 1.3890001 4279244308
-0.096184224 0.039711926 1.388 4279178517
-0.093775079 0.039711926 1.388 4279310103
-0.091365926 0.039711926 1.388 4279309848
-0.088956781 0.039711926 1.388 4279244056
-0.086547628 0.039711926 1.388 4279375643
-0.084077865 0.039683316 1.3870001 4279376159
-0.081611566 0.039654706 1.386 4279507745
-0.07914874 0.039626095 1.3850001 4279705124
-0.076689392 0.039597481 1.3840001 4279508260
-0.074233502 0.039568875 1.383 4279376674
-0.071729153 0.039511651 1.381 4279508262
-0.069281951 0.039483041 1.3800001 4279376933
-0.066886686 0.039483041 1.3800001 4279442726
-0.064397953 0.03942582 1.378 4279508773
-0.06196117 0.039397206 1.3770001 4279574566
-0.059571113 0.039397206 1.3770001 4279574312
-0.057098001 0.039339986 1.3750001 4279574312
-0.054671627 0.039311375 1.3740001 4279640106
-0.052286778 0.039311375 1.3740001 4279640108
-0.049720332 0.039168321 1.3690001 4279705901
-0.047274999 0.039111096 1.3670001 4279772210
-0.044770908 0.038996655 1.363 4279903796
-0.042311817 0.038910825 1.36 4280101175
-0.039921891 0.038882211 1.3590001 4280363831
-0.037563078 0.038882211 1.3590001 4280429370
-0.035281979 0.038968045 1.3620001 4279705647
-0.032942124 0.038996655 1.363 4279705647
-0.030688534 0.03913971 1.368 4280297784
-0.028417585 0.039282765 1.373 4280166715
-0.026072394 0.039339986 1.3750001 4280233023
-0.023720263 0.039397206 1.3770001 4280035392
-0.021361185 0.03945443 1.3790001 4280364874
-0.018967656 0.03945443 1.3790001 4280760146
-0.016598169 0.039511651 1.381 4281023063
-0.014221734 0.039568875 1.383 4281286750
-0.011821263 0.039568875 1.383 4281418850
-0.0094276052 0.039597481 1.3840001 4281353057
-0.0070253983 0.039597481 1.3840001 4281418850
-0.0046298727 0.039654706 1.386 4281221471
-0.002230614 0.039769147 1.3900001 4281023065
0.00018226866 0.039826371 1.3920001 4281285978
0.0026076939 0.039969426 1.3970001 4281417815
0.0050540785 0.040141094 1.4030001 4279377712
0.0074999388 0.040198315 1.4050001 4278983207
0.0099739647 0.040341366 1.4100001 4279311916
0.012456536 0.040455811 1.414 4279838003
0.014931904 0.040513035 1.416 4280298552
0.017451057 0.040656086 1.4210001 4280693571
0.019987566 0.040799145 1.4260001 4280561985
0.022509929 0.040884975 1.429 4280627778
0.02509517 0.04105664 1.4350001 4280298813
0.027720463 0.041256916 1.442 4280627778
0.030307177 0.041371357 1.4460001 4280167228
-0.21117882 0.041042645 1.353 4284311927
-0.20852172 0.040981974 1.3510001 4280232763
-0.2061768 0.040981974 1.3510001 4280693571
-0.20398276 0.041012309 1.3520001 4280298816
-0.20148695 0.040981974 1.3510001 4280364868
-0.19899461 0.040951643 1.35 4280233282
-0.19650576 0.040921308 1.3490001 4279904574
-0.1937325 0.040830303 1.3460001 4279839037
-0.19082746 0.040708967 1.342 4279838779
-0.1883577 0.040678628 1.3410001 4279904314
-0.18575267 0.040617961 1.3390001 4279904055
-0.18342857 0.040617961 1.3390001 4279706676
-0.18110447 0.040617961 1.3390001 4279706675
-0.17904741 0.040678628 1.3410001 4279772210
-0.17698342 0.040739302 1.3430001 4279706416
-0.17465237 0.040739302 1.3430001 4279837487
-0.17232132 0.040739302 1.3430001 4279640107
-0.17011686 0.040769633 1.3440001 4279508520
-0.16778408 0.040769633 1.3440001 4279640105
-0.1656975 0.040830303 1.3460001 4279640105
-0.16348262 0.040860638 1.3470001 4279574310
-0.16126426 0.040890973 1.348 4279508261
-0.15904245 0.040921308 1.3490001 4279639846
-0.15681714 0.040951643 1.35 4279639844
-0.15458837 0.040981974 1.3510001 4279508001
-0.15246883 0.041042645 1.353 4279442464
-0.15012042 0.041042645 1.353 4279442464
-0.14809968 0.04113365 1.3560001 4279507743
-0.14606851 0.041224655 1.3590001 4279507742
-0.1437097 0.041224655 1.3590001 4279507740
-0.14155892 0.041285321 1.3610001 4279507483
-0.13940118 0.041345991 1.363 4279441690
-0.13713597 0.041376323 1.3640001 4279244567
-0.13506489 0.041467328 1.3670001 4279310102
-0.13288632 0.041527998 1.3690001 4279244309
-0.13051015 0.041527998 1.3690001 4279310101
-0.12841478 0.041619003 1.3720001 4279244308
-0.12621711 0.041679669 1.3740001 4279178515
-0.12419277 0.041801009 1.378 4279178513
-0.12206615 0.041892011 1.381 4279178513
-0.1197558 0.041922349 1.3820001 4279244306
-0.11761181 0.042013351 1.3850001 4279112720
-0.11537424 0.042074017 1.3870001 4279178513
-0.11304827 0.042104356 1.388 4279112974
-0.11095797 0.042225692 1.3920001 4279178512
-0.10885378 0.042347033 1.396 4279244306
-0.10643075 0.042347033 1.396 4279244306
-0.10400771 0.042347033 1.396 4279178515
-0.1015119 0.042316698 1.3950001 4279244308
-0.099019572 0.042286362 1.3940001 4279178515
-0.096461415 0.042225692 1.3920001 4279244310
-0.093910202 0.042165022 1.3900001 4279375642
-0.091365926 0.042104356 1.388 4279375642
-0.088956781 0.042104356 1.388 4279507229
-0.086485282 0.042074017 1.3870001 4279376413
-0.084077865 0.042074017 1.3870001 4279310879
-0.081611566 0.042043686 1.386 4279376674
-0.07914874 0.042013351 1.3850001 4279508260
-0.076633975 0.041952685 1.383 4279574053
-0.074179828 0.041922349 1.3820001 4279508262
-0.071729153 0.041892011 1.381 4279508519
-0.069382355 0.041922349 1.3820001 4279442726
-0.066983625 0.041922349 1.3820001 4279508519
-0.064584889 0.041922349 1.3820001 4279377187
-0.062141154 0.041892011 1.381 4279442980
-0.059700895 0.041861679 1.3800001 4279508773
-0.057305634 0.041861679 1.3800001 4279376933
-0.054870576 0.041831344 1.3790001 4279442726
-0.052515104 0.041861679 1.3800001 4279376934
-0.050083522 0.041831344 1.3790001 4279508522
-0.047482494 0.041649338 1.373 4279639854
-0.044902299 0.041467328 1.3670001 4279837233
-0.042405151 0.041345991 1.363 4279903796
-0.04001002 0.041315656 1.3620001 4280231991
-0.037618358 0.041285321 1.3610001 4280429370
-0.035281979 0.041315656 1.3620001 4280297784
-0.032966293 0.041376323 1.3640001 4279573548
-0.030666102 0.041467328 1.3670001 4279574061
-0.028396888 0.041619003 1.3720001 4279903284
-0.026053432 0.041679669 1.3740001 4280232508
-0.023754714 0.041831344 1.3790001 4280167230
-0.021392167 0.041892011 1.381 4280101953
-0.019008921 0.041922349 1.3820001 4280101956
-0.016610185 0.041922349 1.3820001 4280693839
-0.014221734 0.041952685 1.383 4281418075
-0.011812716 0.041922349 1.3820001 4281352541
-0.0094139809 0.041922349 1.3820001 4281155932
-0.007015246 0.041922349 1.3820001 4281353311
-0.0046198512 0.041952685 1.383 4281484125
-0.0022274044 0.042104356 1.388 4281483867
0.00018213772 0.042195357 1.391 4280891472
0.0026095605 0.042407699 1.3980001 4279509816
0.0050540785 0.042559374 1.4030001 4279115056
0.0074999388 0.04262004 1.4050001 4279378482
0.0099668903 0.042741381 1.409 4280233020
0.012456536 0.042893052 1.414 4280628035
0.014931904 0.042953722 1.416 4280561988
0.017463339 0.043135729 1.4220001 4280628549
0.020015601 0.043317735 1.4280001 4280628549
0.022541435 0.04340874 1.4310001 4280825928
0.025147635 0.043621082 1.4380001 4280562499
0.027816581 0.043894093 1.447 4280299328
-0.2094478 0.043502979 1.3570001 4280101174
-0.20663463 0.043406799 1.3540001 4280233018
-0.20428449 0.043406799 1.3540001 4280232763
-0.20193435 0.043406799 1.3540001 4280035642
-0.19928943 0.043342687 1.3520001 4279904057
-0.19679709 0.043310627 1.3510001 4279903800
-0.19402036 0.043214452 1.348 4279641141
-0.19125405 0.043118279 1.345 4279575604
-0.18877909 0.04308622 1.3440001 4279838262
-0.18630758 0.043054163 1.3430001 4279772211
-0.18397653 0.043054163 1.3430001 4279772211
-0.18178074 0.04308622 1.3440001 4279640880
-0.17958148 0.043118279 1.345 4279443499
-0.17751053 0.043182395 1.3470001 4279574827
-0.17517255 0.043182395 1.3470001 4279640105
-0.17283456 0.043182395 1.3470001 4279574311
-0.17074972 0.043246511 1.3490001 4279508517
-0.1685331 0.043278571 1.35 4279640101
-0.16631301 0.043310627 1.3510001 4279508514
-0.16421083 0.043374747 1.353 4279442465
-0.16198206 0.043406799 1.3540001 4279376928
-0.15974982 0.043438859 1.355 4279442464
-0.15739796 0.043438859 1.355 4279507999
-0.15527493 0.043502979 1.3570001 4279507998
-0.15314496 0.043567095 1.3590001 4279573791
-0.15089712 0.043599155 1.36 4279507999
-0.14886421 0.043695327 1.363 4279376668
-0.14660594 0.043727383 1.3640001 4279376154
-0.14423844 0.043727383 1.3640001 4279244311
-0.14187095 0.043727383 1.3640001 4279178516
-0.13950346 0.043727383 1.3640001 4279310102
-0.13723651 0.043759443 1.365 4279244309
-0.13486727 0.043759443 1.365 4279244308
-0.13259512 0.043791503 1.3660001 4279310101
-0.13031949 0.043823559 1.3670001 4279112980
-0.12804037 0.043855619 1.368 4279179029
-0.12575781 0.043887675 1.3690001 4279113236
-0.12365202 0.043983851 1.3720001 4279179030
-0.12153581 0.044080026 1.3750001 4279113235
-0.11914922 0.044080026 1.3750001 4279178515
-0.11701739 0.044176199 1.378 4279178515
-0.11479195 0.044240318 1.3800001 4279310100
-0.11247814 0.044272374 1.381 4279310100
-0.11039998 0.044400606 1.3850001 4279112722
-0.10838593 0.044560898 1.3900001 4279112722
-0.10604954 0.044592954 1.391 4279178515
-0.10370969 0.044625014 1.3920001 4279310101
-0.10136637 0.044657074 1.393 4279310101
-0.098948538 0.044657074 1.393 4279375895
-0.096461415 0.044625014 1.3920001 4279507227
-0.093910202 0.044560898 1.3900001 4279309849
-0.091365926 0.044496782 1.388 4279507228
-0.088892691 0.044464722 1.3870001 4279376413
-0.08642292 0.044432666 1.386 4279310366
-0.084017247 0.044432666 1.386 4279113502
-0.081552684 0.044400606 1.3850001 4279179295
-0.079091594 0.044368546 1.3840001 4279310881
-0.076633975 0.04433649 1.383 4279442469
-0.074233502 0.04433649 1.383 4279508519
-0.071833037 0.04433649 1.383 4279640106
-0.069432564 0.04433649 1.383 4279508520
-0.067032091 0.04433649 1.383 4279574312
-0.064631626 0.04433649 1.383 4279640105
-0.062186152 0.044304434 1.3820001 4279574566
-0.059744153 0.044272374 1.381 4279574311
-0.057347156 0.044272374 1.381 4279376933
-0.054989949 0.044304434 1.3820001 4279376933
-0.052591212 0.044304434 1.3820001 4279508262
-0.050192475 0.044304434 1.3820001 4279442214
-0.047724579 0.044240318 1.3800001 4279508522
-0.045132227 0.044047967 1.3740001 4279508268
-0.042622935 0.043919735 1.3700001 4279639856
-0.040186275 0.043855619 1.368 4279968819
-0.037728921 0.043759443 1.365 4280495163
-0.035385594 0.043791503 1.3660001 4280429370
-0.032990463 0.043759443 1.365 4280034099
-0.030643666 0.043791503 1.3660001 4279376682
-0.028334796 0.043887675 1.3690001 4279442475
-0.025996547 0.043951791 1.3710001 4279771441
-0.023737488 0.044176199 1.378 4279838004
-0.021438638 0.044368546 1.3840001 4280101435
-0.019050186 0.044400606 1.3850001 4280167230
-0.016658263 0.044432666 1.386 4280167749
-0.014242302 0.044400606 1.3850001 4280693838
-0.011821263 0.04433649 1.383 4281549407
-0.0094207926 0.04433649 1.383 4281615454
-0.007015246 0.044304434 1.3820001 4281615451
-0.0046298727 0.044432666 1.386 4281747040
-0.002230614 0.044560898 1.3900001 4281286488
0.0001823996 0.044657074 1.393 4280167750
0.0026095605 0.044817362 1.3980001 4279246646
0.0050504762 0.044945598 1.4020001 4279378228
0.0074892635 0.044977657 1.4030001 4280035900
0.0099598169 0.045137946 1.4080001 4280890951
0.012456536 0.045330293 1.414 4280694342
0.014952994 0.045458529 1.4180001 4280430918
0.017500181 0.045682937 1.4250001 4280825674
0.02005765 0.045875285 1.4310001 4280694342
0.022588691 0.045971457 1.434 4280430400
0.025165122 0.046131752 1.439 4279904570
-0.20678724 0.045774408 1.355 4279969588
-0.20443538 0.045774408 1.355 4279838004
-0.20193435 0.045740623 1.3540001 4279903797
-0.19943683 0.045706846 1.353 4279772212
-0.19694276 0.045673061 1.3520001 4279772211
-0.19416431 0.045571715 1.3490001 4279575089
-0.19153845 0.045504153 1.3470001 4279640882
-0.18906 0.045470372 1.3460001 4279575089
-0.18672375 0.045470372 1.3460001 4279574831
-0.18452449 0.045504153 1.3470001 4279574830
-0.18232176 0.045537934 1.348 4279443242
-0.18024907 0.045605499 1.35 4279311654
-0.17790587 0.045605499 1.35 4279442982
-0.17569272 0.04563928 1.3510001 4279442467
-0.17360443 0.045706846 1.353 4279442466
-0.17150918 0.045774408 1.355 4279508257
-0.16940698 0.045841973 1.3570001 4279442719
-0.16717474 0.04587575 1.358 4279376926
-0.16493903 0.045909535 1.3590001 4279442462
-0.16269986 0.045943316 1.36 4279376669
-0.1602214 0.045909535 1.3590001 4279376413
-0.15786259 0.045909535 1.3590001 4279376413
-0.15561821 0.045943316 1.36 4279376155
-0.15348303 0.046010882 1.3620001 4279442203
-0.15111901 0.046010882 1.3620001 4279310361
-0.14897344 0.046078444 1.3640001 4279310104
-0.14671342 0.046112224 1.365 4279310103
-0.14423844 0.046078444 1.3640001 4279375896
-0.14176695 0.046044663 1.363 4279375895
-0.1392989 0.046010882 1.3620001 4279310101
-0.13683435 0.045977097 1.3610001 4279375894
-0.13447206 0.045977097 1.3610001 4279310101
-0.13220684 0.046010882 1.3620001 4279375894
-0.12993816 0.046044663 1.363 4279244823
-0.127666 0.046078444 1.3640001 4279245080
-0.1252985 0.046078444 1.3640001 4279310618
-0.12311126 0.046146009 1.3660001 4279376411
-0.12091707 0.046213571 1.368 4279310873
-0.11854263 0.046213571 1.368 4279573275
-0.11642296 0.046314918 1.3710001 4279441433
-0.11420968 0.046382483 1.373 4279375641
-0.11190802 0.04641626 1.3740001 4279309848
-0.1097623 0.046517607 1.3770001 4279178262
-0.10768414 0.046652734 1.381 4279112469
-0.10543963 0.0467203 1.383 4279178262
-0.10326267 0.046821646 1.386 4279375641
-0.10107529 0.046922989 1.3890001 4279375641
-0.09866441 0.046922989 1.3890001 4279309849
-0.09632282 0.04695677 1.3900001 4279244056
-0.093910202 0.04695677 1.3900001 4279441435
-0.091300108 0.046855424 1.3870001 4279507229
-0.088764511 0.046787862 1.3850001 4279310620
-0.086360566 0.046787862 1.3850001 4279244573
-0.083956622 0.046787862 1.3850001 4279179293
-0.081493802 0.046754081 1.3840001 4279179293
-0.079034448 0.0467203 1.383 4279508260
-0.076633975 0.0467203 1.383 4279574053
-0.074287184 0.046754081 1.3840001 4279574312
-0.071833037 0.0467203 1.383 4279574312
-0.069382355 0.046686519 1.3820001 4279508520
-0.067032091 0.0467203 1.383 4279442727
-0.064538151 0.046652734 1.381 4279705898
-0.06209616 0.046618957 1.3800001 4279640105
-0.059700895 0.046618957 1.3800001 4279640105
-0.057264104 0.046585172 1.3790001 4279574312
-0.054910369 0.046618957 1.3800001 4279705898
-0.052553158 0.046652734 1.381 4279705641
-0.050228797 0.0467203 1.383 4279574313
-0.04775916 0.046652734 1.381 4279574315
-0.045230769 0.046517607 1.3770001 4279508522
-0.042747378 0.04641626 1.3740001 4279508268
-0.040333156 0.046382483 1.373 4279705647
-0.037894759 0.046314918 1.3710001 4280100405
-0.035463307 0.046247352 1.3690001 4280429370
-0.033062968 0.046213571 1.368 4280363577
-0.030666102 0.046179786 1.3670001 4279968819
-0.028314097 0.046213571 1.368 4279310889
-0.025977587 0.046281137 1.3700001 4279442475
-0.023703035 0.046483826 1.376 4279574831
-0.021438638 0.046754081 1.3840001 4279705649
-0.019050186 0.046787862 1.3850001 4279903544
-0.016682301 0.046889208 1.388 4280166719
-0.014273151 0.046889208 1.388 4280364357
-0.011864002 0.046889208 1.388 4280759888
-0.009454852 0.046889208 1.388 4281088855
-0.0070507792 0.046922989 1.3890001 4281483102
-0.0046465751 0.046990555 1.391 4281680734
-0.0022370329 0.047091898 1.3940001 4280957520
0.00018279243 0.047159463 1.396 4279575611
0.0026114271 0.04726081 1.399 4279312437
0.0050504762 0.047362156 1.4020001 4279969853
0.0074892635 0.047395937 1.4030001 4280824908
0.0099598169 0.047564846 1.4080001 4280956491
0.012465347 0.04780132 1.4150001 4280693573
0.01496354 0.047936447 1.419 4280430399
0.017524743 0.048206698 1.427 4279772725
0.020071667 0.04837561 1.432 4279904055
0.022588691 0.048443172 1.434 4279772470
0.025165122 0.048612084 1.439 4279904313
-0.20678724 0.048109952 1.355 4279838000
-0.20443538 0.048109952 1.355 4279969331
-0.20208351 0.048109952 1.355 4279837746
-0.19958422 0.048074447 1.3540001 4279772210
-0.19708842 0.048038945 1.353 4279771954
-0.19430822 0.047932427 1.35 4279640366
-0.19168064 0.047861416 1.348 4279574573
-0.18920046 0.04782591 1.3470001 4279377450
-0.1870012 0.047861416 1.348 4279574572
-0.18493545 0.047932427 1.35 4279508520
-0.18245701 0.047896922 1.3490001 4279376932
-0.18038258 0.047967929 1.3510001 4279376930
-0.17830123 0.048038945 1.353 4279442722
-0.17608286 0.048074447 1.3540001 4279442465
-0.17398936 0.048145458 1.3560001 4279442208
-0.17201547 0.048251975 1.3590001 4279507999
-0.16978151 0.048287481 1.36 4279442206
-0.16766715 0.048358493 1.3620001 4279442206
-0.16530314 0.048358493 1.3620001 4279441948
-0.16305876 0.048393998 1.363 4279441691
-0.16045721 0.048322987 1.3610001 4279441433
-0.15797876 0.048287481 1.36 4279310102
-0.15561821 0.048287481 1.36 4279310102
-0.15337035 0.048322987 1.3610001 4279375895
-0.15111901 0.048358493 1.3620001 4279310103
-0.14897344 0.0484295 1.3640001 4279310103
-0.14660594 0.0484295 1.3640001 4279310103
-0.14402695 0.048358493 1.3620001 4279178517
-0.14155892 0.048322987 1.3610001 4279244310
-0.13919663 0.048322987 1.3610001 4279244310
-0.13673382 0.048287481 1.36 4279310103
-0.13437326 0.048287481 1.36 4279310103
-0.13210978 0.048322987 1.3610001 4279310103
-0.12984282 0.048358493 1.3620001 4279310618
-0.12747879 0.048358493 1.3620001 4279442205
-0.12520665 0.048393998 1.363 4279507999
-0.12293101 0.0484295 1.3640001 4279442206
-0.1206519 0.04846501 1.365 4279507999
-0.11836934 0.048500516 1.3660001 4279507999
-0.1161682 0.048571523 1.368 4279507744
-0.11396013 0.048642538 1.3700001 4279507743
-0.11166368 0.048678041 1.3710001 4279441950
-0.10952317 0.048784558 1.3740001 4279310364
-0.10745022 0.048926581 1.378 4279375900
-0.10513467 0.048962086 1.3790001 4279309849
-0.10296465 0.049068604 1.3820001 4279244313
-0.10085699 0.049210627 1.386 4279178264
-0.098522343 0.049246129 1.3870001 4279244057
-0.096184224 0.049281634 1.388 4279309850
-0.093775079 0.049281634 1.388 4279507229
-0.091300108 0.049246129 1.3870001 4279310620
-0.088764511 0.049175117 1.3850001 4279244827
-0.086360566 0.049175117 1.3850001 4279244827
-0.083956622 0.049175117 1.3850001 4279179547
-0.081552684 0.049175117 1.3850001 4279245340
-0.079091594 0.049139611 1.3840001 4279508258
-0.076689392 0.049139611 1.3840001 4279508259
-0.074287184 0.049139611 1.3840001 4279705896
-0.071833037 0.049104109 1.383 4279508519
-0.069432564 0.049104109 1.383 4279442727
-0.066983625 0.049068604 1.3820001 4279508520
-0.064538151 0.049033094 1.381 4279574313
-0.062006161 0.048926581 1.378 4279376934
-0.059614368 0.048926581 1.378 4279442727
-0.057264104 0.048962086 1.3790001 4279574313
-0.054950159 0.049033094 1.381 4279640106
-0.052591212 0.049068604 1.3820001 4279574313
-0.050228797 0.049104109 1.383 4279640106
-0.047793742 0.049068604 1.3820001 4279640108
-0.045263618 0.048926581 1.378 4279508522
-0.042809602 0.048855569 1.376 4279508522
-0.040391907 0.048820063 1.3750001 4279442475
-0.037950039 0.048749056 1.373 4279574061
-0.03554102 0.048713546 1.3720001 4279968819
-0.033111308 0.048642538 1.3700001 4280297784
-0.030710965 0.048607033 1.3690001 4280166198
-0.028334796 0.048607033 1.3690001 4280034612
-0.025996547 0.048678041 1.3710001 4279442475
-0.023685809 0.048820063 1.3750001 4279508268
-0.021423146 0.049104109 1.383 4279705902
-0.01906394 0.049210627 1.386 4279771441
-0.016706336 0.049352646 1.3900001 4279706420
-0.014314284 0.049423657 1.3920001 4279904055
-0.011898192 0.049423657 1.3920001 4280430657
-0.0094820997 0.049423657 1.3920001 4280825165
-0.0070710839 0.049459163 1.393 4281088339
-0.0046565966 0.049494669 1.3940001 4280890952
-0.0022418471 0.049601182 1.3970001 4279970618
0.0001830543 0.049636692 1.3980001 4279311919
0.0026132939 0.0497077 1.4000001 4279509300
0.0050540785 0.049814221 1.4030001 4280232259
0.0074946014 0.049849723 1.404 4281021774
0.0099668903 0.050027251 1.409 4280627522
0.012474155 0.050275791 1.416 4279509040
0.014984629 0.050453316 1.4210001 4279377452
0.017537024 0.050701857 1.4280001 4279509036
0.020085683 0.050879382 1.4330001 4279838003
0.022604443 0.050950393 1.4350001 4279903798
-0.20693986 0.050482731 1.3560001 4281416260
-0.20443538 0.050445501 1.355 4279771693
-0.20193435 0.05040827 1.3540001 4279903024
-0.19943683 0.050371043 1.353 4279771694
-0.19708842 0.050371043 1.353 4279705900
-0.1945961 0.050333813 1.3520001 4279640106
-0.19224943 0.050333813 1.3520001 4279574055
-0.18976229 0.050296582 1.3510001 4279508261
-0.1875561 0.050333813 1.3520001 4279508261
-0.18548341 0.05040827 1.3540001 4279376930
-0.18313327 0.05040827 1.3540001 4279376928
-0.18105018 0.050482731 1.3560001 4279442464
-0.17896014 0.050557189 1.358 4279507999
-0.17673311 0.050594416 1.3590001 4279507998
-0.17450261 0.050631646 1.36 4279442206
-0.1723952 0.050706103 1.3620001 4279507997
-0.17015603 0.050743334 1.363 4279310617
-0.16791336 0.050780561 1.3640001 4279376152
-0.16554588 0.050780561 1.3640001 4279375895
-0.16317838 0.050780561 1.3640001 4279244309
-0.16045721 0.050668873 1.3610001 4279244307
-0.15797876 0.050631646 1.36 4279244307
-0.15538935 0.050557189 1.358 4279244306
-0.15314496 0.050594416 1.3590001 4279244308
-0.15078615 0.050594416 1.3590001 4279310101
-0.14853656 0.050631646 1.36 4279375896
-0.14617601 0.050631646 1.36 4279310103
-0.1437097 0.050594416 1.3590001 4279310104
-0.14114286 0.050519962 1.3570001 4279244311
-0.13878752 0.050519962 1.3570001 4279310104
-0.13633165 0.050482731 1.3560001 4279375896
-0.13397804 0.050482731 1.3560001 4279375641
-0.1317215 0.050519962 1.3570001 4279375642
-0.1294615 0.050557189 1.358 4279310363
-0.12710442 0.050557189 1.358 4279442206
-0.12474734 0.050557189 1.358 4279507999
-0.12230013 0.050519962 1.3570001 4279508257
-0.11994478 0.050519962 1.3570001 4279574051
-0.1176761 0.050557189 1.358 4279442465
-0.11548886 0.050631646 1.36 4279442208
-0.11337785 0.050743334 1.363 4279507744
-0.11117499 0.050817791 1.365 4279441951
-0.10896519 0.050892249 1.3670001 4279507744
-0.10674844 0.05096671 1.3690001 4279376158
-0.1044485 0.05100394 1.3700001 4279507231
-0.10236862 0.051152851 1.3740001 4279441436
-0.10027484 0.05130177 1.378 4279375386
-0.09795408 0.051339 1.3790001 4279441436
-0.095699146 0.051413458 1.381 4279441436
-0.093302146 0.051413458 1.381 4279507229
-0.090905145 0.051413458 1.381 4279441436
-0.088508144 0.051413458 1.381 4279113241
-0.086173505 0.051450688 1.3820001 4279244827
-0.083774768 0.051450688 1.3820001 4279244827
-0.081376031 0.051450688 1.3820001 4279310620
-0.078977302 0.051450688 1.3820001 4279442720
-0.076578565 0.051450688 1.3820001 4279639844
-0.074179828 0.051450688 1.3820001 4279508260
-0.071729153 0.051413458 1.381 4279376676
-0.069281951 0.051376231 1.3800001 4279508262
-0.06683822 0.051339 1.3790001 4279574313
-0.064351223 0.051264539 1.3770001 4279640108
-0.06196117 0.051264539 1.3770001 4279574315
-0.059571113 0.051264539 1.3770001 4279574314
-0.057222579 0.05130177 1.378 4279443243
-0.054910369 0.051376231 1.3800001 4279443243
-0.052553158 0.051413458 1.381 4279509036
-0.050156161 0.051413458 1.381 4279509036
-0.047724579 0.051376231 1.3800001 4279705647
-0.045230769 0.051264539 1.3770001 4279639854
-0.042778492 0.051190082 1.3750001 4279508268
-0.040391907 0.051190082 1.3750001 4279574061
-0.037977681 0.051152851 1.3740001 4279574061
-0.035566926 0.051115625 1.373 4279442988
-0.033159643 0.051078394 1.3720001 4279903539
-0.030733401 0.05100394 1.3700001 4280232761
-0.028355494 0.05100394 1.3700001 4280364347
-0.025977587 0.05100394 1.3700001 4279705901
-0.023668582 0.051152851 1.3740001 4279376936
-0.021392167 0.051413458 1.381 4279705386
-0.019036431 0.051525146 1.3840001 4279574316
-0.016718356 0.051785748 1.391 4279640109
-0.014324567 0.05186021 1.393 4279640877
-0.01194093 0.052009124 1.3970001 4279838258
-0.0095229708 0.052046355 1.3980001 4280233017
-0.0071015405 0.052083585 1.399 4280759359
-0.0046732989 0.052083585 1.399 4280298808
-0.0022482662 0.052158039 1.401 4279509288
0.00018344713 0.052158039 1.401 4279377452
0.0026170271 0.05219527 1.4020001 4279706417
0.0050576809 0.052269727 1.404 4280166200
0.0074999388 0.052306958 1.4050001 4280297787
0.0099668903 0.052455876 1.409 4279837233
0.012465347 0.052679248 1.4150001 4279376937
0.014974085 0.052865393 1.4200001 4279508521
0.017524743 0.053126 1.427 4279706158
0.020085683 0.053349372 1.4330001 4279969076
-0.20709246 0.052858952 1.3570001 4282666326
-0.20458625 0.052820001 1.3560001 4280297779
-0.20193435 0.052742094 1.3540001 4279837484
-0.19943683 0.052703142 1.353 4279705898
-0.19723409 0.052742094 1.3540001 4279508262
-0.19488396 0.052742094 1.3540001 4279639589
-0.19253382 0.052742094 1.3540001 4279639587
-0.19032414 0.052781045 1.355 4279639587
-0.18824972 0.052858952 1.3570001 4279508257
-0.18616836 0.052936859 1.3590001 4279508256
-0.18394481 0.052975811 1.36 4279507999
-0.18171777 0.053014763 1.3610001 4279507998
-0.17948726 0.053053714 1.3620001 4279442204
-0.17712325 0.053053714 1.3620001 4279441947
-0.17475922 0.053053714 1.3620001 4279376154
-0.1723952 0.053053714 1.3620001 4279441689
-0.17003118 0.053053714 1.3620001 4279310102
-0.16779026 0.05309267 1.363 4279310101
-0.16554588 0.053131621 1.3640001 4279178515
-0.16317838 0.053131621 1.3640001 4279244308
-0.16045721 0.053014763 1.3610001 4279244307
-0.15797876 0.052975811 1.36 4279375893
-0.15527493 0.052858952 1.3570001 4279310101
-0.15280689 0.052820001 1.3560001 4279375894
-0.15056424 0.052858952 1.3570001 4279310102
-0.1482089 0.052858952 1.3570001 4279310104
-0.14574607 0.052820001 1.3560001 4279310105
-0.14328672 0.052781045 1.355 4279244056
-0.14072683 0.052703142 1.353 4279309849
-0.13827616 0.052664187 1.3520001 4279309849
-0.13582894 0.052625235 1.3510001 4279309849
-0.13358283 0.052664187 1.3520001 4279375642
-0.13123617 0.052664187 1.3520001 4279375642
-0.12898482 0.052703142 1.353 4279441692
-0.12663643 0.052703142 1.353 4279507742
-0.12428803 0.052703142 1.353 4279376670
-0.12184951 0.052664187 1.3520001 4279442463
-0.11941445 0.052625235 1.3510001 4279442208
-0.11724283 0.052703142 1.353 4279376417
-0.1152341 0.052858952 1.3570001 4279507746
-0.11287876 0.052858952 1.3570001 4279507747
-0.11068631 0.052936859 1.3590001 4279507746
-0.10848692 0.053014763 1.3610001 4279507746
-0.10620261 0.053053714 1.3620001 4279573539
-0.10399107 0.053131621 1.3640001 4279573538
-0.10199609 0.053326387 1.3690001 4279507488
-0.099692695 0.053365339 1.3700001 4279441951
-0.09745685 0.053443246 1.3720001 4279441695
-0.095214069 0.053521149 1.3740001 4279375643
-0.09282922 0.053521149 1.3740001 4279375643
-0.090444371 0.053521149 1.3740001 4279507229
-0.088123605 0.053560104 1.3750001 4279310620
-0.085799381 0.053599056 1.376 4279244827
-0.083532296 0.053676959 1.378 4279244827
-0.081140503 0.053676959 1.378 4279310620
-0.07874871 0.053676959 1.378 4279245086
-0.076356918 0.053676959 1.378 4279442465
-0.073965125 0.053676959 1.378 4279376672
-0.071521394 0.053638007 1.3770001 4279245086
-0.069131337 0.053638007 1.3770001 4279442467
-0.066692814 0.053599056 1.376 4279442726
-0.064304493 0.053599056 1.376 4279705899
-0.061916169 0.053599056 1.376 4279705901
-0.059571113 0.053638007 1.3770001 4279705647
-0.057222579 0.053676959 1.378 4279705647
-0.054870576 0.053715914 1.3790001 4279640623
-0.052515104 0.05375487 1.3800001 4279640624
-0.050083522 0.053715914 1.3790001 4279509038
-0.047586244 0.053599056 1.376 4279574574
-0.045165077 0.053560104 1.3750001 4279640624
-0.042716268 0.053482197 1.373 4279442988
-0.040333156 0.053482197 1.373 4279443247
-0.037950039 0.053482197 1.373 4279443504
-0.035566926 0.053482197 1.373 4279443503
-0.033159643 0.053443246 1.3720001 4279574831
-0.030733401 0.053365339 1.3700001 4279969589
-0.028355494 0.053365339 1.3700001 4280298552
-0.025996547 0.05340429 1.3710001 4280627001
-0.023668582 0.053521149 1.3740001 4279311140
-0.021345695 0.053676959 1.378 4279310881
-0.018995168 0.053793818 1.381 4279310882
-0.01669432 0.054105442 1.3890001 4279442468
-0.014324567 0.054261256 1.393 4279442468
-0.01194093 0.054417063 1.3970001 4279640361
-0.0095365942 0.054533921 1.4000001 4279574567
-0.0071116933 0.054572877 1.401 4279969067
-0.0046833199 0.054611828 1.4020001 4279442723
-0.0022514758 0.054650784 1.4030001 4279245090
0.00018383995 0.054689731 1.404 4279376422
0.002622627 0.054728687 1.4050001 4279705644
0.0050648856 0.054767642 1.406 4279968306
0.0075052772 0.054767642 1.406 4280428857
0.0099739647 0.054923449 1.4100001 4280495164
0.012474155 0.05515717 1.416 4279574061
0.014974085 0.055312976 1.4200001 4279639853
0.017537024 0.0556246 1.4280001 4279903026
-0.2075503 0.055319976 1.36 4282798168
-0.204888 0.055238623 1.358 4280692792
-0.20208351 0.055116594 1.355 4279903532
-0.19958422 0.055075914 1.3540001 4279508517
-0.19723409 0.055075914 1.3540001 4279574053
-0.19488396 0.055075914 1.3540001 4279574050
-0.19281821 0.05515727 1.3560001 4279573535
-0.1904646 0.05515727 1.3560001 4279573792
-0.18852717 0.0552793 1.3590001 4279507998
-0.18644235 0.055360649 1.3610001 4279441948
-0.18421531 0.055401329 1.3620001 4279441948
-0.18198481 0.055442005 1.363 4279507483
-0.17961906 0.055442005 1.363 4279441689
-0.17725329 0.055442005 1.363 4279375896
-0.17475922 0.055401329 1.3620001 4279375896
-0.1723952 0.055401329 1.3620001 4279310103
-0.17003118 0.055401329 1.3620001 4279310102
-0.16766715 0.055401329 1.3620001 4279310101
-0.16542451 0.055442005 1.363 4279310100
-0.16317838 0.055482678 1.3640001 4279375894
-0.16045721 0.055360649 1.3610001 4279441687
-0.15786259 0.0552793 1.3590001 4279375895
-0.1551605 0.05515727 1.3560001 4279441688
-0.15280689 0.05515727 1.3560001 4279441687
-0.15056424 0.055197947 1.3570001 4279310103
-0.1482089 0.055197947 1.3570001 4279375642
-0.1456386 0.055116594 1.355 4279309849
-0.14318097 0.055075914 1.3540001 4279244056
-0.14062282 0.054994565 1.3520001 4279309849
-0.1380716 0.054913212 1.35 4279441435
-0.13582894 0.054953884 1.3510001 4279375643
-0.13348402 0.054953884 1.3510001 4279441435
-0.13113908 0.054953884 1.3510001 4279441436
-0.1288895 0.054994565 1.3520001 4279441436
-0.12654284 0.054994565 1.3520001 4279376413
-0.12419617 0.054994565 1.3520001 4279376413
-0.12175938 0.054953884 1.3510001 4279376413
-0.11932606 0.054913212 1.35 4279507745
-0.11698287 0.054913212 1.35 4279507745
-0.11489443 0.055035241 1.353 4279507747
-0.11262921 0.055075914 1.3540001 4279441954
-0.11044197 0.05515727 1.3560001 4279507747
-0.10816807 0.055197947 1.3570001 4279507747
-0.10589071 0.055238623 1.358 4279441954
-0.10376235 0.055360649 1.3610001 4279573538
-0.10169808 0.055523358 1.365 4279573538
-0.099474393 0.055604707 1.3670001 4279573538
-0.09731479 0.055726741 1.3700001 4279507745
-0.095006183 0.055767417 1.3710001 4279507231
-0.092626542 0.055767417 1.3710001 4279573022
-0.090246893 0.055767417 1.3710001 4279441436
-0.087931335 0.055808093 1.3720001 4279310620
-0.085674673 0.055889443 1.3740001 4279244827
-0.083350435 0.055930123 1.3750001 4279442206
-0.081022739 0.055970799 1.376 4279310620
-0.078634419 0.055970799 1.376 4279245340
-0.07619068 0.055930123 1.3750001 4279245340
-0.073804095 0.055930123 1.3750001 4279245340
-0.071417511 0.055930123 1.3750001 4279179293
-0.069081135 0.055970799 1.376 4279310881
-0.066692814 0.055970799 1.376 4279508262
-0.064304493 0.055970799 1.376 4279639593
-0.06196117 0.056011472 1.3770001 4279771692
-0.059571113 0.056011472 1.3770001 4279771440
-0.057222579 0.056052152 1.378 4279903026
-0.054870576 0.056092829 1.3790001 4279838003
-0.052515104 0.056133505 1.3800001 4279838003
-0.050083522 0.056092829 1.3790001 4279706674
-0.047586244 0.055970799 1.376 4279640883
-0.045132227 0.055889443 1.3740001 4279640882
-0.042716268 0.05584877 1.373 4279509297
-0.040333156 0.05584877 1.373 4279312689
-0.037950039 0.05584877 1.373 4279378482
-0.03554102 0.055808093 1.3720001 4279509297
-0.033135474 0.055767417 1.3710001 4279509297
-0.030755833 0.055767417 1.3710001 4279509297
-0.02837619 0.055767417 1.3710001 4279640624
-0.026015509 0.055808093 1.3720001 4280561209
-0.023668582 0.055889443 1.3740001 4280627000
-0.021345695 0.056052152 1.378 4279245088
-0.018995168 0.056174181 1.381 4279245088
-0.016682301 0.056458917 1.388 4279310366
-0.014314284 0.056621622 1.3920001 4279310366
-0.01194093 0.056825005 1.3970001 4279113501
-0.0095365942 0.056947034 1.4000001 4279113500
-0.0071116933 0.05698771 1.401 4279113755
-0.0046833199 0.057028383 1.4020001 4279244827
-0.0022530805 0.05710974 1.404 4279441954
0.00018397089 0.057150412 1.4050001 4279507749
0.0026244938 0.057191093 1.406 4279639335
0.005068488 0.057231769 1.4070001 4279968047
0.0075159534 0.057272449 1.4080001 4280560697
0.009981038 0.057394478 1.411 4280626236
0.012491775 0.05767921 1.4180001 4279639854
0.014995176 0.057841912 1.4220001 4279771440
-0.21476871 0.058342539 1.376 4286417039
-0.21222605 0.058300141 1.3750001 4287601056
-0.20816074 0.057833739 1.3640001 4284442992
-0.2054915 0.057748944 1.3620001 4281087806
-0.20238177 0.057536941 1.3570001 4280364082
-0.19973163 0.057452139 1.355 4279508516
-0.19737977 0.057452139 1.355 4279639843
-0.19517182 0.057494536 1.3560001 4279573793
-0.19296041 0.057536941 1.3570001 4279507742
-0.19074553 0.057579339 1.358 4279507228
-0.18880463 0.057706539 1.3610001 4279507228
-0.18671632 0.057791341 1.363 4279441690
-0.18448582 0.057833739 1.3640001 4279375896
-0.18211833 0.057833739 1.3640001 4279375896
-0.17961906 0.057791341 1.363 4279375896
-0.17712325 0.057748944 1.3620001 4279310103
-0.17450261 0.057664141 1.36 4279441689
-0.1718889 0.057579339 1.358 4279375896
-0.16953182 0.057579339 1.358 4279375896
-0.16729784 0.057621736 1.3590001 4279375895
-0.16493903 0.057621736 1.3590001 4279375895
-0.16258022 0.057621736 1.3590001 4279441688
-0.1599856 0.057536941 1.3570001 4279573274
-0.15751411 0.057494536 1.3560001 4279441432
-0.15504608 0.057452139 1.355 4279507226
-0.15258151 0.057409741 1.3540001 4279441689
-0.15023138 0.057409741 1.3540001 4279375897
-0.14766282 0.057324938 1.3520001 4279309848
-0.14510117 0.057240136 1.35 4279375642
-0.14265224 0.057197738 1.3490001 4279441435
-0.14010276 0.057112936 1.3470001 4279309849
-0.1376625 0.057070538 1.3460001 4279310363
-0.13542679 0.057112936 1.3470001 4279441949
-0.13328642 0.057197738 1.3490001 4279376156
-0.13094497 0.057197738 1.3490001 4279376156
-0.1286035 0.057197738 1.3490001 4279376413
-0.12626204 0.057197738 1.3490001 4279244827
-0.12364501 0.057070538 1.3460001 4279376413
-0.1211285 0.056985736 1.3440001 4279442206
-0.11879572 0.056985736 1.3440001 4279376159
-0.1165496 0.057028141 1.345 4279573540
-0.11430001 0.057070538 1.3460001 4279376161
