# .PCD v0.7 - Point Cloud Data file format
VERSION 0.7
FIELDS x y z rgba
SIZE 4 4 4 4
TYPE F F F U
COUNT 1 1 1 1
WIDTH 1079
HEIGHT 1
VIEWPOINT 0 0 0 1 0 0 0
POINTS 1079
DATA ascii
-0.17004269 -0.068624787 1.4530001 4291875800
-0.13447206 -0.064279653 1.3610001 4291218382
-0.13299711 -0.064137965 1.358 4291284175
-0.13162443 -0.064043507 1.3560001 4291415761
-0.12987043 -0.063760124 1.35 4291547347
-0.1286035 -0.063712895 1.3490001 4291744726
-0.12724385 -0.063618436 1.3470001 4291876312
-0.12560686 -0.063382283 1.342 4291942105
-0.12434948 -0.063335061 1.3410001 4291942105
-0.12291011 -0.063193366 1.3380001 4292073691
-0.12165795 -0.063146137 1.337 4292402657
-0.12049763 -0.063146137 1.337 4292797414
-0.1191588 -0.063051678 1.335 4292929001
-0.11800022 -0.063051678 1.335 4292994794
-0.11675412 -0.063004449 1.3340001 4293060587
-0.11559641 -0.063004449 1.3340001 4293126380
-0.1144387 -0.063004449 1.3340001 4293192173
-0.11328098 -0.063004449 1.3340001 4293126380
-0.11212327 -0.063004449 1.3340001 4293126380
-0.11104874 -0.063051678 1.335 4293126380
-0.10989017 -0.063051678 1.335 4293126380
-0.10881303 -0.063098915 1.3360001 4293060587
-0.10773417 -0.063146137 1.337 4292994794
-0.10665356 -0.063193366 1.3380001 4292994794
-0.10572891 -0.063335061 1.3410001 4293126380
-0.10472108 -0.06342952 1.3430001 4293258223
-0.10363266 -0.063476749 1.3440001 4293324274
-0.17268343 -0.067418925 1.4540001 4292007386
-0.17142159 -0.067418925 1.4540001 4291941593
-0.17004269 -0.067372553 1.4530001 4291941593
-0.13006283 -0.062689394 1.3520001 4291481554
-0.1286035 -0.062550291 1.3490001 4291678933
-0.12733831 -0.062503926 1.348 4291810519
-0.12560686 -0.062225714 1.342 4291810519
-0.12434948 -0.062179353 1.3410001 4291744726
-0.12291011 -0.062040247 1.3380001 4291810519
-0.12174893 -0.062040247 1.3380001 4292073691
-0.12049763 -0.061993878 1.337 4292534242
-0.11924805 -0.061947513 1.3360001 4292797415
-0.11800022 -0.061901145 1.335 4292994794
-0.11684164 -0.061901145 1.335 4293060587
-0.11559641 -0.061854772 1.3340001 4293060587
-0.1144387 -0.061854772 1.3340001 4293126380
-0.11328098 -0.061854772 1.3340001 4293126380
-0.11212327 -0.061854772 1.3340001 4293126380
-0.11096556 -0.061854772 1.3340001 4293126380
-0.10980785 -0.061854772 1.3340001 4293126380
-0.10881303 -0.061947513 1.3360001 4293126380
-0.10765358 -0.061947513 1.3360001 4293060587
-0.10657385 -0.061993878 1.337 4292994794
-0.10557123 -0.062086612 1.3390001 4293060587
-0.10448715 -0.062132981 1.34 4293126637
-0.10355555 -0.062272087 1.3430001 4293258479
-0.10261875 -0.062411189 1.3460001 4293390066
-0.10160137 -0.062503926 1.348 4293390324
-0.10058052 -0.062596664 1.35 4293390068
-0.12996662 -0.0614787 1.3510001 4291349969
-0.12869883 -0.0614332 1.35 4291547348
-0.12743278 -0.061387692 1.3490001 4291744726
-0.12588765 -0.061205663 1.345 4291810519
-0.12453494 -0.061114654 1.3430001 4291744726
-0.12327755 -0.061069146 1.342 4291744726
-0.12202191 -0.061023645 1.3410001 4291942105
-0.12085813 -0.061023645 1.3410001 4292271070
-0.11960509 -0.060978137 1.34 4292665828
-0.11844217 -0.060978137 1.34 4292929000
-0.11719172 -0.060932625 1.3390001 4293060587
-0.11594302 -0.060887124 1.3380001 4293060587
-0.11478184 -0.060887124 1.3380001 4293060587
-0.11362065 -0.060887124 1.3380001 4293060587
-0.11237542 -0.060841616 1.337 4293060587
-0.11121511 -0.060841616 1.337 4293060587
-0.11005479 -0.060841616 1.337 4293126380
-0.10889448 -0.060841616 1.337 4293126380
-0.10773417 -0.060841616 1.337 4293126380
-0.10657385 -0.060841616 1.337 4293060587
-0.10557123 -0.060932625 1.3390001 4293060587
-0.10456513 -0.061023645 1.3410001 4293126380
-0.10261875 -0.061251171 1.3460001 4293389809
-0.10160137 -0.061342184 1.348 4293456115
-0.10050602 -0.061387692 1.3490001 4293455860
-0.13006283 -0.06035902 1.3520001 4291284176
-0.12879416 -0.060314376 1.3510001 4291481554
-0.12743278 -0.060225088 1.3490001 4291678933
-0.12588765 -0.060046509 1.345 4291810519
-0.12462767 -0.060001869 1.3440001 4291810519
-0.12336943 -0.059957221 1.3430001 4291810519
-0.1221129 -0.059912577 1.342 4291876312
-0.12094825 -0.059912577 1.342 4292073691
-0.11969434 -0.059867937 1.3410001 4292402656
-0.11853056 -0.059867937 1.3410001 4292731622
-0.11736677 -0.059867937 1.3410001 4292929001
-0.11611633 -0.05982329 1.34 4292994794
-0.11486762 -0.059778642 1.3390001 4293060587
-0.11370558 -0.059778642 1.3390001 4293060588
-0.11245947 -0.059734002 1.3380001 4293060588
-0.11129829 -0.059734002 1.3380001 4293126380
-0.11013711 -0.059734002 1.3380001 4293126380
-0.10889448 -0.059689358 1.337 4293192173
-0.10781474 -0.059734002 1.3380001 4293192173
-0.10665356 -0.059734002 1.3380001 4293126380
-0.10565007 -0.05982329 1.34 4293060587
-0.10456513 -0.059867937 1.3410001 4293060587
-0.10254251 -0.060046509 1.345 4293258223
-0.101526 -0.0601358 1.3470001 4293324529
-0.10043151 -0.060180441 1.348 4293456115
-0.13035144 -0.059325181 1.355 4291284176
-0.12898482 -0.059237618 1.353 4291415761
-0.1276217 -0.059150048 1.3510001 4291613140
-0.12607485 -0.058974922 1.3470001 4291744726
-0.12490585 -0.058974922 1.3470001 4291810519
-0.12355313 -0.058887355 1.345 4291876312
-0.12238588 -0.058887355 1.345 4291876312
-0.12121862 -0.058887355 1.345 4291942105
-0.12005136 -0.058887355 1.345 4292073691
-0.11888411 -0.058887355 1.345 4292468449
-0.11771685 -0.058887355 1.345 4292797414
-0.11646295 -0.058843575 1.3440001 4292929001
-0.11529656 -0.058843575 1.3440001 4293060586
-0.11404525 -0.058799792 1.3430001 4293126380
-0.11279568 -0.058756005 1.342 4293126382
-0.11163103 -0.058756005 1.342 4293126381
-0.11046637 -0.058756005 1.342 4293126380
-0.10922027 -0.058712229 1.3410001 4293192173
-0.10805649 -0.058712229 1.3410001 4293192173
-0.10681298 -0.058668442 1.34 4293126380
-0.10572891 -0.058712229 1.3410001 4293126380
-0.10464311 -0.058756005 1.342 4293060587
-0.10254251 -0.058887355 1.345 4293061100
-0.101526 -0.058974922 1.3470001 4293192943
-0.10043151 -0.059018701 1.348 4293324273
-0.0995562 -0.059193835 1.3520001 4293390067
-0.0985284 -0.059281398 1.3540001 4293390067
-0.097425237 -0.059325181 1.355 4293390068
-0.13035144 -0.058157407 1.355 4291284176
-0.12898482 -0.058071569 1.353 4291349969
-0.1276217 -0.057985723 1.3510001 4291547347
-0.12607485 -0.057814047 1.3470001 4291744726
-0.12490585 -0.057814047 1.3470001 4291810519
-0.12364501 -0.05777112 1.3460001 4291876312
-0.12247688 -0.05777112 1.3460001 4291942105
-0.12130876 -0.05777112 1.3460001 4291942105
-0.12014063 -0.05777112 1.3460001 4291942105
-0.11897251 -0.05777112 1.3460001 4292205277
-0.11780438 -0.05777112 1.3460001 4292600035
-0.1165496 -0.057728197 1.345 4292863207
-0.11538234 -0.057728197 1.345 4293060586
-0.11421508 -0.057728197 1.345 4293192172
-0.11287972 -0.057642359 1.3430001 4293192173
-0.1117142 -0.057642359 1.3430001 4293192173
-0.11054868 -0.057642359 1.3430001 4293126380
-0.10930172 -0.057599436 1.342 4293192173
-0.10813706 -0.057599436 1.342 4293257966
-0.1068927 -0.057556521 1.3410001 4293323759
-0.10580776 -0.057599436 1.342 4293257966
-0.10464311 -0.057599436 1.342 4293192173
-0.10355555 -0.057642359 1.3430001 4293126380
-0.10261875 -0.05777112 1.3460001 4292995050
-0.101526 -0.057814047 1.3470001 4292995051
-0.10043151 -0.057856962 1.348 4293126894
-0.0995562 -0.058028646 1.3520001 4293258481
-0.0985284 -0.058114484 1.3540001 4293324275
-0.097425237 -0.058157407 1.355 4293390068
-0.13035144 -0.056989636 1.355 4291349969
-0.12898482 -0.056905519 1.353 4291415761
-0.12771617 -0.056863457 1.3520001 4291481554
-0.12607485 -0.056653168 1.3470001 4291613140
-0.12490585 -0.056653168 1.3470001 4291810519
-0.12364501 -0.056611106 1.3460001 4291942105
-0.12247688 -0.056611106 1.3460001 4292007641
-0.12130876 -0.056611106 1.3460001 4291942105
-0.12014063 -0.056611106 1.3460001 4292007641
-0.11897251 -0.056611106 1.3460001 4292139227
-0.11780438 -0.056611106 1.3460001 4292402399
-0.11663625 -0.056611106 1.3460001 4292731621
-0.11546813 -0.056611106 1.3460001 4293060586
-0.11430001 -0.056611106 1.3460001 4293192173
-0.11304783 -0.056569044 1.345 4293257966
-0.11179738 -0.056526989 1.3440001 4293192173
-0.110631 -0.056526989 1.3440001 4293257966
-0.10938316 -0.05648493 1.3430001 4293323759
-0.10813706 -0.056442872 1.342 4293389552
-0.10697241 -0.056442872 1.342 4293389552
-0.10580776 -0.056442872 1.342 4293323759
-0.10472108 -0.05648493 1.3430001 4293257966
-0.10363266 -0.056526989 1.3440001 4293126380
-0.102695 -0.056653168 1.3470001 4292994794
-0.10160137 -0.056695219 1.348 4292929001
-0.10050602 -0.056737281 1.3490001 4292995051
-0.0995562 -0.056863457 1.3520001 4293126637
-0.098382868 -0.056863457 1.3520001 4293192687
-0.097353332 -0.056947574 1.3540001 4293192944
-0.13044763 -0.055863056 1.3560001 4291415762
-0.12908016 -0.055780664 1.3540001 4291415762
-0.1276217 -0.055657074 1.3510001 4291415761
-0.12607485 -0.055492286 1.3470001 4291547347
-0.12490585 -0.055492286 1.3470001 4291810262
-0.12373687 -0.055492286 1.3470001 4291941848
-0.12256787 -0.055492286 1.3470001 4292007641
-0.12139887 -0.055492286 1.3470001 4291941848
-0.12031914 -0.055533484 1.348 4292007641
-0.11923768 -0.055574678 1.3490001 4292073434
-0.11806694 -0.055574678 1.3490001 4292205020
-0.11698287 -0.055615876 1.35 4292533985
-0.11581127 -0.055615876 1.35 4292928743
-0.11463968 -0.055615876 1.35 4293191915
-0.11338402 -0.055574678 1.3490001 4293192173
-0.1122133 -0.055574678 1.3490001 4293257966
-0.11104257 -0.055574678 1.3490001 4293323759
-0.1097904 -0.055533484 1.348 4293389552
-0.10862054 -0.055533484 1.348 4293455345
-0.10737097 -0.055492286 1.3470001 4293455345
-0.10620197 -0.055492286 1.3470001 4293389552
-0.10511096 -0.055533484 1.348 4293257966
-0.1039411 -0.055533484 1.348 4293126380
-0.13035144 -0.054654088 1.355 4291415762
-0.12898482 -0.054573417 1.353 4291481298
-0.1276217 -0.054492749 1.3510001 4291415506
-0.12607485 -0.054331407 1.3470001 4291481554
-0.12490585 -0.054331407 1.3470001 4291744469
-0.12373687 -0.054331407 1.3470001 4291941848
-0.12256787 -0.054331407 1.3470001 4292007641
-0.12139887 -0.054331407 1.3470001 4292007641
-0.12031914 -0.054371744 1.348 4292007641
-0.11923768 -0.054412078 1.3490001 4292007641
-0.11815447 -0.054452412 1.35 4292139227
-0.11706952 -0.054492749 1.3510001 4292402399
-0.11589705 -0.054492749 1.3510001 4292797157
-0.11472459 -0.054492749 1.3510001 4293060586
-0.11355213 -0.054492749 1.3510001 4293192173
-0.11237967 -0.054492749 1.3510001 4293257966
-0.1112072 -0.054492749 1.3510001 4293323759
-0.10995329 -0.054452412 1.35 4293323759
-0.1087817 -0.054452412 1.35 4293389552
-0.10753039 -0.054412078 1.3490001 4293389552
-0.10635965 -0.054412078 1.3490001 4293323759
-0.10526691 -0.054452412 1.35 4293192173
-0.10409531 -0.054452412 1.35 4293126380
-0.13035144 -0.053486314 1.355 4291349969
-0.12898482 -0.053407367 1.353 4291415505
-0.1276217 -0.053328425 1.3510001 4291415249
-0.12607485 -0.053170528 1.3470001 4291415505
-0.12490585 -0.053170528 1.3470001 4291612883
-0.12373687 -0.053170528 1.3470001 4291876055
-0.12256787 -0.053170528 1.3470001 4292007641
-0.12139887 -0.053170528 1.3470001 4292073434
-0.1204084 -0.053249475 1.3490001 4292073434
-0.11923768 -0.053249475 1.3490001 4292139227
-0.11815447 -0.053288948 1.35 4292270813
-0.11715618 -0.053367894 1.3520001 4292468192
-0.11598285 -0.053367894 1.3520001 4292731364
-0.11480951 -0.053367894 1.3520001 4292994537
-0.11363618 -0.053367894 1.3520001 4293191917
-0.11246285 -0.053367894 1.3520001 4293323502
-0.11137183 -0.053407367 1.353 4293323759
-0.11011618 -0.053367894 1.3520001 4293257966
-0.10894286 -0.053367894 1.3520001 4293257966
-0.10768981 -0.053328425 1.3510001 4293323759
-0.10651734 -0.053328425 1.3510001 4293257966
-0.10534488 -0.053328425 1.3510001 4293192173
-0.10424953 -0.053367894 1.3520001 4293192173
-0.13015904 -0.052241318 1.353 4291349969
-0.12879416 -0.052164096 1.3510001 4291284176
-0.12743278 -0.052086871 1.3490001 4291349711
-0.12598126 -0.051971037 1.3460001 4291349711
-0.12481313 -0.051971037 1.3460001 4291547090
-0.12364501 -0.051971037 1.3460001 4291810262
-0.12247688 -0.051971037 1.3460001 4292007641
-0.12139887 -0.05200965 1.3470001 4292139227
-0.12031914 -0.052048262 1.348 4292205020
-0.11923768 -0.052086871 1.3490001 4292270813
-0.11815447 -0.052125484 1.35 4292336606
-0.11715618 -0.052202709 1.3520001 4292402399
-0.11606863 -0.052241318 1.353 4292533985
-0.11489443 -0.052241318 1.353 4292862694
-0.11388833 -0.052318543 1.355 4293125867
-0.11279558 -0.052357152 1.3560001 4293323246
-0.11170109 -0.052395765 1.3570001 4293323503
-0.11060487 -0.052434377 1.358 4293257966
-0.10942633 -0.052434377 1.358 4293257966
-0.10824779 -0.052434377 1.358 4293192173
-0.13006283 -0.05103752 1.3520001 4291349969
-0.12869883 -0.05096202 1.35 4291349968
-0.12743278 -0.050924271 1.3490001 4291349711
-0.12588765 -0.050773274 1.345 4291415504
-0.12472039 -0.050773274 1.345 4291481297
-0.12364501 -0.050811023 1.3460001 4291612883
-0.12247688 -0.050811023 1.3460001 4291876055
-0.12130876 -0.050811023 1.3460001 4292007641
-0.12022988 -0.050848771 1.3470001 4292007641
-0.11914928 -0.050886523 1.348 4291941848
-0.11806694 -0.050924271 1.3490001 4291941848
-0.11706952 -0.050999772 1.3510001 4291941848
-0.11598285 -0.05103752 1.3520001 4292007641
-0.11489443 -0.051075269 1.353 4292270557
-0.11388833 -0.051150769 1.355 4292599523
-0.11279558 -0.051188517 1.3560001 4292928488
-0.11170109 -0.051226266 1.3570001 4293191660
-0.11068631 -0.051301766 1.3590001 4293257453
-0.10950691 -0.051301766 1.3590001 4293257710
-0.10832749 -0.051301766 1.3590001 4293257709
-0.12996662 -0.049835443 1.3510001 4291415505
-0.1286035 -0.049761668 1.3490001 4291415248
-0.12733831 -0.04972478 1.348 4291349455
-0.12588765 -0.049614117 1.345 4291414991
-0.12472039 -0.049614117 1.345 4291480784
-0.12355313 -0.049614117 1.345 4291546833
-0.12238588 -0.049614117 1.345 4291678419
-0.12121862 -0.049614117 1.345 4291743956
-0.12014063 -0.049651004 1.3460001 4291678163
-0.11906089 -0.049687892 1.3470001 4291546577
-0.11797941 -0.04972478 1.348 4291480784
-0.11706952 -0.049835443 1.3510001 4291480784
-0.11589705 -0.049835443 1.3510001 4291415247
-0.11480951 -0.049872331 1.3520001 4291480784
-0.11388833 -0.049982995 1.355 4291743957
-0.11279558 -0.050019883 1.3560001 4292138715
-0.11161877 -0.050019883 1.3560001 4292533730
-0.11068631 -0.050130546 1.3590001 4292928488
-0.10958748 -0.050167434 1.36 4293257453
-0.10848692 -0.050204322 1.3610001 4293323503
-0.12987043 -0.048635092 1.35 4291415248
-0.12831751 -0.048490986 1.3460001 4291414991
-0.12677151 -0.048346885 1.342 4291414734
-0.12560686 -0.048346885 1.342 4291414734
-0.1244422 -0.048346885 1.342 4291480527
-0.12327755 -0.048346885 1.342 4291546320
-0.1221129 -0.048346885 1.342 4291612113
-0.12094825 -0.048346885 1.342 4291546320
-0.11996211 -0.048418939 1.3440001 4291480270
-0.11879572 -0.048418939 1.3440001 4291348685
-0.11771685 -0.048454963 1.345 4291282892
-0.11680955 -0.048563041 1.348 4291217355
-0.11563969 -0.048563041 1.348 4291217355
-0.11446983 -0.048563041 1.348 4291217355
-0.11363618 -0.048707142 1.3520001 4291348942
-0.11262921 -0.048779197 1.3540001 4291612371
-0.11161877 -0.048851248 1.3560001 4291875800
-0.11084921 -0.049031381 1.3610001 4292402144
-0.1099098 -0.049139459 1.3640001 4292928488
-0.10888547 -0.049211506 1.3660001 4293257710
-0.12958182 -0.047366135 1.3470001 4291349456
-0.12822217 -0.047295809 1.345 4291349199
-0.12677151 -0.047190316 1.342 4291414734
-0.12560686 -0.047190316 1.342 4291414734
-0.1244422 -0.047190316 1.342 4291480527
-0.12327755 -0.047190316 1.342 4291480527
-0.1221129 -0.047190316 1.342 4291546320
-0.12094825 -0.047190316 1.342 4291414734
-0.11987286 -0.047225479 1.3430001 4291283148
-0.11879572 -0.047260646 1.3440001 4291217355
-0.11754182 -0.047225479 1.3430001 4291217355
-0.11663625 -0.047330972 1.3460001 4291217355
-0.11555392 -0.047366135 1.3470001 4291217355
-0.11446983 -0.047401302 1.348 4291217612
-0.11363618 -0.047541957 1.3520001 4291349199
-0.11254603 -0.04757712 1.353 4291481042
-0.11153647 -0.04764745 1.355 4291612628
-0.11093065 -0.047893599 1.3620001 4292007386
-0.1099098 -0.047963928 1.3640001 4292599523
-0.10888547 -0.048034254 1.3660001 4293126123
-0.12948564 -0.046170954 1.3460001 4291283663
-0.12822217 -0.046136651 1.345 4291217613
-0.12667705 -0.045999445 1.3410001 4291348941
-0.12551327 -0.045999445 1.3410001 4291348941
-0.12434948 -0.045999445 1.3410001 4291348941
-0.12318569 -0.045999445 1.3410001 4291414734
-0.1221129 -0.046033744 1.342 4291480527
-0.12094825 -0.046033744 1.342 4291348941
-0.1197836 -0.046033744 1.342 4291283148
-0.11861894 -0.046033744 1.342 4291217355
-0.11754182 -0.046068046 1.3430001 4291283148
-0.11663625 -0.046170954 1.3460001 4291283148
-0.11546813 -0.046170954 1.3460001 4291283148
-0.11438492 -0.046205256 1.3470001 4291348942
-0.11355213 -0.046342466 1.3510001 4291414992
-0.11254603 -0.046411071 1.353 4291546578
-0.11145414 -0.046445373 1.3540001 4291678421
-0.11093065 -0.046719793 1.3620001 4292007386
-0.1099098 -0.046788398 1.3640001 4292467937
-0.10896519 -0.046891306 1.3670001 4292994538
-0.12938942 -0.044977497 1.345 4291283405
-0.12812683 -0.044944059 1.3440001 4291217356
-0.12667705 -0.044843737 1.3410001 4291283148
-0.12551327 -0.044843737 1.3410001 4291348941
-0.12434948 -0.044843737 1.3410001 4291283148
-0.12300197 -0.044776853 1.3390001 4291348941
-0.12183992 -0.044776853 1.3390001 4291348940
-0.12067787 -0.044776853 1.3390001 4291283147
-0.11969434 -0.044843737 1.3410001 4291283147
-0.11853056 -0.044843737 1.3410001 4291283147
-0.11745428 -0.044877175 1.342 4291283147
-0.11646295 -0.044944059 1.3440001 4291283147
-0.11538234 -0.044977497 1.345 4291283148
-0.11421508 -0.044977497 1.345 4291414734
-0.11338402 -0.045111258 1.3490001 4291546320
-0.11246285 -0.04521158 1.3520001 4291678163
-0.11145414 -0.045278464 1.3540001 4291810263
-0.11093065 -0.045545988 1.3620001 4292007642
-0.10999037 -0.04564631 1.365 4292270558
-0.10912461 -0.04578007 1.3690001 4292731365
-0.13407683 -0.044209287 1.3570001 4291086027
-0.13260536 -0.044111554 1.3540001 4291283406
-0.13113908 -0.044013817 1.3510001 4291349198
-0.12919703 -0.043753184 1.3430001 4291348941
-0.12784085 -0.043688029 1.3410001 4291283148
-0.12648812 -0.04362287 1.3390001 4291348941
-0.12523247 -0.043590292 1.3380001 4291348940
-0.1240713 -0.043590292 1.3380001 4291348683
-0.12300197 -0.04362287 1.3390001 4291348939
-0.12183992 -0.04362287 1.3390001 4291348939
-0.12067787 -0.04362287 1.3390001 4291283146
-0.11969434 -0.043688029 1.3410001 4291283146
-0.11853056 -0.043688029 1.3410001 4291217353
-0.11745428 -0.043720607 1.342 4291283146
-0.11646295 -0.043785766 1.3440001 4291283147
-0.11529656 -0.043785766 1.3440001 4291348940
-0.11421508 -0.043818343 1.345 4291480526
-0.11346808 -0.043981235 1.35 4291612113
-0.11246285 -0.044046395 1.3520001 4291809492
-0.11137183 -0.044078972 1.353 4291941591
-0.1110121 -0.044404756 1.363 4291941592
-0.11007096 -0.044502493 1.3660001 4291875800
-0.10912461 -0.04460023 1.3690001 4292270815
-0.13397804 -0.043008074 1.3560001 4291151820
-0.13250743 -0.042912923 1.353 4291283149
-0.13104202 -0.042817771 1.35 4291348941
-0.12910081 -0.042564038 1.342 4291348941
-0.12784085 -0.042532321 1.3410001 4291348941
-0.12639366 -0.04243717 1.3380001 4291414478
-0.12523247 -0.04243717 1.3380001 4291414476
-0.1240713 -0.04243717 1.3380001 4291348682
-0.12300197 -0.042468887 1.3390001 4291348682
-0.12183992 -0.042468887 1.3390001 4291348682
-0.12067787 -0.042468887 1.3390001 4291348939
-0.11960509 -0.042500604 1.34 4291348682
-0.11853056 -0.042532321 1.3410001 4291348682
-0.11736677 -0.042532321 1.3410001 4291348939
-0.11646295 -0.042627472 1.3440001 4291480268
-0.11529656 -0.042627472 1.3440001 4291480525
-0.11421508 -0.04265919 1.345 4291611856
-0.11346808 -0.042817771 1.35 4291743442
-0.11246285 -0.042881206 1.3520001 4291875028
-0.11145414 -0.04294464 1.3540001 4291875285
-0.1110121 -0.04323009 1.363 4291809493
-0.11007096 -0.043325242 1.3660001 4291678164
-0.10912461 -0.043420393 1.3690001 4292073179
-0.13368163 -0.041746873 1.353 4291349199
-0.13231155 -0.041685164 1.3510001 4291414734
-0.13084789 -0.041592598 1.348 4291414734
-0.12890843 -0.041345757 1.34 4291414478
-0.12765017 -0.041314904 1.3390001 4291480270
-0.12639366 -0.041284047 1.3380001 4291546062
-0.12523247 -0.041284047 1.3380001 4291480269
-0.1240713 -0.041284047 1.3380001 4291414475
-0.12300197 -0.041314904 1.3390001 4291414475
-0.12183992 -0.041314904 1.3390001 4291414475
-0.12067787 -0.041314904 1.3390001 4291480268
-0.11960509 -0.041345757 1.34 4291546060
-0.11853056 -0.041376613 1.3410001 4291546060
-0.11745428 -0.041407466 1.342 4291611854
-0.11646295 -0.041469179 1.3440001 4291743440
-0.11538234 -0.041500032 1.345 4291743440
-0.11430001 -0.041530889 1.3460001 4291743441
-0.11355213 -0.041685164 1.3510001 4291743186
-0.11262921 -0.04177773 1.3540001 4291677650
-0.11161877 -0.041839436 1.3560001 4291743186
-0.11109355 -0.042086281 1.3640001 4291612114
-0.11007096 -0.042147987 1.3660001 4291612114
-0.10904489 -0.0422097 1.368 4292138715
-0.13358283 -0.040550832 1.3520001 4291546834
-0.13211569 -0.040460851 1.3490001 4291612113
-0.13075082 -0.040400863 1.3470001 4291611856
-0.12910081 -0.040250897 1.342 4291611600
-0.12774551 -0.040190909 1.34 4291611856
-0.12639366 -0.040130924 1.3380001 4291677648
-0.12532607 -0.040160917 1.3390001 4291677391
-0.12416402 -0.040160917 1.3390001 4291611854
-0.12300197 -0.040160917 1.3390001 4291546061
-0.12193092 -0.040190909 1.34 4291611854
-0.120768 -0.040190909 1.34 4291611854
-0.11987286 -0.04028089 1.3430001 4291677646
-0.11870734 -0.04028089 1.3430001 4291743439
-0.11762933 -0.040310886 1.3440001 4291808977
-0.1167229 -0.040400863 1.3470001 4291874513
-0.11563969 -0.040430859 1.348 4291874257
-0.11455476 -0.040460851 1.3490001 4291808465
-0.11380427 -0.040610816 1.3540001 4291677136
-0.1127124 -0.040640809 1.355 4291545807
-0.11170109 -0.040700793 1.3570001 4291611343
-0.11109355 -0.040910751 1.3640001 4291611600
-0.10999037 -0.040940743 1.365 4291677650
-0.10904489 -0.041030724 1.368 4292204251
-0.13348402 -0.039356511 1.3510001 4291546578
-0.13201775 -0.03926912 1.348 4291612113
-0.13065375 -0.039210852 1.3460001 4291611856
-0.12919703 -0.039123461 1.3430001 4291611600
-0.12784085 -0.039065197 1.3410001 4291677393
-0.12648812 -0.039006934 1.3390001 4291677393
-0.12532607 -0.039006934 1.3390001 4291677392
-0.12416402 -0.039006934 1.3390001 4291677647
-0.12309384 -0.039036065 1.34 4291743440
-0.12202191 -0.039065197 1.3410001 4291743440
-0.12085813 -0.039065197 1.3410001 4291743440
-0.11987286 -0.039123461 1.3430001 4291743440
-0.11879572 -0.039152592 1.3440001 4291743184
-0.11771685 -0.039181724 1.345 4291742927
-0.11680955 -0.03926912 1.348 4291742670
-0.11572549 -0.039298248 1.3490001 4291807950
-0.11463968 -0.039327379 1.35 4291611086
-0.11380427 -0.039443906 1.3540001 4291545550
-0.11287876 -0.039531298 1.3570001 4291545550
-0.11186571 -0.039589562 1.3590001 4291545550
-0.11031269 -0.039880875 1.3690001 4291545808
-0.10936374 -0.039968271 1.3720001 4292006616
-0.10848843 -0.040084794 1.376 4292993767
-0.12948564 -0.038050838 1.3460001 4291545807
-0.12822217 -0.038022567 1.345 4291611087
-0.12677151 -0.03793776 1.342 4291611086
-0.12560686 -0.03793776 1.342 4291611085
-0.1244422 -0.03793776 1.342 4291676877
-0.12336943 -0.037966028 1.3430001 4291742670
-0.12229489 -0.037994299 1.3440001 4291742670
-0.1211285 -0.037994299 1.3440001 4291742670
-0.12014063 -0.038050838 1.3460001 4291676878
-0.11906089 -0.038079105 1.3470001 4291676620
-0.11797941 -0.038107377 1.348 4291610827
-0.11706952 -0.038192187 1.3510001 4291610570
-0.11598285 -0.038220454 1.3520001 4291610314
-0.11489443 -0.038248722 1.353 4291544779
-0.11414049 -0.038390074 1.358 4291545293
-0.11312831 -0.038446609 1.36 4291676623
-0.11211266 -0.038503151 1.3620001 4291676623
-0.11039328 -0.038729306 1.3700001 4291413965
-0.10936374 -0.038785845 1.3720001 4291743187
-0.10840958 -0.038870655 1.3750001 4292927717
-0.12958182 -0.036918227 1.3470001 4291545550
-0.12831751 -0.03689082 1.3460001 4291479500
-0.12686598 -0.036808595 1.3430001 4291413707
-0.12570047 -0.036808595 1.3430001 4291413706
-0.12453494 -0.036808595 1.3430001 4291479498
-0.12346128 -0.036836006 1.3440001 4291545035
-0.12229489 -0.036836006 1.3440001 4291545035
-0.12121862 -0.036863413 1.345 4291479499
-0.12022988 -0.036918227 1.3470001 4291479498
-0.11914928 -0.036945637 1.348 4291479242
-0.11806694 -0.036973044 1.3490001 4291544522
-0.11715618 -0.037055269 1.3520001 4291544523
-0.11606863 -0.037082672 1.353 4291610059
-0.11497934 -0.037110083 1.3540001 4291544780
-0.11422453 -0.037247121 1.3590001 4291676366
-0.11321149 -0.037301939 1.3610001 4291742160
-0.11219498 -0.037356749 1.363 4291676367
-0.11039328 -0.037548605 1.3700001 4291150794
-0.10936374 -0.037603423 1.3720001 4291479759
-0.10833074 -0.037658237 1.3740001 4292730339
-0.12967803 -0.035783898 1.348 4291610573
-0.12841283 -0.035757348 1.3470001 4291544780
-0.12696044 -0.035677712 1.3440001 4291478987
-0.12579405 -0.035677712 1.3440001 4291413194
-0.12462767 -0.035677712 1.3440001 4291413193
-0.12355313 -0.035704259 1.345 4291413449
-0.12238588 -0.035704259 1.345 4291413448
-0.12130876 -0.035730802 1.3460001 4291413192
-0.12031914 -0.035783898 1.348 4291478473
-0.11923768 -0.035810441 1.3490001 4291544267
-0.11815447 -0.035836987 1.35 4291609804
-0.11724283 -0.035916623 1.353 4291675340
-0.11615441 -0.035943173 1.3540001 4291740876
-0.11506427 -0.035969716 1.355 4291741133
-0.11430859 -0.036102444 1.36 4291806925
-0.11329467 -0.036155537 1.3620001 4291741133
-0.11235961 -0.036235176 1.365 4291609548
-0.11031269 -0.036341358 1.3690001 4291018180
-0.10928404 -0.036394451 1.3710001 4291216073
-0.1082519 -0.036447544 1.373 4292664032
-0.13006283 -0.034724891 1.3520001 4291676110
-0.12879416 -0.034699209 1.3510001 4291676110
-0.12752724 -0.034673523 1.35 4291610060
-0.12616844 -0.034622155 1.348 4291544267
-0.12490585 -0.034596469 1.3470001 4291544267
-0.12382872 -0.034622155 1.348 4291544266
-0.12274986 -0.034647837 1.3490001 4291478473
-0.12157913 -0.034647837 1.3490001 4291543753
-0.12067617 -0.034724891 1.3520001 4291609290
-0.11950284 -0.034724891 1.3520001 4291675083
-0.11841703 -0.034750573 1.353 4291740876
-0.11750279 -0.034827627 1.3560001 4291740876
-0.11641177 -0.034853309 1.3570001 4291740619
-0.11531902 -0.034878995 1.358 4291740619
-0.11456074 -0.035007417 1.363 4291609033
-0.11354422 -0.035058785 1.365 4291477448
-0.11252424 -0.035110153 1.3670001 4291346118
-0.11087675 -0.035341308 1.376 4290754495
-0.10992172 -0.035418361 1.3790001 4290952388
-0.10896149 -0.035495415 1.3820001 4292532189
-0.13015904 -0.033584524 1.353 4291675340
-0.1288895 -0.033559702 1.3520001 4291741133
-0.1276217 -0.033534884 1.3510001 4291675339
-0.12626204 -0.033485238 1.3490001 4291609290
-0.12509131 -0.033485238 1.3490001 4291609290
-0.12392059 -0.033485238 1.3490001 4291674826
-0.12284085 -0.033510059 1.35 4291609290
-0.12166926 -0.033510059 1.35 4291609033
-0.12076543 -0.033584524 1.353 4291608777
-0.11959123 -0.033584524 1.353 4291674313
-0.11850455 -0.033609349 1.3540001 4291739849
-0.11758944 -0.033683814 1.3570001 4291739592
-0.11641177 -0.033683814 1.3570001 4291673799
-0.11531902 -0.033708639 1.358 4291542213
-0.11464479 -0.033857573 1.3640001 4291279042
-0.11354422 -0.033882394 1.365 4291213248
-0.11252424 -0.033932038 1.3670001 4291081919
-0.11087675 -0.034155436 1.376 4290556346
-0.11000144 -0.034254726 1.3800001 4290754239
-0.10904033 -0.034329191 1.383 4292268504
-0.13025522 -0.032442439 1.3540001 4291477192
-0.12898482 -0.032418475 1.353 4291542984
-0.12771617 -0.032394517 1.3520001 4291542984
-0.12635563 -0.032346595 1.35 4291542984
-0.12518404 -0.032346595 1.35 4291542727
-0.12401245 -0.032346595 1.35 4291542727
-0.12293184 -0.032370556 1.3510001 4291542727
-0.12184951 -0.032394517 1.3520001 4291476678
-0.12085468 -0.032442439 1.3540001 4291476421
-0.11967961 -0.032442439 1.3540001 4291476164
-0.11859208 -0.032466397 1.355 4291410371
-0.11758944 -0.032514315 1.3570001 4291409857
-0.11649756 -0.03253828 1.358 4291409601
-0.11540394 -0.032562237 1.3590001 4291146941
-0.11464479 -0.032682043 1.3640001 4290817976
-0.1136274 -0.032729961 1.3660001 4290752184
-0.11141933 -0.032777883 1.368 4290620855
-0.11087675 -0.032969564 1.376 4290358453
-0.11000144 -0.033065408 1.3800001 4290556346
-0.10904033 -0.033137288 1.383 4292004818
-0.13397646 -0.031598907 1.368 4291081921
-0.13249804 -0.031529609 1.365 4291213250
-0.13054383 -0.03134482 1.3570001 4291278786
-0.12927082 -0.031321723 1.3560001 4291278786
-0.12799956 -0.031298626 1.355 4291344322
-0.12663643 -0.031252425 1.353 4291410114
-0.12546223 -0.031252425 1.353 4291410114
-0.12428803 -0.031252425 1.353 4291344321
-0.12311383 -0.031252425 1.353 4291278272
-0.12202975 -0.031275526 1.3540001 4291278015
-0.12085468 -0.031275526 1.3540001 4291211965
-0.11985639 -0.031321723 1.3560001 4291145915
-0.11876711 -0.03134482 1.3570001 4291014330
-0.11776275 -0.031391017 1.3590001 4291079353
-0.11666914 -0.031414118 1.36 4291144632
-0.11548886 -0.031414118 1.36 4291078582
-0.11354422 -0.031529609 1.365 4290881460
-0.11252424 -0.03157581 1.3670001 4290815924
-0.11150078 -0.031622004 1.3690001 4290750388
-0.1110379 -0.031829894 1.378 4290685365
-0.11008114 -0.031899188 1.381 4290686136
-0.10911918 -0.031968486 1.3840001 4291937486
-0.13397646 -0.030419929 1.368 4290949821
-0.13249804 -0.030353218 1.365 4291015357
-0.13054383 -0.030175323 1.3570001 4291015101
-0.12927082 -0.030153086 1.3560001 4291014843
-0.12799956 -0.030130852 1.355 4291014586
-0.12673002 -0.030108616 1.3540001 4291080379
-0.12546223 -0.030086376 1.353 4291014586
-0.12428803 -0.030086376 1.353 4290948793
-0.12320482 -0.030108616 1.3540001 4290883000
-0.12202975 -0.030108616 1.3540001 4290816951
-0.12094395 -0.030130852 1.355 4290750901
-0.11985639 -0.030153086 1.3560001 4290619059
-0.11876711 -0.030175323 1.3570001 4290553009
-0.11776275 -0.030219797 1.3590001 4290552752
-0.11666914 -0.030242033 1.36 4290683568
-0.11548886 -0.030242033 1.36 4290814640
-0.11472883 -0.030353218 1.365 4290879663
-0.11252424 -0.030397695 1.3670001 4290945970
-0.11150078 -0.030442165 1.3690001 4290815154
-0.1110379 -0.030642297 1.378 4290750131
-0.11008114 -0.030709008 1.381 4290750902
-0.10911918 -0.030775718 1.3840001 4291344835
-0.13397646 -0.029240953 1.368 4290883002
-0.13249804 -0.029176828 1.365 4290948281
-0.13064003 -0.029027203 1.358 4290816439
-0.12936616 -0.029005826 1.3570001 4290816181
-0.12809402 -0.028984452 1.3560001 4290750388
-0.12673002 -0.028941704 1.3540001 4290750131
-0.12555495 -0.028941704 1.3540001 4290750131
-0.12437989 -0.028941704 1.3540001 4290684338
-0.12320482 -0.028941704 1.3540001 4290552752
-0.12211988 -0.028963078 1.355 4290552495
-0.12094395 -0.028963078 1.355 4290551982
-0.11985639 -0.028984452 1.3560001 4290485932
-0.11876711 -0.029005826 1.3570001 4290420139
-0.11776275 -0.029048577 1.3590001 4290485419
-0.11666914 -0.029069951 1.36 4290550956
-0.11557378 -0.029091328 1.3610001 4290616747
-0.11472883 -0.029176828 1.365 4290747819
-0.11252424 -0.029219579 1.3670001 4290748333
-0.11158223 -0.029283701 1.3700001 4290879919
-0.1110379 -0.029454703 1.378 4290880176
-0.11016086 -0.029540202 1.3820001 4290880689
-0.10911918 -0.029582953 1.3840001 4291079095
-0.13102482 -0.027938897 1.3620001 4290684339
-0.1297475 -0.027918383 1.3610001 4290684083
-0.1284719 -0.02789787 1.36 4290683826
-0.12710442 -0.027856845 1.358 4290552239
-0.12592588 -0.027856845 1.358 4290552238
-0.12465547 -0.02783633 1.3570001 4290486445
-0.1235688 -0.027856845 1.358 4290420396
-0.12239026 -0.027856845 1.358 4290419883
-0.12121172 -0.027856845 1.358 4290419626
-0.12012157 -0.027877357 1.3590001 4290353833
-0.11894216 -0.027877357 1.3590001 4290287783
-0.11784942 -0.02789787 1.36 4290287782
-0.11684071 -0.027938897 1.3620001 4290419111
-0.11574362 -0.02795941 1.363 4290484647
-0.11464479 -0.027979922 1.3640001 4290550183
-0.11387695 -0.028082488 1.3690001 4290616233
-0.1128535 -0.028123515 1.3710001 4290682026
-0.11182657 -0.028164541 1.373 4290813869
-0.10971151 -0.028861988 1.4070001 4289039255
-0.10864466 -0.028903013 1.409 4289698982
-0.10757434 -0.02894404 1.411 4292266964
-0.13121724 -0.026804393 1.3640001 4290683055
-0.12993816 -0.026784742 1.363 4290682798
-0.12866081 -0.026765091 1.3620001 4290617005
-0.12719801 -0.026706137 1.3590001 4290550956
-0.1260186 -0.026706137 1.3590001 4290550699
-0.12483919 -0.026706137 1.3590001 4290550442
-0.12365979 -0.026706137 1.3590001 4290484393
-0.12248038 -0.026706137 1.3590001 4290549671
-0.12130097 -0.026706137 1.3590001 4290483878
-0.12020996 -0.026725788 1.36 4290417828
-0.11902969 -0.026725788 1.36 4290351778
-0.11793607 -0.026745439 1.3610001 4290351778
-0.1169265 -0.026784742 1.363 4290483362
-0.11574362 -0.026784742 1.363 4290548899
-0.11464479 -0.026804393 1.3640001 4290680227
-0.11396013 -0.0269223 1.3700001 4290877348
-0.11293581 -0.026961604 1.3720001 4290942885
-0.11190802 -0.027000906 1.3740001 4291074214
-0.10955556 -0.027610097 1.4050001 4288172906
-0.10856755 -0.027669052 1.4080001 4286989915
-0.10749809 -0.027708353 1.4100001 4289165449
-0.14083613 -0.026549548 1.4130001 4291077813
-0.13941225 -0.026511969 1.411 4291077300
-0.13799185 -0.02647439 1.409 4291077042
-0.13140965 -0.025666442 1.3660001 4290748077
-0.13003349 -0.025628863 1.3640001 4290616235
-0.12875529 -0.025610074 1.363 4290484649
-0.12729162 -0.025553705 1.36 4290484135
-0.12611134 -0.025553705 1.36 4290483879
-0.12493107 -0.025553705 1.36 4290483623
-0.12375079 -0.025553705 1.36 4290483366
-0.12257051 -0.025553705 1.36 4290548900
-0.12139024 -0.025553705 1.36 4290482850
-0.12029835 -0.025572494 1.3610001 4290351263
-0.11911721 -0.025572494 1.3610001 4290351006
-0.11793607 -0.025572494 1.3610001 4290416799
-0.1169265 -0.025610074 1.363 4290482848
-0.11582854 -0.025628863 1.3640001 4290548128
-0.1148129 -0.025666442 1.3660001 4290679457
-0.11404331 -0.02576039 1.3710001 4290745505
-0.11310044 -0.025816757 1.3740001 4290942370
-0.11207091 -0.025854336 1.376 4291336358
-0.10947758 -0.026380444 1.404 4287511126
-0.10849044 -0.026436811 1.4070001 4286328135
-0.10749809 -0.026493179 1.4100001 4286399319
-0.10557229 -0.026624706 1.4170001 4292331472
-0.10441618 -0.026643496 1.4180001 4294111220
-0.10340388 -0.026699865 1.4210001 4294374906
-0.14073646 -0.025313862 1.4120001 4291732661
-0.13931346 -0.025278006 1.4100001 4291536052
-0.13789392 -0.025242152 1.4080001 4291338673
-0.13169824 -0.024542972 1.3690001 4290878635
-0.13051015 -0.024542972 1.3690001 4290812843
-0.12932207 -0.024542972 1.3690001 4290746793
-0.12794678 -0.024507117 1.3670001 4290614694
-0.12666771 -0.024489189 1.3660001 4290548644
-0.12548223 -0.024489189 1.3660001 4290548387
-0.12420575 -0.024471262 1.365 4290613667
-0.12302113 -0.024471262 1.365 4290679202
-0.12183652 -0.024471262 1.365 4290613151
-0.1207403 -0.024489189 1.3660001 4290481565
-0.11955482 -0.024489189 1.3660001 4290481564
-0.11836934 -0.024489189 1.3660001 4290481820
-0.11752699 -0.0245609 1.3700001 4290416283
-0.11642296 -0.024578827 1.3710001 4290547099
-0.11540124 -0.024614682 1.373 4290744220
-0.11529105 -0.024847742 1.386 4291203744
-0.11417054 -0.02486567 1.3870001 4291597732
-0.11296683 -0.02486567 1.3870001 4291990436
-0.11216601 -0.024955308 1.3920001 4292119198
-0.11111739 -0.024991162 1.3940001 4291062660
-0.1100653 -0.02502702 1.396 4289151840
-0.10955556 -0.025188368 1.4050001 4288162893
-0.10856755 -0.025242152 1.4080001 4287768648
-0.10749809 -0.025278006 1.4100001 4287245386
-0.10557229 -0.0254035 1.4170001 4290019731
-0.10448983 -0.025439356 1.419 4293578200
-0.10347665 -0.025493139 1.4220001 4294700789
-0.14073646 -0.024096964 1.4120001 4291336363
-0.13931346 -0.024062833 1.4100001 4291600561
-0.13779598 -0.024011634 1.4070001 4291469488
-0.13189062 -0.023397265 1.3710001 4291206573
-0.13060549 -0.023380199 1.3700001 4291074987
-0.12941653 -0.023380199 1.3700001 4290877608
-0.12813398 -0.023363134 1.3690001 4290679973
-0.12685315 -0.023346068 1.368 4290613923
-0.12566595 -0.023346068 1.368 4290547617
-0.12429675 -0.023311935 1.3660001 4290481824
-0.12311126 -0.023311935 1.3660001 4290612895
-0.12183652 -0.02329487 1.365 4290547101
-0.12082869 -0.023329001 1.3670001 4290415514
-0.11964234 -0.023329001 1.3670001 4290415770
-0.11854263 -0.023346068 1.368 4290415769
-0.11769857 -0.023414331 1.3720001 4290284183
-0.11659279 -0.023431398 1.373 4290481048
-0.11556935 -0.023465529 1.3750001 4290875291
-0.11537424 -0.023670318 1.3870001 4291269279
-0.11425284 -0.023687385 1.388 4291596448
-0.11304827 -0.023687385 1.388 4291330709
-0.11232717 -0.023789778 1.3940001 4290406783
-0.11135652 -0.023840977 1.3970001 4289284195
-0.11038066 -0.023892174 1.4000001 4288491599
-0.10963354 -0.023994571 1.406 4288555853
-0.10856755 -0.024028702 1.4080001 4288687697
-0.10757434 -0.024079898 1.411 4288163407
-0.1056468 -0.024199359 1.4180001 4287187809
-0.10456346 -0.02423349 1.4200001 4289825946
-0.10354941 -0.024284689 1.4230001 4293120474
-0.14625363 -0.02317174 1.4300001 4286128705
-0.14470838 -0.023123128 1.427 4286785865
-0.14316835 -0.023074515 1.424 4288365665
-0.14153384 -0.023009699 1.4200001 4289880957
-0.14030148 -0.023009699 1.4200001 4290804113
-0.13906914 -0.023009699 1.4200001 4291595169
-0.13198684 -0.022231907 1.3720001 4291597992
-0.13079615 -0.022231907 1.3720001 4291401639
-0.12960546 -0.022231907 1.3720001 4291270310
-0.12832117 -0.022215702 1.3710001 4291072931
-0.12703863 -0.022199498 1.3700001 4290809503
-0.12584966 -0.022199498 1.3700001 4290611610
-0.12438773 -0.022150887 1.3670001 4290611097
-0.12320139 -0.022150887 1.3670001 4290808475
-0.12201504 -0.022150887 1.3670001 4290874012
-0.12091707 -0.02216709 1.368 4290808218
-0.11981738 -0.022183293 1.3690001 4290939033
-0.11871595 -0.022199498 1.3700001 4291004313
-0.11787014 -0.022264315 1.3740001 4291069078
-0.11676264 -0.022280518 1.3750001 4291330966
-0.11573744 -0.022312926 1.3770001 4291658133
-0.11587334 -0.022572191 1.393 4291392395
-0.11474673 -0.022588395 1.3940001 4290863485
-0.11369985 -0.022620803 1.396 4290071658
-0.11297181 -0.022718027 1.4020001 4289346395
-0.1119145 -0.022750435 1.404 4289212754
-0.11077488 -0.022766639 1.4050001 4289080398
-0.10879888 -0.022863863 1.411 4289278036
-0.10765058 -0.022880066 1.4120001 4289212502
-0.10650054 -0.022896271 1.4130001 4288491089
-0.10587031 -0.023025904 1.4210001 4287837010
-0.10478437 -0.023058312 1.4230001 4288302694
-0.10376772 -0.023106923 1.4260001 4290611613
-0.10324918 -0.023268964 1.4360001 4293051601
-0.10221604 -0.023317575 1.439 4294305776
-0.1011777 -0.023366189 1.442 4294374136
-0.14625363 -0.021939328 1.4300001 4287306305
-0.14480978 -0.021908645 1.4280001 4287569732
-0.14326888 -0.021862619 1.4250001 4287768650
-0.1416335 -0.02180125 1.4210001 4288033875
-0.14040029 -0.02180125 1.4210001 4288563041
-0.13926502 -0.021816593 1.4220001 4289355123
-0.12897636 -0.021141537 1.378 4290808730
-0.12768772 -0.021126194 1.3770001 4290545559
-0.12658456 -0.021141537 1.378 4290479253
-0.12529767 -0.021126194 1.3770001 4290479252
-0.12410264 -0.021126194 1.3770001 4290676117
-0.12290761 -0.021126194 1.3770001 4290676117
-0.12180097 -0.021141537 1.378 4290412431
-0.12060508 -0.021141537 1.378 4290214795
-0.11949583 -0.021156877 1.3790001 4290082183
-0.11847065 -0.021187562 1.381 4289883264
-0.11735706 -0.021202903 1.3820001 4289815673
-0.1161577 -0.021202903 1.3820001 4289484654
-0.11603971 -0.021402353 1.3950001 4289086303
-0.11499368 -0.021433037 1.3970001 4288951637
-0.11386275 -0.021448379 1.3980001 4288949583
-0.11313296 -0.021540433 1.404 4289145934
-0.11199421 -0.021555774 1.4050001 4289342286
-0.11093257 -0.021586459 1.4070001 4289539151
-0.10887598 -0.021663168 1.4120001 4289670998
-0.10772681 -0.021678513 1.4130001 4289605462
-0.10665129 -0.021709196 1.4150001 4289278293
-0.10594481 -0.021816593 1.4220001 4288491859
-0.104858 -0.021847276 1.424 4287839576
-0.10376772 -0.021877961 1.4260001 4287912815
-0.10324918 -0.022031382 1.4360001 4289563802
-0.10221604 -0.02207741 1.439 4292528851
-0.1011777 -0.022123436 1.442 4294045170
-0.14625363 -0.020706918 1.4300001 4288356168
-0.14480978 -0.020677958 1.4280001 4288487753
-0.14336942 -0.020648997 1.4260001 4288357193
-0.14173318 -0.020591076 1.4220001 4288095047
-0.1404991 -0.020591076 1.4220001 4288096073
-0.13926502 -0.020591076 1.4220001 4288557649
-0.12906994 -0.01996842 1.3790001 4290141302
-0.12787318 -0.01996842 1.3790001 4290273145
-0.12676828 -0.0199829 1.3800001 4290338682
-0.12557064 -0.0199829 1.3800001 4290470268
-0.12428289 -0.01996842 1.3790001 4290601340
-0.12308612 -0.01996842 1.3790001 4290403704
-0.12197775 -0.0199829 1.3800001 4289876334
-0.12078012 -0.0199829 1.3800001 4289546855
-0.1197558 -0.020011861 1.3820001 4289348706
-0.11864221 -0.020026343 1.383 4289084507
-0.11744197 -0.020026343 1.383 4288820564
-0.11624174 -0.020026343 1.383 4288621389
-0.11620606 -0.020229068 1.3970001 4288554056
-0.11515831 -0.020258028 1.399 4288947274
-0.11410709 -0.020286988 1.401 4289210188
-0.11207393 -0.020359391 1.406 4289538382
-0.11093257 -0.02037387 1.4070001 4289735503
-0.10986746 -0.020402832 1.409 4289735763
-0.10903019 -0.020475235 1.414 4289867862
-0.1078793 -0.020489713 1.4150001 4289670485
-0.10672667 -0.020504195 1.416 4289539925
-0.10594481 -0.020591076 1.4220001 4289409623
-0.10493165 -0.020634517 1.4250001 4288886102
-0.10384049 -0.020663479 1.427 4288429661
-0.10324918 -0.020793801 1.4360001 4288237673
-0.10221604 -0.020837242 1.439 4290283932
-0.1011777 -0.020880684 1.442 4293645023
-0.14956775 -0.019583456 1.4380001 4287832135
-0.14811352 -0.019556221 1.4360001 4288618570
-0.1463559 -0.019488128 1.4310001 4289011787
-0.1450126 -0.019474508 1.4300001 4289077835
-0.14367104 -0.01946089 1.429 4289012041
-0.14213187 -0.019420035 1.4260001 4288880968
-0.14089431 -0.019420035 1.4260001 4289013066
-0.13955882 -0.019406416 1.4250001 4289211214
-0.13803093 -0.019365562 1.4220001 4289278034
-0.13660444 -0.019338323 1.4200001 4289081425
-0.13422811 -0.019174902 1.4080001 4289016146
-0.13281725 -0.019147664 1.406 4288950867
-0.13140987 -0.019120429 1.404 4288820308
-0.12944958 -0.019011479 1.396 4288820821
-0.12796247 -0.018970624 1.393 4288952664
-0.12657157 -0.018943386 1.391 4289215836
-0.12482364 -0.018861676 1.3850001 4289281372
-0.12353241 -0.018848056 1.3840001 4288952151
-0.12233131 -0.018848056 1.3840001 4288819538
-0.12121773 -0.018861676 1.3850001 4288818768
-0.12010241 -0.018875293 1.386 4288818511
-0.1193285 -0.018943386 1.391 4288817484
-0.11837608 -0.018984241 1.3940001 4288882763
-0.1173344 -0.019011479 1.396 4289078858
-0.11540525 -0.019093189 1.4020001 4289274699
-0.11435143 -0.019120429 1.404 4289472076
-0.11321354 -0.019134045 1.4050001 4289669454
-0.11231306 -0.019188521 1.409 4289735759
-0.11124794 -0.019215757 1.411 4289670222
-0.11010139 -0.019229375 1.4120001 4289735762
-0.10926152 -0.019297468 1.4170001 4289735763
-0.10810802 -0.019311087 1.4180001 4289867093
-0.10695278 -0.019324705 1.419 4289736020
-0.10616833 -0.019406416 1.4250001 4289605974
-0.10507891 -0.019433655 1.427 4289279320
-0.10398602 -0.01946089 1.429 4288428121
-0.10324918 -0.019556221 1.4360001 4287380824
-0.10214502 -0.019583456 1.4380001 4287518828
-0.10103738 -0.019610696 1.4400001 4290617517
-0.10013415 -0.019678788 1.4450001 4294109423
-0.098948538 -0.019692406 1.4460001 4294375162
-0.097761191 -0.019706024 1.447 4293849589
-0.14967178 -0.01835691 1.439 4288356680
-0.14821665 -0.018331397 1.437 4288946763
-0.1463559 -0.018254856 1.4310001 4289077578
-0.1450126 -0.018242098 1.4300001 4289208906
-0.14377157 -0.018242098 1.4300001 4289077576
-0.14223154 -0.01820383 1.427 4289078089
-0.14099312 -0.01820383 1.427 4289407052
-0.13965675 -0.018191073 1.4260001 4289604687
-0.138128 -0.018152801 1.4230001 4289605200
-0.13679685 -0.018140046 1.4220001 4289408080
-0.13413279 -0.017948695 1.4070001 4289342800
-0.13281725 -0.017935939 1.406 4289277264
-0.13140987 -0.017910425 1.404 4288751947
-0.12954231 -0.017821128 1.3970001 4288555082
-0.1281462 -0.017795615 1.3950001 4288818767
-0.12666255 -0.017757343 1.3920001 4289016404
-0.12491376 -0.017680805 1.386 4288949840
-0.12362167 -0.017668048 1.3850001 4288620619
-0.1224197 -0.017668048 1.3850001 4288816971
-0.12130524 -0.017680805 1.386 4289079630
-0.12010241 -0.017680805 1.386 4289276752
-0.11941428 -0.017757343 1.3920001 4289342032
-0.11837608 -0.017782856 1.3940001 4289472846
-0.11741845 -0.017821128 1.3970001 4289604174
-0.11548756 -0.017897667 1.4030001 4289668942
-0.11435143 -0.017910425 1.404 4289668941
-0.11321354 -0.01792318 1.4050001 4289734990
-0.11239277 -0.017986964 1.4100001 4289998160
-0.11124794 -0.017999722 1.411 4289998160
-0.11017936 -0.018025234 1.4130001 4289932626
-0.10933863 -0.018089019 1.4180001 4289932627
-0.10818426 -0.018101776 1.419 4289801299
-0.10702815 -0.018114531 1.4200001 4289670226
-0.10616833 -0.018178314 1.4250001 4289604947
-0.10507891 -0.01820383 1.427 4289540437
-0.10398602 -0.018229343 1.429 4289213271
-0.10324918 -0.01831864 1.4360001 4288295251
-0.10214502 -0.018344153 1.4380001 4287642200
-0.10096721 -0.01835691 1.439 4288701306
-0.10013415 -0.01843345 1.4450001 4292326082
-0.098948538 -0.018446207 1.4460001 4294305263
-0.097761191 -0.018458964 1.447 4294505466
-0.14977579 -0.017128639 1.4400001 4289013068
-0.1483198 -0.017104847 1.4380001 4289275470
-0.14645816 -0.01703348 1.432 4289275211
-0.145114 -0.017021583 1.4310001 4289208905
-0.14377157 -0.017009689 1.4300001 4289208903
-0.14233121 -0.016985899 1.4280001 4289472074
-0.14109193 -0.016985899 1.4280001 4289669453
-0.13985263 -0.016985899 1.4280001 4289801294
-0.13832214 -0.016950214 1.4250001 4289670222
-0.13689305 -0.016926425 1.4230001 4289604430
-0.13413279 -0.016736105 1.4070001 4289604688
-0.1327228 -0.016712317 1.4050001 4289539152
-0.13140987 -0.016700422 1.404 4289342542
-0.12972777 -0.016640948 1.399 4289277264
-0.12823805 -0.016605264 1.396 4289475157
-0.12675355 -0.016569579 1.393 4289541207
-0.12491376 -0.016486315 1.386 4289409108
-0.12371092 -0.016486315 1.386 4289210959
-0.1224197 -0.016474418 1.3850001 4289145166
-0.12130524 -0.016486315 1.386 4289276496
-0.12018907 -0.016498208 1.3870001 4289604690
-0.11941428 -0.016557682 1.3920001 4289736019
-0.11846101 -0.016593367 1.3950001 4289801297
-0.1175025 -0.016629053 1.3980001 4289932369
-0.11556989 -0.016700422 1.404 4289800527
-0.11443287 -0.016712317 1.4050001 4289734989
-0.11329412 -0.016724212 1.406 4289866831
-0.11239277 -0.016771792 1.4100001 4290063952
-0.11132679 -0.016795579 1.4120001 4290063952
-0.11025734 -0.016819371 1.414 4289998162
-0.10933863 -0.01686695 1.4180001 4290063699
-0.10818426 -0.016878845 1.419 4289932628
-0.10702815 -0.01689074 1.4200001 4289735763
-0.10616833 -0.016950214 1.4250001 4289736019
-0.10507891 -0.016974006 1.427 4289408081
-0.10398602 -0.016997794 1.429 4289212244
-0.10317728 -0.017069163 1.4350001 4288885847
-0.10207397 -0.017092954 1.437 4287903061
-0.10096721 -0.017116742 1.439 4287119706
-0.10006486 -0.017176218 1.4440001 4288903562
-0.098948538 -0.017200006 1.4460001 4292396237
-0.097828761 -0.017223796 1.4480001 4294175730
-0.14998381 -0.015909676 1.442 4289473105
-0.14852607 -0.015887611 1.4400001 4289538128
-0.14707182 -0.015865542 1.4380001 4289472333
-0.14541823 -0.015821412 1.434 4289208903
-0.14417374 -0.015821412 1.434 4289274438
-0.14272989 -0.015799345 1.432 4289603402
-0.14148714 -0.015799345 1.432 4289800782
-0.14024436 -0.015799345 1.432 4289735758
-0.13871041 -0.015766246 1.429 4289670222
-0.13737406 -0.015755212 1.4280001 4289670479
-0.13603944 -0.015744179 1.427 4289604687
-0.13395083 -0.015644882 1.4180001 4289473359
-0.13206504 -0.015567651 1.411 4289539665
-0.13000594 -0.015468352 1.4020001 4289869143
-0.1286055 -0.015446287 1.4000001 4290198110
-0.12602562 -0.015280791 1.3850001 4290066781
-0.12473352 -0.015269757 1.3840001 4289868632
-0.12344315 -0.015258726 1.383 4289604947
-0.12233131 -0.015269757 1.3840001 4289342289
-0.12113021 -0.015269757 1.3840001 4289342545
