# .PCD v0.7 - Point Cloud Data file format
VERSION 0.7
FIELDS x y z rgba
SIZE 4 4 4 4
TYPE F F F U
COUNT 1 1 1 1
WIDTH 1072
HEIGHT 1
VIEWPOINT 0 0 0 1 0 0 0
POINTS 1072
DATA ascii
-0.10080801 -0.052859101 1.3690001 4292007386
-0.099765465 -0.052936327 1.3710001 4292138972
-0.098791346 -0.053052161 1.3740001 4292336351
-0.11967961 -0.051113021 1.3540001 4291348941
-0.11841703 -0.051075269 1.353 4291414733
-0.11698287 -0.05096202 1.35 4291348940
-0.11581127 -0.05096202 1.35 4291414475
-0.11463968 -0.05096202 1.35 4291348682
-0.11338402 -0.050924271 1.3490001 4291283146
-0.11229648 -0.05096202 1.35 4291348939
-0.11112489 -0.05096202 1.35 4291283146
-0.10995329 -0.05096202 1.35 4291283146
-0.1087817 -0.05096202 1.35 4291283146
-0.10768981 -0.050999772 1.3510001 4291283147
-0.10675388 -0.051113021 1.3540001 4291283148
-0.10557881 -0.051113021 1.3540001 4291348941
-0.10448085 -0.051150769 1.355 4291480527
-0.10368611 -0.051339515 1.36 4291612113
-0.10258121 -0.051377267 1.3610001 4291743700
-0.10154907 -0.051452763 1.363 4291941336
-0.10088165 -0.051717013 1.3700001 4291941593
-0.099838227 -0.051792514 1.3720001 4291744214
-0.098791346 -0.051868014 1.3740001 4291744214
-0.11967961 -0.049946111 1.3540001 4291414478
-0.11832951 -0.049872331 1.3520001 4291480269
-0.11689622 -0.049761668 1.3490001 4291414476
-0.11572549 -0.049761668 1.3490001 4291480268
-0.11455476 -0.049761668 1.3490001 4291348939
-0.11338402 -0.049761668 1.3490001 4291348682
-0.11213012 -0.04972478 1.348 4291348682
-0.11096026 -0.04972478 1.348 4291348682
-0.10995329 -0.049798556 1.35 4291348939
-0.1087817 -0.049798556 1.35 4291480268
-0.10768981 -0.049835443 1.3510001 4291480525
-0.10675388 -0.049946111 1.3540001 4291546062
-0.10565679 -0.049982995 1.355 4291546063
-0.10448085 -0.049982995 1.355 4291677393
-0.10368611 -0.050167434 1.36 4291743443
-0.10265657 -0.05024121 1.3620001 4291875029
-0.10154907 -0.050278097 1.363 4291875286
-0.10088165 -0.050536312 1.3700001 4291809493
-0.099838227 -0.050610088 1.3720001 4291612371
-0.098791346 -0.050683863 1.3740001 4291481042
-0.11985639 -0.048851248 1.3560001 4291611600
-0.11841703 -0.04874317 1.353 4291611600
-0.11698287 -0.048635092 1.35 4291611599
-0.11581127 -0.048635092 1.35 4291546061
-0.11455476 -0.048599064 1.3490001 4291480268
-0.11329998 -0.048563041 1.348 4291480268
-0.1122133 -0.048599064 1.3490001 4291480268
-0.11104257 -0.048599064 1.3490001 4291480268
-0.10995329 -0.048635092 1.35 4291546061
-0.10886227 -0.048671119 1.3510001 4291677647
-0.10776953 -0.048707142 1.3520001 4291677647
-0.10683272 -0.048815224 1.355 4291677647
-0.10573476 -0.048851248 1.3560001 4291677392
-0.10463506 -0.048887271 1.3570001 4291743186
-0.10376235 -0.049031381 1.3610001 4291808979
-0.10280732 -0.049139459 1.3640001 4291808979
-0.10177258 -0.049211506 1.3660001 4291743443
-0.10102892 -0.049427662 1.3720001 4291677907
-0.10005654 -0.049535744 1.3750001 4291546578
-0.099007048 -0.049607795 1.3770001 4291415249
-0.11976802 -0.04764745 1.355 4291743186
-0.11850455 -0.047612287 1.3540001 4291743186
-0.11698287 -0.047471628 1.35 4291808978
-0.11581127 -0.047471628 1.35 4291743183
-0.11463968 -0.047471628 1.35 4291677390
-0.11338402 -0.047436465 1.3490001 4291677390
-0.11229648 -0.047471628 1.35 4291742927
-0.11112489 -0.047471628 1.35 4291743183
-0.11003474 -0.047506794 1.3510001 4291743184
-0.10894286 -0.047541957 1.3520001 4291808720
-0.10784923 -0.04757712 1.353 4291743184
-0.10691156 -0.047682613 1.3560001 4291743183
-0.10581274 -0.047717776 1.3570001 4291677135
-0.10471217 -0.047752943 1.358 4291611600
-0.10391483 -0.047928762 1.363 4291677136
-0.10288269 -0.047999091 1.365 4291677136
-0.10184709 -0.048069421 1.3670001 4291611601
-0.10117619 -0.04831557 1.3740001 4291611858
-0.10005654 -0.048350733 1.3750001 4291546321
-0.099007048 -0.048421063 1.3770001 4291546321
-0.12003318 -0.046582583 1.358 4291677393
-0.11850455 -0.046445373 1.3540001 4291742929
-0.11706952 -0.046342466 1.3510001 4291743185
-0.11589705 -0.046342466 1.3510001 4291742927
-0.11472459 -0.046342466 1.3510001 4291677390
-0.11346808 -0.046308164 1.35 4291677647
-0.11229648 -0.046308164 1.35 4291743184
-0.1112072 -0.046342466 1.3510001 4291743184
-0.11011618 -0.046376768 1.3520001 4291743184
-0.10902343 -0.046411071 1.353 4291677390
-0.10792895 -0.046445373 1.3540001 4291546061
-0.1069904 -0.046548277 1.3570001 4291545805
-0.10589071 -0.046582583 1.358 4291479756
-0.10478927 -0.046616886 1.3590001 4291479757
-0.10399107 -0.046788398 1.3640001 4291545550
-0.10295807 -0.046856999 1.3660001 4291545550
-0.10192159 -0.046925608 1.368 4291546064
-0.10124983 -0.047165722 1.3750001 4291611857
-0.10012931 -0.047200024 1.376 4291480528
-0.099078946 -0.047268629 1.378 4291349456
-0.12029835 -0.045512546 1.3610001 4291545550
-0.11894216 -0.045445666 1.3590001 4291611343
-0.11732948 -0.045278464 1.3540001 4291611085
-0.11615441 -0.045278464 1.3540001 4291610827
-0.11489443 -0.045245022 1.353 4291545291
-0.11372023 -0.045245022 1.353 4291611084
-0.11254603 -0.045245022 1.353 4291611084
-0.11137183 -0.045245022 1.353 4291611084
-0.11036053 -0.045311902 1.355 4291545291
-0.10926516 -0.045345344 1.3560001 4291479498
-0.10816807 -0.045378782 1.3570001 4291479242
-0.10714809 -0.045445666 1.3590001 4291478986
-0.10612464 -0.045512546 1.3610001 4291478987
-0.1050206 -0.045545988 1.3620001 4291544781
-0.10414355 -0.045679748 1.3660001 4291676367
-0.10318418 -0.04578007 1.3690001 4291742160
-0.10214511 -0.04584695 1.3710001 4291742417
-0.1013971 -0.046047594 1.3770001 4291676880
-0.10034761 -0.046114475 1.3790001 4291413966
-0.09929464 -0.046181358 1.381 4291216843
-0.12020996 -0.044307023 1.36 4291610830
-0.11894216 -0.044274446 1.3590001 4291610830
-0.11741614 -0.044144131 1.355 4291610572
-0.11615441 -0.044111554 1.3540001 4291544521
-0.11497934 -0.044111554 1.3540001 4291478985
-0.11372023 -0.044078972 1.353 4291478985
-0.11262921 -0.044111554 1.3540001 4291478985
-0.11145414 -0.044111554 1.3540001 4291478985
-0.11044197 -0.044176709 1.3560001 4291478986
-0.10926516 -0.044176709 1.3560001 4291413194
-0.10816807 -0.044209287 1.3570001 4291478474
-0.10722694 -0.044307023 1.36 4291478474
-0.10612464 -0.044339601 1.3610001 4291610060
-0.1050206 -0.044372179 1.3620001 4291741646
-0.10429602 -0.044567652 1.368 4291807440
-0.10318418 -0.04460023 1.3690001 4291807440
-0.10214511 -0.044665389 1.3710001 4291741904
-0.10154437 -0.044926018 1.3790001 4291544781
-0.10049314 -0.044991177 1.381 4291281866
-0.099438451 -0.045056332 1.383 4290953158
-0.12029835 -0.04316666 1.3610001 4291741902
-0.11902969 -0.043134939 1.36 4291741903
-0.11741614 -0.042976357 1.355 4291676109
-0.1162402 -0.042976357 1.355 4291610059
-0.11497934 -0.04294464 1.3540001 4291544266
-0.11380427 -0.04294464 1.3540001 4291544266
-0.11262921 -0.04294464 1.3540001 4291544523
-0.11145414 -0.04294464 1.3540001 4291610059
-0.11044197 -0.043008074 1.3560001 4291610059
-0.10934575 -0.043039788 1.3570001 4291609803
-0.10824779 -0.043071508 1.358 4291609547
-0.10730578 -0.04316666 1.3610001 4291675083
-0.10620261 -0.043198373 1.3620001 4291740876
-0.1050977 -0.04323009 1.363 4291740877
-0.1044485 -0.043452106 1.3700001 4291806414
-0.1034103 -0.043515544 1.3720001 4291740877
-0.10236862 -0.043578979 1.3740001 4291543755
-0.10161801 -0.043769278 1.3800001 4291346632
-0.10063869 -0.043864425 1.383 4291083717
-0.099582247 -0.043927863 1.3850001 4290755265
-0.1206519 -0.042117134 1.365 4291807182
-0.11937977 -0.042086281 1.3640001 4291807182
-0.11810938 -0.042055421 1.363 4291741389
-0.11658335 -0.041932002 1.3590001 4291675340
-0.11531902 -0.041901149 1.358 4291609803
-0.11405642 -0.041870292 1.3570001 4291544267
-0.11287876 -0.041870292 1.3570001 4291610060
-0.11170109 -0.041870292 1.3570001 4291675853
-0.11068631 -0.041932002 1.3590001 4291675596
-0.10958748 -0.041962858 1.36 4291609290
-0.10848692 -0.041993715 1.3610001 4291609033
-0.10754231 -0.042086281 1.3640001 4291609033
-0.10643654 -0.042117134 1.365 4291608778
-0.10532903 -0.042147987 1.3660001 4291542985
-0.10452475 -0.042302266 1.3710001 4291477192
-0.10348567 -0.042363971 1.373 4291411399
-0.10236862 -0.042394828 1.3740001 4291214276
-0.10176528 -0.04264167 1.3820001 4291017154
-0.10071146 -0.042703379 1.3840001 4290820288
-0.098451309 -0.042765088 1.386 4291478988
-0.1207403 -0.040970735 1.3660001 4291609290
-0.11946729 -0.040940743 1.365 4291674570
-0.11819603 -0.040910751 1.3640001 4291740106
-0.11666914 -0.040790774 1.36 4291740106
-0.11540394 -0.040760782 1.3590001 4291674313
-0.11414049 -0.040730789 1.358 4291608777
-0.11296195 -0.040730789 1.358 4291608777
-0.11178341 -0.040730789 1.358 4291674313
-0.11076776 -0.040790774 1.36 4291674056
-0.10966807 -0.04082077 1.3610001 4291608006
-0.10848692 -0.04082077 1.3610001 4291542213
-0.10762115 -0.040940743 1.365 4291476421
-0.10651451 -0.040970735 1.3660001 4291475908
-0.10540614 -0.041000731 1.3670001 4291410115
-0.10460099 -0.041150693 1.3720001 4291344065
-0.10348567 -0.041180685 1.373 4291212480
-0.10244312 -0.041240674 1.3750001 4291080894
-0.10176528 -0.041450627 1.3820001 4290949821
-0.10071146 -0.041510615 1.3840001 4290687419
-0.098451309 -0.0415706 1.386 4291412169
-0.12091707 -0.039851744 1.368 4291214019
-0.11955482 -0.03979348 1.3660001 4291279555
-0.11828268 -0.039764352 1.365 4291345091
-0.11684071 -0.039676957 1.3620001 4291541957
-0.11548886 -0.039618693 1.36 4291476164
-0.11422453 -0.039589562 1.3590001 4291344835
-0.11304513 -0.039589562 1.3590001 4291410371
-0.11186571 -0.039589562 1.3590001 4291410114
-0.11093065 -0.039676957 1.3620001 4291344321
-0.10982922 -0.039706085 1.363 4291212735
-0.10872605 -0.03973522 1.3640001 4291146942
-0.10769999 -0.03979348 1.3660001 4291081406
-0.10659249 -0.039822616 1.3670001 4291080893
-0.10548324 -0.039851744 1.368 4290949051
-0.10467723 -0.039997399 1.373 4290817208
-0.10363641 -0.040055666 1.3750001 4290751415
-0.10259213 -0.04011393 1.3770001 4290685879
-0.10063869 -0.040288713 1.383 4290423734
-0.099654153 -0.040376108 1.386 4290161332
-0.09866441 -0.040463503 1.3890001 4290951105
-0.12536439 -0.039322969 1.391 4290949820
-0.1239787 -0.039266426 1.3890001 4291015613
-0.12118224 -0.038757578 1.3710001 4291015357
-0.11990491 -0.038729306 1.3700001 4291015356
-0.11854263 -0.038672768 1.368 4291080636
-0.11709806 -0.038587958 1.365 4291146429
-0.11582854 -0.03855969 1.3640001 4291080636
-0.11447668 -0.038503151 1.3620001 4291014587
-0.11329467 -0.038503151 1.3620001 4291080123
-0.11211266 -0.038503151 1.3620001 4291080122
-0.1110121 -0.038531419 1.363 4290948536
-0.10982922 -0.038531419 1.363 4290816951
-0.10872605 -0.03855969 1.3640001 4290816694
-0.10777884 -0.0386445 1.3670001 4290816437
-0.10667046 -0.038672768 1.368 4290881461
-0.10556035 -0.038701035 1.3690001 4290749619
-0.10475347 -0.038842387 1.3740001 4290749362
-0.10363641 -0.038870655 1.3750001 4290814898
-0.10259213 -0.038927194 1.3770001 4290814899
-0.10071146 -0.039125081 1.3840001 4290684339
-0.099726051 -0.039209891 1.3870001 4290487473
-0.09866441 -0.039266426 1.3890001 4290817209
-0.12536439 -0.03812417 1.391 4290817465
-0.12362167 -0.037959721 1.3850001 4290883000
-0.12127064 -0.037603423 1.3720001 4290883000
-0.11990491 -0.037548605 1.3700001 4290817207
-0.1186293 -0.037521198 1.3690001 4290816950
-0.11709806 -0.037411567 1.365 4290751157
-0.11591344 -0.037411567 1.365 4290685108
-0.11447668 -0.037329346 1.3620001 4290619315
-0.11337785 -0.037356749 1.363 4290685108
-0.11219498 -0.037356749 1.363 4290684852
-0.1110121 -0.037356749 1.363 4290553266
-0.1099098 -0.03738416 1.3640001 4290421936
-0.10872605 -0.03738416 1.3640001 4290421423
-0.10777884 -0.037466384 1.3670001 4290486959
-0.10667046 -0.037493791 1.368 4290617775
-0.10556035 -0.037521198 1.3690001 4290617262
-0.10475347 -0.037658237 1.3740001 4290813872
-0.10371178 -0.037713051 1.376 4290879408
-0.10259213 -0.037740462 1.3770001 4290879408
-0.10078422 -0.037959721 1.3850001 4290879921
-0.099726051 -0.038014539 1.3870001 4290749106
-0.098735444 -0.038096763 1.3900001 4290815925
-0.12527427 -0.036898825 1.3900001 4290947510
-0.12344315 -0.036713 1.383 4290946997
-0.12135902 -0.036447544 1.373 4290946996
-0.11999242 -0.036394451 1.3710001 4290881460
-0.11871595 -0.036367904 1.3700001 4290881203
-0.11726964 -0.036288269 1.3670001 4290815154
-0.11591344 -0.036235176 1.365 4290683568
-0.11456074 -0.036182083 1.363 4290683311
-0.11337785 -0.036182083 1.363 4290683311
-0.11219498 -0.036182083 1.363 4290617775
-0.11109355 -0.03620863 1.3640001 4290551982
-0.1099098 -0.03620863 1.3640001 4290485932
-0.10880576 -0.036235176 1.365 4290420139
-0.10777884 -0.036288269 1.3670001 4290419882
-0.10667046 -0.036314815 1.368 4290485419
-0.10556035 -0.036341358 1.3690001 4290616492
-0.10475347 -0.03647409 1.3740001 4290681772
-0.10371178 -0.036527179 1.376 4290747051
-0.10289014 -0.036659911 1.381 4290813101
-0.099283256 -0.037562471 1.4150001 4291010994
-0.098193839 -0.037615564 1.4170001 4291341243
-0.097100958 -0.037668653 1.419 4293382879
-0.12188936 -0.035418361 1.3790001 4290946226
-0.12060508 -0.035392679 1.378 4290946225
-0.11932252 -0.035366993 1.3770001 4290945712
-0.11769857 -0.035238571 1.3720001 4290879918
-0.11642296 -0.035212889 1.3710001 4290748077
-0.11514909 -0.035187203 1.3700001 4290682028
-0.11379377 -0.035135839 1.368 4290616491
-0.11260655 -0.035135839 1.368 4290550955
-0.11141933 -0.035135839 1.368 4290485162
-0.11031269 -0.035161521 1.3690001 4290419369
-0.10912461 -0.035161521 1.3690001 4290353320
-0.10817305 -0.035238571 1.3720001 4290287527
-0.10706034 -0.035264257 1.373 4290353063
-0.10594589 -0.035289943 1.3740001 4290418856
-0.10401327 -0.035444044 1.3800001 4290550185
-0.10296465 -0.035495415 1.3820001 4290681514
-0.10183892 -0.035521097 1.383 4290812842
-0.099283256 -0.03634299 1.4150001 4289693850
-0.098193839 -0.036394358 1.4170001 4287588987
-0.097100958 -0.036445726 1.419 4289761953
-0.12215453 -0.034304373 1.3820001 4290945455
-0.12078012 -0.034254726 1.3800001 4290945197
-0.11949583 -0.034229904 1.3790001 4290944684
-0.11787014 -0.034105796 1.3740001 4290878634
-0.11659279 -0.034080971 1.373 4290746793
-0.1153172 -0.034056149 1.3720001 4290615207
-0.11396013 -0.034006502 1.3700001 4290549157
-0.11277118 -0.034006502 1.3700001 4290483364
-0.11158223 -0.034006502 1.3700001 4290548902
-0.11039328 -0.034006502 1.3700001 4290548646
-0.10928404 -0.034031328 1.3710001 4290482852
-0.10833074 -0.034105796 1.3740001 4290417058
-0.10721629 -0.034130614 1.3750001 4290351265
-0.1061001 -0.034155436 1.376 4290482851
-0.10416402 -0.034304373 1.3820001 4290745509
-0.10311366 -0.034354016 1.3840001 4290942631
-0.10205983 -0.034403659 1.386 4291139496
-0.099213086 -0.035098683 1.414 4289288569
-0.098124549 -0.035148326 1.416 4287182679
-0.096964099 -0.035173152 1.4170001 4287382882
-0.1224197 -0.03318521 1.3850001 4290879147
-0.12104268 -0.033137288 1.383 4290878889
-0.11966915 -0.03308937 1.381 4290943913
-0.1181275 -0.032993529 1.3770001 4290877607
-0.11676264 -0.032945607 1.3750001 4290745765
-0.11548529 -0.032921646 1.3740001 4290614179
-0.1141265 -0.032873724 1.3720001 4290482337
-0.1128535 -0.032849766 1.3710001 4290416544
-0.11166368 -0.032849766 1.3710001 4290547874
-0.11055443 -0.032873724 1.3720001 4290547874
-0.10936374 -0.032873724 1.3720001 4290547873
-0.10721629 -0.032945607 1.3750001 4290482080
-0.1061001 -0.032969564 1.376 4290482337
-0.10505842 -0.033017486 1.378 4290482336
-0.10431477 -0.033161253 1.3840001 4290613921
-0.10326267 -0.033209171 1.386 4291008166
-0.10213347 -0.033233132 1.3870001 4291402154
-0.099072762 -0.03383214 1.4120001 4288232029
-0.098055243 -0.033904023 1.4150001 4287376208
-0.096964099 -0.033951946 1.4170001 4286984017
-0.093084447 -0.034335312 1.4330001 4293978609
-0.13136134 -0.03303102 1.4300001 4290874013
-0.13002931 -0.03300792 1.429 4291929010
-0.12860891 -0.032961726 1.427 4291601328
-0.11847065 -0.031899188 1.381 4290876836
-0.11727215 -0.031899188 1.381 4290810787
-0.11607365 -0.031899188 1.381 4290679201
-0.11479195 -0.031876087 1.3800001 4290482079
-0.11351202 -0.03185299 1.3790001 4290481822
-0.11231525 -0.03185299 1.3790001 4290612895
-0.11111849 -0.03185299 1.3790001 4290612894
-0.10992172 -0.03185299 1.3790001 4290481308
-0.10872496 -0.03185299 1.3790001 4290349979
-0.1078401 -0.031945385 1.383 4290415516
-0.10671697 -0.031968486 1.3840001 4290546845
-0.10566834 -0.032014679 1.386 4290743709
-0.10491773 -0.032153271 1.3920001 4291071904
-0.1037842 -0.032176372 1.393 4291465378
-0.10272256 -0.032222569 1.3950001 4291989412
-0.10202128 -0.032384258 1.4020001 4291853462
-0.10094836 -0.032430455 1.404 4290731131
-0.099871963 -0.032476652 1.406 4289149533
-0.099213086 -0.032661442 1.414 4288621137
-0.098193839 -0.03273074 1.4170001 4288489552
-0.097100958 -0.032776933 1.419 4288359507
-0.095171548 -0.032961726 1.427 4287316060
-0.094130605 -0.03303102 1.4300001 4289953941
-0.093019493 -0.033077218 1.432 4293577690
-0.13126947 -0.031776372 1.429 4289093750
-0.12993832 -0.031754136 1.4280001 4290677144
-0.12851878 -0.03170966 1.4260001 4291205799
-0.11855642 -0.030731244 1.3820001 4291073443
-0.11735706 -0.030731244 1.3820001 4290876065
-0.11624174 -0.03075348 1.383 4290744479
-0.11495832 -0.030731244 1.3820001 4290547101
-0.11375896 -0.030731244 1.3820001 4290481308
-0.11247814 -0.030709008 1.381 4290546844
-0.11127964 -0.030709008 1.381 4290481051
-0.11008114 -0.030709008 1.381 4290283929
-0.10896149 -0.030731244 1.3820001 4290415258
-0.10799605 -0.030797955 1.3850001 4290546586
-0.10687118 -0.030820191 1.386 4290677402
-0.10574459 -0.030842429 1.3870001 4290873754
-0.10499311 -0.030975847 1.393 4291136156
-0.1039332 -0.031020323 1.3950001 4291200408
-0.10286982 -0.031064797 1.3970001 4290605703
-0.10216682 -0.031220455 1.404 4289679725
-0.10109216 -0.031264927 1.406 4288820565
-0.10001403 -0.0313094 1.4080001 4288686670
-0.099283256 -0.031465057 1.4150001 4288948817
-0.098193839 -0.031509534 1.4170001 4289146454
-0.097100958 -0.031554006 1.419 4289016152
-0.096409969 -0.0317319 1.427 4288163925
-0.094130605 -0.031798612 1.4300001 4287713643
-0.093019493 -0.031843081 1.432 4290745768
-0.13126947 -0.030544823 1.429 4288230996
-0.12984733 -0.030502075 1.427 4289351530
-0.12842865 -0.030459324 1.4250001 4290341248
-0.118728 -0.029582953 1.3840001 4291596191
-0.1175269 -0.029582953 1.3840001 4291333022
-0.11640985 -0.029604327 1.3850001 4291135900
-0.11520787 -0.029604327 1.3850001 4291135643
-0.11392359 -0.029582953 1.3840001 4291135386
-0.11272249 -0.029582953 1.3840001 4291134873
-0.11152139 -0.029582953 1.3840001 4291068567
-0.11032028 -0.029582953 1.3840001 4290936981
-0.10904033 -0.029561576 1.383 4291068053
-0.10807402 -0.029625701 1.386 4291263891
-0.1070254 -0.029668452 1.388 4291196044
-0.1059733 -0.029711204 1.3900001 4290996355
-0.10514385 -0.029818077 1.3950001 4290796923
-0.10408221 -0.029860828 1.3970001 4290203501
-0.1030171 -0.029903576 1.399 4289346652
-0.10223959 -0.030031826 1.4050001 4289014863
-0.10116406 -0.030074576 1.4070001 4289144396
-0.10008506 -0.030117325 1.409 4289407055
-0.099353418 -0.03026695 1.416 4289538898
-0.098263137 -0.030309699 1.4180001 4289473620
-0.097169384 -0.030352451 1.4200001 4289408597
-0.096409969 -0.030502075 1.427 4289213016
-0.094064772 -0.030544823 1.429 4287969368
-0.092954539 -0.030587574 1.4310001 4288764274
-0.089093722 -0.030972322 1.4490001 4294177272
-0.087957449 -0.031015074 1.4510001 4293652469
-0.086817697 -0.031057825 1.4530001 4293455348
-0.085733362 -0.031121951 1.4560001 4293521141
-0.13631244 -0.029600462 1.4430001 4288096589
-0.13487294 -0.029559433 1.4410001 4288620622
-0.13334419 -0.029497895 1.4380001 4288620108
-0.1314532 -0.029354302 1.4310001 4288423240
-0.13012031 -0.029333791 1.4300001 4288490829
-0.12878916 -0.029313276 1.429 4288888154
-0.11603971 -0.02861583 1.3950001 4290279305
-0.11482906 -0.02861583 1.3950001 4290279049
-0.11353695 -0.028595317 1.3940001 4290146949
-0.1122466 -0.028574802 1.393 4289949057
-0.11103768 -0.028574802 1.393 4289816701
-0.10982877 -0.028574802 1.393 4289749881
-0.10885378 -0.028636342 1.396 4289419119
-0.10779648 -0.02867737 1.3980001 4289087844
-0.10665946 -0.028697882 1.399 4289084764
-0.1058222 -0.028800448 1.404 4289082197
-0.10475275 -0.028841473 1.406 4288883021
-0.10360619 -0.028861988 1.4070001 4288816201
-0.10274897 -0.028964553 1.4120001 4289275211
-0.10166737 -0.02900558 1.414 4289538126
-0.10058229 -0.029046604 1.416 4289735506
-0.099704243 -0.029149171 1.4210001 4289801557
-0.098609619 -0.029190199 1.4230001 4289801557
-0.097443104 -0.029210711 1.424 4289736277
-0.095371626 -0.029333791 1.4300001 4289279322
-0.094196431 -0.029354302 1.4310001 4288427866
-0.093084447 -0.029395331 1.4330001 4287775327
-0.092225358 -0.029518407 1.439 4288111737
-0.091102973 -0.029559433 1.4410001 4290880947
-0.089977108 -0.029600462 1.4430001 4293911019
-0.089155212 -0.029744053 1.45 4294439674
-0.08801806 -0.029785078 1.452 4293849078
-0.08687745 -0.029826105 1.4540001 4293520883
-0.085792243 -0.029887645 1.457 4293455605
-0.1364069 -0.028376499 1.4440001 4288883281
-0.13487294 -0.028317545 1.4410001 4289211217
-0.13343692 -0.028278241 1.439 4289013581
-0.13163692 -0.028160334 1.4330001 4288684872
-0.1303023 -0.028140683 1.432 4288685641
-0.12905954 -0.028140683 1.432 4288949840
-0.11628925 -0.027472537 1.3980001 4289546084
-0.11499368 -0.027452886 1.3970001 4289546597
-0.11378129 -0.027452886 1.3970001 4289348449
-0.11240775 -0.027413584 1.3950001 4289150813
-0.1111971 -0.027413584 1.3950001 4289150299
-0.1100653 -0.027433235 1.396 4289083479
-0.10908771 -0.02749219 1.399 4288819025
-0.10795069 -0.027511841 1.4000001 4288686412
-0.10688818 -0.027551142 1.4020001 4288685128
-0.10604832 -0.027649399 1.4070001 4288881736
-0.10490175 -0.027669052 1.4080001 4289012552
-0.10375346 -0.027688703 1.409 4289275467
-0.10296727 -0.02780661 1.4150001 4289603662
-0.10181117 -0.027826261 1.416 4289669198
-0.10072435 -0.027865564 1.4180001 4289866320
-0.098609619 -0.027963821 1.4230001 4289998420
-0.097579956 -0.028022775 1.4260001 4289867604
-0.096342407 -0.028022775 1.4260001 4289737046
-0.095438324 -0.028121032 1.4310001 4289541208
-0.09426225 -0.028140683 1.432 4289410908
-0.09321437 -0.028199635 1.4350001 4288821339
-0.092289455 -0.028297894 1.4400001 4288036701
-0.091166191 -0.028337194 1.442 4288569205
-0.090039469 -0.028376499 1.4440001 4291405492
-0.089155212 -0.028494406 1.45 4293911017
-0.08801806 -0.028533706 1.452 4294308344
-0.086937197 -0.028592661 1.455 4293651955
-0.085910007 -0.02867127 1.4590001 4293586932
-0.13987526 -0.027319917 1.4540001 4287833674
-0.13832742 -0.027263548 1.4510001 4288620108
-0.1364069 -0.027132023 1.4440001 4289145167
-0.13506013 -0.027113233 1.4430001 4289144910
-0.13371511 -0.027094444 1.442 4288947530
-0.13227995 -0.027056865 1.4400001 4288815944
-0.13103025 -0.027056865 1.4400001 4289079115
-0.12978053 -0.027056865 1.4400001 4289408336
-0.12835231 -0.027019285 1.4380001 4289277007
-0.12701596 -0.027000496 1.437 4289145165
-0.12568134 -0.026981706 1.4360001 4289144910
-0.1239152 -0.026868969 1.4300001 4289079629
-0.12224524 -0.026775021 1.4250001 4289080143
-0.1203292 -0.026624706 1.4170001 4289343058
-0.11893135 -0.026587127 1.4150001 4289409364
-0.11753699 -0.026549548 1.4130001 4289475414
-0.11515831 -0.026286496 1.399 4289278549
-0.11394419 -0.026286496 1.399 4288949327
-0.11264949 -0.026267705 1.3980001 4288817741
-0.11143623 -0.026267705 1.3980001 4289145936
-0.11030182 -0.026286496 1.399 4289277009
-0.10932163 -0.026342863 1.4020001 4289210446
-0.10818201 -0.026361654 1.4030001 4289275982
-0.1071169 -0.026399232 1.4050001 4289275724
-0.10619906 -0.02647439 1.409 4289275723
-0.10505076 -0.026493179 1.4100001 4289406539
-0.10397437 -0.026530758 1.4120001 4289603918
-0.10311281 -0.026624706 1.4170001 4289800526
-0.10195497 -0.026643496 1.4180001 4289800269
-0.10086642 -0.026681075 1.4200001 4289734990
-0.099914737 -0.026756233 1.424 4289867090
-0.099025398 -0.026850181 1.429 4289998420
-0.097853675 -0.026868969 1.4300001 4289801299
-0.096680216 -0.02688776 1.4310001 4289670227
-0.095705099 -0.026962917 1.4350001 4289474132
-0.094525553 -0.026981706 1.4360001 4289540697
-0.09340924 -0.027019285 1.4380001 4289345885
-0.092417628 -0.027094444 1.442 4288165977
-0.091229416 -0.027113233 1.4430001 4286988120
-0.090039469 -0.027132023 1.4440001 4288311939
-0.089155212 -0.02724476 1.45 4291936714
-0.088078685 -0.027301127 1.4530001 4294045172
-0.086937197 -0.027338708 1.455 4294243835
-0.085792243 -0.027376287 1.457 4293652213
-0.13997146 -0.026084753 1.455 4288357963
-0.13851807 -0.026048895 1.4530001 4289013582
-0.13650137 -0.025905475 1.4450001 4289275983
-0.13515373 -0.025887547 1.4440001 4289209676
-0.13380784 -0.025869619 1.4430001 4289143882
-0.1323718 -0.025833763 1.4410001 4289340747
-0.13112123 -0.025833763 1.4410001 4289472332
-0.12987065 -0.025833763 1.4410001 4289538638
-0.12844159 -0.025797909 1.439 4289539151
-0.12710434 -0.025779981 1.4380001 4289539153
-0.12576887 -0.025762053 1.437 4289539410
-0.12400184 -0.025654487 1.4310001 4289276495
-0.12233102 -0.025564849 1.4260001 4289211215
-0.12041412 -0.025421428 1.4180001 4289408851
-0.11901541 -0.025385572 1.416 4289606743
-0.11753699 -0.02533179 1.4130001 4289803609
-0.11573451 -0.025206296 1.406 4289540181
-0.11443287 -0.025188368 1.4050001 4289210959
-0.11297181 -0.025134584 1.4020001 4289276495
-0.11183479 -0.025152512 1.4030001 4289539411
-0.1106172 -0.025152512 1.4030001 4289670740
-0.10963354 -0.025206296 1.406 4289669970
-0.10849044 -0.025224222 1.4070001 4289603920
-0.10742186 -0.02526008 1.409 4289537869
-0.10534878 -0.025349718 1.414 4289866319
-0.10426892 -0.025385572 1.416 4289997904
-0.10217067 -0.025475211 1.4210001 4289866575
-0.10107952 -0.025511065 1.4230001 4289997904
-0.099984899 -0.025546921 1.4250001 4289997647
-0.099094696 -0.025636559 1.4300001 4289866320
-0.097853675 -0.025636559 1.4300001 4289800784
-0.096680216 -0.025654487 1.4310001 4289801041
-0.095705099 -0.025726197 1.4350001 4289669969
-0.094591379 -0.025762053 1.437 4289736277
-0.09340924 -0.025779981 1.4380001 4289474902
-0.092481725 -0.025869619 1.4430001 4288753492
-0.091292642 -0.025887547 1.4440001 4287837010
-0.090101816 -0.025905475 1.4450001 4287841633
-0.089155212 -0.025995113 1.45 4290808479
-0.08801806 -0.026030969 1.452 4294237161
-0.08687745 -0.026066823 1.4540001 4294702075
-0.085733362 -0.026102679 1.4560001 4294243578
-0.14016387 -0.024864927 1.457 4289013839
-0.13861342 -0.02481373 1.4540001 4289407313
-0.13659585 -0.024677202 1.4460001 4289407055
-0.13524733 -0.024660138 1.4450001 4289340749
-0.13390055 -0.024643071 1.4440001 4289406284
-0.13246366 -0.02460894 1.442 4289603149
-0.13121223 -0.02460894 1.442 4289669197
-0.12996079 -0.02460894 1.442 4289604176
-0.12862009 -0.024591874 1.4410001 4289604946
-0.12719275 -0.024557741 1.439 4289670739
-0.12585638 -0.024540676 1.4380001 4289670740
-0.12417515 -0.024455346 1.4330001 4289342032
-0.12241681 -0.024352953 1.427 4289210960
-0.12049904 -0.024216427 1.419 4289540180
-0.11901541 -0.024165228 1.416 4289935195
-0.11753699 -0.024114029 1.4130001 4290131804
-0.11581683 -0.024011634 1.4070001 4289802582
-0.11451431 -0.023994571 1.406 4289604947
-0.11305238 -0.023943372 1.4030001 4289670740
-0.11183479 -0.023943372 1.4030001 4289736276
-0.11069604 -0.023960438 1.404 4289867349
-0.10963354 -0.023994571 1.406 4289932628
-0.10856755 -0.024028702 1.4080001 4289866322
-0.10742186 -0.024045767 1.409 4289734991
-0.10534878 -0.024131097 1.414 4289800782
-0.10311281 -0.024182294 1.4170001 4290129747
-0.10224257 -0.024267623 1.4220001 4290129746
-0.10115055 -0.024301754 1.424 4289997905
-0.099984899 -0.02431882 1.4250001 4290063442
-0.099094696 -0.02440415 1.4300001 4289866576
-0.097922109 -0.024421215 1.4310001 4289735247
-0.096747771 -0.024438282 1.432 4289800528
-0.09577179 -0.024506545 1.4360001 4289800785
-0.094591379 -0.02452361 1.437 4289669970
-0.093474194 -0.024557741 1.439 4289474388
-0.092481725 -0.024626005 1.4430001 4289213016
-0.091292642 -0.024643071 1.4440001 4288295509
-0.090101816 -0.024660138 1.4450001 4287511641
-0.089093722 -0.024728401 1.4490001 4288109939
-0.087957449 -0.024762532 1.4510001 4290946226
-0.08687745 -0.02481373 1.4540001 4293845739
-0.14026006 -0.02362545 1.4580001 4289408083
-0.13880406 -0.023593044 1.4560001 4289538642
-0.13735156 -0.023560636 1.4540001 4289472334
-0.13552813 -0.023463411 1.4480001 4289406284
-0.13427149 -0.023463411 1.4480001 4289406283
-0.13283111 -0.023431003 1.4460001 4289537868
-0.1315762 -0.023431003 1.4460001 4289734990
-0.13032129 -0.023431003 1.4460001 4289735761
-0.12888786 -0.023398595 1.4440001 4289736275
-0.12763469 -0.023398595 1.4440001 4289736532
-0.12629399 -0.023382392 1.4430001 4289670738
-0.12434845 -0.023252759 1.4350001 4289407824
-0.12284573 -0.023204148 1.432 4289407825
-0.12058395 -0.023009699 1.4200001 4289802583
-0.1191835 -0.022977291 1.4180001 4290328927
-0.11778653 -0.022944884 1.416 4290328926
-0.11548756 -0.02273423 1.4030001 4289933912
-0.11402563 -0.022685619 1.4000001 4289802326
-0.11264949 -0.022653211 1.3980001 4289933655
-0.11143623 -0.022653211 1.3980001 4289802068
-0.11030182 -0.022669416 1.399 4289933397
-0.10939961 -0.02273423 1.4030001 4289998934
-0.10833623 -0.022766639 1.4050001 4289801298
-0.10726938 -0.022799047 1.4070001 4289603661
-0.10534878 -0.022912476 1.414 4289735245
-0.10426892 -0.022944884 1.416 4289998417
-0.10318558 -0.022977291 1.4180001 4290195796
-0.10245828 -0.023090718 1.4250001 4290195539
-0.10136365 -0.023123128 1.427 4289997904
-0.10026556 -0.023155537 1.429 4290063698
-0.099371888 -0.023236556 1.434 4290063699
-0.098264247 -0.023268964 1.4360001 4289932370
-0.097018018 -0.023268964 1.4360001 4289866577
-0.096038565 -0.02333378 1.4400001 4289801041
-0.09485469 -0.023349984 1.4410001 4289801042
-0.093734026 -0.023382392 1.4430001 4289735763
-0.092673995 -0.023431003 1.4460001 4289670742
-0.091482304 -0.023447208 1.447 4289278294
-0.090226531 -0.023447208 1.447 4288492373
-0.089216694 -0.023512023 1.4510001 4287970905
-0.08801806 -0.023528228 1.452 4289030013
-0.086817697 -0.023544431 1.4530001 4291864760
-0.085968897 -0.02365786 1.46 4294435823
-0.084817864 -0.023690268 1.462 4294636539
-0.083663359 -0.023722677 1.4640001 4293783541
-0.082561672 -0.023771288 1.4670001 4293521138
-0.14026006 -0.02236891 1.4580001 4289407569
-0.13880406 -0.022338226 1.4560001 4289472591
-0.13735156 -0.022307541 1.4540001 4289406028
-0.13571531 -0.022246175 1.45 4289340490
-0.1343642 -0.02223083 1.4490001 4289406282
-0.13301483 -0.022215487 1.4480001 4289603661
-0.13175818 -0.022215487 1.4480001 4289801040
-0.13041142 -0.022200147 1.447 4289867090
-0.12897712 -0.022169463 1.4450001 4289867603
-0.12763469 -0.022154121 1.4440001 4289802067
-0.12638152 -0.022154121 1.4440001 4289604944
-0.12443511 -0.022031382 1.4360001 4289407823
-0.12293153 -0.021985356 1.4330001 4289604947
-0.12066887 -0.02180125 1.4210001 4290065755
-0.11926756 -0.021770565 1.419 4290394976
-0.11786971 -0.02173988 1.4170001 4290263134
-0.11515831 -0.021463722 1.399 4289868119
-0.11386275 -0.021448379 1.3980001 4289736533
-0.11248833 -0.021417696 1.396 4289933655
-0.11127681 -0.021417696 1.396 4289867861
-0.11014414 -0.021433037 1.3970001 4289867860
-0.10932163 -0.021509748 1.4020001 4289999190
-0.10825912 -0.021540433 1.404 4289867347
-0.10719314 -0.021571117 1.406 4289669710
-0.10542329 -0.021709196 1.4150001 4289735246
-0.10426892 -0.021724539 1.416 4289998417
-0.10318558 -0.021755222 1.4180001 4290064210
-0.10253017 -0.021877961 1.4260001 4289932624
-0.10143469 -0.021908645 1.4280001 4289997904
-0.10033572 -0.021939328 1.4300001 4290195283
-0.099510483 -0.022031382 1.4360001 4290261078
-0.098332681 -0.022046724 1.437 4290129492
-0.097153142 -0.022062067 1.4380001 4289932113
-0.096171945 -0.022123436 1.442 4289801040
-0.094986334 -0.022138778 1.4430001 4289801298
-0.093798988 -0.022154121 1.4440001 4289670483
-0.092738084 -0.022200147 1.447 4289473875
-0.09154553 -0.022215487 1.4480001 4289344086
-0.090288885 -0.022215487 1.4480001 4289148762
-0.089278176 -0.022276858 1.452 4288363866
-0.088078685 -0.022292199 1.4530001 4287974758
-0.08687745 -0.022307541 1.4540001 4289033608
-0.085910007 -0.022384252 1.4590001 4291737282
-0.084759846 -0.022414936 1.4610001 4293912558
-0.083606213 -0.022445623 1.4630001 4294308601
-0.082449108 -0.022476306 1.465 4293717490
-0.14026006 -0.021112369 1.4580001 4289341262
-0.13880406 -0.021083409 1.4560001 4289472077
-0.13744602 -0.021068929 1.455 4289340235
-0.13580891 -0.021011006 1.4510001 4289340490
-0.13445693 -0.020996528 1.45 4289472075
-0.13310669 -0.020982046 1.4490001 4289801040
-0.13184918 -0.020982046 1.4490001 4289998419
-0.13059166 -0.020982046 1.4490001 4289932883
-0.12915564 -0.020953085 1.447 4289801811
-0.12772308 -0.020924125 1.4450001 4289736274
-0.12638152 -0.020909645 1.4440001 4289539151
-0.12443511 -0.020793801 1.4360001 4289407567
-0.12284573 -0.02073588 1.432 4289604947
-0.12075379 -0.020591076 1.4220001 4290066012
-0.11935161 -0.020562114 1.4200001 4290329440
-0.11628925 -0.020243548 1.3980001 4290132061
-0.11499368 -0.020229068 1.3970001 4289671510
-0.1136184 -0.020200107 1.3950001 4289605203
-0.1122466 -0.020171147 1.393 4289802326
-0.11111739 -0.020185625 1.3940001 4289867862
-0.1099076 -0.020185625 1.3940001 4289802069
-0.10916568 -0.020272508 1.4000001 4289933654
-0.10818201 -0.020315949 1.4030001 4289867604
-0.10719314 -0.020359391 1.406 4289669968
-0.10657592 -0.020475235 1.414 4289604175
-0.10434255 -0.020518674 1.4170001 4289932625
-0.10325835 -0.020547636 1.419 4289932626
-0.10253017 -0.020648997 1.4260001 4289932625
-0.10150571 -0.02069244 1.429 4289998675
-0.10040589 -0.0207214 1.4310001 4290261591
-0.099649079 -0.020822762 1.4380001 4290392664
-0.098401114 -0.020822762 1.4380001 4290194771
-0.097288266 -0.020851724 1.4400001 4289997136
-0.096238643 -0.020895163 1.4430001 4289931600
-0.09505216 -0.020909645 1.4440001 4289932114
-0.093928903 -0.020938605 1.4460001 4289801556
-0.092866264 -0.020982046 1.4490001 4289670484
-0.091608748 -0.020982046 1.4490001 4289539925
-0.090413593 -0.020996528 1.45 4289475418
-0.089278176 -0.021025488 1.452 4289280862
-0.088078685 -0.021039966 1.4530001 4288560991
-0.08687745 -0.021054449 1.4540001 4288368489
-0.085851125 -0.021112369 1.4580001 4290018964
-0.084759846 -0.02115581 1.4610001 4293050832
-0.083606213 -0.021184772 1.4630001 4294371570
-0.082449108 -0.021213733 1.465 4294177271
-0.14435245 -0.019896684 1.4610001 4288030794
-0.14288865 -0.019869447 1.4590001 4288685643
-0.14152539 -0.019855827 1.4580001 4289144396
-0.14006765 -0.019828591 1.4560001 4289406541
-0.13880406 -0.019828591 1.4560001 4289471820
-0.13744602 -0.019814974 1.455 4289405770
-0.1359961 -0.019787734 1.4530001 4289471562
-0.13473512 -0.019787734 1.4530001 4289668941
-0.13329042 -0.019760499 1.4510001 4289932370
-0.13203117 -0.019760499 1.4510001 4290130005
-0.13068178 -0.019746881 1.45 4289998676
-0.12924489 -0.019719642 1.4480001 4289736274
-0.12789986 -0.019706024 1.447 4289736274
-0.12655656 -0.019692406 1.4460001 4289604690
-0.12460841 -0.019583456 1.4380001 4289539154
-0.12310309 -0.019542601 1.4350001 4289670740
-0.12151806 -0.019488128 1.4310001 4290131805
-0.11562379 -0.018929768 1.3900001 4290263647
-0.11425284 -0.018902531 1.388 4289737303
-0.11288538 -0.018875293 1.386 4289539667
-0.11160196 -0.018861676 1.3850001 4289605460
-0.11039998 -0.018861676 1.3850001 4289670997
-0.10927686 -0.018875293 1.386 4289736276
-0.10650054 -0.019242994 1.4130001 4289669968
-0.10542329 -0.01927023 1.4150001 4289866833
-0.10318558 -0.019311087 1.4180001 4290130005
-0.10260207 -0.019433655 1.427 4290195798
-0.10150571 -0.01946089 1.429 4290392921
-0.10047605 -0.019501748 1.432 4290524506
-0.09971837 -0.019597076 1.439 4290392664
-0.098537967 -0.019610696 1.4400001 4290063443
-0.097355828 -0.019624313 1.4410001 4289866065
-0.096372023 -0.019678788 1.4450001 4289866321
-0.095183812 -0.019692406 1.4460001 4289866579
-0.093993865 -0.019706024 1.447 4289801812
-0.092866264 -0.019733261 1.4490001 4289736276
-0.091671973 -0.019746881 1.45 4289408595
-0.090413593 -0.019746881 1.45 4289541210
-0.089278176 -0.019774117 1.452 4289346142
-0.08801806 -0.019774117 1.452 4288625757
-0.086817697 -0.019787734 1.4530001 4287972704
-0.085792243 -0.019842209 1.457 4288175989
-0.084585801 -0.019855827 1.4580001 4290418597
-0.083320476 -0.019855827 1.4580001 4293449185
-0.082167715 -0.019883066 1.46 4294308087
-0.081066892 -0.019923922 1.4630001 4293717747
-0.079906307 -0.019951159 1.465 4293390322
-0.14435245 -0.018637557 1.4610001 4288423754
-0.14288865 -0.018612044 1.4590001 4288947531
-0.14152539 -0.018599287 1.4580001 4289340748
-0.13997146 -0.018561017 1.455 4289406028
-0.13870874 -0.018561017 1.455 4289471306
-0.13744602 -0.018561017 1.455 4289471049
-0.1359961 -0.018535502 1.4530001 4289471562
-0.13473512 -0.018535502 1.4530001 4289668941
-0.13329042 -0.01850999 1.4510001 4289997906
-0.13203117 -0.01850999 1.4510001 4290129749
-0.13068178 -0.018497234 1.45 4290130005
-0.12915564 -0.018458964 1.447 4289933396
-0.12772308 -0.01843345 1.4450001 4289802068
-0.12638152 -0.018420693 1.4440001 4289670483
-0.12469508 -0.01835691 1.439 4289539667
-0.12318888 -0.01831864 1.4360001 4289802839
-0.1216879 -0.018280368 1.4330001 4290526819
-0.11537424 -0.017693561 1.3870001 4290592869
-0.11408821 -0.017680805 1.386 4290000731
-0.11272249 -0.017655289 1.3840001 4289671510
-0.11136022 -0.017629776 1.3820001 4289539924
-0.11024057 -0.017642533 1.383 4289474131
-0.10904033 -0.017642533 1.383 4289605461
-0.10642517 -0.018012477 1.4120001 4289736275
-0.10542329 -0.018050747 1.4150001 4289867348
-0.10434255 -0.018076262 1.4170001 4289998678
-0.10260207 -0.01820383 1.427 4290524509
-0.10150571 -0.018229343 1.429 4290656093
-0.10040589 -0.018254856 1.4310001 4290458970
-0.099649079 -0.018344153 1.4380001 4290195286
-0.098469533 -0.01835691 1.439 4289997907
-0.097288266 -0.018369667 1.4400001 4289931601
-0.096305341 -0.018420693 1.4440001 4289865809
-0.095117986 -0.01843345 1.4450001 4289931345
-0.093928903 -0.018446207 1.4460001 4289932372
-0.092866264 -0.018484477 1.4490001 4289998422
-0.091608748 -0.018484477 1.4490001 4289867863
-0.090351231 -0.018484477 1.4490001 4289802584
-0.089216694 -0.01850999 1.4510001 4289541209
-0.08801806 -0.018522747 1.452 4289410653
-0.086698197 -0.01850999 1.4510001 4288887646
-0.08567448 -0.018561017 1.455 4288628326
-0.084469773 -0.018573774 1.4560001 4288897401
-0.083263338 -0.018586531 1.457 4291404212
-0.082055151 -0.018599287 1.4580001 4294370287
-0.081066892 -0.018663071 1.4630001 4294636539
-0.14435245 -0.017378431 1.4610001 4288685900
-0.14288865 -0.017354641 1.4590001 4289078603
-0.14142832 -0.017330851 1.457 4289340491
-0.13997146 -0.017307062 1.455 4289405514
-0.13870874 -0.017307062 1.455 4289405257
-0.13735156 -0.017295167 1.4540001 4289405257
-0.1359961 -0.01728327 1.4530001 4289405514
-0.13473512 -0.01728327 1.4530001 4289668942
-0.13329042 -0.01725948 1.4510001 4289997907
-0.13203117 -0.01725948 1.4510001 4290063957
-0.13059166 -0.017235693 1.4490001 4290129750
-0.12906638 -0.017200006 1.4460001 4290064727
-0.12772308 -0.017188113 1.4450001 4289867862
-0.12638152 -0.017176218 1.4440001 4289670483
-0.12478173 -0.017128639 1.4400001 4289539667
-0.12336045 -0.017104847 1.4380001 4289803096
-0.12185773 -0.017069163 1.4350001 4290790248
-0.11520787 -0.016474418 1.3850001 4290987883
-0.11384127 -0.016450631 1.383 4290395746
-0.11247814 -0.016426841 1.381 4290000731
-0.11111849 -0.016403049 1.3790001 4289737559
-0.11000144 -0.016414944 1.3800001 4289605717
-0.10888264 -0.016426841 1.381 4289868889
-0.1063498 -0.016783686 1.411 4289802069
-0.10534878 -0.016819371 1.414 4289801812
-0.10434255 -0.016855055 1.4170001 4289933142
-0.10253017 -0.016962109 1.4260001 4290459229
-0.10150571 -0.016997794 1.429 4290458716
-0.10040589 -0.017021583 1.4310001 4290195543
-0.099579781 -0.017092954 1.437 4289932115
-0.098469533 -0.017116742 1.439 4289866322
-0.097288266 -0.017128639 1.4400001 4289800529
-0.096305341 -0.017176218 1.4440001 4289668943
-0.095117986 -0.017188113 1.4450001 4289668688
-0.093928903 -0.017200006 1.4460001 4289931603
-0.092802174 -0.017223796 1.4480001 4290195032
-0.09154553 -0.017223796 1.4480001 4290195545
-0.090351231 -0.017235693 1.4490001 4290064729
-0.089093722 -0.017235693 1.4490001 4289605975
-0.087896831 -0.017247587 1.45 4289475676
-0.086698197 -0.01725948 1.4510001 4289149535
-0.085556716 -0.01728327 1.4530001 4288626529
-0.084411755 -0.017307062 1.455 4287908453
-0.083206184 -0.017318955 1.4560001 4288311426
-0.081998877 -0.017330851 1.457 4291673286
-0.14415485 -0.016097238 1.4590001 4289013837
-0.14269277 -0.016075172 1.457 4289209676
-0.14123417 -0.016053107 1.455 4289340235
-0.13977906 -0.016031038 1.4530001 4289405258
-0.13851807 -0.016031038 1.4530001 4289339465
-0.13725708 -0.016031038 1.4530001 4289339722
-0.13608971 -0.016042072 1.4540001 4289339978
-0.13482785 -0.016042072 1.4540001 4289603407
-0.13338228 -0.016020007 1.452 4289800786
-0.13203117 -0.016008973 1.4510001 4289866322
-0.13068178 -0.015997941 1.45 4289735506
-0.12915564 -0.015964841 1.447 4289736019
-0.12781146 -0.015953807 1.4460001 4289802069
-0.12646905 -0.015942775 1.4450001 4289670740
-0.11454241 -0.015192526 1.3770001 4291316848
-0.11326507 -0.015181493 1.376 4290856297
-0.11190802 -0.015159427 1.3740001 4290395746
-0.11055443 -0.015137361 1.3720001 4290066781
-0.10944346 -0.015148395 1.373 4290000988
-0.10627443 -0.015556618 1.4100001 4289736533
-0.10527427 -0.015589717 1.4130001 4289670483
-0.10426892 -0.015622816 1.416 4289802069
-0.10253017 -0.015733147 1.4260001 4290262107
-0.10143469 -0.015755212 1.4280001 4290195801
-0.10033572 -0.015777279 1.4300001 4289932372
-0.099510483 -0.015843477 1.4360001 4289931601
-0.098332681 -0.015854511 1.437 4289866322
-0.097220704 -0.015876576 1.439 4289734994
-0.096238643 -0.015920708 1.4430001 4289472335
-0.09505216 -0.015931742 1.4440001 4289603152
-0.093863942 -0.015942775 1.4450001 4289734481
-0.092802174 -0.015975874 1.4480001 4290063446
-0.091482304 -0.015964841 1.447 4290063702
-0.090226531 -0.015964841 1.447 4289670229
-0.08903224 -0.015975874 1.4480001 4289408341
-0.087836206 -0.015986906 1.4490001 4289474650
-0.086638443 -0.015997941 1.45 4289344603
-0.085497826 -0.016020007 1.452 4289346915
-0.084295727 -0.016031038 1.4530001 4288627299
-0.083091892 -0.016042072 1.4540001 4287842662
-0.081886314 -0.016053107 1.455 4289361548
-0.14405604 -0.014829663 1.4580001 4289210703
-0.14269277 -0.014819493 1.457 4289274956
-0.14123417 -0.014799151 1.455 4289339978
-0.13977906 -0.014778807 1.4530001 4289339721
-0.13851807 -0.014778807 1.4530001 4289339721
-0.13725708 -0.014778807 1.4530001 4289339978
-0.13608971 -0.014788979 1.4540001 4289340235
-0.13482785 -0.014788979 1.4540001 4289603407
-0.13338228 -0.014768636 1.452 4289669200
-0.13203117 -0.014758464 1.4510001 4289669200
-0.13068178 -0.014748294 1.45 4289538127
-0.12915564 -0.01471778 1.447 4289407311
-0.12781146 -0.014707608 1.4460001 4289604690
-0.12646905 -0.014697438 1.4450001 4289736533
-0.11445923 -0.013995622 1.376 4291580020
-0.11310044 -0.013975279 1.3740001 4291053676
-0.11166368 -0.013944766 1.3710001 4290593125
-0.11055443 -0.013954937 1.3720001 4290329953
-0.10944346 -0.013965108 1.373 4290461539
-0.10627443 -0.014341444 1.4100001 4289670740
-0.10527427 -0.014371958 1.4130001 4289670483
-0.10426892 -0.014402471 1.416 4289736276
-0.10253017 -0.014504184 1.4260001 4290130521
-0.10143469 -0.014524526 1.4280001 4290064472
-0.10033572 -0.014544868 1.4300001 4289866836
-0.099510483 -0.014605896 1.4360001 4289931602
-0.098332681 -0.014616068 1.437 4289997395
-0.097153142 -0.014626238 1.4380001 4289866323
-0.096238643 -0.014677094 1.4430001 4289538385
-0.094986334 -0.014677094 1.4430001 4289668945
-0.093798988 -0.014687266 1.4440001 4289668688
-0.092738084 -0.01471778 1.447 4289734481
-0.091482304 -0.01471778 1.447 4289669201
-0.090226531 -0.01471778 1.447 4289538131
-0.08903224 -0.01472795 1.4480001 4289539157
-0.087836206 -0.014738122 1.4490001 4289474136
-0.086638443 -0.014748294 1.45 4289278297
-0.085497826 -0.014768636 1.452 4289280609
-0.084295727 -0.014778807 1.4530001 4288757602
-0.083091892 -0.014788979 1.4540001 4288038244
-0.081886314 -0.014799151 1.455 4287517805
-0.14395723 -0.013563813 1.457 4289341775
-0.14259483 -0.013554503 1.4560001 4289340748
-0.14113712 -0.013535884 1.4540001 4289340235
-0.13968286 -0.013517266 1.452 4289274186
-0.13851807 -0.013526576 1.4530001 4289339978
-0.13725708 -0.013526576 1.4530001 4289339978
-0.1359961 -0.013526576 1.4530001 4289471564
-0.13473512 -0.013526576 1.4530001 4289668943
-0.13338228 -0.013517266 1.452 4289669200
-0.13203117 -0.013507956 1.4510001 4289603407
-0.13077192 -0.013507956 1.4510001 4289472078
-0.12915564 -0.013470719 1.447 4289341261
-0.12781146 -0.013461409 1.4460001 4289407311
-0.12646905 -0.0134521 1.4450001 4289604947
-0.11429286 -0.012791132 1.3740001 4291580021
-0.11277118 -0.012753895 1.3700001 4291185519
-0.11150078 -0.012744584 1.3690001 4290593383
-0.11039328 -0.012753895 1.3700001 4290396260
-0.10928404 -0.012763203 1.3710001 4290658919
-0.10619906 -0.01311696 1.409 4289737047
-0.10527427 -0.013154198 1.4130001 4289736277
-0.10434255 -0.013191436 1.4170001 4289670484
-0.10253017 -0.013275221 1.4260001 4290261338
-0.10143469 -0.013293839 1.4280001 4290195546
-0.10033572 -0.013312459 1.4300001 4290063960
-0.099441186 -0.013359006 1.4350001 4289932631
-0.098332681 -0.013377625 1.437 4289932375
-0.09708558 -0.013377625 1.437 4289866582
-0.096171945 -0.013424171 1.442 4289734996
-0.094986334 -0.013433482 1.4430001 4289734483
-0.093798988 -0.01344279 1.4440001 4289734483
-0.092738084 -0.013470719 1.447 4289603153
-0.091482304 -0.013470719 1.447 4289603410
-0.090226531 -0.013470719 1.447 4289603156
-0.08903224 -0.013480028 1.4480001 4289538133
-0.087836206 -0.013489338 1.4490001 4289538646
-0.086638443 -0.013498647 1.45 4289474393
-0.085497826 -0.013517266 1.452 4289607008
-0.084295727 -0.013526576 1.4530001 4289412709
-0.083091892 -0.013535884 1.4540001 4288890474
-0.081886314 -0.013545194 1.455 4288106604
-0.14366083 -0.012282791 1.4540001 4289275981
-0.14220309 -0.012265895 1.452 4289472078
-0.14084591 -0.012257447 1.4510001 4289471821
-0.13949046 -0.012249 1.45 4289340235
-0.13813674 -0.012240552 1.4490001 4289339978
-0.13697369 -0.012249 1.45 4289339978
-0.13580891 -0.012257447 1.4510001 4289471564
-0.13454966 -0.012257447 1.4510001 4289668943
-0.13329042 -0.012257447 1.4510001 4289668943
-0.13203117 -0.012257447 1.4510001 4289471821
-0.13068178 -0.012249 1.45 4289406028
-0.12915564 -0.012223658 1.447 4289341005
-0.12781146 -0.01221521 1.4460001 4289407311
-0.12646905 -0.012206762 1.4450001 4289538897
-0.11371059 -0.01154785 1.3670001 4291580278
-0.11244192 -0.011539403 1.3660001 4291185777
-0.11117499 -0.011530956 1.365 4290593640
-0.11007096 -0.011539403 1.3660001 4290396261
-0.10896519 -0.01154785 1.3670001 4290527590
-0.10619906 -0.011902649 1.409 4289671511
-0.10527427 -0.011936439 1.4130001 4289670741
-0.10434255 -0.01197023 1.4170001 4289604948
-0.10260207 -0.012054706 1.427 4290130265
-0.10143469 -0.012063153 1.4280001 4290327134
-0.10019539 -0.012063153 1.4280001 4290261086
-0.09930259 -0.012105391 1.4330001 4290129754
-0.098127395 -0.012113839 1.434 4289998168
-0.096950464 -0.012122286 1.4350001 4289932118
-0.096105255 -0.012172972 1.4410001 4289800276
-0.094920509 -0.012181419 1.442 4289668690
-0.093734026 -0.012189868 1.4430001 4289668690
-0.092673995 -0.01221521 1.4460001 4289602897
-0.091419078 -0.01221521 1.4460001 4289668690
-0.09016417 -0.01221521 1.4460001 4289668948
-0.08903224 -0.012232105 1.4480001 4289603926
-0.087775595 -0.012232105 1.4480001 4289472853
-0.086518951 -0.012232105 1.4480001 4289407830
-0.085380062 -0.012249 1.45 4289409372
-0.084179699 -0.012257447 1.4510001 4289346402
-0.082920454 -0.012257447 1.4510001 4289218155
-0.081717476 -0.012265895 1.452 4288565616
-0.14346321 -0.011014526 1.452 4289406541
-0.14210516 -0.011006939 1.4510001 4289537614
