# .PCD v0.7 - Point Cloud Data file format
VERSION 0.7
FIELDS x y z rgba
SIZE 4 4 4 4
TYPE F F F U
COUNT 1 1 1 1
WIDTH 1089
HEIGHT 1
VIEWPOINT 0 0 0 1 0 0 0
POINTS 1089
DATA ascii
-0.14756849 -0.15222128 1.33 4279644547
-0.14493236 -0.15187792 1.327 4279316355
-0.14241412 -0.15164901 1.325 4279053954
-0.14011432 -0.15164901 1.325 4279119747
-0.13812655 -0.15199238 1.3280001 4279119748
-0.13592382 -0.15210682 1.3290001 4279054468
-0.13371761 -0.15222128 1.33 4279120261
-0.13150795 -0.15233573 1.3310001 4279120003
-0.12939186 -0.15256464 1.3330001 4279251074
-0.12736417 -0.152908 1.3360001 4279382143
-0.12523247 -0.15313689 1.3380001 4279644799
-0.12355313 -0.15393807 1.345 4280104317
-0.12211988 -0.15508258 1.355 4280168294
-0.12020996 -0.15565485 1.36 4288322232
-0.15179269 -0.1518452 1.3470001 4280957822
-0.14801231 -0.15037973 1.3340001 4279906430
-0.14547846 -0.15015428 1.332 4279512959
-0.14284405 -0.1498161 1.3290001 4279316606
-0.14053731 -0.1498161 1.3290001 4279185279
-0.13833457 -0.14992882 1.33 4279185279
-0.13612838 -0.15004155 1.3310001 4279316865
-0.1339187 -0.15015428 1.332 4279251072
-0.13170555 -0.15026702 1.3330001 4279119230
-0.12948895 -0.15037973 1.3340001 4279185277
-0.12755485 -0.15083064 1.3380001 4279381627
-0.12541968 -0.15105611 1.34 4279644795
-0.12373687 -0.1518452 1.3470001 4280104571
-0.12230013 -0.1529725 1.3570001 4280430698
-0.12038673 -0.15353613 1.3620001 4287204526
-0.15607591 -0.15141053 1.3640001 4280957538
-0.15213075 -0.14985646 1.35 4281089663
-0.14845613 -0.1485244 1.3380001 4280169087
-0.1458061 -0.14819139 1.335 4279775613
-0.1431665 -0.14785838 1.332 4279315834
-0.14085455 -0.14785838 1.332 4279316604
-0.13854261 -0.14785838 1.332 4279250811
-0.13633291 -0.14796939 1.3330001 4279316347
-0.13411978 -0.14808039 1.3340001 4279251068
-0.13190316 -0.14819139 1.335 4279185273
-0.12978014 -0.1484134 1.337 4279185015
-0.12784085 -0.14885741 1.3410001 4279578492
-0.12570047 -0.14907943 1.3430001 4279579002
-0.1241043 -0.14996748 1.3510001 4280039804
-0.12257051 -0.15096653 1.36 4280431983
-0.12056351 -0.15141053 1.3640001 4287142076
-0.15550378 -0.14851306 1.3590001 4281087843
-0.15235615 -0.1477481 1.3520001 4281155456
-0.14856707 -0.14632745 1.3390001 4280104063
-0.14569689 -0.14578104 1.3340001 4279644542
-0.14338148 -0.14578104 1.3340001 4279513213
-0.14096029 -0.14567176 1.3330001 4279382396
-0.1386466 -0.14567176 1.3330001 4279185787
-0.13653748 -0.14589031 1.335 4279250810
-0.13432086 -0.14599961 1.3360001 4279251324
-0.13210078 -0.14610888 1.337 4279251067
-0.12997428 -0.14632745 1.3390001 4279185272
-0.12803151 -0.14676458 1.3430001 4279316344
-0.12598126 -0.14709242 1.3460001 4279645050
-0.12428803 -0.14785738 1.353 4280170876
-0.12275076 -0.1488409 1.3620001 4280630390
-0.1207403 -0.14927804 1.3660001 4283260292
-0.15258151 -0.14563285 1.3540001 4281287555
-0.1490109 -0.14444971 1.3430001 4280039553
-0.14591531 -0.14369681 1.3360001 4279513980
-0.14348894 -0.14358924 1.335 4279579262
-0.14117178 -0.14358924 1.335 4279448446
-0.13885464 -0.14358924 1.335 4279317373
-0.13663974 -0.14369681 1.3360001 4279382653
-0.13442141 -0.14380436 1.337 4279382653
-0.13219957 -0.14391191 1.3380001 4279447930
-0.12997428 -0.14401948 1.3390001 4279513209
-0.12803151 -0.14444971 1.3430001 4279316085
-0.12598126 -0.14477238 1.3460001 4279906166
-0.12437989 -0.14563285 1.3540001 4280234359
-0.12284089 -0.14660086 1.363 4281089659
-0.12082869 -0.14703108 1.3670001 4282732925
-0.16375829 -0.1470032 1.3890001 4293391097
-0.16065045 -0.14636819 1.383 4289180869
-0.15687688 -0.14509819 1.3710001 4279509850
-0.15291958 -0.14361653 1.3570001 4281288328
-0.15023138 -0.14329903 1.3540001 4279908736
-0.14624298 -0.14171152 1.3390001 4279711616
-0.14381139 -0.14160568 1.3380001 4279447930
-0.14138329 -0.14149985 1.337 4279251067
-0.13906266 -0.14149985 1.337 4279251067
-0.13684431 -0.14160568 1.3380001 4279316860
-0.13462247 -0.14171152 1.3390001 4279448446
-0.13239719 -0.14181735 1.34 4279447676
-0.13026547 -0.14202902 1.342 4279250808
-0.12831751 -0.14245234 1.3460001 4279446903
-0.12616844 -0.14266402 1.348 4279579256
-0.12456361 -0.14351068 1.3560001 4279973241
-0.12311126 -0.14456902 1.3660001 4281089915
-0.12109385 -0.14499237 1.3700001 4282339707
-0.16399409 -0.14481728 1.391 4293390328
-0.16076662 -0.14408849 1.3840001 4287665843
-0.15687688 -0.14273506 1.3710001 4279049038
-0.15303227 -0.14138164 1.358 4281288579
-0.15034235 -0.14106931 1.355 4280039547
-0.14646141 -0.13961175 1.3410001 4279908221
-0.14402637 -0.13950765 1.34 4279447672
-0.14159477 -0.13940355 1.3390001 4279316859
-0.13916667 -0.13929942 1.3380001 4279316090
-0.13704886 -0.13950765 1.34 4279251067
-0.13492408 -0.13971588 1.342 4279251580
-0.13269359 -0.13981998 1.3430001 4279316344
-0.13055667 -0.14002821 1.345 4279382137
-0.12850817 -0.14034054 1.348 4279382135
-0.12644923 -0.14065287 1.3510001 4279841400
-0.12474734 -0.14138164 1.358 4280235131
-0.12329151 -0.14242274 1.368 4280958588
-0.12135902 -0.14294329 1.373 4281945208
-0.055774763 -0.17677911 1.6980001 4280429871
-0.052889772 -0.17698732 1.7 4279771940
-0.16364041 -0.14211252 1.388 4293982463
-0.16076662 -0.14170296 1.3840001 4286020762
-0.15699132 -0.14047433 1.3720001 4278982218
-0.15325767 -0.1392457 1.36 4281550724
-0.15056424 -0.13893853 1.3570001 4280237181
-0.14667985 -0.13750511 1.3430001 4279842426
-0.14413384 -0.13730034 1.3410001 4279513722
-0.14159477 -0.13709557 1.3390001 4279251065
-0.13937469 -0.13719796 1.34 4279251067
-0.13715112 -0.13730034 1.3410001 4279513469
-0.13512518 -0.1376075 1.3440001 4279513469
-0.13289119 -0.1377099 1.345 4279513466
-0.13075082 -0.13791466 1.3470001 4279447930
-0.12869883 -0.13822182 1.35 4279382135
-0.12663643 -0.13852899 1.353 4279644791
-0.12493107 -0.1392457 1.36 4280038011
-0.12347176 -0.14026956 1.3700001 4280892798
-0.12153581 -0.14078148 1.3750001 4281813369
-0.12062233 -0.14252207 1.3920001 4279774014
-0.061523922 -0.1734428 1.6940001 4280429874
-0.05841073 -0.17293087 1.6890001 4280430386
-0.055544831 -0.17313564 1.6910001 4280496436
-0.052671991 -0.17334041 1.6930001 4280496436
-0.16352251 -0.13961942 1.3870001 4294048255
-0.16053429 -0.13911611 1.3820001 4284967816
-0.15687688 -0.13800882 1.3710001 4279114318
-0.15337035 -0.13700218 1.3610001 4282010760
-0.15089712 -0.13690153 1.36 4280433790
-0.14711672 -0.13559291 1.3470001 4279776890
-0.14445628 -0.13529092 1.3440001 4279579515
-0.14191201 -0.13508959 1.342 4279382137
-0.13968672 -0.13519026 1.3430001 4279382653
-0.13745795 -0.13529092 1.3440001 4279251323
-0.13532625 -0.13549225 1.3460001 4279316860
-0.13328642 -0.13579424 1.3490001 4279448444
-0.13104202 -0.13589489 1.35 4279447929
-0.12898482 -0.13619688 1.353 4279317113
-0.12682362 -0.13639821 1.355 4279579513
-0.12520665 -0.13720351 1.363 4279841402
-0.12374214 -0.13821015 1.373 4280827520
-0.12162419 -0.13851213 1.376 4281813629
-0.12044903 -0.13992141 1.3900001 4280234056
-0.16305092 -0.13683297 1.383 4294048255
-0.16030197 -0.13653615 1.3800001 4283784312
-0.15687688 -0.13564569 1.3710001 4278983499
-0.15370841 -0.13495313 1.3640001 4282011786
-0.15122998 -0.13485418 1.363 4280434564
-0.14733516 -0.13346903 1.3490001 4279777662
-0.14488621 -0.1333701 1.348 4279645308
-0.14233501 -0.13317221 1.3460001 4279448187
-0.13989474 -0.13307327 1.345 4279317117
-0.1376625 -0.13317221 1.3460001 4279382651
-0.13552733 -0.1333701 1.348 4279448187
-0.13338521 -0.13356796 1.35 4279448957
-0.13123617 -0.13376585 1.3520001 4279448699
-0.12927082 -0.13416161 1.3560001 4279448699
-0.12710442 -0.13435948 1.358 4279645306
-0.12539037 -0.13505206 1.365 4279842428
-0.12374214 -0.13584358 1.373 4280302462
-0.12171258 -0.13623932 1.3770001 4281354364
-0.12036236 -0.1374266 1.3890001 4280694350
-0.16257934 -0.13406029 1.3790001 4294049279
-0.15983732 -0.13376865 1.376 4282865005
-0.15664804 -0.13308814 1.3690001 4278917960
-0.1538211 -0.13269927 1.365 4281879941
-0.15122998 -0.13250485 1.363 4280501892
-0.14864577 -0.13231042 1.3610001 4279778174
-0.1455311 -0.13162991 1.3540001 4279514237
-0.14286374 -0.13133827 1.3510001 4279382653
-0.14031079 -0.13114382 1.3490001 4279317118
-0.13796933 -0.13114382 1.3490001 4279317373
-0.1357284 -0.13124104 1.35 4279448443
-0.13358283 -0.13143547 1.3520001 4279579262
-0.1314303 -0.13162991 1.3540001 4279382650
-0.12936616 -0.13192156 1.3570001 4279448185
-0.12747879 -0.13240762 1.3620001 4279382905
-0.12539037 -0.13269927 1.365 4279711613
-0.12374214 -0.133477 1.373 4280303230
-0.12153581 -0.13367142 1.3750001 4281420412
-0.12010241 -0.1347408 1.386 4281155412
-0.16234355 -0.13149239 1.3770001 4293917951
-0.15937269 -0.13101494 1.3720001 4281549409
-0.15630476 -0.13044199 1.3660001 4278720585
-0.15370841 -0.13025101 1.3640001 4281682050
-0.15134092 -0.13025101 1.3640001 4280500356
-0.14875498 -0.13006002 1.3620001 4279711617
-0.14585355 -0.12958257 1.3570001 4279645826
-0.14286374 -0.1290096 1.3510001 4279580032
-0.14041479 -0.1289141 1.35 4279448447
-0.1380716 -0.1289141 1.35 4279513984
-0.13582894 -0.1290096 1.3510001 4279514238
-0.13368163 -0.12920058 1.353 4279448445
-0.1314303 -0.12929608 1.3540001 4279448187
-0.12936616 -0.12958257 1.3570001 4279447930
-0.1273852 -0.12996453 1.3610001 4279448186
-0.1252985 -0.13025101 1.3640001 4279777150
-0.12356188 -0.13091944 1.3710001 4280434045
-0.12144741 -0.13120592 1.3740001 4282208643
-0.11984245 -0.13206534 1.383 4282009179
-0.16198985 -0.12883762 1.3740001 4293720831
-0.15925652 -0.12855631 1.3710001 4280496217
-0.15641919 -0.12818125 1.3670001 4278720330
-0.1538211 -0.1279937 1.365 4281222012
-0.15145187 -0.1279937 1.365 4280763270
-0.14886421 -0.12780617 1.363 4279842433
-0.14606851 -0.12743109 1.3590001 4279645825
-0.14296949 -0.12677473 1.3520001 4279580030
-0.14041479 -0.12658718 1.35 4279579774
-0.1380716 -0.12658718 1.35 4279645055
-0.1359295 -0.12677473 1.3520001 4279448444
-0.13378042 -0.12696226 1.3540001 4279646335
-0.13152736 -0.12705603 1.355 4279580029
-0.1294615 -0.12733734 1.358 4279579773
-0.1273852 -0.12761864 1.3610001 4279645309
-0.1252985 -0.12789994 1.3640001 4280170626
-0.12356188 -0.12855631 1.3710001 4280828292
-0.12144741 -0.12883762 1.3740001 4282009979
-0.11984245 -0.12968154 1.383 4283256936
-0.16175407 -0.12628524 1.3720001 4293194239
-0.15914036 -0.12610115 1.3700001 4280102232
-0.15641919 -0.12582502 1.3670001 4281485175
-0.15404648 -0.12582502 1.3670001 4281880713
-0.15167378 -0.12582502 1.3670001 4280829829
-0.14919187 -0.12573297 1.3660001 4279974524
-0.14617601 -0.12518071 1.36 4279776892
-0.14296949 -0.12444434 1.3520001 4279514234
-0.14041479 -0.12426025 1.35 4279448700
-0.1380716 -0.12426025 1.35 4279514492
-0.1359295 -0.12444434 1.3520001 4279908478
-0.13387924 -0.12472048 1.355 4280302982
-0.13162443 -0.12481252 1.3560001 4280303238
-0.1294615 -0.12499662 1.358 4280237190
-0.12729162 -0.12518071 1.36 4279974274
-0.12511478 -0.1253648 1.3620001 4280104577
-0.12338164 -0.12600911 1.3690001 4280564351
-0.12127064 -0.12628524 1.3720001 4282140794
-0.11984245 -0.12729773 1.383 4285690510
-0.16175407 -0.1239204 1.3720001 4293194495
-0.15914036 -0.12373975 1.3700001 4280299357
-0.1565336 -0.1235591 1.368 4281945213
-0.15427187 -0.12364943 1.3690001 4282472334
-0.15200664 -0.12373975 1.3700001 4281486220
-0.14941029 -0.1235591 1.368 4280236672
-0.14639096 -0.12301718 1.3620001 4279973507
-0.14307523 -0.12220429 1.353 4279645309
-0.14041479 -0.12193333 1.35 4280500615
-0.13817388 -0.12202366 1.3510001 4280237442
-0.13603003 -0.12220429 1.353 4279974269
-0.13397804 -0.12247525 1.3560001 4280105346
-0.13162443 -0.12247525 1.3560001 4279776894
-0.1294615 -0.1226559 1.358 4279973504
-0.12729162 -0.12283655 1.36 4279710333
-0.12520665 -0.12310751 1.363 4279907711
-0.12338164 -0.12364943 1.3690001 4280103796
-0.16187195 -0.12164414 1.373 4292733946
-0.15925652 -0.12146694 1.3710001 4280101723
-0.15676245 -0.12137835 1.3700001 4282602889
-0.15449724 -0.12146694 1.3710001 4282932374
-0.15222855 -0.12155555 1.3720001 4281485961
-0.14951952 -0.12128976 1.3690001 4280367743
-0.14649846 -0.12075817 1.363 4280039295
-0.14318097 -0.11996079 1.3540001 4280960906
-0.14062282 -0.1197836 1.3520001 4283000998
-0.13817388 -0.119695 1.3510001 4282540698
-0.13603003 -0.11987219 1.353 4280434561
-0.13397804 -0.12013798 1.3560001 4279974013
-0.1317215 -0.12022658 1.3570001 4279842174
-0.12955682 -0.12040377 1.3590001 4280236678
-0.12747879 -0.12066957 1.3620001 4279644796
-0.12539037 -0.12093536 1.365 4279512177
-0.12356188 -0.12146694 1.3710001 4281682817
-0.16210775 -0.11945131 1.3750001 4292010226
-0.15948884 -0.11927757 1.373 4279970138
-0.15699132 -0.1191907 1.3720001 4282668940
-0.15472262 -0.11927757 1.373 4282011271
-0.15245046 -0.11936444 1.3740001 4281419909
-0.14984718 -0.1191907 1.3720001 4280498814
-0.1468209 -0.11866946 1.3660001 4280170365
-0.14339247 -0.11780071 1.3560001 4280894855
-0.14083083 -0.11762697 1.3540001 4282606237
-0.13848069 -0.11762697 1.3540001 4282869405
-0.13623111 -0.11771384 1.355 4281355662
-0.13417566 -0.11797446 1.358 4279908219
-0.13191563 -0.11806133 1.3590001 4279907708
-0.1297475 -0.11823508 1.3610001 4280236678
-0.12775959 -0.11858258 1.365 4279447162
-0.12566595 -0.1188432 1.368 4281881228
-0.12401251 -0.11953819 1.376 4285894325
-0.12250809 -0.12040693 1.386 4286222514
-0.12070899 -0.12101503 1.393 4285694611
-0.16246144 -0.11733674 1.378 4291483626
-0.15972117 -0.11708129 1.3750001 4280759141
-0.15722016 -0.11699615 1.3740001 4284708007
-0.154948 -0.11708129 1.3750001 4282274443
-0.15256141 -0.11708129 1.3750001 4281222017
-0.14995639 -0.11691099 1.373 4280564863
-0.14703587 -0.11648525 1.368 4280170110
-0.1437097 -0.11571889 1.3590001 4279841914
-0.14114286 -0.1155486 1.3570001 4282342559
-0.13878752 -0.1155486 1.3570001 4282803110
-0.13653272 -0.11563375 1.358 4279908473
-0.13437326 -0.11580405 1.36 4279842428
-0.13201271 -0.11580405 1.36 4279842428
-0.12993816 -0.1160595 1.363 4280303237
-0.12794678 -0.1164001 1.3670001 4279579253
-0.12594153 -0.1167407 1.3710001 4286553039
-0.12428289 -0.1174219 1.3790001 4286159038
-0.12277325 -0.11827339 1.3890001 4282606214
-0.1208823 -0.11878429 1.3950001 4283129722
-0.11712107 -0.11989124 1.4080001 4293653237
-0.11524733 -0.1204873 1.4150001 4294507519
-0.16269723 -0.11512841 1.3800001 4290694624
-0.15995349 -0.11487813 1.3770001 4280562018
-0.15744901 -0.1147947 1.376 4284181919
-0.15517338 -0.11487813 1.3770001 4281682561
-0.15278332 -0.11487813 1.3770001 4281288326
-0.1500656 -0.11462785 1.3740001 4280499326
-0.14714335 -0.11421072 1.3690001 4280171135
-0.14381546 -0.11345989 1.36 4280369025
-0.14145491 -0.11345989 1.36 4283264171
-0.13899207 -0.11337645 1.3590001 4284120246
-0.13673382 -0.11345989 1.36 4280369028
-0.13447206 -0.11354331 1.3610001 4279645309
-0.13220684 -0.11362673 1.3620001 4279842690
-0.13003349 -0.11379359 1.3640001 4280172167
-0.12813398 -0.11421072 1.3690001 4279514750
-0.1260334 -0.114461 1.3720001 4280171653
-0.12446314 -0.11521183 1.381 4280106877
-0.12303842 -0.11612953 1.3920001 4280501368
-0.1210556 -0.11654666 1.3970001 4281750136
-0.11728744 -0.1176312 1.4100001 4279311910
-0.16316882 -0.11307658 1.3840001 4288851909
-0.16041814 -0.11283147 1.381 4281285743
-0.15779229 -0.11266807 1.3790001 4283590043
-0.15551144 -0.11274977 1.3800001 4281024634
-0.15300523 -0.11266807 1.3790001 4281156996
-0.15028404 -0.11242297 1.376 4280434050
-0.14714335 -0.11185104 1.3690001 4280105347
-0.14455569 -0.11168764 1.3670001 4279777147
-0.14155892 -0.11119742 1.3610001 4280632971
-0.13919663 -0.11119742 1.3610001 4282672553
-0.13683435 -0.11119742 1.3610001 4279580284
-0.13457087 -0.11127912 1.3620001 4279645822
-0.13220684 -0.11127912 1.3620001 4279646334
-0.13012882 -0.11152422 1.365 4279974529
-0.12813398 -0.11185104 1.3690001 4279711102
-0.12612525 -0.11217786 1.373 4279448957
-0.12464339 -0.11299488 1.383 4279975297
-0.12321521 -0.11389361 1.3940001 4280698498
-0.12114227 -0.11422042 1.3980001 4281684604
-0.11720425 -0.11511915 1.409 4279311396
-0.16375829 -0.11109094 1.3890001 4285101201
-0.16076662 -0.11069105 1.3840001 4281746296
-0.15813556 -0.11053109 1.3820001 4283327130
-0.1558495 -0.11061107 1.383 4280367477
-0.15333809 -0.11053109 1.3820001 4280565634
-0.15039326 -0.1101312 1.3770001 4280499847
-0.14735831 -0.10965132 1.3710001 4279974020
-0.14466143 -0.10941138 1.368 4279843204
-0.14166293 -0.1089315 1.3620001 4279908996
-0.13919663 -0.10885153 1.3610001 4280040583
-0.13683435 -0.10885153 1.3610001 4279711616
-0.13457087 -0.1089315 1.3620001 4279514492
-0.13230392 -0.10901149 1.363 4279580540
-0.13012882 -0.10917144 1.365 4279777408
-0.12822758 -0.10957135 1.3700001 4279711359
-0.12621711 -0.10989126 1.3740001 4279580545
-0.12464339 -0.11061107 1.383 4279975300
-0.12312682 -0.11141086 1.393 4280697734
-0.12122891 -0.11189074 1.399 4282077825
-0.16387621 -0.10877505 1.3900001 4289048519
-0.1611151 -0.10854028 1.3870001 4281483639
-0.15847883 -0.10838377 1.3850001 4283787939
-0.1559622 -0.10830552 1.3840001 4279579247
-0.15356 -0.10830552 1.3840001 4280302975
-0.1506117 -0.10791424 1.3790001 4280500612
-0.14757328 -0.10744471 1.373 4280105857
-0.14487292 -0.10720994 1.3700001 4279777410
-0.14176695 -0.10666215 1.363 4279711617
-0.13940118 -0.10666215 1.363 4279514238
-0.13693488 -0.10658389 1.3620001 4279645824
-0.13466968 -0.10666215 1.363 4279580032
-0.13240097 -0.10674041 1.3640001 4279711359
-0.13031949 -0.10697518 1.3670001 4279514239
-0.12841478 -0.10736645 1.3720001 4279448957
-0.12630898 -0.10760122 1.3750001 4279777409
-0.12473352 -0.10830552 1.3840001 4279975301
-0.1233036 -0.10916632 1.3950001 4280829319
-0.11888558 -0.1095576 1.4000001 4281678415
-0.16434778 -0.1066853 1.3940001 4287733431
-0.16146359 -0.10637917 1.3900001 4280760169
-0.15870769 -0.10614958 1.3870001 4283920295
-0.15641296 -0.10622611 1.388 4279381611
-0.15400381 -0.10622611 1.388 4280302719
-0.15104857 -0.10584345 1.383 4280238215
-0.14778824 -0.1052312 1.3750001 4280040583
-0.14508443 -0.10500161 1.3720001 4279843465
-0.14197496 -0.10446588 1.365 4279646596
-0.13950346 -0.10438935 1.3640001 4279646336
-0.13713597 -0.10438935 1.3640001 4279448958
-0.13476847 -0.10438935 1.3640001 4279580543
-0.13249804 -0.10446588 1.365 4279777664
-0.13051015 -0.10477201 1.3690001 4279514753
-0.12860195 -0.10515466 1.3740001 4279645055
-0.12649269 -0.10538426 1.3770001 4279645310
-0.12491376 -0.10607304 1.386 4279907713
-0.1210556 -0.10691489 1.3970001 4282602624
-0.11914034 -0.10737409 1.4030001 4281020746
-0.16481937 -0.10458177 1.3980001 4286747050
-0.1616959 -0.10413291 1.3920001 4281812856
-0.15905096 -0.10398331 1.3900001 4285301173
-0.1568637 -0.10413291 1.3920001 4279841130
-0.15433668 -0.10405811 1.391 4280828807
-0.15148544 -0.10375888 1.3870001 4280501388
-0.14821817 -0.10316041 1.3790001 4279778184
-0.1452959 -0.10278637 1.3740001 4279712391
-0.14239101 -0.10241233 1.3690001 4279711619
-0.13960573 -0.1021131 1.365 4279580543
-0.13723651 -0.1021131 1.365 4279580544
-0.13486727 -0.1021131 1.365 4279514238
-0.13269219 -0.10226271 1.3670001 4279646338
-0.13060549 -0.10248714 1.3700001 4279646338
-0.12869556 -0.10286118 1.3750001 4279580032
-0.12658456 -0.10308561 1.378 4279711616
-0.12500389 -0.10375888 1.3870001 4280105606
-0.12114227 -0.10458177 1.3980001 4281813635
-0.11905543 -0.104881 1.4020001 4285955744
-0.16517307 -0.10239135 1.401 4285562522
-0.16192822 -0.10187976 1.3940001 4282206845
-0.15927981 -0.1017336 1.3920001 4284444578
-0.15753986 -0.1021721 1.3980001 4280299877
-0.15511335 -0.1021721 1.3980001 4284905908
-0.15170388 -0.10151434 1.3890001 4280632968
-0.14843313 -0.10092967 1.381 4279975560
-0.14561315 -0.10063732 1.3770001 4279908999
-0.14259902 -0.10019882 1.3710001 4279646338
-0.13981028 -0.099906482 1.3670001 4279580032
-0.13733704 -0.099833399 1.3660001 4279645825
-0.13506489 -0.099906482 1.3670001 4279842945
-0.13269219 -0.099906482 1.3670001 4279645825
-0.13060549 -0.10012574 1.3700001 4279646338
-0.12878916 -0.10056425 1.376 4279580291
-0.12667641 -0.1007835 1.3790001 4279514498
-0.12536439 -0.1016605 1.391 4279842947
-0.12166218 -0.10261061 1.404 4281155699
-0.11973478 -0.10304911 1.4100001 4291021281
-0.16529095 -0.10004789 1.4020001 4285496218
-0.16239287 -0.09976244 1.3980001 4282140797
-0.15985194 -0.099691078 1.3970001 4284772516
-0.15776522 -0.099905156 1.4000001 4280626527
-0.15533525 -0.099905156 1.4000001 4287929295
-0.15235919 -0.099548355 1.3950001 4281157510
-0.14886306 -0.098834746 1.3850001 4280106372
-0.14603613 -0.098549306 1.381 4279908997
-0.14280705 -0.097978421 1.373 4279712131
-0.14011711 -0.097764336 1.3700001 4279580293
-0.13753812 -0.097621612 1.368 4279645830
-0.13516368 -0.097621612 1.368 4279581061
-0.13288632 -0.097692974 1.3690001 4279449729
-0.13089147 -0.097978421 1.373 4279449727
-0.12897636 -0.098335221 1.378 4279645825
-0.12695201 -0.098620668 1.3820001 4279842434
-0.12545452 -0.099334277 1.3920001 4280039300
-0.12166218 -0.1001906 1.404 4280892276
-0.11973478 -0.10061877 1.4100001 4288982215
-0.16529095 -0.097631328 1.4020001 4286217889
-0.16239287 -0.097352773 1.3980001 4279441237
-0.15996636 -0.097352773 1.3980001 4280954986
-0.15787792 -0.097561687 1.401 4279965775
-0.15544622 -0.097561687 1.401 4290100203
-0.15235919 -0.097143866 1.3950001 4281157248
-0.14897054 -0.096517131 1.386 4280172166
-0.14614189 -0.096238583 1.3820001 4279974020
-0.14291106 -0.095681481 1.3740001 4279711366
-0.14021938 -0.095472567 1.3710001 4279317889
-0.1377392 -0.095402934 1.3700001 4279318400
-0.1353613 -0.095402934 1.3700001 4279646086
-0.13308045 -0.095472567 1.3710001 4279515268
-0.13108215 -0.095751122 1.3750001 4279581574
-0.12916353 -0.096099302 1.3800001 4279777924
-0.12713572 -0.096377857 1.3840001 4279908483
-0.12554465 -0.097004592 1.393 4280040326
-0.12174883 -0.097840242 1.4050001 4280892537
-0.11973478 -0.098188423 1.4100001 4287666870
-0.16505516 -0.095078938 1.4000001 4286483629
-0.16216055 -0.09480729 1.396 4279313505
-0.15985194 -0.094875194 1.3970001 4280232808
-0.1579906 -0.095214769 1.4020001 4280032081
-0.15555716 -0.095214769 1.4020001 4291613945
-0.15246841 -0.09480729 1.396 4281223290
-0.14897054 -0.094128147 1.386 4280435078
-0.14614189 -0.093856499 1.3820001 4279908995
-0.14301507 -0.093381099 1.3750001 4279908999
-0.14032166 -0.093177363 1.3720001 4279908997
-0.13783973 -0.093109444 1.3710001 4279646338
-0.1355589 -0.093177363 1.3720001 4279711366
-0.1332746 -0.093245275 1.373 4279514498
-0.13127281 -0.093516923 1.3770001 4279383682
-0.12944433 -0.093924411 1.383 4279449216
-0.12722759 -0.094060235 1.3850001 4279777411
-0.12563477 -0.094671458 1.3940001 4279909252
-0.12174883 -0.095418513 1.4050001 4281418881
-0.11973478 -0.095758073 1.4100001 4286218660
-0.16458358 -0.092401072 1.396 4285694370
-0.1616959 -0.092136309 1.3920001 4279380330
-0.15950866 -0.09226869 1.3940001 4280167275
-0.15787792 -0.09273202 1.401 4280162382
-0.15555716 -0.092798211 1.4020001 4292008698
-0.15257762 -0.092467256 1.3970001 4281025139
-0.14897054 -0.09173917 1.386 4280697995
-0.14603613 -0.091408223 1.381 4280040583
-0.14301507 -0.091011085 1.3750001 4279843204
-0.14032166 -0.090812512 1.3720001 4279711618
-0.13794029 -0.090812512 1.3720001 4279646084
-0.13575651 -0.090944886 1.3740001 4279843463
-0.13346873 -0.091011085 1.3750001 4279777413
-0.13136815 -0.09120965 1.378 4279843463
-0.12944433 -0.091540597 1.383 4279581059
-0.12731944 -0.09173917 1.386 4279712385
-0.12563477 -0.09226869 1.3940001 4279975813
-0.12166218 -0.092930593 1.404 4281615747
-0.11964985 -0.09326154 1.409 4284836495
-0.16422988 -0.089801453 1.393 4283982728
-0.16146359 -0.089608058 1.3900001 4279313767
-0.15950866 -0.089865915 1.3940001 4280101225
-0.15787792 -0.090317182 1.401 4279505220
-0.15566811 -0.090446115 1.4030001 4292995581
-0.15257762 -0.090059318 1.3970001 4280696430
-0.14897054 -0.089350186 1.386 4280500616
-0.14614189 -0.089092329 1.3820001 4280106378
-0.14311908 -0.088705532 1.376 4279843717
-0.14052621 -0.088576593 1.3740001 4279645825
-0.13804083 -0.08851213 1.373 4279711877
-0.13585532 -0.088641062 1.3750001 4279646854
-0.1335658 -0.088705532 1.376 4279581059
-0.13146347 -0.088898927 1.3790001 4279712131
-0.12953794 -0.089221261 1.3840001 4279711618
-0.12741131 -0.089414656 1.3870001 4279974529
-0.12563477 -0.089865915 1.3940001 4280106371
-0.12166218 -0.090510584 1.404 4281484163
-0.11964985 -0.090832911 1.409 4283125880
-0.16364041 -0.087086692 1.388 4282730610
-0.16099893 -0.08696121 1.386 4279902571
-0.15905096 -0.087212183 1.3900001 4280100457
-0.15765254 -0.08777687 1.399 4279569733
-0.15555716 -0.087965094 1.4020001 4293980158
-0.15257762 -0.087651379 1.3970001 4281810799
-0.14897054 -0.08696121 1.386 4280500617
-0.14624763 -0.086772986 1.383 4280435341
-0.14322309 -0.086396523 1.3770001 4279909256
-0.14062849 -0.08627104 1.3750001 4279843204
-0.13814135 -0.086208299 1.3740001 4279712129
-0.13585532 -0.08627104 1.3750001 4279843206
-0.1335658 -0.086333789 1.376 4279777924
-0.13155881 -0.086584754 1.3800001 4279712645
-0.12953794 -0.086835727 1.3840001 4279777924
-0.12731944 -0.08696121 1.386 4279777665
-0.12563477 -0.087463148 1.3940001 4280040836
-0.12174883 -0.088153325 1.4050001 4281157509
-0.11964985 -0.08840429 1.409 4282667388
-0.16305092 -0.084389172 1.383 4280953433
-0.16041814 -0.084267139 1.381 4279836523
-0.1588221 -0.084694266 1.388 4279837033
-0.15753986 -0.085304461 1.3980001 4279702855
-0.15544622 -0.085487515 1.401 4294441215
-0.15246841 -0.085182421 1.396 4281613418
-0.14897054 -0.084572233 1.386 4280697737
-0.14614189 -0.08432816 1.3820001 4280304266
-0.14322309 -0.084023058 1.3770001 4279909510
-0.14052621 -0.083840005 1.3740001 4280105606
-0.13814135 -0.083840005 1.3740001 4279843202
-0.13585532 -0.083901025 1.3750001 4279711877
-0.13366286 -0.084023058 1.3770001 4279712131
-0.13146347 -0.084145099 1.3790001 4279777924
-0.12944433 -0.084389172 1.383 4279712387
-0.12731944 -0.084572233 1.386 4279712642
-0.12563477 -0.08506038 1.3940001 4279974787
-0.12166218 -0.085670575 1.404 4280764550
-0.11973478 -0.08603669 1.4100001 4281156721
-0.16676734 -0.082657613 1.3940001 4293983743
-0.16305092 -0.082005367 1.383 4279442774
-0.16053429 -0.081946075 1.3820001 4279574892
-0.1588221 -0.08230184 1.388 4279575143
-0.15753986 -0.082894795 1.3980001 4282204527
-0.15544622 -0.083072685 1.401 4294442239
-0.15246841 -0.082776204 1.396 4281417063
-0.14897054 -0.082183249 1.386 4280764041
-0.14614189 -0.081946075 1.3820001 4280238472
-0.1433271 -0.081708893 1.378 4279909510
-0.14073075 -0.081590302 1.376 4279777411
-0.1382419 -0.081531003 1.3750001 4279646336
-0.13595411 -0.081590302 1.376 4279777924
-0.13366286 -0.081649594 1.3770001 4279712129
-0.13155881 -0.081827477 1.3800001 4279843715
-0.12944433 -0.082005367 1.383 4279712129
-0.12722759 -0.08212395 1.3850001 4279843458
-0.12554465 -0.082598321 1.393 4279843458
-0.12174883 -0.083309866 1.4050001 4280698501
-0.11973478 -0.08360634 1.4100001 4280958318
-0.16652808 -0.080139704 1.3920001 4293654783
-0.16328672 -0.079736695 1.3850001 4278851417
-0.16076662 -0.079679132 1.3840001 4279380077
-0.15905096 -0.080024563 1.3900001 4278326355
-0.15765254 -0.080542706 1.399 4286021803
-0.15544622 -0.080657847 1.401 4294442239
-0.15246841 -0.080369994 1.396 4281549676
-0.14897054 -0.079794273 1.386 4280501383
-0.14624763 -0.079621553 1.383 4279975043
-0.14343111 -0.079391271 1.3790001 4279646338
-0.14083304 -0.07927613 1.3770001 4279712131
-0.13834244 -0.079218559 1.376 4279581056
-0.13585532 -0.079160988 1.3750001 4279777409
-0.1335658 -0.079218559 1.376 4279777921
-0.13146347 -0.079391271 1.3790001 4279712386
-0.12953794 -0.079679132 1.3840001 4279711359
-0.12731944 -0.079794273 1.386 4279974274
-0.12563477 -0.080254845 1.3940001 4279909250
-0.12183549 -0.0809457 1.406 4280894593
-0.1199046 -0.081291132 1.4120001 4281153899
-0.16628882 -0.077628687 1.3900001 4292472063
-0.16352251 -0.077461146 1.3870001 4278326872
-0.16099893 -0.077405289 1.386 4279642988
-0.15962309 -0.077907927 1.3950001 4278391882
-0.1579906 -0.078298867 1.4020001 4289969884
-0.15566811 -0.078354709 1.4030001 4294508031
-0.15246841 -0.077963777 1.396 4281614700
-0.14907803 -0.077461146 1.3870001 4280697995
-0.14635338 -0.077293597 1.3840001 4279974788
-0.14353512 -0.077070206 1.3800001 4279777670
-0.14103758 -0.077014357 1.3790001 4279711874
-0.13854352 -0.076958507 1.378 4279449214
-0.13585532 -0.076790966 1.3750001 4279645568
-0.1335658 -0.076846816 1.376 4279646336
-0.13155881 -0.077070206 1.3800001 4279777665
-0.12963152 -0.077349439 1.3850001 4279842944
-0.12750317 -0.077516988 1.388 4279907709
-0.12581502 -0.077963777 1.396 4280170878
-0.12192215 -0.0785781 1.4070001 4280826993
-0.12007444 -0.078969032 1.414 4281218663
-0.11836881 -0.079471663 1.4230001 4285362578
-0.16434778 -0.075449303 1.3940001 4278194773
-0.16181207 -0.075395189 1.393 4279970154
-0.16008079 -0.07571993 1.399 4279112006
-0.15832868 -0.076044679 1.4050001 4293586175
-0.15589002 -0.076044679 1.4050001 4294376446
-0.15257762 -0.075611681 1.3970001 4281220201
-0.14907803 -0.075070441 1.3870001 4280566152
-0.14645912 -0.074962184 1.3850001 4279908997
-0.14374314 -0.074799821 1.3820001 4279646854
-0.14103758 -0.074637443 1.3790001 4279580288
-0.13864405 -0.074637443 1.3790001 4279383678
-0.13595411 -0.074475072 1.376 4279580030
-0.13366286 -0.074529193 1.3770001 4279777407
-0.13165414 -0.074745692 1.381 4279908479
-0.12981872 -0.075070441 1.3870001 4279645301
-0.12768689 -0.075232811 1.3900001 4279907698
-0.12356877 -0.075665802 1.3980001 4280234601
-0.1220088 -0.076207042 1.4080001 4280694377
-0.12007444 -0.07653179 1.414 4281219434
-0.11861835 -0.077181287 1.4260001 4282929269
-0.16540885 -0.073518142 1.4030001 4278195285
-0.1628575 -0.07346575 1.4020001 4279641446
-0.16099618 -0.073727749 1.4070001 4279506503
-0.15889212 -0.073884949 1.4100001 4294309631
-0.15622288 -0.073780142 1.4080001 4294048253
-0.15268685 -0.073256142 1.3980001 4281024363
-0.14929299 -0.072784536 1.3890001 4280434824
-0.14656486 -0.072627336 1.386 4279711620
-0.14374314 -0.072417736 1.3820001 4279646084
-0.14113985 -0.072312929 1.3800001 4279514239
-0.13864405 -0.072260529 1.3790001 4279645825
-0.13605292 -0.072155729 1.3770001 4279646078
-0.13375993 -0.072208129 1.378 4279974526
-0.13165414 -0.072365329 1.381 4279907704
-0.12991232 -0.072732136 1.388 4279315560
-0.12777875 -0.072889335 1.391 4280038504
-0.12365716 -0.073308542 1.399 4280365669
-0.1220088 -0.073780142 1.4080001 4280759914
-0.1199046 -0.073989749 1.4120001 4281219692
-0.11828563 -0.074513763 1.4220001 4281548387
-0.16576254 -0.071251892 1.406 4278195544
-0.163206 -0.07120122 1.4050001 4279970669
-0.16122504 -0.071403928 1.409 4279704138
-0.15900482 -0.071505278 1.411 4294310143
-0.15633383 -0.071403928 1.409 4293326588
-0.15279606 -0.070897155 1.399 4280170085
-0.14918551 -0.070339702 1.388 4280303752
-0.14645912 -0.070187673 1.3850001 4279777159
-0.14374314 -0.070035651 1.3820001 4279513987
-0.14103758 -0.069883615 1.3790001 4279580030
-0.13844298 -0.069782257 1.3770001 4279711361
-0.13605292 -0.069782257 1.3770001 4279777152
-0.13375993 -0.069832936 1.378 4280039808
-0.13174947 -0.070035651 1.3820001 4280170361
-0.12981872 -0.070289031 1.3870001 4279446627
-0.12777875 -0.070491739 1.391 4280038242
-0.12590514 -0.070795797 1.3970001 4280037984
-0.12174883 -0.07120122 1.4050001 4280628583
-0.11973478 -0.071454607 1.4100001 4281285486
-0.118452 -0.072164081 1.424 4281022562
-0.16823837 -0.069856465 1.427 4279379038
-0.16401911 -0.069122158 1.4120001 4280430698
-0.16191158 -0.069269024 1.4150001 4279835462
-0.15934289 -0.069220066 1.414 4294310399
-0.1564448 -0.069024257 1.4100001 4292866554
-0.15268685 -0.068436816 1.3980001 4279908462
-0.14929299 -0.067996234 1.3890001 4280434571
-0.14656486 -0.067849375 1.386 4279908232
-0.14374314 -0.067653567 1.3820001 4279513988
-0.14113985 -0.067555651 1.3800001 4279448703
-0.13864405 -0.067506701 1.3790001 4279514495
-0.13615173 -0.06745775 1.378 4279776637
-0.133857 -0.067506701 1.3790001 4279973243
-0.13174947 -0.067653567 1.3820001 4280236151
-0.12991232 -0.067947276 1.388 4279644002
-0.12777875 -0.068094142 1.391 4279972447
-0.12590514 -0.068387859 1.3970001 4279840603
-0.12174883 -0.068779491 1.4050001 4280562788
-0.11964985 -0.0689753 1.409 4281022572
-0.118452 -0.069709606 1.424 4281548398
-0.16800258 -0.067302354 1.4250001 4284903071
-0.16448377 -0.066877291 1.416 4285952938
-0.16202602 -0.066877291 1.416 4281939806
-0.15956827 -0.066877291 1.416 4294377471
-0.15633383 -0.066546679 1.409 4292143351
-0.15268685 -0.06602715 1.3980001 4279711343
-0.14929299 -0.065602086 1.3890001 4280040581
-0.14656486 -0.065460391 1.386 4279842953
-0.14384715 -0.065318704 1.383 4279513986
-0.14124215 -0.065224245 1.381 4279316861
-0.13874459 -0.065177016 1.3800001 4279513983
-0.13625053 -0.065129787 1.3790001 4279579003
-0.13395406 -0.065177016 1.3800001 4279710075
-0.1318448 -0.065318704 1.383 4280038774
-0.12981872 -0.065507628 1.3870001 4279643749
-0.12759502 -0.065602086 1.3890001 4279906402
-0.12563477 -0.065838233 1.3940001 4279840604
-0.12148888 -0.066216074 1.4020001 4280562785
-0.11948002 -0.06645222 1.4070001 4280825442
-0.11786971 -0.066924512 1.4170001 4281614445
-0.16776678 -0.064755142 1.4230001 4283850124
-0.16448377 -0.0644366 1.416 4285427361
-0.16202602 -0.0644366 1.416 4282992494
-0.15945557 -0.064391091 1.4150001 4294638847
-0.15622288 -0.064072549 1.4080001 4291813362
-0.15257762 -0.063571982 1.3970001 4280040056
-0.14929299 -0.063207932 1.3890001 4280041094
-0.14667062 -0.063116923 1.3870001 4279580295
-0.14405517 -0.063025907 1.3850001 4279448194
-0.14154896 -0.062980406 1.3840001 4279448447
-0.13894567 -0.062889397 1.3820001 4279448191
-0.13644814 -0.062843889 1.381 4279645055
-0.13405114 -0.062843889 1.381 4279841916
-0.1318448 -0.062934898 1.383 4280104565
-0.12963152 -0.063025907 1.3850001 4279775335
-0.12741131 -0.063116923 1.3870001 4279906400
-0.12545452 -0.063344449 1.3920001 4279840603
-0.12365716 -0.063662998 1.399 4280103261
-0.12157553 -0.063845016 1.4030001 4280563296
-0.11737062 -0.064209066 1.411 4281680491
-0.16483225 -0.062127259 1.419 4285493670
-0.16225486 -0.062083472 1.4180001 4283388277
-0.15945557 -0.061952125 1.4150001 4294638847
-0.15633383 -0.061689429 1.409 4290957293
-0.15257762 -0.06116404 1.3970001 4279776373
-0.14940047 -0.060857568 1.3900001 4279909251
-0.14677636 -0.060769998 1.388 4279580037
-0.14415918 -0.060682435 1.386 4279513729
-0.14175351 -0.060682435 1.386 4279513726
-0.1392473 -0.060638651 1.3850001 4279448189
-0.13674456 -0.060594872 1.3840001 4279710078
-0.13424526 -0.060551088 1.383 4279972989
-0.13194014 -0.060594872 1.3840001 4280235893
-0.12981872 -0.060726218 1.3870001 4279972198
-0.12741131 -0.060726218 1.3870001 4279774812
-0.12536439 -0.060901344 1.391 4279840346
-0.12356877 -0.061207823 1.3980001 4280103260
-0.12114227 -0.061207823 1.3980001 4280497503
-0.1174538 -0.061820779 1.4120001 4281285476
-0.16599385 -0.060101982 1.429 4286086828
-0.16328469 -0.060017865 1.427 4282994546
-0.15956827 -0.059555221 1.416 4294638591
-0.15622288 -0.059218746 1.4080001 4288522449
-0.15257762 -0.058756102 1.3970001 4279710067
-0.14950795 -0.058503747 1.391 4279974272
-0.1468821 -0.058419634 1.3890001 4279580028
-0.14436722 -0.058377571 1.388 4279710844
-0.14206032 -0.058419634 1.3890001 4279448186
-0.13954891 -0.058377571 1.388 4279513722
-0.13694215 -0.058293454 1.386 4279841147
-0.13424526 -0.058167279 1.383 4279906427
-0.13194014 -0.058209341 1.3840001 4280038260
-0.12963152 -0.058251396 1.3850001 4280169577
-0.12731944 -0.058293454 1.386 4279643227
-0.12500389 -0.058335517 1.3870001 4279971675
-0.12295003 -0.058503747 1.391 4280168793
-0.12079564 -0.058629923 1.3940001 4280234328
-0.11931018 -0.059092578 1.4050001 4280496987
-0.1591175 -0.056953188 1.4120001 4294507519
-0.15611194 -0.056751516 1.4070001 4285890472
-0.15268685 -0.056388497 1.3980001 4280037750
-0.14961544 -0.056146488 1.3920001 4280105601
-0.14698786 -0.05606582 1.3900001 4279776635
-0.14457524 -0.05606582 1.3900001 4279513206
-0.14226489 -0.056106154 1.391 4279316082
-0.13964945 -0.056025483 1.3890001 4279578994
-0.13704096 -0.055944812 1.3870001 4279972467
-0.13434234 -0.055823807 1.3840001 4280103796
-0.13194014 -0.055823807 1.3840001 4280169584
-0.12963152 -0.05586414 1.3850001 4280103526
-0.12722759 -0.05586414 1.3850001 4279708760
-0.12500389 -0.055944812 1.3870001 4279971671
-0.12295003 -0.056106154 1.391 4279774291
-0.12070899 -0.056186821 1.393 4279905622
-0.11922527 -0.056630511 1.404 4280300125
-0.15279606 -0.054017447 1.399 4280038777
-0.14961544 -0.053747166 1.3920001 4280040065
-0.14709359 -0.053708557 1.391 4279776124
-0.14447121 -0.053631332 1.3890001 4279512433
-0.14216262 -0.053669944 1.3900001 4279249254
-0.13964945 -0.053631332 1.3890001 4279315043
-0.13704096 -0.05355411 1.3870001 4279445601
-0.13414821 -0.053361051 1.3820001 4279511390
-0.13165414 -0.053322442 1.381 4279642973
-0.12935074 -0.053361051 1.3820001 4279774044
-0.12704386 -0.053399663 1.383 4279707989
-0.12482364 -0.053476885 1.3850001 4279839828
-0.12277325 -0.053631332 1.3890001 4280037210
-0.12062233 -0.053747166 1.3920001 4280365920
-0.11905543 -0.054133281 1.4020001 4280366175
-0.15279606 -0.051606059 1.399 4280368771
-0.14961544 -0.051347844 1.3920001 4279777408
-0.1468821 -0.051237181 1.3890001 4279842172
-0.14447121 -0.051237181 1.3890001 4279512685
-0.14206032 -0.051237181 1.3890001 4279512419
-0.13954891 -0.051200293 1.388 4279709281
-0.13664573 -0.051015854 1.383 4279840097
-0.13405114 -0.050942078 1.381 4279905887
-0.13146347 -0.050868303 1.3790001 4280103008
-0.12916353 -0.05090519 1.3800001 4280102495
-0.12686014 -0.050942078 1.381 4279971165
-0.12473352 -0.051052742 1.3840001 4279970906
-0.12268487 -0.051200293 1.388 4279971163
-0.12053568 -0.051310956 1.391 4279971675
-0.11897051 -0.051679835 1.401 4280169310
-0.11728744 -0.052011825 1.4100001 4280497505
-0.11516589 -0.052159376 1.414 4280956771
-0.15312371 -0.049300164 1.4020001 4280303237
-0.14972292 -0.048983686 1.393 4279843200
-0.14709359 -0.04891336 1.391 4279907448
-0.14457524 -0.048878197 1.3900001 4279709547
-0.14216262 -0.048878197 1.3900001 4279578210
-0.13964945 -0.04884303 1.3890001 4279577436
-0.13704096 -0.048772704 1.3870001 4279576921
-0.13424526 -0.048632044 1.383 4279708247
-0.13155881 -0.048526552 1.3800001 4279839577
-0.12916353 -0.048526552 1.3800001 4279905370
-0.12686014 -0.048561718 1.381 4279905370
-0.12473352 -0.048667211 1.3840001 4280036956
-0.12277325 -0.04884303 1.3890001 4279971676
-0.12062233 -0.048948523 1.3920001 4279971933
-0.11905543 -0.049300164 1.4020001 4279971933
-0.1174538 -0.049651805 1.4120001 4280168541
-0.11541023 -0.049827628 1.4170001 4280825700
-0.15323293 -0.046917047 1.4030001 4280369032
-0.15004537 -0.046682961 1.396 4279776895
-0.14741084 -0.046616085 1.3940001 4279710068
-0.14488727 -0.046582639 1.393 4279512164
-0.14236715 -0.046549201 1.3920001 4279446108
-0.13985053 -0.046515763 1.391 4279577435
-0.13723856 -0.046448879 1.3890001 4279840092
-0.13453647 -0.046348557 1.386 4279971163
-0.13194014 -0.046281677 1.3840001 4279971163
-0.12944433 -0.046248235 1.383 4279905370
-0.12704386 -0.046248235 1.383 4279839577
-0.12491376 -0.046348557 1.386 4279707991
-0.12295003 -0.046515763 1.391 4279642968
-0.12079564 -0.046616085 1.3940001 4279774554
-0.11905543 -0.046883605 1.4020001 4280037726
-0.1174538 -0.04721801 1.4120001 4280103006
-0.11524733 -0.047318332 1.4150001 4280365663
-0.15323293 -0.044498764 1.4030001 4280040325
-0.15015285 -0.044308465 1.3970001 4279842178
-0.14751659 -0.044245031 1.3950001 4279906935
-0.14488727 -0.044181596 1.393 4279644261
-0.14236715 -0.044149879 1.3920001 4279840609
-0.13985053 -0.044118162 1.391 4279840095
-0.13733737 -0.044086449 1.3900001 4279840092
-0.13473061 -0.044023015 1.388 4279773784
-0.1321308 -0.043959577 1.386 4279905370
-0.12963152 -0.043927863 1.3850001 4279905627
-0.12731944 -0.043959577 1.386 4279971677
-0.12500389 -0.043991297 1.3870001 4279971933
-0.12286165 -0.044086449 1.3900001 4279906140
-0.12079564 -0.044213314 1.3940001 4279774810
-0.11888558 -0.044403616 1.4000001 4279840603
-0.11703789 -0.044625632 1.4070001 4279972702
-0.11492155 -0.044752501 1.411 4280498533
-0.11080316 -0.045069668 1.4210001 4281680756
-0.15345137 -0.042140469 1.4050001 4279843463
-0.15036781 -0.041960511 1.399 4279776642
-0.14783384 -0.041930519 1.3980001 4279775608
-0.1451993 -0.041870531 1.396 4279446887
-0.14257172 -0.041810546 1.3940001 4279446367
-0.14015214 -0.041810546 1.3940001 4279577437
-0.13753498 -0.041750558 1.3920001 4279708508
-0.13502182 -0.041720565 1.391 4279708506
-0.13251214 -0.041690573 1.3900001 4279840348
-0.13000591 -0.041660577 1.3890001 4279840348
-0.12759502 -0.041660577 1.3890001 4279774811
-0.12527427 -0.041690573 1.3900001 4279643224
-0.12312682 -0.04178055 1.393 4279709273
-0.1208823 -0.041840538 1.3950001 4279906909
-0.11897051 -0.0420205 1.401 4279907167
-0.11703789 -0.042200457 1.4070001 4279775585
-0.11484011 -0.042290438 1.4100001 4279907432
-0.11318988 -0.042590369 1.4200001 4280433780
-0.15356058 -0.039747011 1.406 4279777160
-0.15058279 -0.039605662 1.401 4279776644
-0.14793958 -0.039549123 1.399 4279512696
-0.14530331 -0.039492585 1.3970001 4279381101
-0.14277627 -0.039464314 1.396 4279447141
-0.14025269 -0.039436046 1.3950001 4279577951
-0.13773258 -0.039407779 1.3940001 4279708767
-0.13511889 -0.039351236 1.3920001 4279774557
-0.13251214 -0.039294701 1.3900001 4279906395
-0.13009952 -0.039294701 1.3900001 4279972188
-0.12768689 -0.039294701 1.3900001 4280037984
-0.12536439 -0.039322969 1.391 4279840861
-0.12321521 -0.039407779 1.3940001 4279643997
-0.1208823 -0.039436046 1.3950001 4279446622
-0.11888558 -0.039577395 1.4000001 4279381345
-0.11687153 -0.03971874 1.4050001 4279776367
-0.11467721 -0.03980355 1.4080001 4280170877
-0.11287104 -0.040029705 1.416 4280368772
-0.1086417 -0.040284131 1.4250001 4283129490
-0.10654084 -0.040425483 1.4300001 4287337140
-0.15345137 -0.037297014 1.4050001 4279842951
-0.15047529 -0.037164286 1.4000001 4279710852
-0.14793958 -0.037137736 1.399 4279578748
-0.14530331 -0.037084647 1.3970001 4279250290
-0.14277627 -0.0370581 1.396 4279118441
-0.14025269 -0.037031554 1.3950001 4279183714
-0.13773258 -0.037005007 1.3940001 4279446114
-0.13511889 -0.036951914 1.3920001 4279380573
-0.13241678 -0.036872279 1.3890001 4279446360
-0.13000591 -0.036872279 1.3890001 4279512411
-0.12759502 -0.036872279 1.3890001 4279577952
-0.12536439 -0.036925372 1.391 4279512417
-0.12312682 -0.036978461 1.393 4279578471
-0.12079564 -0.037005007 1.3940001 4279644529
-0.11880067 -0.037137736 1.399 4279842170
-0.11678835 -0.037270468 1.404 4279908223
-0.11459576 -0.037350107 1.4070001 4280039558
-0.11279132 -0.037562471 1.4150001 4280171397
-0.11111507 -0.037827931 1.4250001 4281223562
-0.10668985 -0.038013753 1.432 4285035674
-0.16001903 -0.03524762 1.4200001 4281814904
-0.1568886 -0.035098683 1.414 4280763265
-0.15356058 -0.034900106 1.406 4279777155
-0.15058279 -0.034775995 1.401 4279645058
-0.14804532 -0.034751173 1.4000001 4279448445
-0.14540733 -0.03470153 1.3980001 4279382396
-0.14287853 -0.034676708 1.3970001 4279513213
-0.14035323 -0.034651883 1.396 4279512952
-0.13753498 -0.034552593 1.3920001 4279512690
-0.13473061 -0.034453306 1.388 4279644014
-0.13222614 -0.034428485 1.3870001 4279841386
-0.12981872 -0.034428485 1.3870001 4280038508
-0.12750317 -0.034453306 1.388 4279973230
-0.12527427 -0.03450295 1.3900001 4279907697
-0.12303842 -0.034552593 1.3920001 4279776373
-0.12079564 -0.03460224 1.3940001 4279644795
-0.11871576 -0.03470153 1.3980001 4279645056
-0.11670516 -0.034825638 1.4030001 4279580029
-0.11451431 -0.034900106 1.406 4279843199
-0.11271162 -0.035098683 1.414 4279974013
-0.10871793 -0.03539655 1.4260001 4284445608
-0.10668985 -0.035545483 1.432 4284642204
-0.15956827 -0.032707639 1.416 4280761966
-0.1566667 -0.032615244 1.4120001 4280895109
-0.1536698 -0.032499753 1.4070001 4280040325
-0.15079774 -0.032407355 1.4030001 4279645315
-0.14825681 -0.032384258 1.4020001 4279317118
-0.14561534 -0.032338064 1.4000001 4279448448
-0.14277627 -0.032245666 1.396 4279448194
-0.14025269 -0.032222569 1.3950001 4279381888
-0.13743618 -0.032130174 1.391 4279579261
-0.13453647 -0.032014679 1.386 4279710840
-0.13203546 -0.031991582 1.3850001 4279842165
-0.12972511 -0.032014679 1.386 4279907954
-0.12741131 -0.03203778 1.3870001 4280171124
-0.12518413 -0.032083977 1.3890001 4280236920
-0.12303842 -0.032153271 1.3920001 4280171131
-0.12070899 -0.032176372 1.393 4279908476
-0.11863083 -0.032268766 1.3970001 4279777149
-0.11662198 -0.032384258 1.4020001 4279908988
-0.11435143 -0.032430455 1.404 4280040573
-0.1126319 -0.032638345 1.4130001 4280105597
-0.11103709 -0.032892428 1.424 4282867869
-0.10654084 -0.03303102 1.4300001 4284050073
-0.15990633 -0.030331073 1.419 4280498544
-0.1568886 -0.0302242 1.414 4280894344
-0.1536698 -0.030074576 1.4070001 4280040070
-0.15079774 -0.029989075 1.4030001 4279776901
-0.14836256 -0.029989075 1.4030001 4279448193
-0.14561534 -0.029924953 1.4000001 4279382658
-0.14287853 -0.029860828 1.3970001 4279316863
-0.14025269 -0.029818077 1.3950001 4279448192
-0.13743618 -0.029732578 1.391 4279579518
-0.13443941 -0.029604327 1.3850001 4279579513
-0.13194014 -0.029582953 1.3840001 4279908729
-0.12963152 -0.029604327 1.3850001 4280302969
-0.12731944 -0.029625701 1.386 4280368760
-0.12518413 -0.029689826 1.3890001 4280434554
-0.12295003 -0.029732578 1.391 4280500607
-0.12070899 -0.029775325 1.393 4280435071
-0.11854592 -0.02983945 1.396 4280303742
-0.11645561 -0.029924953 1.4000001 4280171898
-0.11426997 -0.029989075 1.4030001 4279909238
-0.11247248 -0.030160075 1.411 4280434557
-0.11088114 -0.030395199 1.4220001 4282999454
-0.10894665 -0.030544823 1.429 4283788452
-0.16001903 -0.027904866 1.4200001 4280366705
-0.15699956 -0.02780661 1.4150001 4280631178
-0.15377901 -0.027669052 1.4080001 4280039815
-0.15090524 -0.027590446 1.404 4279645572
-0.14846832 -0.027590446 1.404 4279316865
-0.14582336 -0.027551142 1.4020001 4279250817
-0.14298083 -0.027472537 1.3980001 4279251071
-0.14045377 -0.027452886 1.3970001 4279316859
-0.13763379 -0.027374281 1.393 4279580028
-0.13463356 -0.027256373 1.3870001 4280106369
-0.13203546 -0.027217072 1.3850001 4280303231
-0.12972511 -0.027236722 1.386 4280500605
-0.12750317 -0.027276024 1.388 4280500602
-0.12527427 -0.027315328 1.3900001 4280435066
-0.12312682 -0.027374281 1.393 4280632189
-0.12079564 -0.027393932 1.3940001 4280632446
-0.11863083 -0.027452886 1.3970001 4280566397
-0.11645561 -0.027511841 1.4000001 4280632446
-0.11426997 -0.027570795 1.4030001 4280566653
-0.11239277 -0.027708353 1.4100001 4280632447
-0.11072519 -0.027904866 1.4200001 4283197346
-0.1086417 -0.028003123 1.4250001 4283525283
-0.15990633 -0.025439356 1.419 4280696188
-0.15699956 -0.025367644 1.4150001 4280369034
-0.15377901 -0.025242152 1.4080001 4279777159
-0.15112019 -0.025206296 1.406 4279645830
-0.14867979 -0.025206296 1.406 4279448451
-0.14592737 -0.025152512 1.4030001 4279382144
-0.14318536 -0.02509873 1.4000001 4279382653
-0.14055431 -0.025062874 1.3980001 4279382650
-0.1378314 -0.025009092 1.3950001 4280171649
-0.13482767 -0.024901524 1.3890001 4280369281
-0.13232146 -0.024883598 1.388 4280434815
-0.13000591 -0.024901524 1.3890001 4280566653
-0.12768689 -0.024919452 1.3900001 4280500859
-0.12545452 -0.024955308 1.3920001 4280435066
-0.1233036 -0.025009092 1.3950001 4280566652
-0.12096895 -0.02502702 1.396 4280566652
-0.11871576 -0.025062874 1.3980001 4280566652
-0.11645561 -0.02509873 1.4000001 4280763519
-0.11418853 -0.025134584 1.4020001 4280829568
-0.11231306 -0.02526008 1.409 4280830081
-0.11056924 -0.025421428 1.4180001 4283000480
-0.10848922 -0.025511065 1.4230001 4283328419
-0.10661535 -0.025654487 1.4310001 4282209937
-0.15968095 -0.022961086 1.4170001 4280763527
-0.1566667 -0.022880066 1.4120001 4280172939
-0.15377901 -0.022815252 1.4080001 4279712138
-0.15112019 -0.022782844 1.406 4279646088
-0.14867979 -0.022782844 1.406 4279514500
-0.14592737 -0.02273423 1.4030001 4279513731
-0.14318536 -0.022685619 1.4000001 4279513724
