# .PCD v0.7 - Point Cloud Data file format
VERSION 0.7
FIELDS x y z rgba
SIZE 4 4 4 4
TYPE F F F U
COUNT 1 1 1 1
WIDTH 1086
HEIGHT 1
VIEWPOINT 0 0 0 1 0 0 0
POINTS 1086
DATA ascii
-0.13644814 -0.129494 1.381 4279580283
-0.13453647 -0.12996285 1.386 4279843202
-0.13222614 -0.1300566 1.3870001 4279975041
-0.1304739 -0.130713 1.3940001 4280961156
-0.12897295 -0.13165067 1.404 4284315816
-0.12689653 -0.13202575 1.4080001 4281419380
-0.12560172 -0.13324472 1.4210001 4285694112
-0.12365523 -0.13380733 1.427 4293786367
-0.11593387 -0.15687434 1.6730001 4279772713
-0.11343541 -0.15743695 1.6790001 4280035885
-0.20923074 -0.15426682 1.6760001 4279706919
-0.16991511 -0.1288625 1.4000001 4279378495
-0.16664772 -0.12821817 1.393 4280036956
-0.16422988 -0.12821817 1.393 4284708780
-0.16204439 -0.12840226 1.3950001 4283262365
-0.15996636 -0.1286784 1.3980001 4278987109
-0.15731448 -0.12849431 1.396 4280697988
-0.15466952 -0.12831022 1.3940001 4280171903
-0.15148544 -0.12766591 1.3870001 4279711612
-0.14854062 -0.12720568 1.3820001 4279842682
-0.14603613 -0.12711364 1.381 4280369799
-0.14343111 -0.12692955 1.3790001 4283659447
-0.14103758 -0.12692955 1.3790001 4283462318
-0.13874459 -0.1270216 1.3800001 4279646333
-0.13664573 -0.12729773 1.383 4279514490
-0.13463356 -0.12766591 1.3870001 4279711616
-0.13241678 -0.12785 1.3890001 4279909507
-0.13056751 -0.12840226 1.3950001 4279908995
-0.12906481 -0.12932271 1.4050001 4280170876
-0.12698665 -0.1296909 1.409 4281155706
-0.12560172 -0.13079542 1.4210001 4284903830
-0.12356856 -0.13125564 1.4260001 4293917439
-0.11572598 -0.15371454 1.6700001 4279970092
-0.11309761 -0.15408272 1.674 4280035885
0.12166843 -0.15334636 1.6660001 4280758836
-0.16967238 -0.12626873 1.3980001 4279312707
-0.16676734 -0.12590745 1.3940001 4280103008
-0.16434778 -0.12590745 1.3940001 4283064212
-0.1622767 -0.12617841 1.3970001 4282077579
-0.1601952 -0.12644938 1.4000001 4279051871
-0.15753986 -0.12626873 1.3980001 4281091976
-0.15489145 -0.12608808 1.396 4280368770
-0.15170388 -0.12545584 1.3890001 4279974014
-0.14875558 -0.12500423 1.3840001 4279908478
-0.14624763 -0.12491392 1.383 4279448444
-0.14363913 -0.12473328 1.381 4280830609
-0.14113985 -0.12464295 1.3800001 4281620126
-0.13884515 -0.12473328 1.381 4279778176
-0.13674456 -0.12500423 1.3840001 4279646589
-0.13463356 -0.12527519 1.3870001 4279580796
-0.13241678 -0.12545584 1.3890001 4279712128
-0.13056751 -0.12599777 1.3950001 4279777409
-0.12897295 -0.12681067 1.404 4280171907
-0.12698665 -0.12726228 1.409 4280565370
-0.12551333 -0.1282558 1.4200001 4283128192
-0.11565669 -0.15074572 1.669 4280101678
-0.16967238 -0.12385907 1.3980001 4279312707
-0.16676734 -0.12350469 1.3940001 4280628838
-0.16470148 -0.12377048 1.3970001 4283787164
-0.16250902 -0.12394767 1.399 4282669455
-0.16042405 -0.12421346 1.4020001 4278854237
-0.15776522 -0.12403627 1.4000001 4280565375
-0.15500239 -0.12377048 1.3970001 4280434050
-0.15192232 -0.1232389 1.391 4279974014
-0.14886306 -0.12270731 1.3850001 4279974272
-0.14635338 -0.12261871 1.3840001 4279580032
-0.14384715 -0.12253011 1.383 4279646336
-0.14134441 -0.12244152 1.3820001 4279843972
-0.13894567 -0.12244152 1.3820001 4279515519
-0.13684335 -0.12270731 1.3850001 4279449726
-0.13473061 -0.12297311 1.388 4279318397
-0.13251214 -0.12315029 1.3900001 4279383163
-0.13066109 -0.12368187 1.396 4279712127
-0.12906481 -0.12447925 1.4050001 4279843968
-0.12698665 -0.12483365 1.409 4280960901
-0.12560172 -0.12589681 1.4210001 4282931073
-0.12233571 -0.14547683 1.6420001 4279312162
-0.11977677 -0.14583121 1.646 4279772713
-0.11805633 -0.14724877 1.6620001 4279904299
-0.17003649 -0.12171003 1.401 4279378501
-0.16700661 -0.12127566 1.396 4280826473
-0.16493727 -0.12153628 1.399 4283985053
-0.16274135 -0.12171003 1.401 4282340231
-0.16076733 -0.12205752 1.4050001 4278721622
-0.1581033 -0.12188378 1.4030001 4280498555
-0.15533525 -0.12162316 1.4000001 4280630402
-0.15214075 -0.12101503 1.393 4280236674
-0.14918551 -0.12058067 1.388 4279974273
-0.14667062 -0.12049379 1.3870001 4279579775
-0.14405517 -0.12032005 1.3850001 4279383165
-0.14154896 -0.12023317 1.3840001 4279383681
-0.13914676 -0.12023317 1.3840001 4279515265
-0.13694215 -0.12040693 1.386 4279383679
-0.13492475 -0.12075441 1.3900001 4279580799
-0.13260746 -0.12084129 1.391 4279318397
-0.13084829 -0.12144941 1.3980001 4279581055
-0.12915666 -0.1221444 1.406 4279975298
-0.12707677 -0.1224919 1.4100001 4280699271
-0.1258669 -0.12370812 1.424 4282014082
-0.17027922 -0.1194655 1.4030001 4279574853
-0.16748513 -0.11921005 1.4000001 4280825187
-0.16481937 -0.11903974 1.3980001 4284247193
-0.16297367 -0.1194655 1.4030001 4282537091
-0.16111061 -0.11989124 1.4080001 4278852951
-0.15855406 -0.1198061 1.4070001 4280169331
-0.15566811 -0.1194655 1.4030001 4280696195
-0.15235919 -0.11878429 1.3950001 4280236673
-0.14940047 -0.11835854 1.3900001 4279908480
-0.1468821 -0.11827339 1.3890001 4279645568
-0.14426321 -0.11810309 1.3870001 4279514752
-0.14175351 -0.11801794 1.386 4279515269
-0.13934782 -0.11801794 1.386 4279252096
-0.13704096 -0.11810309 1.3870001 4279449474
-0.13492475 -0.11835854 1.3900001 4279515520
-0.13270278 -0.11852884 1.3920001 4279515522
-0.13084829 -0.11903974 1.3980001 4279843202
-0.12924853 -0.1198061 1.4070001 4279975043
-0.12725702 -0.12023185 1.4120001 4280961928
-0.12595528 -0.1213388 1.4250001 4282210949
-0.1704006 -0.11713064 1.404 4278982462
-0.16784404 -0.11704722 1.4030001 4280758881
-0.16505516 -0.11679694 1.4000001 4285167779
-0.1628575 -0.11696378 1.4020001 4283326860
-0.15889212 -0.1176312 1.4100001 4280037743
-0.15600097 -0.1172975 1.406 4280762757
-0.15257762 -0.11654666 1.3970001 4280171908
-0.14961544 -0.11612953 1.3920001 4279843461
-0.14709359 -0.1160461 1.391 4279514239
-0.14447121 -0.11587925 1.3890001 4279580293
-0.14185579 -0.11571239 1.3870001 4279514500
-0.13944837 -0.11571239 1.3870001 4279580034
-0.13713977 -0.11579582 1.388 4279711877
-0.13511889 -0.11612953 1.3920001 4279646084
-0.13289346 -0.11629638 1.3940001 4279514750
-0.13103548 -0.11679694 1.4000001 4279712128
-0.12943225 -0.11754778 1.409 4280106374
-0.12743728 -0.1179649 1.414 4280567429
-0.12604368 -0.11896602 1.4260001 4282211469
-0.17173563 -0.11560937 1.4150001 4283848574
-0.16868147 -0.11520085 1.4100001 4280429662
-0.16552676 -0.11471064 1.404 4284707493
-0.16332215 -0.11487405 1.406 4281222779
-0.16133946 -0.11520085 1.4100001 4278392398
-0.15968095 -0.11577277 1.4170001 4280432754
-0.1564448 -0.11520085 1.4100001 4280763268
-0.15290527 -0.11438383 1.4000001 4280238215
-0.1498304 -0.11389361 1.3940001 4279777924
-0.1473051 -0.1138119 1.393 4279580032
-0.14457524 -0.11356679 1.3900001 4279514500
-0.14206032 -0.11348509 1.3890001 4279448707
-0.13964945 -0.11348509 1.3890001 4279513987
-0.13733737 -0.11356679 1.3900001 4279580293
-0.13531302 -0.11389361 1.3940001 4279580291
-0.13308413 -0.11405701 1.396 4279514752
-0.13122267 -0.11454722 1.4020001 4279712129
-0.12961598 -0.11528255 1.411 4280106889
-0.1275274 -0.11560937 1.4150001 4280567430
-0.12613207 -0.11658979 1.427 4282408079
-0.1714929 -0.11301044 1.4130001 4293652479
-0.16611622 -0.11269052 1.409 4284118186
-0.1637868 -0.11277051 1.4100001 4281288061
-0.16191158 -0.11317041 1.4150001 4284115871
-0.16024441 -0.11373026 1.4220001 4292207607
-0.15655574 -0.11285048 1.411 4280500350
-0.1530145 -0.1120507 1.401 4280106886
-0.1498304 -0.11149084 1.3940001 4279909511
-0.1473051 -0.11141086 1.393 4279711620
-0.14467925 -0.1112509 1.391 4279514500
-0.14226489 -0.1112509 1.391 4279448707
-0.13985053 -0.1112509 1.391 4279645573
-0.13753498 -0.11133088 1.3920001 4279777672
-0.1354101 -0.11157082 1.3950001 4279646085
-0.13317946 -0.11173078 1.3970001 4279580545
-0.13131626 -0.11221065 1.4030001 4279777411
-0.12961598 -0.11285048 1.411 4279909255
-0.12761754 -0.11325038 1.416 4280632969
-0.12613207 -0.11413015 1.427 4282078090
-0.16635203 -0.11041841 1.411 4281420165
-0.16413528 -0.11057492 1.4130001 4279970399
-0.16225486 -0.1109662 1.4180001 4287137972
-0.16046979 -0.11143573 1.424 4294114815
-0.1564448 -0.11034016 1.4100001 4280697470
-0.1530145 -0.10963586 1.401 4280106630
-0.1499379 -0.10916632 1.3950001 4279843463
-0.14741084 -0.10908807 1.3940001 4279711366
-0.14478324 -0.10893156 1.3920001 4279777672
-0.14236715 -0.10893156 1.3920001 4279646086
-0.13985053 -0.1088533 1.391 4279514498
-0.13763379 -0.10900982 1.393 4279580293
-0.13550717 -0.10924459 1.396 4279449220
-0.13317946 -0.10932284 1.3970001 4279777669
-0.13140987 -0.10987063 1.404 4279777411
-0.12970783 -0.11049667 1.4120001 4280040585
-0.12770765 -0.11088794 1.4170001 4280697993
-0.12613207 -0.1116705 1.427 4281946505
-0.17222111 -0.1085986 1.419 4293521919
-0.16927962 -0.10829247 1.4150001 4279115868
-0.16646992 -0.10806287 1.4120001 4279708270
-0.16448377 -0.108369 1.416 4278785359
-0.16248371 -0.10867513 1.4200001 4287663798
-0.16080785 -0.10921085 1.427 4293917183
-0.15677765 -0.10813941 1.4130001 4281025664
-0.15312371 -0.10729756 1.4020001 4280303240
-0.15004537 -0.10683837 1.396 4280105094
-0.14751659 -0.10676184 1.3950001 4279908489
-0.14488727 -0.10660877 1.393 4279777672
-0.14246944 -0.10660877 1.393 4279646342
-0.13995107 -0.10653224 1.3920001 4279580291
-0.13763379 -0.10660877 1.393 4279711366
-0.13550717 -0.10683837 1.396 4279580292
-0.13327479 -0.10699143 1.3980001 4279646086
-0.13140987 -0.10745062 1.404 4279777412
-0.12961598 -0.10798634 1.411 4280106375
-0.12761754 -0.108369 1.416 4280763530
-0.12595528 -0.10905779 1.4250001 4280828024
-0.17197837 -0.10600312 1.4170001 4293390847
-0.16892073 -0.10562908 1.4120001 4279445090
-0.16599834 -0.10532984 1.4080001 4279970669
-0.16413528 -0.10570389 1.4130001 4279244625
-0.1623693 -0.10615274 1.419 4288058553
-0.16080785 -0.1067512 1.427 4294180095
-0.15677765 -0.10570389 1.4130001 4281353855
-0.1530145 -0.10480619 1.401 4280302471
-0.15004537 -0.10443215 1.396 4280105609
-0.14741084 -0.10428253 1.3940001 4279908743
-0.14488727 -0.10420772 1.393 4279711877
-0.14246944 -0.10420772 1.393 4279711368
-0.14005162 -0.10420772 1.393 4279711879
-0.13773258 -0.10428253 1.3940001 4279581063
-0.13560423 -0.10450695 1.3970001 4279712392
-0.13337013 -0.10465658 1.399 4279646852
-0.13140987 -0.10503062 1.404 4279777409
-0.12970783 -0.10562908 1.4120001 4280041093
-0.12761754 -0.10592832 1.416 4280304519
-0.12604368 -0.10667639 1.4260001 4280565110
-0.17125016 -0.1031222 1.411 4292996095
-0.16808331 -0.10268369 1.4050001 4278851927
-0.16529095 -0.10246444 1.4020001 4279773547
-0.16413528 -0.10326837 1.4130001 4279441746
-0.16225486 -0.10363379 1.4180001 4289374667
-0.16046979 -0.1040723 1.424 4294115071
-0.15677765 -0.10326837 1.4130001 4281682814
-0.1530145 -0.10239135 1.401 4280302726
-0.1499379 -0.10195285 1.3950001 4280105865
-0.14741084 -0.10187976 1.3940001 4280040585
-0.14488727 -0.10180669 1.393 4279711877
-0.14246944 -0.10180669 1.393 4279580295
-0.14005162 -0.10180669 1.393 4279581063
-0.1378314 -0.10195285 1.3950001 4279581063
-0.13579836 -0.10224519 1.399 4279646856
-0.13346545 -0.10231827 1.4000001 4279515781
-0.13159706 -0.10275678 1.406 4279777924
-0.12979969 -0.10326837 1.4130001 4280041093
-0.12770765 -0.10356071 1.4170001 4280304264
-0.12613207 -0.10429155 1.427 4281288324
-0.1707647 -0.10040469 1.4070001 4292468216
-0.16712624 -0.099691078 1.3970001 4278916436
-0.16552676 -0.1001906 1.404 4279642217
-0.16168274 -0.10083285 1.4130001 4291018972
-0.16035709 -0.10154646 1.4230001 4294049535
-0.1566667 -0.10076149 1.4120001 4281815167
-0.15290527 -0.099905156 1.4000001 4280302724
-0.1499379 -0.099548355 1.3950001 4280105608
-0.1473051 -0.099405639 1.393 4279843465
-0.14488727 -0.099405639 1.393 4279449475
-0.14257172 -0.099476993 1.3940001 4279581063
-0.14025269 -0.099548355 1.3950001 4279449477
-0.13802899 -0.099691078 1.3970001 4279711879
-0.13579836 -0.099833801 1.399 4279646854
-0.13346545 -0.099905156 1.4000001 4279646852
-0.13150346 -0.10026197 1.4050001 4279711877
-0.12970783 -0.10076149 1.4120001 4279909507
-0.12770765 -0.10111829 1.4170001 4280237956
-0.12604368 -0.10176054 1.4260001 4281288066
-0.1704006 -0.097770602 1.404 4290628320
-0.16700661 -0.097213507 1.396 4278850129
-0.16564465 -0.097840242 1.4050001 4279641960
-0.16156831 -0.098327696 1.4120001 4291809761
-0.16035709 -0.099093705 1.4230001 4293984255
-0.15677765 -0.098397337 1.4130001 4281356159
-0.1530145 -0.097561687 1.401 4280566409
-0.15004537 -0.097213507 1.396 4279974788
-0.14741084 -0.097074226 1.3940001 4280040583
-0.14488727 -0.097004592 1.393 4279908997
-0.142674 -0.097143866 1.3950001 4279646084
-0.14035323 -0.097213507 1.396 4279515268
-0.13802899 -0.09728314 1.3970001 4279515266
-0.13589543 -0.097492047 1.4000001 4279581059
-0.13365611 -0.097631328 1.4020001 4279647106
-0.13159706 -0.097909875 1.406 4279712129
-0.12989156 -0.09846697 1.414 4280040583
-0.12779777 -0.098745517 1.4180001 4280106373
-0.12604368 -0.099302612 1.4260001 4281222531
-0.1704006 -0.095350593 1.404 4288654534
-0.16700661 -0.09480729 1.396 4278784594
-0.16564465 -0.095418513 1.4050001 4279444584
-0.16168274 -0.095961817 1.4130001 4292730602
-0.16046979 -0.096708864 1.424 4293853183
-0.1568886 -0.096029729 1.414 4281224315
-0.15323293 -0.095282681 1.4030001 4280434821
-0.15015285 -0.094875194 1.3970001 4280040581
-0.14762233 -0.09480729 1.396 4279777411
-0.14499128 -0.094671458 1.3940001 4279777411
-0.14277627 -0.09480729 1.396 4279711877
-0.14035323 -0.09480729 1.396 4279581059
-0.1381278 -0.094943114 1.3980001 4279646336
-0.13599251 -0.09514685 1.401 4279581313
-0.13375145 -0.095282681 1.4030001 4279712128
-0.13178425 -0.095622241 1.4080001 4279843202
-0.12998341 -0.096097641 1.4150001 4279843205
-0.12797803 -0.096437208 1.4200001 4280237446
-0.1267508 -0.097387999 1.434 4281024642
-0.17052196 -0.092996784 1.4050001 4285957541
-0.16736551 -0.092599638 1.399 4278785623
-0.1643676 -0.093658678 1.4150001 4278784841
-0.16248371 -0.093989626 1.4200001 4293191151
-0.16046979 -0.094254389 1.424 4293918463
-0.1568886 -0.093592487 1.414 4281421180
-0.15345137 -0.092996784 1.4050001 4280434564
-0.15036781 -0.092599638 1.399 4280237446
-0.14772809 -0.092467256 1.3970001 4279842434
-0.1451993 -0.092401072 1.396 4279843204
-0.14287853 -0.092467256 1.3970001 4279514752
-0.14045377 -0.092467256 1.3970001 4279777922
-0.13822661 -0.092599638 1.399 4279712128
-0.13599251 -0.09273202 1.401 4279646336
-0.13375145 -0.092864394 1.4030001 4279646078
-0.13178425 -0.093195342 1.4080001 4279711613
-0.12998341 -0.093658678 1.4150001 4280236674
-0.12797803 -0.093989626 1.4200001 4280630658
-0.1266624 -0.094850093 1.4330001 4281221500
-0.17052196 -0.090575054 1.4050001 4282799744
-0.1677244 -0.090381652 1.4020001 4279313766
-0.16413528 -0.091090783 1.4130001 4278391363
-0.16225486 -0.09141311 1.4180001 4293521142
-0.16046979 -0.091799907 1.424 4293786367
-0.15699956 -0.091219708 1.4150001 4281223287
-0.15356058 -0.090639517 1.406 4280565636
-0.15047529 -0.09025272 1.4000001 4280105859
-0.14783384 -0.090123788 1.3980001 4280039813
-0.14540733 -0.090123788 1.3980001 4279580032
-0.14298083 -0.090123788 1.3980001 4279448959
-0.14065485 -0.090188257 1.399 4279580543
-0.13832541 -0.09025272 1.4000001 4279712382
-0.13608956 -0.090381652 1.4020001 4279711868
-0.13384679 -0.090510584 1.404 4279777917
-0.13187784 -0.090832911 1.409 4280105851
-0.13007528 -0.091284178 1.416 4280104052
-0.12797803 -0.091542043 1.4200001 4280300657
-0.12657401 -0.092315637 1.432 4280694890
-0.16611622 -0.08840429 1.409 4279838828
-0.1643676 -0.088780746 1.4150001 4278586945
-0.16248371 -0.08909446 1.4200001 4294114044
-0.16069515 -0.089470915 1.4260001 4293655295
-0.15711051 -0.088843487 1.416 4280959089
-0.15356058 -0.088216059 1.406 4280499590
-0.15058279 -0.087902352 1.401 4279907714
-0.14804532 -0.087839603 1.4000001 4279842434
-0.14551133 -0.08777687 1.399 4279710850
-0.1430831 -0.08777687 1.399 4279514239
-0.14065485 -0.08777687 1.399 4279514749
-0.13832541 -0.087839603 1.4000001 4279842687
-0.13608956 -0.087965094 1.4020001 4279711866
-0.13384679 -0.088090576 1.404 4279645811
-0.13187784 -0.08840429 1.409 4279776366
-0.13007528 -0.088843487 1.416 4279972202
-0.1278879 -0.089031719 1.419 4280431206
-0.12648563 -0.08978463 1.4310001 4280956518
-0.12512834 -0.090600282 1.4440001 4281547369
-0.12304658 -0.090913989 1.4490001 4284047233
-0.16635203 -0.086097702 1.411 4279838315
-0.16506456 -0.086707897 1.4210001 4279836239
-0.16317026 -0.087012984 1.4260001 4294310398
-0.16092055 -0.087135032 1.4280001 4293720831
-0.15699956 -0.086341783 1.4150001 4280565102
-0.1536698 -0.085853629 1.4070001 4280302725
-0.15069026 -0.085548535 1.4020001 4280039302
-0.14804532 -0.085426494 1.4000001 4279776643
-0.14561534 -0.085426494 1.4000001 4279448446
-0.1430831 -0.085365482 1.399 4279448446
-0.14065485 -0.085365482 1.399 4279645823
-0.13822661 -0.085365482 1.399 4279711871
-0.13589543 -0.085426494 1.4000001 4279974012
-0.13365611 -0.085548535 1.4020001 4279710831
-0.13169067 -0.085853629 1.4070001 4279710054
-0.12989156 -0.086280756 1.414 4279840611
-0.1278879 -0.086585857 1.419 4280563047
-0.12648563 -0.087318085 1.4310001 4280759142
-0.12530164 -0.088233367 1.4460001 4281481838
-0.12338625 -0.088660501 1.4530001 4282271342
-0.1674131 -0.084199287 1.4200001 4280492906
-0.16552921 -0.084495768 1.4250001 4282926451
-0.16351354 -0.08473295 1.429 4294310911
-0.16114593 -0.084792249 1.4300001 4293654015
-0.15722147 -0.084021404 1.4170001 4280171115
-0.1536698 -0.083428457 1.4070001 4280435339
-0.15069026 -0.083131976 1.4020001 4279974024
-0.14815107 -0.083072685 1.401 4279645573
-0.14561534 -0.083013386 1.4000001 4279251326
-0.14318536 -0.083013386 1.4000001 4279448448
-0.14075539 -0.083013386 1.4000001 4279711616
-0.13832541 -0.083013386 1.4000001 4279842687
-0.13599251 -0.083072685 1.401 4280039289
-0.13365611 -0.083131976 1.4020001 4279907691
-0.13169067 -0.083428457 1.4070001 4279446877
-0.12998341 -0.083902813 1.4150001 4280037730
-0.1278879 -0.084139995 1.419 4280234083
-0.12648563 -0.084851541 1.4310001 4280561765
-0.12538829 -0.085800268 1.447 4281482096
-0.12347118 -0.086215332 1.4540001 4281021534
-0.17404163 -0.082557708 1.434 4279972196
-0.17083485 -0.082212284 1.4280001 4279707750
-0.16812047 -0.082097135 1.4260001 4278784078
-0.16622618 -0.082384996 1.4310001 4284439175
-0.16397125 -0.082500137 1.4330001 4294311423
-0.16125861 -0.082384996 1.4310001 4293721087
-0.15722147 -0.081578992 1.4170001 4279512933
-0.15377901 -0.081060842 1.4080001 4280369546
-0.15079774 -0.080772988 1.4030001 4279710598
-0.14825681 -0.080715418 1.4020001 4279513219
-0.14571936 -0.080657847 1.401 4279316863
-0.14328764 -0.080657847 1.401 4279645316
-0.14075539 -0.080600277 1.4000001 4279579519
-0.13832541 -0.080600277 1.4000001 4279645567
-0.13599251 -0.080657847 1.401 4279776633
-0.13356079 -0.080657847 1.401 4279973999
-0.13159706 -0.0809457 1.406 4279446619
-0.12989156 -0.081406273 1.414 4280235108
-0.12770765 -0.081578992 1.4170001 4280168033
-0.12639724 -0.082327425 1.4300001 4280693607
-0.12495504 -0.083018288 1.442 4281153387
-0.12296167 -0.083363719 1.4480001 4281153123
-0.17404163 -0.080085993 1.434 4281879925
-0.17083485 -0.07975091 1.4280001 4285826744
-0.16812047 -0.079639211 1.4260001 4282402426
-0.16622618 -0.079918452 1.4310001 4285951897
-0.16408567 -0.080085993 1.434 4294573311
-0.16114593 -0.079862602 1.4300001 4293260031
-0.15699956 -0.079024881 1.4150001 4279644785
-0.15377901 -0.078633942 1.4080001 4280237445
-0.15090524 -0.078410558 1.404 4279776642
-0.14836256 -0.078354709 1.4030001 4279579266
-0.14592737 -0.078354709 1.4030001 4279382656
-0.14328764 -0.07824301 1.401 4279251327
-0.14075539 -0.07818716 1.4000001 4279514240
-0.13822661 -0.078131318 1.399 4279776645
-0.13589543 -0.07818716 1.4000001 4279644542
-0.13346545 -0.07818716 1.4000001 4280104568
-0.13140987 -0.078410558 1.404 4279511905
-0.12961598 -0.07880149 1.411 4280037987
-0.1275274 -0.079024881 1.4150001 4279905632
-0.12604368 -0.079639211 1.4260001 4280430948
-0.17440574 -0.077776648 1.437 4283260288
-0.17119375 -0.077451915 1.4310001 4285694123
-0.16847417 -0.077343658 1.429 4281677415
-0.16657466 -0.077614278 1.434 4287200676
-0.16431452 -0.077722535 1.4360001 4294638591
-0.16125861 -0.077451915 1.4310001 4292931071
-0.15699956 -0.076585919 1.4150001 4279577972
-0.15377901 -0.076207042 1.4080001 4280039555
-0.15101272 -0.076044679 1.4050001 4279710851
-0.14857405 -0.076044679 1.4050001 4279513473
-0.14603139 -0.07599055 1.404 4279448194
-0.14338991 -0.075882308 1.4020001 4279448191
-0.14085594 -0.07582818 1.401 4279579519
-0.1381278 -0.075665802 1.3980001 4279513984
-0.13579836 -0.07571993 1.399 4279841665
-0.13346545 -0.075774051 1.4000001 4280105083
-0.13150346 -0.076044679 1.4050001 4279709541
-0.12970783 -0.076423548 1.4120001 4279906401
-0.12761754 -0.076640047 1.416 4279839838
-0.12595528 -0.077127166 1.4250001 4280431202
-0.17464848 -0.07540457 1.439 4282602096
-0.17155264 -0.075142562 1.434 4286482091
-0.16882785 -0.075037763 1.432 4283320442
-0.16680698 -0.07524737 1.4360001 4287792560
-0.16442893 -0.075299762 1.437 4294900991
-0.15990633 -0.074356556 1.419 4290495977
-0.15699956 -0.074146956 1.4150001 4279642739
-0.15388824 -0.073832549 1.409 4279908227
-0.15112019 -0.073675349 1.406 4279514240
-0.14867979 -0.073675349 1.406 4279578749
-0.1461354 -0.073622949 1.4050001 4279513727
-0.14338991 -0.07346575 1.4020001 4279251322
-0.14085594 -0.073413342 1.401 4279448443
-0.13822661 -0.073308542 1.399 4279645053
-0.13589543 -0.073360942 1.4000001 4279907456
-0.13356079 -0.073413342 1.401 4280104568
-0.13159706 -0.073675349 1.406 4279841127
-0.12970783 -0.073989749 1.4120001 4279577948
-0.12743728 -0.074094549 1.414 4280037727
-0.12560172 -0.074461356 1.4210001 4280299870
-0.1748912 -0.073025592 1.4410001 4282470773
-0.17167227 -0.072721526 1.4350001 4287271349
-0.16894576 -0.072620176 1.4330001 4282202212
-0.16680698 -0.072772205 1.4360001 4288977856
-0.16442893 -0.072822876 1.437 4294376703
-0.15990633 -0.071910702 1.419 4286745524
-0.1568886 -0.071657307 1.414 4279708274
-0.15388824 -0.071403928 1.409 4279974787
-0.15112019 -0.071251892 1.406 4279645823
-0.14867979 -0.071251892 1.406 4279710331
-0.1461354 -0.07120122 1.4050001 4279316087
-0.14349219 -0.071099862 1.4030001 4279317112
-0.14085594 -0.070998512 1.401 4279579512
-0.13832541 -0.070947833 1.4000001 4279841657
-0.13599251 -0.070998512 1.401 4279907449
-0.13365611 -0.071049191 1.4020001 4280038769
-0.13159706 -0.071251892 1.406 4279972965
-0.12961598 -0.071505278 1.411 4279577943
-0.12734716 -0.071606636 1.4130001 4279840602
-0.12524816 -0.071809337 1.4170001 4280168539
-0.12356856 -0.072265431 1.4260001 4280299355
-0.12160297 -0.072569497 1.432 4281088102
-0.16977103 -0.070492856 1.4400001 4281743718
-0.16727161 -0.070492856 1.4400001 4290162387
-0.16477221 -0.070492856 1.4400001 4294311167
-0.16001903 -0.06951379 1.4200001 4282603397
-0.15711051 -0.069317974 1.416 4279906939
-0.15388824 -0.0689753 1.409 4279711617
-0.15112019 -0.068828441 1.406 4279579775
-0.14867979 -0.068828441 1.406 4279645048
-0.1461354 -0.068779491 1.4050001 4278987119
-0.14359447 -0.068730533 1.404 4279052653
-0.141057 -0.068681583 1.4030001 4279184747
-0.13842422 -0.068583675 1.401 4279644011
-0.13608956 -0.068632632 1.4020001 4279841129
-0.13365611 -0.068632632 1.4020001 4279906918
-0.13159706 -0.068828441 1.406 4279643481
-0.12961598 -0.069073208 1.411 4279314766
-0.12725702 -0.069122158 1.4120001 4279577172
-0.12515979 -0.069317974 1.416 4280234590
-0.12348192 -0.069758557 1.4250001 4280760419
-0.12143315 -0.070003323 1.4300001 4280891234
-0.1708321 -0.068435863 1.4490001 4281810797
-0.16808474 -0.068341412 1.447 4291216873
-0.16534434 -0.068246953 1.4450001 4293786367
-0.16159667 -0.067727417 1.434 4279644003
-0.15722147 -0.066924512 1.4170001 4280237189
-0.15388824 -0.066546679 1.409 4279514240
-0.15112019 -0.066404991 1.406 4279448189
-0.14867979 -0.066404991 1.406 4279447670
-0.1461354 -0.066357762 1.4050001 4279381360
-0.14359447 -0.066310532 1.404 4279446636
-0.14115755 -0.066310532 1.404 4279512422
-0.13852301 -0.066216074 1.4020001 4279709029
-0.13608956 -0.066216074 1.4020001 4279643488
-0.13375145 -0.066263296 1.4030001 4279774815
-0.13150346 -0.066357762 1.4050001 4279971934
-0.1293404 -0.066499449 1.4080001 4279972187
-0.12698665 -0.066546679 1.409 4279972187
-0.124983 -0.066782825 1.414 4280169052
-0.12322196 -0.067160666 1.4220001 4280366174
-0.12117839 -0.067396812 1.427 4280760161
-0.16024441 -0.064709634 1.4220001 4279249256
-0.15711051 -0.0644366 1.416 4280040068
-0.15388824 -0.064118057 1.409 4279645571
-0.15112019 -0.063981533 1.406 4279512956
-0.14857405 -0.063936032 1.4050001 4279447413
-0.14603139 -0.063890524 1.404 4279380586
-0.14359447 -0.063890524 1.404 4279380579
-0.141057 -0.063845016 1.4030001 4279511389
-0.13852301 -0.063799515 1.4020001 4279708513
-0.13599251 -0.063754007 1.401 4279643229
-0.13365611 -0.063799515 1.4020001 4279774555
-0.13131626 -0.063845016 1.4030001 4279642715
-0.12906481 -0.063936032 1.4050001 4279642970
-0.12680641 -0.064027041 1.4070001 4279906139
-0.12480622 -0.064254574 1.4120001 4280103515
-0.12304865 -0.064618617 1.4200001 4280300894
-0.12100855 -0.064846158 1.4250001 4280431455
-0.11928382 -0.065255702 1.434 4281023075
-0.15733242 -0.062083472 1.4180001 4279908997
-0.15410668 -0.061776992 1.411 4279645058
-0.15122768 -0.061601866 1.4070001 4279644542
-0.14867979 -0.061558083 1.406 4279446902
-0.1461354 -0.061514307 1.4050001 4279512171
-0.14359447 -0.06147052 1.404 4279577955
-0.14115755 -0.06147052 1.404 4279709021
-0.13852301 -0.061382957 1.4020001 4279774303
-0.13608956 -0.061382957 1.4020001 4279642971
-0.13365611 -0.061382957 1.4020001 4279774557
-0.13131626 -0.061426736 1.4030001 4279774301
-0.12915666 -0.061558083 1.406 4279906141
-0.12680641 -0.061601866 1.4070001 4279774553
-0.12480622 -0.061820779 1.4120001 4279708761
-0.12304865 -0.062171035 1.4200001 4280103518
-0.12092364 -0.062346168 1.424 4280300641
-0.11903428 -0.062652647 1.4310001 4280825957
-0.15744337 -0.059681397 1.419 4279974790
-0.15443432 -0.059471101 1.414 4279645569
-0.15165761 -0.059344921 1.411 4279710334
-0.14910279 -0.059302866 1.4100001 4279446899
-0.14634342 -0.059176691 1.4070001 4279380327
-0.14369674 -0.059092578 1.4050001 4279577187
-0.14135863 -0.059134632 1.406 4279643486
-0.13881943 -0.059092578 1.4050001 4279642716
-0.13647784 -0.059134632 1.406 4279511385
-0.13403745 -0.059134632 1.406 4279445591
-0.13169067 -0.059176691 1.4070001 4279577176
-0.1293404 -0.059218746 1.4080001 4279840348
-0.12698665 -0.059260808 1.409 4279971933
-0.12489461 -0.059429046 1.4130001 4279840347
-0.12287533 -0.059639338 1.4180001 4279906397
-0.12075379 -0.059807576 1.4220001 4280038240
-0.11911745 -0.060228158 1.432 4280629864
-0.11728351 -0.060564626 1.4400001 4281089390
-0.11510295 -0.060732864 1.4440001 4281417582
-0.15766528 -0.057316206 1.4210001 4279711616
-0.15465277 -0.057114534 1.416 4279579774
-0.15187258 -0.056993525 1.4130001 4279579257
-0.14931427 -0.056953188 1.4120001 4279447409
-0.14675947 -0.056912851 1.411 4279183461
-0.14410584 -0.056832183 1.409 4279643236
-0.14155971 -0.056791846 1.4080001 4279906658
-0.13911584 -0.056791846 1.4080001 4280037730
-0.13657491 -0.056751516 1.4070001 4280037729
-0.13413279 -0.056751516 1.4070001 4279971680
-0.13178425 -0.056791846 1.4080001 4279840350
-0.12943225 -0.056832183 1.409 4279840092
-0.12707677 -0.056872521 1.4100001 4279708763
-0.124983 -0.057033859 1.414 4279709276
-0.122962 -0.057235539 1.419 4280104034
-0.12075379 -0.057356544 1.4220001 4280104550
-0.11903428 -0.057719562 1.4310001 4279907431
-0.11736495 -0.058122907 1.4410001 4280565109
-0.11518266 -0.058284253 1.4450001 4281352827
-0.15788719 -0.054944124 1.4230001 4279974275
-0.1548712 -0.054751065 1.4180001 4279513985
-0.15208752 -0.05463523 1.4150001 4279579004
-0.14952578 -0.054596618 1.414 4279513206
-0.14696749 -0.054558009 1.4130001 4279512429
-0.14441267 -0.054519396 1.4120001 4279577956
-0.14176078 -0.054442175 1.4100001 4279512159
-0.13921463 -0.054403558 1.409 4279511390
-0.13667198 -0.054364949 1.4080001 4279577180
-0.13422811 -0.054364949 1.4080001 4279642972
-0.13178425 -0.054364949 1.4080001 4279774556
-0.12952411 -0.054442175 1.4100001 4279840861
-0.1271669 -0.054480784 1.411 4279972706
-0.124983 -0.054596618 1.414 4279841638
-0.122962 -0.054789674 1.419 4279644261
-0.12066887 -0.054866899 1.4210001 4279513449
-0.1188679 -0.055175789 1.429 4279908729
-0.11712061 -0.055523295 1.4380001 4280435590
-0.11510295 -0.055754963 1.4440001 4280960387
-0.15777624 -0.052454479 1.4220001 4279842689
-0.1548712 -0.052306928 1.4180001 4279645062
-0.15219502 -0.052233152 1.416 4279447168
-0.14963152 -0.052196264 1.4150001 4279315832
-0.1470715 -0.052159376 1.414 4279118188
-0.14441267 -0.052085601 1.4120001 4279183973
-0.14186132 -0.052048713 1.411 4279446885
-0.13921463 -0.051974937 1.409 4279511910
-0.13667198 -0.051938049 1.4080001 4279577952
-0.13422811 -0.051938049 1.4080001 4279709534
-0.13169067 -0.051901162 1.4070001 4279709535
-0.1293404 -0.051938049 1.4080001 4279512160
-0.12707677 -0.052011825 1.4100001 4279446371
-0.124983 -0.052159376 1.414 4279512939
-0.12287533 -0.052306928 1.4180001 4279776376
-0.12066887 -0.052417591 1.4210001 4279908223
-0.11861835 -0.05260203 1.4260001 4279843204
-0.11679483 -0.052897133 1.434 4280106888
-0.11478411 -0.05311846 1.4400001 4280894596
-0.11345433 -0.053671777 1.455 4284313759
-0.15799814 -0.050073776 1.424 4280039299
-0.15508963 -0.049933121 1.4200001 4279513732
-0.1523025 -0.049827628 1.4170001 4279578755
-0.14973727 -0.049792461 1.416 4279447422
-0.14717551 -0.049757298 1.4150001 4279316343
-0.14451495 -0.049686972 1.4130001 4279316083
-0.14206241 -0.049686972 1.4130001 4279381616
-0.13931346 -0.049581479 1.4100001 4279446892
-0.13667198 -0.04951115 1.4080001 4279446887
-0.13422811 -0.04951115 1.4080001 4279578471
-0.13169067 -0.049475987 1.4070001 4279775851
-0.12943225 -0.049546313 1.409 4279841389
-0.12707677 -0.049581479 1.4100001 4279841650
-0.124983 -0.049722135 1.414 4279907709
-0.122962 -0.049897954 1.419 4279776387
-0.12066887 -0.049968284 1.4210001 4279710852
-0.11861835 -0.050144102 1.4260001 4279842695
-0.11679483 -0.050425418 1.434 4280172168
-0.1147044 -0.050601237 1.439 4281289610
-0.11337636 -0.0511287 1.4540001 4284643239
-0.16170935 -0.047987144 1.4350001 4281156223
-0.15799814 -0.047619298 1.424 4280104579
-0.15508963 -0.047485538 1.4200001 4279776134
-0.15240997 -0.047418654 1.4180001 4279512961
-0.14984301 -0.047385216 1.4170001 4279382142
-0.14727952 -0.047351774 1.416 4279316605
-0.14461721 -0.047284894 1.414 4279382397
-0.14206241 -0.047251455 1.4130001 4279447676
-0.13941225 -0.047184572 1.411 4279513211
-0.13667198 -0.04708425 1.4080001 4279644791
-0.13413279 -0.047050811 1.4070001 4279644787
-0.13169067 -0.047050811 1.4070001 4279973492
-0.12943225 -0.047117688 1.409 4279907955
-0.1271669 -0.047184572 1.411 4280039800
-0.12507139 -0.047318332 1.4150001 4280105854
-0.122962 -0.047452096 1.419 4279974786
-0.12058395 -0.047485538 1.4200001 4279843460
-0.11853518 -0.047652736 1.4250001 4279843206
-0.11671339 -0.047920264 1.4330001 4280106630
-0.11462468 -0.048087467 1.4380001 4281553296
-0.11329838 -0.048589073 1.4530001 4284644016
-0.16193475 -0.045577139 1.437 4280827009
-0.15788719 -0.045133103 1.4230001 4279973252
-0.15508963 -0.045037955 1.4200001 4279579524
-0.15240997 -0.044974517 1.4180001 4279382144
-0.14994876 -0.044974517 1.4180001 4279250815
-0.14727952 -0.044911083 1.416 4279185279
-0.14461721 -0.044847652 1.414 4279316608
-0.14206241 -0.044815935 1.4130001 4279382401
-0.13931346 -0.044720784 1.4100001 4279448191
-0.13667198 -0.04465735 1.4080001 4279645565
-0.13413279 -0.044625632 1.4070001 4280040062
-0.13169067 -0.044625632 1.4070001 4279974264
-0.12943225 -0.044689067 1.409 4280237436
-0.1271669 -0.044752501 1.411 4280566400
-0.124983 -0.044847652 1.414 4280632447
-0.12287533 -0.044974517 1.4180001 4280501122
-0.12058395 -0.045037955 1.4200001 4280304004
-0.11853518 -0.045196537 1.4250001 4280238468
-0.11655049 -0.04538684 1.4310001 4280041091
-0.11454497 -0.045577139 1.437 4281488015
-0.11298648 -0.04595774 1.4490001 4283987373
-0.16216013 -0.043160237 1.439 4280629891
-0.15799814 -0.042710342 1.424 4279907973
-0.15519884 -0.042620361 1.4210001 4279580037
-0.15262495 -0.042590369 1.4200001 4279251073
-0.15005451 -0.042560376 1.419 4279251330
-0.14738353 -0.042500392 1.4170001 4279251074
-0.1447195 -0.042440403 1.4150001 4279251071
-0.14216295 -0.042410411 1.414 4279382654
-0.13951105 -0.042350423 1.4120001 4279448444
-0.13686612 -0.042290438 1.4100001 4279842943
-0.13432345 -0.042260442 1.409 4280434819
-0.13197145 -0.042290438 1.4100001 4280500352
-0.12970783 -0.042350423 1.4120001 4280434813
-0.12734716 -0.042380419 1.4130001 4280500605
-0.12515979 -0.042470396 1.416 4280698238
-0.122962 -0.042560376 1.419 4280632448
-0.12049904 -0.042560376 1.419 4280566912
-0.118452 -0.042710342 1.424 4280764547
-0.11655049 -0.042920295 1.4310001 4280370561
-0.11446527 -0.04307026 1.4360001 4281685904
-0.1129085 -0.043430179 1.4480001 4283789994
-0.16193475 -0.040623367 1.437 4280499588
-0.1581091 -0.040284131 1.4250001 4279777159
-0.15530808 -0.040199324 1.4220001 4279579783
-0.15273242 -0.040171053 1.4210001 4279382660
-0.15016025 -0.040142786 1.4200001 4279317123
-0.14759156 -0.040114515 1.419 4279251330
-0.14482178 -0.040029705 1.416 4279251326
-0.14226347 -0.040001437 1.4150001 4279382651
-0.13960986 -0.039944898 1.4130001 4279777663
-0.13706024 -0.039916627 1.4120001 4280106369
-0.13451411 -0.03988836 1.411 4280566660
-0.13215864 -0.039916627 1.4120001 4280566142
-0.12989156 -0.03997317 1.414 4280566139
-0.12743728 -0.03997317 1.414 4280500603
-0.12524816 -0.040057976 1.4170001 4280500859
-0.122962 -0.040114515 1.419 4280632703
-0.12058395 -0.040142786 1.4200001 4280632960
-0.11853518 -0.040284131 1.4250001 4280830338
-0.11655049 -0.040453751 1.4310001 4280830595
-0.11430584 -0.040538561 1.434 4281882768
-0.11267457 -0.040849522 1.4450001 4283592615
-0.11092889 -0.041132219 1.455 4283526563
-0.10870147 -0.0412453 1.4590001 4282670469
-0.16182205 -0.038119938 1.4360001 4280105860
-0.1581091 -0.037827931 1.4250001 4279711367
-0.15530808 -0.037748292 1.4220001 4279579783
-0.15273242 -0.037721746 1.4210001 4279382917
-0.15016025 -0.037695203 1.4200001 4279317123
-0.14759156 -0.037668653 1.419 4279317120
-0.14492404 -0.037615564 1.4170001 4279382908
-0.14226347 -0.037562471 1.4150001 4279580028
-0.13960986 -0.037509382 1.4130001 4280303491
-0.13696319 -0.037456289 1.411 4280500610
-0.13460945 -0.037482832 1.4120001 4280435071
-0.13215864 -0.037482832 1.4120001 4280369020
-0.12989156 -0.037535928 1.414 4280500604
-0.1275274 -0.037562471 1.4150001 4280303225
-0.12524816 -0.037615564 1.4170001 4280435067
-0.122962 -0.037668653 1.419 4280632703
-0.12066887 -0.037721746 1.4210001 4280567424
-0.11853518 -0.037827931 1.4250001 4280633473
-0.11646905 -0.037960663 1.4300001 4281028230
-0.11430584 -0.038066845 1.434 4281554316
-0.11251862 -0.038305759 1.4430001 4283527334
-0.11092889 -0.038624309 1.455 4283854756
-0.10877597 -0.038757037 1.46 4284050844
-0.16182205 -0.035644777 1.4360001 4280434826
-0.15822005 -0.03539655 1.4260001 4279908745
-0.15552652 -0.035346907 1.424 4279711625
-0.1529474 -0.035322085 1.4230001 4279382660
-0.1504775 -0.035322085 1.4230001 4279382659
-0.14779957 -0.035272442 1.4210001 4279382655
-0.14502631 -0.035197973 1.4180001 4279579772
-0.14246456 -0.035173152 1.4170001 4280105857
-0.13980746 -0.035123505 1.4150001 4280500613
-0.13706024 -0.03504904 1.4120001 4280566402
-0.13470478 -0.035073865 1.4130001 4280500607
-0.13225225 -0.035073865 1.4130001 4280434815
-0.12998341 -0.035123505 1.4150001 4280237436
-0.12770765 -0.035173152 1.4170001 4279974521
-0.12542495 -0.035222795 1.419 4279843193
-0.12313529 -0.035272442 1.4210001 4280106620
-0.12075379 -0.03529726 1.4220001 4280567426
-0.11853518 -0.035371728 1.4250001 4280764803
-0.11646905 -0.03549584 1.4300001 4281094023
-0.11422613 -0.035570309 1.4330001 4281225351
-0.11244065 -0.035793707 1.442 4283132575
-0.11085265 -0.036091574 1.4540001 4283921830
-0.10877597 -0.036240511 1.46 4284776363
-0.16854939 -0.03351609 1.4510001 4281552510
-0.16545877 -0.033400599 1.4460001 4280567689
-0.16193475 -0.033192713 1.437 4280304268
-0.15844196 -0.032984823 1.4280001 4279909257
-0.15574494 -0.032938626 1.4260001 4279711624
-0.15316236 -0.032915525 1.4250001 4279448966
-0.15058325 -0.032892428 1.424 4279317122
-0.14790359 -0.032846231 1.4220001 4279382653
-0.14523087 -0.032800034 1.4200001 4279514235
-0.14266564 -0.032776933 1.419 4280237955
-0.13980746 -0.032684542 1.4150001 4280566404
-0.13725439 -0.032661442 1.414 4280632451
-0.13480011 -0.032661442 1.414 4280566658
-0.13234583 -0.032661442 1.414 4280172157
-0.13007528 -0.032707639 1.416 4279646072
-0.12770765 -0.03273074 1.4170001 4279711609
-0.12542495 -0.032776933 1.419 4279645817
-0.12313529 -0.032823134 1.4210001 4279777915
-0.12075379 -0.032846231 1.4220001 4280304000
-0.11853518 -0.032915525 1.4250001 4280699014
-0.11646905 -0.03303102 1.4300001 4280896903
-0.11422613 -0.033100318 1.4330001 4281093253
-0.11244065 -0.033308201 1.442 4281947790
-0.11077641 -0.033562288 1.4530001 4284185771
-0.10870147 -0.033700883 1.4590001 4284776872
-0.10696954 -0.033954967 1.47 4285431973
-0.16901404 -0.031100573 1.455 4281290375
-0.16568762 -0.030950949 1.4480001 4280765586
-0.16193475 -0.030715825 1.437 4279975820
-0.15844196 -0.030523449 1.4280001 4279646600
-0.15574494 -0.030480698 1.4260001 4279711625
-0.15316236 -0.030459324 1.4250001 4279580295
-0.15058325 -0.03043795 1.424 4279382658
-0.14790359 -0.030395199 1.4220001 4279382653
-0.14512859 -0.030331073 1.419 4279448699
-0.1425651 -0.030309699 1.4180001 4280172162
-0.13980746 -0.030245574 1.4150001 4280500867
-0.13725439 -0.0302242 1.414 4280500866
-0.13480011 -0.0302242 1.414 4280435074
-0.13234583 -0.0302242 1.414 4280106622
-0.12998341 -0.030245574 1.4150001 4279580280
-0.12770765 -0.030288326 1.4170001 4279514490
-0.12542495 -0.030331073 1.419 4279580283
-0.12304865 -0.030352451 1.4200001 4279777660
-0.12075379 -0.030395199 1.4220001 4279909245
-0.11853518 -0.030459324 1.4250001 4280435587
-0.11638759 -0.030544823 1.429 4280764805
-0.11422613 -0.030630326 1.4330001 4280633730
-0.11236268 -0.030801324 1.4410001 4280633475
-0.11070017 -0.031036448 1.452 4282605977
-0.10870147 -0.031186076 1.4590001 4285104561
-0.10718784 -0.031485323 1.473 4284905637
-0.16913019 -0.028612316 1.4560001 4281289868
-0.16580205 -0.028474754 1.4490001 4280699283
-0.16204743 -0.02825859 1.4380001 4279975565
-0.15866387 -0.028101379 1.4300001 4279711880
-0.15596339 -0.028062077 1.4280001 4279646088
-0.15337732 -0.028042426 1.427 4279514502
-0.15068899 -0.028003123 1.4250001 4279382915
-0.14800759 -0.027963821 1.4230001 4279382911
-0.14533314 -0.027924519 1.4210001 4279580029
-0.14276618 -0.027904866 1.4200001 4280106626
-0.14000508 -0.027845912 1.4170001 4280435331
-0.13735145 -0.02780661 1.4150001 4280435074
-0.13489544 -0.02780661 1.4150001 4280566659
-0.13234583 -0.027786959 1.414 4280238208
-0.12998341 -0.02780661 1.4150001 4279712122
-0.12761754 -0.027826261 1.416 4279646075
-0.12533656 -0.027865564 1.4180001 4279646074
-0.12304865 -0.027904866 1.4200001 4279711867
-0.12066887 -0.027924519 1.4210001 4280106881
-0.11853518 -0.028003123 1.4250001 4280567686
-0.11646905 -0.028101379 1.4300001 4280699270
-0.11422613 -0.028160334 1.4330001 4280633731
-0.11236268 -0.028317545 1.4410001 4280502149
-0.11077641 -0.028553361 1.4530001 4281026436
-0.10862696 -0.028651616 1.4580001 4282406284
-0.10718784 -0.028946387 1.473 4283194510
-0.16889788 -0.026066823 1.4540001 4281355409
-0.16568762 -0.025959257 1.4480001 4280764563
-0.16204743 -0.025779981 1.4380001 4280238223
-0.15877482 -0.025654487 1.4310001 4279843466
-0.1560726 -0.025618631 1.429 4279646345
-0.15337732 -0.025582777 1.427 4279580295
-0.15090048 -0.025582777 1.427 4279317379
-0.14821562 -0.025546921 1.4250001 4279251584
-0.14553769 -0.025511065 1.4230001 4279514238
-0.14296727 -0.025493139 1.4220001 4279909250
-0.14020269 -0.025439356 1.419 4280304004
-0.13754559 -0.0254035 1.4170001 4280369795
-0.13499078 -0.025385572 1.416 4280435587
-0.13243942 -0.025367644 1.4150001 4280370050
-0.12998341 -0.025367644 1.4150001 4280172672
-0.1275274 -0.025367644 1.4150001 4279975037
-0.12524816 -0.0254035 1.4170001 4279646329
-0.12304865 -0.025457282 1.4200001 4279843707
-0.12066887 -0.025475211 1.4210001 4280435587
-0.11853518 -0.025546921 1.4250001 4280699015
-0.11646905 -0.025636559 1.4300001 4280895878
-0.11422613 -0.025690341 1.4330001 4280633730
-0.11236268 -0.025833763 1.4410001 4280566912
-0.11054769 -0.025995113 1.45 4281550210
-0.10840344 -0.026084753 1.455 4282403716
-0.106824 -0.026317813 1.4680001 4283259022
-0.16878171 -0.023544431 1.4530001 4281355411
-0.16557318 -0.023447208 1.447 4280829588
-0.16204743 -0.02330137 1.4380001 4280303761
-0.15855291 -0.023155537 1.429 4279778187
-0.15585417 -0.023123128 1.427 4279515016
-0.15326984 -0.023106923 1.4260001 4279514760
-0.15079473 -0.023106923 1.4260001 4279383174
-0.14821562 -0.023090718 1.4250001 4279251586
-0.14553769 -0.023058312 1.4230001 4279382911
-0.14296727 -0.023042109 1.4220001 4279580287
-0.14030148 -0.023009699 1.4200001 4280106628
-0.13764265 -0.022977291 1.4180001 4280238211
-0.1350861 -0.022961086 1.4170001 4280501636
-0.13243942 -0.022928679 1.4150001 4280501636
-0.12989156 -0.022912476 1.414 4280435842
-0.1275274 -0.022928679 1.4150001 4280304511
-0.12524816 -0.022961086 1.4170001 4280238461
-0.122962 -0.022993496 1.419 4280501634
-0.12066887 -0.023025904 1.4210001 4280501635
-0.11853518 -0.023090718 1.4250001 4280633476
-0.11638759 -0.023155537 1.429 4280765060
-0.11414641 -0.023204148 1.432 4280632703
-0.11220672 -0.023317575 1.439 4281287296
-0.11039522 -0.023463411 1.4480001 4282007933
-0.10832895 -0.023560636 1.4540001 4282600320
-0.10667846 -0.023755083 1.4660001 4282929800
-0.16854939 -0.021011006 1.4510001 4281487511
-0.16545877 -0.020938605 1.4460001 4280698773
-0.16182205 -0.020793801 1.4360001 4280041359
-0.15866387 -0.020706918 1.4300001 4279712652
-0.15596339 -0.020677958 1.4280001 4279383944
-0.15337732 -0.020663479 1.427 4279383944
-0.15090048 -0.020663479 1.427 4279317895
-0.14831963 -0.020648997 1.4260001 4279251843
-0.14574225 -0.020634517 1.4250001 4279251840
-0.14316835 -0.020620037 1.424 4279382910
-0.1404991 -0.020591076 1.4220001 4279843458
-0.1378368 -0.020562114 1.4200001 4280369799
-0.13527678 -0.020547636 1.419 4280238465
-0.13262662 -0.020518674 1.4170001 4280501636
-0.13007528 -0.020504195 1.416 4280567171
-0.12761754 -0.020504195 1.416 4280370302
-0.12533656 -0.020533156 1.4180001 4280436094
-0.122962 -0.020547636 1.419 4280501888
-0.12058395 -0.020562114 1.4200001 4280632963
-0.118452 -0.020620037 1.424 4280961670
-0.11638759 -0.02069244 1.429 4280633473
-0.11406671 -0.0207214 1.4310001 4280500602
-0.11212875 -0.020822762 1.4380001 4281548672
-0.11031897 -0.020953085 1.447 4282073217
-0.10810544 -0.021011006 1.4510001 4282140546
-0.10638738 -0.02117029 1.462 4282666888
-0.1755005 -0.018714098 1.4670001 4291878897
-0.17212896 -0.018624801 1.46 4281551235
-0.16820091 -0.01847172 1.4480001 4281421721
-0.16511549 -0.018407935 1.4430001 4280634009
-0.16182205 -0.01831864 1.4360001 4279910801
-0.15866387 -0.018242098 1.4300001 4279647115
-0.1560726 -0.018229343 1.429 4279383944
-0.15348481 -0.018216586 1.4280001 4279383944
-0.15100624 -0.018216586 1.4280001 4279252358
-0.14842364 -0.01820383 1.427 4279186308
-0.14584452 -0.018191073 1.4260001 4279251843
-0.14326888 -0.018178314 1.4250001 4279382914
-0.1406967 -0.018165559 1.424 4279514497
-0.13793387 -0.018127289 1.4210001 4280040837
-0.1353721 -0.018114531 1.4200001 4280369798
-0.13281383 -0.018101776 1.419 4280566917
-0.13025899 -0.018089019 1.4180001 4280632452
-0.12770765 -0.018076262 1.4170001 4280567169
-0.12524816 -0.018076262 1.4170001 4280567680
-0.122962 -0.018101776 1.419 4280633474
-0.12058395 -0.018114531 1.4200001 4280633474
-0.118452 -0.018165559 1.424 4280567940
-0.11630615 -0.018216586 1.4280001 4280173440
-0.113987 -0.018242098 1.4300001 4280500861
-0.11197279 -0.01831864 1.4360001 4281614719
-0.11009026 -0.018420693 1.4440001 4282139010
-0.10780742 -0.018458964 1.447 4281943683
-0.10595077 -0.018573774 1.4560001 4282404231
-0.10420496 -0.018714098 1.4670001 4283390357
-0.17224686 -0.016119303 1.4610001 4281288582
-0.16808474 -0.015964841 1.447 4281225369
-0.16511549 -0.015920708 1.4430001 4280371863
-0.16170935 -0.015832443 1.4350001 4279976337
-0.15866387 -0.015777279 1.4300001 4279647115
-0.1560726 -0.015766246 1.429 4279647116
-0.15348481 -0.015755212 1.4280001 4279383944
-0.15100624 -0.015755212 1.4280001 4279252358
-0.14842364 -0.015744179 1.427 4279252101
-0.14584452 -0.015733147 1.4260001 4279317637
-0.14326888 -0.015722113 1.4250001 4279515016
-0.1406967 -0.01571108 1.424 4279580550
-0.13803093 -0.015689015 1.4220001 4279646083
-0.13546742 -0.015677981 1.4210001 4279843458
-0.13272022 -0.015644882 1.4180001 4280172420
-0.13016714 -0.015633848 1.4170001 4280501382
-0.12770765 -0.015633848 1.4170001 4280501892
-0.12524816 -0.015633848 1.4170001 4280568195
-0.12287533 -0.015644882 1.4180001 4280568966
-0.12049904 -0.015655916 1.419 4280634758
-0.11836881 -0.015700048 1.4230001 4280437637
-0.11622471 -0.015744179 1.427 4280174722
-0.11390728 -0.015766246 1.429 4280500861
-0.11189482 -0.015832443 1.4350001 4281352318
-0.10993777 -0.015909676 1.442 4282007681
-0.10773291 -0.015953807 1.4460001 4282008706
-0.105878 -0.016053107 1.455 4282075526
-0.17212896 -0.01359174 1.46 4281288841
-0.16808474 -0.013470719 1.447 4280765845
-0.16511549 -0.013433482 1.4430001 4280371349
-0.16193475 -0.013377625 1.437 4279976080
-0.15899673 -0.013340387 1.4330001 4279647116
-0.15640025 -0.013331077 1.432 4279647116
-0.15391473 -0.013331077 1.432 4279449738
-0.15132347 -0.013321768 1.4310001 4279252359
-0.14863166 -0.013303149 1.429 4279252358
-0.14604908 -0.013293839 1.4280001 4279317894
-0.1435705 -0.013293839 1.4280001 4279449223
-0.14079551 -0.013265911 1.4250001 4279449221
-0.138128 -0.013247292 1.4230001 4279449219
-0.13556278 -0.013237983 1.4220001 4279514753
-0.13290741 -0.013219365 1.4200001 4279646593
-0.13025899 -0.013200746 1.4180001 4279844225
-0.12770765 -0.013191436 1.4170001 4279976065
-0.12524816 -0.013191436 1.4170001 4280436871
-0.12304865 -0.013219365 1.4200001 4281029777
-0.12066887 -0.013228674 1.4210001 4281096340
-0.11836881 -0.013247292 1.4230001 4281097879
-0.11622471 -0.01328453 1.427 4281229206
-0.11390728 -0.013303149 1.429 4281160588
-0.11189482 -0.013359006 1.4350001 4281156481
-0.10993777 -0.013424171 1.442 4281745792
-0.1076584 -0.0134521 1.4450001 4282008192
-0.10580524 -0.013535884 1.4540001 4282403722
-0.16808474 -0.010976597 1.447 4280962452
-0.16500106 -0.010938668 1.442 4280370578
-0.16193475 -0.010900739 1.437 4279910030
-0.15899673 -0.010870395 1.4330001 4279778701
-0.15640025 -0.01086281 1.432 4279647115
-0.15380725 -0.010855224 1.4310001 4279383689
-0.15121773 -0.010847638 1.4300001 4279252104
-0.14863166 -0.010840053 1.429 4279383433
-0.14584452 -0.010817296 1.4260001 4279317639
-0.14336942 -0.010817296 1.4260001 4279383431
-0.14079551 -0.01080971 1.4250001 4279317638
-0.13803093 -0.010786952 1.4220001 4279383429
-0.13546742 -0.010779367 1.4210001 4279383682
-0.13281383 -0.010764195 1.419 4279515266
-0.13025899 -0.010756609 1.4180001 4279449982
-0.12770765 -0.010749023 1.4170001 4279779201
-0.12533656 -0.010756609 1.4180001 4280963730
-0.12304865 -0.010771781 1.4200001 4281161879
-0.12066887 -0.010779367 1.4210001 4281293976
-0.11836881 -0.010794538 1.4230001 4281097880
-0.11622471 -0.010824881 1.427 4281163672
-0.11390728 -0.010840053 1.429 4281425560
-0.11189482 -0.010885567 1.4350001 4281357196
-0.10986154 -0.010931082 1.4410001 4281419136
-0.1076584 -0.010961425 1.4450001 4282009218
-0.10573247 -0.011022111 1.4530001 4282207624
-0.16808474 -0.0084824748 1.447 4281027731
-0.1646578 -0.0084355772 1.439 4280567187
-0.16193475 -0.0084238527 1.437 4280172689
