# .PCD v0.7 - Point Cloud Data file format
VERSION 0.7
FIELDS x y z rgba
SIZE 4 4 4 4
TYPE F F F U
COUNT 1 1 1 1
WIDTH 1079
HEIGHT 1
VIEWPOINT 0 0 0 1 0 0 0
POINTS 1079
DATA ascii
-0.022159457 -0.14787295 1.3390001 4284571239
-0.018497949 -0.14787295 1.3390001 4285887099
-0.014880762 -0.1483147 1.3430001 4285229167
-0.011250042 -0.14886688 1.348 4284637030
-0.0075695347 -0.14897732 1.3490001 4285558134
-0.0038778046 -0.14886688 1.348 4286018685
-0.0001919698 -0.14908776 1.35 4286084478
0.0035125799 -0.14963992 1.355 4287137679
0.007265782 -0.15063384 1.3640001 4283059024
0.01103596 -0.15118602 1.3690001 4280230439
0.014801094 -0.1514069 1.3710001 4280757038
0.018563639 -0.15151733 1.3720001 4280625710
0.022543095 -0.15306343 1.386 4281744191
-0.16422793 -0.1502427 1.3950001 4282665293
-0.15707853 -0.14711937 1.3660001 4284573289
-0.15188386 -0.14571927 1.353 4282731339
-0.14708884 -0.14464225 1.3430001 4283323476
-0.14298923 -0.14421146 1.3390001 4283191890
-0.13901557 -0.14388835 1.3360001 4282073409
-0.13526094 -0.14378065 1.335 4283915613
-0.13141321 -0.14356525 1.3330001 4282204995
-0.12757641 -0.14334984 1.3310001 4283191890
-0.12375054 -0.14313444 1.3290001 4282665546
-0.11993562 -0.14291905 1.327 4282204995
-0.11604398 -0.14259595 1.3240001 4282336581
-0.11225367 -0.14238054 1.322 4284639334
-0.10847428 -0.14216514 1.3200001 4282665544
-0.10470586 -0.14194973 1.3180001 4283060302
-0.10094835 -0.14173435 1.3160001 4281941821
-0.097053841 -0.14130352 1.312 4285494645
-0.093394928 -0.14119583 1.3110001 4283783516
-0.089604467 -0.14087272 1.3080001 4284309860
-0.086027727 -0.14087272 1.3080001 4283981152
-0.082324915 -0.14065732 1.3060001 4284770411
-0.078693345 -0.14054963 1.3050001 4283586137
-0.075067244 -0.14044192 1.304 4284178019
-0.071446605 -0.14033423 1.3030001 4284243812
-0.067883544 -0.14033423 1.3030001 4282467401
-0.064123027 -0.13990343 1.299 4285230962
-0.060384378 -0.13947262 1.2950001 4284441446
-0.056667615 -0.13904181 1.291 4284112479
-0.053096201 -0.13893412 1.2900001 4282007103
-0.049645536 -0.13914952 1.2920001 4282928207
-0.046754982 -0.14108813 1.3100001 4282336070
-0.043337557 -0.14162664 1.3150001 4284244067
-0.039802119 -0.14184204 1.317 4285230193
-0.036310717 -0.14227283 1.3210001 4283782234
-0.032797441 -0.14270364 1.325 4285032303
-0.029306328 -0.14334984 1.3310001 4284965997
-0.025666695 -0.14334984 1.3310001 4284834411
-0.022043612 -0.14345755 1.332 4285425778
-0.018401245 -0.14345755 1.332 4285491571
-0.014803199 -0.14388835 1.3360001 4285557618
-0.011199968 -0.14453456 1.342 4285229167
-0.0075358674 -0.14464225 1.3430001 4285623927
-0.003863421 -0.14464225 1.3430001 4285360755
-0.00019140099 -0.14496537 1.3460001 4286216575
0.0035177646 -0.14615007 1.3570001 4284242785
0.0072764354 -0.14711937 1.3660001 4279967522
0.011027899 -0.14733477 1.368 4280296744
0.014779504 -0.14744247 1.3690001 4280296744
0.018509516 -0.14733477 1.368 4281415226
0.022412976 -0.14841178 1.378 4281612605
-0.1748139 -0.14894725 1.419 4278190080
-0.16695844 -0.14548336 1.386 4283323223
-0.1604607 -0.14306915 1.363 4283060050
-0.15523867 -0.14170457 1.35 4281876030
-0.15109806 -0.14128472 1.3460001 4282928716
-0.14708884 -0.14096981 1.3430001 4281481270
-0.14309603 -0.14065491 1.34 4282073407
-0.13943179 -0.14065491 1.34 4282402372
-0.13546358 -0.14034002 1.337 4280757547
-0.13170896 -0.14023505 1.3360001 4282073409
-0.12767226 -0.13981518 1.332 4280560168
-0.12393677 -0.13971022 1.3310001 4281678138
-0.12029714 -0.13971022 1.3310001 4282665033
-0.11639456 -0.13939533 1.3280001 4282270275
-0.11259331 -0.13918538 1.3260001 4282336581
-0.10872082 -0.13887049 1.3230001 4281810235
-0.10478529 -0.13845062 1.319 4283652441
-0.10087164 -0.13803075 1.3150001 4282533960
-0.096979871 -0.1376109 1.3110001 4285297266
-0.093394928 -0.1376109 1.3110001 4282007616
-0.089741468 -0.13750592 1.3100001 4284705129
-0.0860935 -0.13740095 1.309 4282336581
-0.082324915 -0.13708606 1.3060001 4285034094
-0.078572743 -0.13677116 1.3030001 4283586137
-0.074952111 -0.13666619 1.302 4283717468
-0.071336947 -0.13656123 1.3010001 4283520089
-0.067779347 -0.13656123 1.3010001 4284835949
-0.064024299 -0.13614136 1.2970001 4283454551
-0.060337752 -0.13582647 1.294 4283322963
-0.056667615 -0.13551156 1.291 4285033581
-0.053096201 -0.1354066 1.2900001 4284836202
-0.049607109 -0.13551156 1.291 4281743933
-0.046683602 -0.13729599 1.3080001 4283256917
-0.043139819 -0.13740095 1.309 4285493364
-0.03965101 -0.13771585 1.312 4283782747
-0.036200769 -0.13824068 1.317 4284769129
-0.032747939 -0.13887049 1.3230001 4285427059
-0.029240273 -0.13939533 1.3280001 4285294192
-0.025647409 -0.13960524 1.33 4284834413
-0.022027064 -0.13971022 1.3310001 4285162608
-0.018401245 -0.13981518 1.332 4285557364
-0.014792119 -0.14013007 1.335 4285491571
-0.011174931 -0.14054994 1.3390001 4285688950
-0.007524645 -0.14075989 1.3410001 4285229167
-0.0038662977 -0.14107478 1.3440001 4285558132
-0.000192112 -0.14180954 1.3510001 4286151295
0.0035333184 -0.14306915 1.363 4279901474
0.0072924159 -0.14369893 1.3690001 4280165412
0.011044021 -0.14380391 1.3700001 4280231205
0.014801094 -0.14390887 1.3710001 4281481018
0.018563639 -0.14401384 1.3720001 4282796878
0.022559358 -0.14558834 1.3870001 4281481021
-0.19462584 -0.14537369 1.4220001 4283454551
-0.19060326 -0.14527145 1.4210001 4285033583
-0.1864547 -0.14506698 1.419 4281678398
-0.18218844 -0.14476028 1.416 4278190080
-0.17730895 -0.14394243 1.4080001 4278190080
-0.17111805 -0.14200002 1.3890001 4282665292
-0.16430829 -0.13944423 1.3640001 4282599499
-0.1586948 -0.13780852 1.348 4281876030
-0.15431874 -0.13719513 1.342 4281415479
-0.15053678 -0.1370929 1.3410001 4280954924
-0.14686979 -0.1370929 1.3410001 4282270784
-0.14320281 -0.1370929 1.3410001 4280823338
-0.13953583 -0.1370929 1.3410001 4280823338
-0.13556491 -0.13678621 1.3380001 4281481270
-0.13180755 -0.13668397 1.337 4280691243
-0.12786396 -0.13637727 1.3340001 4281743931
-0.12430923 -0.13647951 1.335 4281151024
-0.12065866 -0.13647951 1.335 4281020208
-0.11674515 -0.13617282 1.332 4282072896
-0.11267823 -0.13566166 1.327 4280889135
-0.10863864 -0.13515049 1.322 4283652441
-0.10462641 -0.13463934 1.317 4281152305
-0.10087164 -0.13443488 1.3150001 4284310371
-0.096979871 -0.13402595 1.3110001 4281283893
-0.093323678 -0.13392371 1.3100001 4284902508
-0.089535959 -0.13361703 1.307 4282401861
-0.08583042 -0.13341255 1.3050001 4283126097
-0.082198843 -0.13331032 1.304 4282007616
-0.07845214 -0.13300362 1.3010001 4284112992
-0.074836969 -0.13290139 1.3000001 4284047199
-0.071117617 -0.1325947 1.2970001 4281744444
-0.067570962 -0.1325947 1.2970001 4283783773
-0.063876212 -0.13228801 1.294 4283849820
-0.060197867 -0.1319813 1.291 4284770922
-0.056579825 -0.13177684 1.289 4281678651
-0.052972719 -0.13157238 1.2870001 4285494132
-0.049837664 -0.1325947 1.2970001 4283980895
-0.046291005 -0.1325947 1.2970001 4282862414
-0.042777296 -0.13269694 1.2980001 4286085502
-0.039258126 -0.13279916 1.299 4283716954
-0.035843436 -0.13331032 1.304 4285558645
-0.032500409 -0.13423041 1.3130001 4285427059
-0.029130181 -0.13525273 1.3230001 4285294962
-0.025608843 -0.13576388 1.3280001 4285163378
-0.021993963 -0.13586612 1.3290001 4285096815
-0.018373616 -0.13596834 1.33 4285425267
-0.014758878 -0.13617282 1.332 4285951609
-0.011166586 -0.13678621 1.3380001 4286017915
-0.0075302562 -0.13719513 1.342 4285031788
-0.0038778046 -0.13780852 1.348 4284703336
-0.00019253859 -0.13842192 1.3540001 4280296232
0.0035333184 -0.13934201 1.363 4280954417
0.007265782 -0.13944423 1.3640001 4281415479
0.010995653 -0.13944423 1.3640001 4284310371
0.014757912 -0.13975093 1.3670001 4284244324
0.018631291 -0.14077325 1.3770001 4284375911
0.022933451 -0.1441469 1.4100001 4293323761
-0.18592912 -0.14078872 1.4150001 4282204484
-0.18167379 -0.14049023 1.4120001 4278190080
-0.17642744 -0.13939577 1.401 4278190080
-0.16963971 -0.13700782 1.3770001 4283717980
-0.16322415 -0.13481888 1.355 4283323222
-0.1582239 -0.13372442 1.3440001 4281744444
-0.15431874 -0.13352542 1.342 4281415479
-0.15053678 -0.13342592 1.3410001 4280494373
-0.14708884 -0.13362491 1.3430001 4280823338
-0.14341639 -0.13362491 1.3430001 4280691752
-0.13974395 -0.13362491 1.3430001 4281218096
-0.13586886 -0.13342592 1.3410001 4280757547
-0.13220188 -0.13342592 1.3410001 4280428582
-0.12834319 -0.13322693 1.3390001 4280822827
-0.12477481 -0.13332643 1.34 4281151792
-0.12111057 -0.13332643 1.34 4281612345
-0.11735868 -0.13322693 1.3390001 4281415479
-0.11327261 -0.13272944 1.3340001 4282533960
-0.10913171 -0.13213246 1.3280001 4280889133
-0.10502362 -0.13153547 1.322 4282402372
-0.10110177 -0.13113749 1.3180001 4281152305
-0.097201794 -0.1307395 1.314 4283586646
-0.093466163 -0.13054049 1.312 4280954926
-0.089672968 -0.130242 1.309 4282731337
-0.08583042 -0.12984402 1.3050001 4282928716
-0.082198843 -0.12974451 1.304 4282468165
-0.078572743 -0.12964503 1.3030001 4282468165
-0.074952111 -0.12954552 1.302 4282139200
-0.071282111 -0.12934653 1.3000001 4284639334
-0.067623056 -0.12914754 1.2980001 4282599753
-0.063925572 -0.12884904 1.2950001 4282139202
-0.060291123 -0.12865005 1.2930001 4283520855
-0.056623716 -0.12835157 1.2900001 4283652441
-0.053096201 -0.12835157 1.2900001 4281218100
-0.049722385 -0.12874955 1.294 4283059791
-0.046148237 -0.12865005 1.2930001 4284836204
-0.042645477 -0.12874955 1.294 4283848539
-0.039107021 -0.12874955 1.294 4285164914
-0.03567851 -0.12914754 1.2980001 4285559672
-0.032376647 -0.13014251 1.3080001 4285098094
-0.029130181 -0.13163497 1.3230001 4283979615
-0.025666695 -0.13243096 1.3310001 4285755513
-0.022043612 -0.13253045 1.332 4285229169
-0.01841506 -0.13262995 1.3330001 4284702055
-0.014803199 -0.13292843 1.3360001 4285952376
-0.011183277 -0.13332643 1.34 4285887097
-0.0075414786 -0.13372442 1.3440001 4282203201
-0.0038806812 -0.13422191 1.3490001 4281151026
-0.00019253859 -0.13471939 1.3540001 4280691243
0.0035177646 -0.13501789 1.3570001 4283718234
0.0072125136 -0.13471939 1.3540001 4281020721
0.010898917 -0.1345204 1.3520001 4284968301
0.014682341 -0.13531637 1.36 4281217846
0.018793656 -0.13820179 1.3890001 4289376179
-0.18115914 -0.13624206 1.4080001 4278190080
-0.17529407 -0.13469385 1.3920001 4278190080
-0.16828457 -0.13217802 1.3660001 4281678397
-0.16226047 -0.13033952 1.3470001 4282007362
-0.15787072 -0.12975895 1.3410001 4281678649
-0.15408877 -0.12966219 1.34 4281283891
-0.15042451 -0.12966219 1.34 4281678649
-0.14697932 -0.12985571 1.342 4280560168
-0.14341639 -0.12995248 1.3430001 4281086512
-0.13963988 -0.12985571 1.342 4280691754
-0.13586886 -0.12975895 1.3410001 4280494375
-0.13210329 -0.12966219 1.34 4281020719
-0.12843905 -0.12966219 1.34 4280165410
-0.12477481 -0.12966219 1.34 4280757547
-0.12111057 -0.12966219 1.34 4281086512
-0.11744633 -0.12966219 1.34 4281086512
-0.11344244 -0.12927513 1.3360001 4280823340
-0.10929607 -0.12869455 1.33 4282204991
-0.10518251 -0.12811399 1.3240001 4281152303
-0.10125518 -0.12772693 1.3200001 4281678647
-0.097349733 -0.12733988 1.3160001 4281941819
-0.093466163 -0.12695281 1.312 4282928716
-0.089672968 -0.12666254 1.309 4282665544
-0.08583042 -0.12627548 1.3050001 4281876028
-0.082135804 -0.12608196 1.3030001 4282862921
-0.078512445 -0.12598521 1.302 4283784023
-0.07489454 -0.12588844 1.3010001 4282074179
-0.071227282 -0.12569492 1.299 4282271556
-0.067466758 -0.12530786 1.2950001 4281679421
-0.063876212 -0.12521109 1.294 4283718234
-0.060197867 -0.1249208 1.291 4281810237
-0.056579825 -0.12472728 1.289 4284376164
-0.053096201 -0.12482405 1.2900001 4282862925
-0.04953026 -0.12472728 1.289 4281941310
-0.045969784 -0.12463052 1.2880001 4285559925
-0.042414781 -0.12453375 1.2870001 4283915359
-0.038925689 -0.12463052 1.2880001 4283783516
-0.035513587 -0.12501757 1.2920001 4285362548
-0.032252882 -0.12608196 1.3030001 4283848539
-0.0291522 -0.12811399 1.3240001 4284374883
-0.025763115 -0.12927513 1.3360001 4283190097
-0.022159457 -0.12956542 1.3390001 4284900715
-0.018484134 -0.12946865 1.3380001 4284374371
-0.014836441 -0.12956542 1.3390001 4282993230
-0.011199968 -0.12985571 1.342 4280493094
-0.0075358674 -0.12995248 1.3430001 4281085485
-0.0038749278 -0.13033952 1.3470001 4280362276
-0.00019140099 -0.13024276 1.3460001 4282533958
0.0034918415 -0.13033952 1.3470001 4280823340
0.0071485918 -0.12985571 1.342 4284902508
0.010818304 -0.12985571 1.342 4282139202
0.014585178 -0.13072658 1.3510001 4282073156
0.018888367 -0.1350809 1.396 4293257966
-0.17479035 -0.1305113 1.388 4282336327
-0.16754539 -0.1278785 1.36 4283717980
-0.16214001 -0.12656212 1.3460001 4282270534
-0.15787072 -0.12609197 1.3410001 4282599753
-0.15431874 -0.126186 1.342 4281678651
-0.15076129 -0.12628002 1.3430001 4280625961
-0.14719836 -0.12637405 1.3440001 4280691754
-0.14341639 -0.12628002 1.3430001 4280757547
-0.13963988 -0.126186 1.342 4280757547
-0.13597018 -0.126186 1.342 4281152305
-0.13230047 -0.126186 1.342 4280625961
-0.1287266 -0.12628002 1.3430001 4280362789
-0.12505417 -0.12628002 1.3430001 4280428582
-0.12147209 -0.12637405 1.3440001 4280757545
-0.11779691 -0.12637405 1.3440001 4281218096
-0.11386699 -0.12609197 1.3410001 4280889131
-0.10978913 -0.12562183 1.3360001 4281415475
-0.10565917 -0.12505765 1.33 4281020717
-0.10163873 -0.12458751 1.325 4281876026
-0.09771961 -0.1242114 1.3210001 4281612854
-0.093751118 -0.12374127 1.3160001 4281941819
-0.089946985 -0.12345918 1.3130001 4281612856
-0.0860935 -0.12308306 1.309 4281941821
-0.082387954 -0.12289501 1.307 4281612854
-0.078693345 -0.12270695 1.3050001 4282204991
-0.075124815 -0.12270695 1.3050001 4282862923
-0.071391776 -0.12242486 1.302 4281810233
-0.067623056 -0.12204875 1.2980001 4283719002
-0.063974932 -0.12186069 1.296 4281152305
-0.060337752 -0.12167264 1.294 4283191888
-0.05671151 -0.12148458 1.2920001 4281415477
-0.053137362 -0.12139055 1.291 4281152305
-0.049568683 -0.12129653 1.2900001 4282994511
-0.046041165 -0.12129653 1.2900001 4281678138
-0.042447735 -0.12110846 1.2880001 4284112479
-0.038925689 -0.12110846 1.2880001 4284967790
-0.035568565 -0.12167264 1.294 4283849309
-0.032426152 -0.12317709 1.3100001 4282270277
-0.029350363 -0.12533975 1.3330001 4279572762
-0.025917385 -0.12637405 1.3440001 4280033313
-0.022275301 -0.12656212 1.3460001 4279967520
-0.018567022 -0.12637405 1.3440001 4279506969
-0.014880762 -0.12628002 1.3430001 4280428071
-0.011208314 -0.12628002 1.3430001 4280296483
-0.0075358674 -0.12628002 1.3430001 4280296994
-0.0038662977 -0.12637405 1.3440001 4281678649
-0.00019111659 -0.12637405 1.3440001 4280757547
0.0034840645 -0.12637405 1.3440001 4281810235
0.0071432651 -0.12609197 1.3410001 4281020721
0.010818304 -0.126186 1.342 4282138948
0.014606771 -0.1272203 1.353 4280888882
-0.17365699 -0.12589416 1.3790001 4283191890
-0.16692941 -0.1237031 1.355 4282599753
-0.16165815 -0.12251628 1.342 4282336581
-0.15763527 -0.1222424 1.3390001 4281086512
-0.15397376 -0.1222424 1.3390001 4281941821
-0.15053678 -0.122425 1.3410001 4282007614
-0.14697932 -0.12251628 1.342 4281810237
-0.14320281 -0.122425 1.3410001 4280296998
-0.13943179 -0.1223337 1.34 4281020721
-0.13586886 -0.122425 1.3410001 4280362791
-0.13230047 -0.12251628 1.342 4280099617
-0.1287266 -0.12260757 1.3430001 4280691754
-0.12496104 -0.12251628 1.342 4280231201
-0.12129132 -0.12251628 1.342 4280231201
-0.11770927 -0.12260757 1.3430001 4280494373
-0.1139519 -0.12251628 1.342 4280494373
-0.10987131 -0.12205982 1.337 4280560166
-0.10597694 -0.12178593 1.3340001 4281218096
-0.10186885 -0.12123817 1.3280001 4280691752
-0.098015502 -0.12096429 1.325 4280824110
-0.094036072 -0.12050783 1.3200001 4280692524
-0.090289518 -0.12032523 1.3180001 4281744442
-0.086290807 -0.11977746 1.312 4281283891
-0.082577065 -0.11959489 1.3100001 4281152303
-0.078874253 -0.11941229 1.3080001 4281744442
-0.075182378 -0.11922971 1.3060001 4281547063
-0.071446605 -0.11895583 1.3030001 4282204991
-0.067675151 -0.11859065 1.299 4281283891
-0.064024299 -0.11840806 1.2970001 4281876798
-0.060384378 -0.11822547 1.2950001 4282402372
-0.056535929 -0.11758642 1.2880001 4282862923
-0.053055044 -0.11767771 1.289 4281744442
-0.049568683 -0.11776901 1.2900001 4283520342
-0.046041165 -0.11776901 1.2900001 4282533447
-0.042447735 -0.11758642 1.2880001 4281875519
-0.038986128 -0.11776901 1.2900001 4284243297
-0.03567851 -0.11849936 1.2980001 4284111711
-0.032648928 -0.12041653 1.319 4280033313
-0.029526509 -0.122425 1.3410001 4279902236
-0.025994519 -0.12306405 1.348 4280231201
-0.02232495 -0.12315534 1.3490001 4279836443
-0.018608468 -0.12297275 1.3470001 4280165410
-0.014914001 -0.12288146 1.3460001 4279902238
-0.01121666 -0.12269887 1.3440001 4280625961
-0.0075302562 -0.12251628 1.342 4280494373
-0.0038576676 -0.122425 1.3410001 4280231203
-0.0001908322 -0.12251628 1.342 4281152305
0.0034840645 -0.12269887 1.3440001 4280757549
0.0071592457 -0.12269887 1.3440001 4281415225
0.01085861 -0.12297275 1.3470001 4281086261
0.014725525 -0.12452474 1.3640001 4279901987
-0.17315327 -0.12176903 1.3750001 4282468165
-0.16680622 -0.11990929 1.3540001 4282204993
-0.16177863 -0.11893513 1.3430001 4282336579
-0.15775301 -0.11866946 1.34 4282468165
-0.15408877 -0.11866946 1.34 4281876028
-0.15053678 -0.11875802 1.3410001 4281876028
-0.14697932 -0.11884657 1.342 4280954928
-0.14320281 -0.11875802 1.3410001 4281218100
-0.13953583 -0.11875802 1.3410001 4280362791
-0.13597018 -0.11884657 1.342 4280757549
-0.13249764 -0.11902369 1.3440001 4280889133
-0.12901416 -0.11920082 1.3460001 4280362787
-0.1253335 -0.11920082 1.3460001 4280889131
-0.12156247 -0.11911225 1.345 4280296994
-0.11788455 -0.11911225 1.345 4280165408
-0.11420664 -0.11911225 1.345 4280757545
-0.11044655 -0.11902369 1.3440001 4280296994
-0.10653304 -0.11875802 1.3410001 4280428582
-0.10263593 -0.11849233 1.3380001 4280296996
-0.09875524 -0.11822665 1.335 4280165410
-0.094748475 -0.11778386 1.33 4280889133
-0.090837553 -0.11742962 1.3260001 4280362789
-0.086816974 -0.11689828 1.3200001 4281020719
-0.082955271 -0.11654404 1.3160001 4280757547
-0.079296358 -0.11645547 1.3150001 4281744440
-0.07552778 -0.11618979 1.312 4281086510
-0.0717756 -0.11592411 1.309 4281152303
-0.068039834 -0.11565844 1.3060001 4281283891
-0.064320475 -0.11539277 1.3030001 4282139200
-0.060664155 -0.11521564 1.3010001 4281283891
-0.056799296 -0.11459573 1.294 4281678649
-0.053301997 -0.11468428 1.2950001 4281086512
-0.049760807 -0.11468428 1.2950001 4280888622
-0.046183929 -0.11459573 1.294 4281809724
-0.042612515 -0.11450717 1.2930001 4282730828
-0.03916746 -0.11477284 1.296 4284309860
-0.035925899 -0.115747 1.307 4281217587
-0.032871701 -0.11760674 1.3280001 4279704348
-0.029636601 -0.11920082 1.3460001 4279902236
-0.026033089 -0.11955505 1.35 4279968029
-0.022341499 -0.11955505 1.35 4280560166
-0.018622281 -0.11937793 1.348 4280494375
-0.014947241 -0.11946649 1.3490001 4281678649
-0.011233351 -0.11920082 1.3460001 4281481270
-0.0075470898 -0.11911225 1.345 4281415477
-0.0038691743 -0.11911225 1.345 4281481270
-0.00019168539 -0.11937793 1.348 4280494375
0.0035022106 -0.11964361 1.3510001 4281020721
0.0072231675 -0.1200864 1.3560001 4280954675
0.011019837 -0.12106056 1.3670001 4285033843
-0.17845719 -0.11903898 1.3870001 4278190080
-0.17239769 -0.11749413 1.3690001 4282797130
-0.16643663 -0.11594928 1.3510001 4282665544
-0.16141725 -0.11500521 1.34 4281086512
-0.15739982 -0.11474774 1.337 4283257681
-0.15374379 -0.11474774 1.337 4281481270
-0.15031224 -0.11491939 1.3390001 4283060304
-0.14665075 -0.11491939 1.3390001 4282665546
-0.14298923 -0.11491939 1.3390001 4281481272
-0.13943179 -0.11500521 1.34 4280757549
-0.13586886 -0.11509104 1.3410001 4281283893
-0.13239905 -0.11526268 1.3430001 4280296996
-0.12882246 -0.11534851 1.3440001 4280362787
-0.12496104 -0.11517686 1.342 4280691752
-0.12120095 -0.11509104 1.3410001 4280954924
-0.11770927 -0.11526268 1.3430001 4279836443
-0.11420664 -0.11543434 1.345 4280099615
-0.11061091 -0.11552016 1.3460001 4280231201
-0.10685081 -0.11543434 1.345 4280165410
-0.10301948 -0.11526268 1.3430001 4280099617
-0.099199086 -0.11509104 1.3410001 4279902238
-0.095389619 -0.11491939 1.3390001 4280033824
-0.091522612 -0.11466192 1.3360001 4280231203
-0.087540448 -0.11423279 1.3310001 4280428582
-0.083522595 -0.11371783 1.325 4280362789
-0.079718471 -0.11346036 1.322 4280494373
-0.075873181 -0.11311706 1.3180001 4280954924
-0.072104603 -0.11285959 1.3150001 4280823338
-0.068300322 -0.1125163 1.3110001 4280954924
-0.064567298 -0.11225881 1.3080001 4280560166
-0.060664155 -0.11165804 1.3010001 4281283889
-0.056974873 -0.11140057 1.2980001 4281349684
-0.05346664 -0.1114864 1.299 4280757036
-0.049914513 -0.1114864 1.299 4281546552
-0.046291005 -0.11131474 1.2970001 4281678138
-0.042678431 -0.11114309 1.2950001 4282270277
-0.039258126 -0.1114864 1.299 4282204484
-0.036035847 -0.1125163 1.3110001 4283454549
-0.032921206 -0.11414696 1.33 4280165412
-0.029504493 -0.11500521 1.34 4280231203
-0.025878819 -0.11517686 1.342 4281152305
-0.022242203 -0.11534851 1.3440001 4282204993
-0.018580835 -0.11543434 1.345 4282533958
-0.014925082 -0.11560598 1.3470001 4281876028
-0.011241698 -0.11560598 1.3470001 4280560168
-0.007552701 -0.11552016 1.3460001 4280560168
-0.0038749278 -0.11560598 1.3470001 4280889133
-0.0001922542 -0.1160351 1.3520001 4281744444
0.0035255414 -0.1167217 1.36 4280559916
0.0073137232 -0.11783743 1.373 4283520602
-0.17781387 -0.11483076 1.3820001 4280494377
-0.1720199 -0.11350132 1.3660001 4282533960
-0.16631344 -0.11217187 1.35 4282468167
-0.16153771 -0.11142406 1.3410001 4282994511
-0.15739982 -0.1110917 1.337 4281481272
-0.15397376 -0.11125787 1.3390001 4283126097
-0.15042451 -0.11134097 1.34 4282402374
-0.14686979 -0.11142406 1.3410001 4281349686
-0.14320281 -0.11142406 1.3410001 4281810237
-0.13943179 -0.11134097 1.34 4281876030
-0.13586886 -0.11142406 1.3410001 4280691756
-0.13239905 -0.11159024 1.3430001 4281218100
-0.12901416 -0.11183952 1.3460001 4280954926
-0.12542662 -0.1119226 1.3470001 4280033824
-0.12165286 -0.11183952 1.3460001 4281283889
-0.11797221 -0.11183952 1.3460001 4280560166
-0.11420664 -0.11175642 1.345 4280296994
-0.11077525 -0.11200569 1.348 4280099615
-0.10708914 -0.11200569 1.348 4280099615
-0.10355644 -0.11217187 1.35 4280362787
-0.099642925 -0.1119226 1.3470001 4280033824
-0.095959544 -0.1119226 1.3470001 4279968031
-0.092070647 -0.11167333 1.3440001 4279902238
-0.088198148 -0.11142406 1.3410001 4279770652
-0.084279031 -0.1110917 1.337 4279968029
-0.080502383 -0.11092552 1.335 4280033822
-0.076621547 -0.11059316 1.3310001 4280428580
-0.072817422 -0.11034389 1.3280001 4280362787
-0.068977602 -0.11001153 1.3240001 4280560166
-0.065159656 -0.10967917 1.3200001 4280889131
-0.061083816 -0.10884826 1.3100001 4280823340
-0.057457712 -0.10876517 1.309 4281020719
-0.053919401 -0.10884826 1.3100001 4281218100
-0.050260343 -0.10868207 1.3080001 4280757549
-0.04657653 -0.10843281 1.3050001 4281086003
-0.042942081 -0.10826663 1.3030001 4281809726
-0.039499901 -0.10859899 1.307 4282599242
-0.036145795 -0.10926371 1.3150001 4281481272
-0.032871701 -0.11034389 1.3280001 4280296998
-0.029372383 -0.11084242 1.3340001 4280954928
-0.025763115 -0.11100861 1.3360001 4282073407
-0.022159457 -0.11125787 1.3390001 4282468165
-0.018553209 -0.11159024 1.3430001 4281152305
-0.014914001 -0.11183952 1.3460001 4280099617
-0.011241698 -0.1119226 1.3470001 4280099617
-0.007552701 -0.11183952 1.3460001 4280231203
-0.0038806812 -0.11208878 1.3490001 4280494375
-0.00019268079 -0.11258732 1.355 4280889135
0.0035540569 -0.11391677 1.3710001 4281744190
-0.17678455 -0.11040882 1.3740001 4281218098
-0.17126432 -0.10928383 1.36 4282862925
-0.16606705 -0.10831957 1.348 4283060304
-0.16129677 -0.10759637 1.3390001 4282073409
-0.15716437 -0.10727494 1.335 4282073409
-0.1536288 -0.1073553 1.3360001 4282336581
-0.15019999 -0.10751601 1.3380001 4281612858
-0.14665075 -0.10759637 1.3390001 4282796878
-0.14288245 -0.10751601 1.3380001 4281612858
-0.13922368 -0.10751601 1.3380001 4281547065
-0.13566622 -0.10759637 1.3390001 4281678651
-0.13220188 -0.10775708 1.3410001 4280691756
-0.1287266 -0.10791779 1.3430001 4280362789
-0.12514727 -0.10799815 1.3440001 4281152305
-0.12156247 -0.10807851 1.345 4280560166
-0.11779691 -0.10799815 1.3440001 4281349682
-0.11403682 -0.10791779 1.3430001 4280625959
-0.11052872 -0.10807851 1.345 4280691752
-0.10700969 -0.10823921 1.3470001 4280494373
-0.10340302 -0.10831957 1.348 4280691752
-0.099568956 -0.10815886 1.3460001 4280428582
-0.095888309 -0.10815886 1.3460001 4280231203
-0.092139147 -0.10807851 1.345 4279968031
-0.088461235 -0.10807851 1.345 4279968031
-0.084657244 -0.10791779 1.3430001 4279902236
-0.080924496 -0.10783743 1.342 4280033822
-0.077139653 -0.10767672 1.34 4279968029
-0.073420577 -0.10759637 1.3390001 4280231201
-0.069602773 -0.1073553 1.3360001 4279902236
-0.065307744 -0.10631068 1.3230001 4279902236
-0.061596733 -0.10614996 1.3210001 4280165408
-0.057896651 -0.10598926 1.319 4280296996
-0.054248679 -0.1059089 1.3180001 4280494375
-0.050606169 -0.10582854 1.317 4280560168
-0.046969123 -0.10574819 1.3160001 4280428584
-0.043271642 -0.10550711 1.3130001 4281283893
-0.039711453 -0.10558748 1.314 4281349686
-0.036255747 -0.10598926 1.319 4282402374
-0.032822199 -0.10655174 1.3260001 4281678651
-0.029328346 -0.10703388 1.332 4282599753
-0.025724547 -0.10719459 1.3340001 4281744444
-0.022126358 -0.10743566 1.337 4279968033
-0.018497949 -0.10759637 1.3390001 4280165412
-0.014869681 -0.10783743 1.342 4280231203
-0.011208314 -0.10791779 1.3430001 4280099617
-0.0075358674 -0.10791779 1.3430001 4279968031
-0.0038720511 -0.10815886 1.3460001 4280691754
-0.0001922542 -0.10864099 1.3520001 4280494377
0.0035514645 -0.1100874 1.3700001 4280033572
-0.17614123 -0.1062635 1.3690001 4281349684
-0.1707606 -0.10525442 1.3560001 4281744444
-0.16594385 -0.10455583 1.3470001 4283784027
-0.16153771 -0.10409011 1.3410001 4282270534
-0.15763527 -0.10393486 1.3390001 4282796878
-0.15385877 -0.10385723 1.3380001 4281941569
-0.15031224 -0.10393486 1.3390001 4283783773
-0.14676027 -0.10401248 1.34 4281941569
-0.14309603 -0.10401248 1.34 4281744190
-0.13943179 -0.10401248 1.34 4282007616
-0.13586886 -0.10409011 1.3410001 4282731339
-0.13220188 -0.10409011 1.3410001 4281481272
-0.1287266 -0.10424534 1.3430001 4282007614
-0.1253335 -0.10447822 1.3460001 4281744440
-0.12174324 -0.10455583 1.3470001 4280889131
-0.11797221 -0.10447822 1.3460001 4281942073
-0.11420664 -0.10440059 1.345 4281613108
-0.11061091 -0.10447822 1.3460001 4281415475
-0.10700969 -0.10455583 1.3470001 4281152303
-0.10340302 -0.10463345 1.348 4280560166
-0.099568956 -0.10447822 1.3460001 4280954924
-0.095959544 -0.10455583 1.3470001 4280296994
-0.092207655 -0.10447822 1.3460001 4280231203
-0.088527001 -0.10447822 1.3460001 4280296996
-0.084846355 -0.10447822 1.3460001 4279968031
-0.081165701 -0.10447822 1.3460001 4280362787
-0.077427492 -0.10440059 1.345 4280033822
-0.073749572 -0.10440059 1.345 4280033822
-0.069706969 -0.10385723 1.3380001 4279968029
-0.06594947 -0.103702 1.3360001 4279770904
-0.062249534 -0.10362437 1.335 4279902236
-0.058511175 -0.10346914 1.3330001 4279902236
-0.054783754 -0.10331389 1.3310001 4280033824
-0.051182546 -0.10339151 1.332 4279968031
-0.047540177 -0.10339151 1.332 4279902238
-0.0438319 -0.10323627 1.33 4279770652
-0.040074117 -0.10292578 1.3260001 4279902238
-0.036475644 -0.10300341 1.327 4280231203
-0.032921206 -0.10323627 1.33 4280560170
-0.02941642 -0.103702 1.3360001 4280296998
-0.025801681 -0.10385723 1.3380001 4280494375
-0.022192555 -0.10409011 1.3410001 4279968031
-0.018525576 -0.10409011 1.3410001 4280296996
-0.014869681 -0.10416772 1.342 4280494375
-0.011191622 -0.10409011 1.3410001 4280033824
-0.007524645 -0.10409011 1.3410001 4280099617
-0.003863421 -0.10424534 1.3430001 4280560168
-0.00019168539 -0.10463345 1.348 4280560170
0.0035255414 -0.10556491 1.36 4280954928
-0.17511192 -0.10192086 1.3610001 4281283889
-0.17000502 -0.10109711 1.35 4281481270
-0.16532788 -0.10049801 1.342 4282533960
-0.16117632 -0.10019846 1.3380001 4283389015
-0.15739982 -0.10012358 1.337 4282402120
-0.15374379 -0.10012358 1.337 4282467913
-0.14997549 -0.10004869 1.3360001 4282204741
-0.1464317 -0.10012358 1.337 4282994511
-0.14298923 -0.10027335 1.3390001 4283060304
-0.13953583 -0.10042313 1.3410001 4282994509
-0.13586886 -0.10042313 1.3410001 4281218098
-0.13210329 -0.10034824 1.34 4282928716
-0.1285349 -0.10042313 1.3410001 4281876028
-0.12496104 -0.10049801 1.342 4281547061
-0.12147209 -0.10064778 1.3440001 4281744440
-0.11797221 -0.10079756 1.3460001 4280757545
-0.11429156 -0.10079756 1.3460001 4281283889
-0.11061091 -0.10079756 1.3460001 4281152305
-0.10685081 -0.10072268 1.345 4281283889
-0.10317289 -0.10072268 1.345 4280823338
-0.099421009 -0.10064778 1.3440001 4280757545
-0.095817059 -0.10072268 1.345 4280889131
-0.092139147 -0.10072268 1.345 4280560168
-0.088461235 -0.10072268 1.345 4280757547
-0.084720284 -0.10064778 1.3440001 4280560168
-0.081105404 -0.10072268 1.345 4280362789
-0.077427492 -0.10072268 1.345 4280165408
-0.073694736 -0.10064778 1.3440001 4280165408
-0.069915362 -0.10049801 1.342 4280165408
-0.066196285 -0.10042313 1.3410001 4279968029
-0.062529311 -0.10042313 1.3410001 4279968029
-0.058774542 -0.10027335 1.3390001 4280033824
-0.055030715 -0.10012358 1.337 4279968031
-0.0514131 -0.10019846 1.3380001 4279836445
-0.047790017 -0.10027335 1.3390001 4279902238
-0.04409555 -0.10019846 1.3380001 4279902238
-0.040315893 -0.099898912 1.3340001 4279836445
-0.036668055 -0.099898912 1.3340001 4279968031
-0.033044972 -0.099973805 1.335 4279968033
-0.029460454 -0.10019846 1.3380001 4280099619
-0.025878819 -0.10049801 1.342 4280560168
-0.022159457 -0.10027335 1.3390001 4280033824
-0.018497949 -0.10027335 1.3390001 4280165410
-0.01484752 -0.10034824 1.34 4280362787
-0.011191622 -0.10042313 1.3410001 4280625959
-0.0075358674 -0.1005729 1.3430001 4280494375
-0.0038691743 -0.10072268 1.345 4280428582
-0.00019154319 -0.10087244 1.3470001 4281020719
0.0034866568 -0.10072268 1.345 4280823342
0.0071805529 -0.10094734 1.348 4280165159
-0.17446861 -0.097838432 1.3560001 4281612856
-0.16962723 -0.097189061 1.3470001 4282007614
-0.16495828 -0.096611843 1.3390001 4282599753
-0.1609354 -0.096395388 1.3360001 4283454808
-0.15716437 -0.096323237 1.335 4282402120
-0.1536288 -0.096395388 1.3360001 4282533706
-0.15008774 -0.09646754 1.337 4282665292
-0.14654122 -0.096539684 1.3380001 4282797132
-0.14330959 -0.096828297 1.342 4283126095
-0.13974395 -0.096900448 1.3430001 4282665544
-0.13597018 -0.096828297 1.342 4282862923
-0.13230047 -0.096828297 1.342 4282336579
-0.12882246 -0.096972607 1.3440001 4282533958
-0.12542662 -0.097189061 1.3470001 4282533958
-0.12174324 -0.097189061 1.3470001 4281876026
-0.11823515 -0.097333364 1.3490001 4282204991
-0.11463121 -0.097405523 1.35 4281349682
-0.11093961 -0.097405523 1.35 4281349682
-0.10700969 -0.097189061 1.3470001 4281547061
-0.10317289 -0.097044758 1.345 4281547063
-0.099421009 -0.096972607 1.3440001 4281020719
-0.095888309 -0.097116917 1.3460001 4281086512
-0.092207655 -0.097116917 1.3460001 4281349684
-0.088461235 -0.097044758 1.345 4280823340
-0.084657244 -0.096900448 1.3430001 4281020719
-0.080984794 -0.096900448 1.3430001 4281678649
-0.077254787 -0.096828297 1.342 4281152305
-0.073420577 -0.096611843 1.3390001 4280757545
-0.069759071 -0.096611843 1.3390001 4280691495
-0.066048197 -0.096539684 1.3380001 4280428580
-0.062389422 -0.096539684 1.3380001 4280231201
-0.058686756 -0.09646754 1.337 4280165408
-0.055113032 -0.096611843 1.3390001 4280099615
-0.051528376 -0.096756153 1.3410001 4280165408
-0.047932778 -0.096900448 1.3430001 4279902238
-0.0438319 -0.095962472 1.33 4280296996
-0.040255446 -0.096106783 1.332 4279968031
-0.036695544 -0.096323237 1.335 4280165410
-0.033143982 -0.096611843 1.3390001 4280296996
-0.02954853 -0.096828297 1.342 4280428582
-0.025878819 -0.096828297 1.342 4280494375
-0.022176007 -0.096683994 1.34 4280625961
-0.018511763 -0.096683994 1.34 4280625961
-0.0148586 -0.096756153 1.3410001 4281283378
-0.011208314 -0.096900448 1.3430001 4281151792
-0.007552701 -0.097116917 1.3460001 4280560170
-0.0038749278 -0.097189061 1.3470001 4280560170
-0.00019154319 -0.097189061 1.3470001 4281020721
0.0034866568 -0.097044758 1.345 4280823342
0.0071645724 -0.097044758 1.345 4282204742
0.010939224 -0.097910583 1.3570001 4283520602
-0.17369661 -0.093713932 1.35 4282073407
-0.16899759 -0.09315858 1.342 4282270788
-0.16421913 -0.092533834 1.3330001 4281941823
-0.16021264 -0.092325576 1.33 4281612604
-0.15645801 -0.092256166 1.3290001 4282994257
-0.15305384 -0.092394993 1.3310001 4282796878
-0.14963871 -0.092533834 1.3330001 4282665292
-0.14632219 -0.092742085 1.3360001 4282929234
-0.14298923 -0.092950337 1.3390001 4282994511
-0.13932772 -0.092950337 1.3390001 4282994511
-0.13566622 -0.092950337 1.3390001 4282994511
-0.13210329 -0.093019754 1.34 4282665546
-0.1287266 -0.093228005 1.3430001 4283257683
-0.12514727 -0.093297422 1.3440001 4282468165
-0.12147209 -0.093297422 1.3440001 4283060302
-0.11797221 -0.093436264 1.3460001 4282665544
-0.11446138 -0.093575098 1.348 4282139200
-0.11069308 -0.093505673 1.3470001 4282797130
-0.10669193 -0.093228005 1.3430001 4282336579
-0.10278936 -0.093019754 1.34 4281876028
-0.099051133 -0.092950337 1.3390001 4281876028
-0.095318384 -0.092880912 1.3380001 4282336579
-0.091659613 -0.092880912 1.3380001 4281941821
-0.087935075 -0.092811503 1.337 4282204993
-0.08408992 -0.092603244 1.3340001 4282468165
-0.080321483 -0.09246441 1.332 4281020719
-0.076563984 -0.092325576 1.33 4282270784
-0.072762586 -0.092117324 1.327 4281612854
-0.069185995 -0.092186742 1.3280001 4281481011
-0.065554559 -0.092186742 1.3280001 4280954667
-0.061923131 -0.092186742 1.3280001 4281547063
-0.058160022 -0.091978483 1.325 4280691754
-0.054001719 -0.091076054 1.312 4281020719
-0.050414041 -0.091076054 1.312 4280560166
-0.046933439 -0.091284312 1.3150001 4280099615
-0.043436427 -0.091492563 1.3180001 4280099615
-0.039892785 -0.091631405 1.3200001 4280231203
-0.036338206 -0.091770232 1.322 4280428582
-0.03277269 -0.091909073 1.3240001 4280560168
-0.029196238 -0.0920479 1.3260001 4280823340
-0.025608843 -0.092186742 1.3280001 4280625961
-0.022010513 -0.092325576 1.33 4280823340
-0.01841506 -0.092533834 1.3330001 4280823342
-0.014781038 -0.092603244 1.3340001 4281349173
-0.011149894 -0.092742085 1.3360001 4281217587
-0.0074965889 -0.092742085 1.3360001 4281743931
-0.0038461606 -0.092811503 1.337 4280691756
-0.0001904056 -0.092950337 1.3390001 4280362791
0.0034736951 -0.093019754 1.34 4282731339
0.0071432651 -0.093089171 1.3410001 4281941569
0.010890856 -0.093783341 1.3510001 4280494124
-0.17331062 -0.089822292 1.3470001 4282928718
-0.1686198 -0.089288823 1.3390001 4282204995
-0.16421913 -0.088888727 1.3330001 4282336581
-0.16021264 -0.088688679 1.33 4281612604
-0.15634029 -0.088555314 1.3280001 4282665292
-0.15282385 -0.088621996 1.3290001 4283191637
-0.14952645 -0.088822044 1.332 4282928465
-0.14632219 -0.089088775 1.3360001 4283191637
-0.14288245 -0.089222148 1.3380001 4283191637
-0.13922368 -0.089222148 1.3380001 4282994257
-0.13566622 -0.089288823 1.3390001 4283125843
-0.13200471 -0.089288823 1.3390001 4283389015
-0.1285349 -0.089422189 1.3410001 4283323222
-0.12486792 -0.089422189 1.3410001 4283257429
-0.12111057 -0.089355513 1.34 4282599753
-0.11762162 -0.089488879 1.342 4282731339
-0.11403682 -0.089555554 1.3430001 4282862925
-0.11028219 -0.089488879 1.342 4282599753
-0.10629471 -0.089222148 1.3380001 4282401859
-0.10240581 -0.089022093 1.335 4282797130
-0.09875524 -0.089022093 1.335 4282468165
-0.09503343 -0.08895541 1.3340001 4282402372
-0.091317095 -0.088888727 1.3330001 4282862923
-0.087540448 -0.088755362 1.3310001 4282468165
-0.083648667 -0.088488631 1.327 4282139200
-0.079778768 -0.088221893 1.3230001 4282599751
-0.075815611 -0.087821797 1.317 4281678647
-0.072214261 -0.087821797 1.317 4283849816
-0.068717107 -0.087955162 1.319 4282468163
-0.065159656 -0.088021845 1.3200001 4281612854
-0.060943928 -0.087154962 1.307 4280823340
-0.05741382 -0.087221645 1.3080001 4282007614
-0.05383708 -0.087221645 1.3080001 4280823340
-0.050260343 -0.087221645 1.3080001 4281415477
-0.04671929 -0.087288328 1.309 4281283889
-0.043139819 -0.087288328 1.309 4281415477
-0.039620791 -0.087421693 1.3110001 4280625961
-0.036090821 -0.087555066 1.3130001 4281152303
-0.032525163 -0.087621748 1.314 4280822827
-0.028954037 -0.087688431 1.3150001 4280953899
-0.025358155 -0.087688431 1.3150001 4281875517
-0.021795372 -0.087821797 1.317 4282007103
-0.018235467 -0.088021845 1.3200001 4282204484
-0.014636994 -0.088088527 1.3210001 4282007105
-0.011041399 -0.088221893 1.3230001 4282533449
-0.007423643 -0.088221893 1.3230001 4282796621
-0.0038087636 -0.088288575 1.3240001 4282467656
-0.00018855699 -0.088421941 1.3260001 4282336581
0.0034503646 -0.088755362 1.3310001 4282797132
0.0071166311 -0.089088775 1.3360001 4282862671
0.010842488 -0.089688927 1.345 4283323222
-0.17305329 -0.086011015 1.345 4283059791
-0.16786422 -0.085243627 1.3330001 4282928718
-0.16360314 -0.084923886 1.3280001 4282073409
-0.15985125 -0.084859937 1.327 4281809983
-0.15610483 -0.084795982 1.3260001 4281612604
-0.15236388 -0.084732033 1.325 4282533706
-0.14874065 -0.084732033 1.325 4283257429
-0.145446 -0.084923886 1.3280001 4283125844
-0.14202815 -0.085051782 1.33 4282467914
-0.13828719 -0.084987834 1.3290001 4282928465
-0.13455172 -0.084923886 1.3280001 4282862672
-0.13101886 -0.084987834 1.3290001 4283454809
-0.12748055 -0.085051782 1.33 4283323223
-0.12393677 -0.085115731 1.3310001 4283323222
-0.12029714 -0.085115731 1.3310001 4282994257
-0.11665751 -0.085115731 1.3310001 4282731085
-0.11310279 -0.085179679 1.332 4283191890
-0.10929607 -0.085051782 1.33 4282402374
-0.10550028 -0.084923886 1.3280001 4282730826
-0.10171543 -0.084795982 1.3260001 4282862412
-0.098089471 -0.084795982 1.3260001 4282599751
-0.094321035 -0.084668085 1.3240001 4283455060
-0.090563536 -0.084540188 1.322 4282204993
-0.086816974 -0.084412292 1.3200001 4282731337
-0.082955271 -0.084156498 1.3160001 4282336579
-0.079175755 -0.083964653 1.3130001 4282402372
-0.075124815 -0.083453059 1.3050001 4283586644
-0.070898287 -0.082685679 1.2930001 4281612854
-0.067414664 -0.082749628 1.294 4283718230
-0.064024299 -0.082941473 1.2970001 4282468163
-0.060570896 -0.083069369 1.299 4283257681
-0.057106555 -0.083197266 1.3010001 4281086512
-0.053548958 -0.083197266 1.3010001 4283520853
-0.049991362 -0.083197266 1.3010001 4281547061
-0.046398073 -0.083133318 1.3000001 4281481268
-0.042843211 -0.083133318 1.3000001 4280889133
-0.039348792 -0.083261214 1.302 4282204993
-0.035870921 -0.083453059 1.3050001 4280691754
-0.032302387 -0.083453059 1.3050001 4282007616
-0.028689817 -0.083325163 1.3030001 4282797132
-0.02512675 -0.083325163 1.3030001 4283454549
-0.021580232 -0.083389118 1.304 4281876030
-0.018042061 -0.083517015 1.3060001 4283718234
-0.014481872 -0.083580956 1.307 4282599499
-0.010924559 -0.083708853 1.309 4282665292
-0.0073394747 -0.083644912 1.3080001 4282928718
-0.0037656128 -0.083708853 1.309 4283784027
-0.0001862818 -0.083772808 1.3100001 4282731339
0.0034114798 -0.084156498 1.3160001 4283323222
0.0070420555 -0.084540188 1.322 4283520601
0.010705445 -0.084923886 1.3280001 4282796879
0.014390854 -0.085243627 1.3330001 4282533707
0.018103607 -0.085563369 1.3380001 4292534243
0.02179491 -0.085691266 1.34 4291942108
-0.16799015 -0.081659742 1.3340001 4283323476
-0.16347995 -0.081231236 1.327 4283389015
-0.15973079 -0.081170022 1.3260001 4282533706
-0.15575165 -0.080986381 1.3230001 4281744190
-0.15178892 -0.080802739 1.3200001 4280954674
-0.14806712 -0.080741525 1.319 4282204741
-0.14435077 -0.080680311 1.3180001 4282796878
-0.14074668 -0.080680311 1.3180001 4282862672
-0.13714261 -0.080680311 1.3180001 4283125844
-0.13353853 -0.080680311 1.3180001 4282796879
-0.13003302 -0.080741525 1.319 4283323223
-0.12633036 -0.080680311 1.3180001 4283323223
-0.12281939 -0.080741525 1.319 4283389015
-0.11912218 -0.080680311 1.3180001 4283125843
-0.11543046 -0.080619097 1.317 4283060050
-0.11191402 -0.080680311 1.3180001 4282928464
-0.10830993 -0.080680311 1.3180001 4283257683
-0.10478529 -0.080741525 1.319 4282928718
-0.10110177 -0.080680311 1.3180001 4282665546
-0.097571656 -0.080741525 1.319 4282731337
-0.093751118 -0.080557883 1.3160001 4283389267
-0.089946985 -0.080374241 1.3130001 4284507748
-0.086290807 -0.080313027 1.312 4281612856
-0.082514025 -0.080129385 1.309 4283718232
-0.077909432 -0.07908874 1.2920001 4283323474
-0.074261308 -0.078966312 1.2900001 4283455060
-0.070678957 -0.078905098 1.289 4283849818
-0.067206271 -0.078966312 1.2900001 4284902506
-0.063826844 -0.079149954 1.2930001 4282533956
-0.060337752 -0.079211168 1.294 4284310367
-0.056930982 -0.07939481 1.2970001 4282994507
-0.053343162 -0.079333596 1.296 4282731335
-0.049837664 -0.07939481 1.2970001 4282533956
-0.046326693 -0.079456031 1.2980001 4281744440
-0.042777296 -0.079456031 1.2980001 4282139200
-0.039288349 -0.079578459 1.3000001 4281876028
-0.035760973 -0.079639666 1.3010001 4284507750
-0.032203376 -0.079639666 1.3010001 4282402374
-0.028623762 -0.079578459 1.3000001 4284573543
-0.025068898 -0.079578459 1.3000001 4283585365
-0.021547135 -0.079700887 1.302 4282993998
-0.018000618 -0.079762094 1.3030001 4281612858
-0.014448632 -0.079823315 1.304 4284441957
-0.010891177 -0.079884522 1.3050001 4282797130
-0.0073226411 -0.079884522 1.3050001 4283323474
-0.0037512293 -0.079823315 1.304 4281086514
-0.00018542859 -0.079823315 1.304 4285165680
0.003388149 -0.080006957 1.307 4282928464
0.0069834604 -0.080251813 1.3110001 4283257429
0.010584526 -0.080374241 1.3130001 4282796879
0.014218121 -0.080619097 1.317 4282862672
0.01784653 -0.080741525 1.319 4283981153
0.021485878 -0.080863953 1.3210001 4282007363
0.025155164 -0.081047595 1.3240001 4282204742
0.028992992 -0.081659742 1.3340001 4290099902
-0.16811608 -0.07807038 1.335 4283191890
-0.16311036 -0.077427104 1.3240001 4283257429
-0.15900803 -0.077193186 1.3200001 4283191636
-0.15492757 -0.076959267 1.3160001 4282731085
-0.15098397 -0.076783828 1.3130001 4282533706
-0.14694454 -0.07654991 1.309 4281612858
-0.1430365 -0.076374471 1.3060001 4282336581
-0.13903809 -0.076140553 1.302 4282402120
-0.13526964 -0.076023594 1.3000001 4283389015
-0.13171478 -0.076023594 1.3000001 4282862671
-0.12835708 -0.076140553 1.302 4283191636
-0.12479676 -0.076140553 1.302 4282862671
-0.12123642 -0.076140553 1.302 4283191890
-0.11749533 -0.076023594 1.3000001 4283257683
-0.11394046 -0.076023594 1.3000001 4283060050
-0.11047052 -0.076082073 1.3010001 4282862671
-0.10707727 -0.076199032 1.3030001 4282862925
-0.10375253 -0.076374471 1.3060001 4283389269
-0.10010456 -0.076315992 1.3050001 4282073409
-0.096462056 -0.076257512 1.304 4283652439
-0.092825003 -0.076199032 1.3030001 4283784025
-0.089056425 -0.076023594 1.3000001 4283060304
-0.084515005 -0.075146399 1.2850001 4284639336
-0.080938123 -0.07508792 1.284 4282204995
-0.07748732 -0.075146399 1.2850001 4284770922
-0.073915899 -0.07508792 1.284 4284705127
-0.070459627 -0.075146399 1.2850001 4283652439
-0.067049973 -0.075263359 1.2870001 4280691754
-0.063629389 -0.075380318 1.289 4286152571
-0.060104609 -0.075380318 1.289 4282139198
-0.056623716 -0.075438797 1.2900001 4282665544
-0.053096201 -0.075438797 1.2900001 4282402372
-0.049568683 -0.075438797 1.2900001 4285560434
-0.046076857 -0.075497277 1.291 4282270784
-0.042612515 -0.075614236 1.2930001 4284441955
-0.039107021 -0.075672716 1.294 4282665544
-0.03559605 -0.075731196 1.2950001 4282862925
-0.03205486 -0.075731196 1.2950001 4282862925
-0.028535688 -0.075789675 1.296 4283981406
-0.024991764 -0.075789675 1.296 4282336068
-0.021497488 -0.075965114 1.299 4284704616
-0.017931543 -0.075906634 1.2980001 4282665033
-0.014393231 -0.075965114 1.299 4285691511
-0.010857794 -0.076082073 1.3010001 4284112990
-0.0073058074 -0.076140553 1.302 4282270786
-0.0037425992 -0.076082073 1.3010001 4283389269
-0.0001848598 -0.076023594 1.3000001 4282533960
0.0033751875 -0.076140553 1.302 4283783773
0.0069461726 -0.076257512 1.304 4284310118
0.010528096 -0.076374471 1.3060001 4283652188
0.014120958 -0.07649143 1.3080001 4283849567
0.017711228 -0.07654991 1.309 4283586395
0.021339495 -0.076725349 1.312 4284639083
0.024984168 -0.076900788 1.3150001 4283520602
0.028688719 -0.077193186 1.3200001 4282862672
-0.16360314 -0.074029595 1.3280001 4282994257
-0.1587671 -0.073472142 1.3180001 4283586394
-0.15422121 -0.07302618 1.3100001 4283125843
-0.15006405 -0.072747454 1.3050001 4283389015
-0.14615874 -0.072580226 1.302 4281876030
-0.14226985 -0.072412983 1.299 4282599753
-0.13818377 -0.072134256 1.294 4282599753
-0.13433315 -0.071967028 1.291 4282599499
-0.13070159 -0.071911275 1.2900001 4283323222
-0.12737124 -0.072022766 1.2920001 4282928464
-0.12383825 -0.072022766 1.2920001 4283389015
-0.12030527 -0.072022766 1.2920001 4283126097
-0.11659151 -0.071911275 1.2900001 4283455062
-0.113064 -0.071911275 1.2900001 4282994511
-0.10962139 -0.071967028 1.291 4283389015
-0.10625549 -0.072078511 1.2930001 4283323222
-0.10279921 -0.072134256 1.294 4282204995
-0.099184051 -0.072078511 1.2930001 4284968301
-0.095574364 -0.072022766 1.2920001 4282928718
-0.091115266 -0.071298078 1.279 4283257683
-0.08768633 -0.07135383 1.2800001 4282204995
-0.084251925 -0.071409576 1.281 4285033840
-0.080938123 -0.071576804 1.284 4281612604
-0.077366717 -0.071521066 1.2830001 4283586648
-0.073915899 -0.071576804 1.284 4282270788
-0.070514463 -0.071688294 1.286 4281876030
-0.067049973 -0.071744047 1.2870001 4284178783
-0.063481301 -0.071688294 1.286 4283586646
-0.059918091 -0.071632557 1.2850001 4282139200
-0.056448143 -0.071688294 1.286 4284770920
-0.05301388 -0.071799785 1.2880001 4284244576
-0.04953026 -0.071855538 1.289 4281152305
-0.046076857 -0.071967028 1.291 4285560436
-0.042579561 -0.072022766 1.2920001 4282204993
-0.039046574 -0.072022766 1.2920001 4282139200
-0.035513587 -0.072022766 1.2920001 4283784027
-0.032030109 -0.072134256 1.294 4285231473
-0.028535688 -0.072245747 1.296 4281283893
-0.02503033 -0.072357245 1.2980001 4285033581
-0.021514036 -0.072468735 1.3000001 4283059791
-0.017945359 -0.072412983 1.299 4283125584
-0.014393231 -0.072412983 1.299 4281217587
-0.010857794 -0.072524473 1.3010001 4283849307
-0.0073058074 -0.072580226 1.302 4282468167
-0.0037454758 -0.072580226 1.302 4284507237
-0.0001848598 -0.072468735 1.3000001 4281020721
0.0033725952 -0.072524473 1.3010001 4285165680
0.0069461726 -0.072691716 1.304 4283125843
0.010536158 -0.072858945 1.307 4281809983
0.01414255 -0.07302618 1.3100001 4284441703
0.017724756 -0.07302618 1.3100001 4283323222
0.021339495 -0.073137671 1.312 4284573289
0.024946172 -0.073193423 1.3130001 4281217846
0.028623518 -0.073416397 1.317 4284310118
-0.15828528 -0.069656014 1.314 4282204741
-0.15351486 -0.069125913 1.304 4283389015
-0.1493741 -0.068860859 1.299 4283191636
-0.14526068 -0.068595804 1.294 4283191636
-0.14128414 -0.068383761 1.2900001 4282336327
-0.13732947 -0.068171717 1.286 4281546811
-0.13339669 -0.067959674 1.2820001 4283389015
-0.1296884 -0.067853652 1.2800001 4282402120
-0.12618822 -0.067853652 1.2800001 4283454808
-0.1227839 -0.06790667 1.281 4284046945
-0.11937411 -0.067959674 1.2820001 4283652187
-0.11577808 -0.06790667 1.281 4282139202
-0.11245047 -0.068012692 1.2830001 4284047969
-0.10902701 -0.068065695 1.284 4283126097
-0.10559808 -0.068118706 1.2850001 4282402374
-0.10208423 -0.068118706 1.2850001 4282467913
-0.098416969 -0.068012692 1.2830001 4282796878
-0.094242826 -0.067535594 1.274 4283257172
-0.090759061 -0.067535594 1.274 4282730828
-0.087343805 -0.067588598 1.2750001 4284573030
-0.083923079 -0.067641616 1.276 4283125584
-0.08074902 -0.06790667 1.281 4283520855
-0.07718581 -0.067853652 1.2800001 4283257683
-0.073800772 -0.067959674 1.2820001 4285034094
-0.070459627 -0.068118706 1.2850001 4284441957
-0.066945784 -0.068118706 1.2850001 4284310371
-0.063333213 -0.068012692 1.2830001 4281283891
-0.059778202 -0.067959674 1.2820001 4285034092
-0.056316458 -0.068012692 1.2830001 4281349171
-0.052890401 -0.068118706 1.2850001 4283915098
