# .PCD v0.7 - Point Cloud Data file format
VERSION 0.7
FIELDS x y z rgba
SIZE 4 4 4 4
TYPE F F F U
COUNT 1 1 1 1
WIDTH 1091
HEIGHT 1
VIEWPOINT 0 0 0 1 0 0 0
POINTS 1091
DATA ascii
0.21389034 -0.29008913 1.598 4280693043
0.20702943 -0.28232223 1.5790001 4278190080
0.20925838 -0.28099751 1.5960001 4280627250
0.18602768 -0.27455327 1.5840001 4280692786
0.19370733 -0.27316666 1.5760001 4280626993
0.19902205 -0.27455327 1.5840001 4280693043
0.19419897 -0.26953945 1.58 4278190080
0.19826819 -0.26919827 1.5780001 4280561200
0.32258505 -0.26851588 1.5740001 4280692273
0.34109682 -0.26953945 1.58 4280560940
0.34388703 -0.26834527 1.5730001 4280626733
0.36132213 -0.26851588 1.5740001 4280626993
0.36748457 -0.26988065 1.582 4280626993
0.39319181 -0.26971003 1.5810001 4280824372
0.19370733 -0.26454747 1.5760001 4280429871
0.33872211 -0.26337248 1.5690001 4280560686
0.36132213 -0.26421177 1.5740001 4280692019
0.32564309 -0.25891688 1.5680001 4280298027
0.18735474 -0.25316766 1.559 4280561457
0.42636168 -0.25333005 1.5600001 4280955444
0.44228801 -0.25268048 1.5560001 4280890162
0.31201237 -0.24635006 1.5430001 4280494894
0.3174614 -0.24730799 1.549 4280363821
0.32294324 -0.24826592 1.5550001 4280364078
0.42814314 -0.2476273 1.5510001 4280824372
0.43775165 -0.24826592 1.5550001 4280824371
0.44001406 -0.24714835 1.5480001 4280890164
0.44309914 -0.2465097 1.544 4280890164
0.31282124 -0.24275839 1.5470001 4280429614
0.43717158 -0.24134611 1.5380001 4281153336
0.43994236 -0.24056149 1.5330001 4281087544
0.43352896 -0.2374488 1.5400001 4281021750
0.43717158 -0.23714042 1.5380001 4281284923
0.43015081 -0.23142022 1.5280001 4280824884
-0.1362042 -0.21999788 1.5070001 4282929235
-0.13006742 -0.21664025 1.4840001 4284310118
-0.12465082 -0.21430451 1.4680001 4283915360
-0.11965043 -0.2125527 1.4560001 4284244325
-0.11314499 -0.2153264 1.475 4284573290
-0.11059107 -0.21824607 1.4950001 4284770669
-0.10579059 -0.21678622 1.485 4284310118
-0.10152432 -0.21634828 1.4820001 4284112739
-0.098852962 -0.21941394 1.503 4283783774
-0.14195392 -0.2121525 1.4810001 4282929235
-0.13529687 -0.20814151 1.4530001 4283455579
-0.13005829 -0.20613602 1.439 4283192407
-0.12542215 -0.20499003 1.4310001 4284244325
-0.12065995 -0.20355752 1.4210001 4283520602
-0.1161168 -0.20241153 1.4130001 4282533707
-0.11201461 -0.20198178 1.4100001 4283783773
-0.10792883 -0.20155203 1.4070001 4283915359
-0.10400739 -0.20140877 1.406 4284244324
-0.10002019 -0.20112227 1.404 4284375911
-0.096249446 -0.20126553 1.4050001 4284704876
-0.092604771 -0.20169528 1.4080001 4284573290
-0.089006722 -0.20226829 1.4120001 4285560185
-0.08580891 -0.20384403 1.4230001 4284243814
-0.15228255 -0.21119401 1.503 4283389016
-0.14383486 -0.20501137 1.4590001 4282337098
-0.13744895 -0.20149848 1.434 4282731085
-0.13241029 -0.19981229 1.4220001 4282402374
-0.12816028 -0.19925025 1.4180001 4283060304
-0.12401981 -0.1988287 1.4150001 4282468167
-0.11981083 -0.19826663 1.411 4283520855
-0.11545938 -0.19742355 1.4050001 4283191636
-0.11122018 -0.19672097 1.4000001 4284112992
-0.10693161 -0.19587789 1.3940001 4283520855
-0.10267586 -0.19503479 1.388 4284376164
-0.098595396 -0.19447273 1.3840001 4284046688
-0.094536819 -0.19391066 1.3800001 4286086271
-0.090631664 -0.19362965 1.378 4284178019
-0.086800471 -0.19348912 1.3770001 4285361779
-0.083035052 -0.19348912 1.3770001 4284967535
-0.079327196 -0.19362965 1.378 4285296502
-0.075833201 -0.19433221 1.383 4285625467
-0.073093332 -0.19714251 1.4030001 4285559674
-0.1477232 -0.20088392 1.4580001 4282862671
-0.14137024 -0.19757719 1.434 4282468167
-0.13639461 -0.19606161 1.4230001 4281283893
-0.13213094 -0.19551048 1.419 4282073407
-0.12806991 -0.19523491 1.4170001 4281612856
-0.12419511 -0.19523491 1.4170001 4282402372
-0.11998066 -0.19468381 1.4130001 4282468165
-0.11578808 -0.19413267 1.409 4283455062
-0.11122018 -0.19289266 1.4000001 4284112992
-0.1067782 -0.19179042 1.3920001 4283520855
-0.10223202 -0.19041261 1.3820001 4284047199
-0.098096721 -0.1897237 1.3770001 4283388758
-0.093988784 -0.1890348 1.3720001 4284967790
-0.090105489 -0.18875924 1.3700001 4285427572
-0.086170107 -0.18834589 1.3670001 4285493365
-0.082371734 -0.18820812 1.3660001 4285164400
-0.078406125 -0.18765698 1.3620001 4285822076
-0.074791387 -0.18793255 1.3640001 4284770158
-0.071217805 -0.18834589 1.3670001 4285822846
-0.067973368 -0.1897237 1.3770001 4285559674
-0.064674236 -0.19110151 1.3870001 4285427836
-0.061452098 -0.19289266 1.4000001 4285954180
-0.055294055 -0.1982661 1.439 4286479755
-0.052179988 -0.20143506 1.462 4286677134
-0.048544656 -0.20295063 1.473 4286150532
-0.044758495 -0.20405288 1.4810001 4285624188
-0.040983561 -0.20543069 1.4910001 4285755774
-0.036980666 -0.20584403 1.4940001 4285690494
-0.15233444 -0.19770728 1.4640001 4282665293
-0.14549418 -0.19392601 1.4360001 4281941569
-0.14038441 -0.19230545 1.424 4282270786
-0.1362029 -0.19190031 1.4210001 4281547063
-0.13213094 -0.19163021 1.419 4281283891
-0.12834105 -0.19176528 1.4200001 4281547063
-0.12410746 -0.19122508 1.416 4281415477
-0.12015048 -0.19109003 1.4150001 4282204993
-0.11595244 -0.19054985 1.411 4282928716
-0.11137906 -0.18933444 1.4020001 4283257683
-0.10670149 -0.18784893 1.391 4283586648
-0.10201009 -0.18622838 1.3790001 4284968301
-0.097811766 -0.18541811 1.373 4284244067
-0.093714766 -0.18474288 1.368 4284572263
-0.08977665 -0.18433775 1.365 4283980640
-0.085791893 -0.18379755 1.3610001 4285559672
-0.081889324 -0.18339242 1.358 4284967021
-0.078003153 -0.18298729 1.355 4285493111
-0.074297898 -0.18298729 1.355 4285230709
-0.070592634 -0.18298729 1.355 4285888639
-0.066986099 -0.18325736 1.3570001 4285625467
-0.063275367 -0.18325736 1.3570001 4286086018
-0.059740219 -0.18379755 1.3610001 4285757053
-0.056306668 -0.18474288 1.368 4286020225
-0.053026963 -0.18636341 1.3800001 4285887869
-0.049645938 -0.18784893 1.391 4286217088
-0.046270672 -0.18960452 1.404 4286019709
-0.04300563 -0.19217041 1.4230001 4286413956
-0.039856579 -0.19581664 1.45 4286084991
-0.036733136 -0.20040821 1.4840001 4284242533
-0.032873288 -0.20162363 1.493 4284440423
-0.15740563 -0.19502707 1.4740001 4281678398
-0.15025336 -0.19105774 1.4440001 4282994258
-0.14488626 -0.18920536 1.4300001 4282599499
-0.14048298 -0.18854383 1.4250001 4281481272
-0.13649046 -0.1884115 1.424 4281941821
-0.13259652 -0.1884115 1.424 4281415477
-0.12870258 -0.1884115 1.424 4281349684
-0.12445805 -0.18788227 1.4200001 4281218100
-0.12023539 -0.18735301 1.416 4282007616
-0.11595244 -0.18669145 1.411 4283060302
-0.1114585 -0.18563296 1.4030001 4282797132
-0.10662477 -0.18391292 1.3900001 4283718234
-0.10193612 -0.18232518 1.378 4283718234
-0.097669289 -0.181399 1.3710001 4284046688
-0.093646258 -0.18086974 1.3670001 4284704618
-0.089710869 -0.18047282 1.3640001 4283915102
-0.085791893 -0.18007588 1.3610001 4284704363
-0.081889324 -0.17967895 1.358 4284770156
-0.078003153 -0.17928202 1.355 4285362293
-0.074297898 -0.17928202 1.355 4284967535
-0.070436344 -0.17888507 1.3520001 4285165427
-0.066591196 -0.17848815 1.3490001 4285297013
-0.062762454 -0.17809121 1.3460001 4285099634
-0.0590818 -0.17809121 1.3460001 4285165427
-0.055565793 -0.17862046 1.35 4285823357
-0.05206633 -0.17928202 1.355 4285362806
-0.048610903 -0.18020819 1.3620001 4285757564
-0.045084242 -0.18100207 1.368 4285625465
-0.041585207 -0.18206055 1.376 4286217602
-0.038152367 -0.18364829 1.388 4285624697
-0.035594508 -0.19026385 1.4380001 4286808971
-0.032102648 -0.19291009 1.4580001 4286019455
-0.02834714 -0.19449784 1.47 4286349188
-0.024459805 -0.19555633 1.478 4286547080
-0.020514902 -0.19648249 1.485 4284046946
-0.16209343 -0.19177388 1.48 4283060051
-0.15441556 -0.18736826 1.4460001 4283652187
-0.14858849 -0.18503588 1.4280001 4281810237
-0.14427835 -0.18451756 1.424 4282139202
-0.14018723 -0.1842584 1.4220001 4283126095
-0.13649046 -0.18451756 1.424 4281020719
-0.13241029 -0.1842584 1.4220001 4281349686
-0.12861219 -0.184388 1.4230001 4281547065
-0.12419511 -0.18361051 1.4170001 4281283893
-0.12023539 -0.18348095 1.416 4281218100
-0.11595244 -0.18283306 1.411 4282665546
-0.11161739 -0.18205561 1.4050001 4282928718
-0.10670149 -0.18024151 1.391 4283520855
-0.10193612 -0.17855702 1.378 4283520855
-0.097598046 -0.17752041 1.3700001 4283454551
-0.093509249 -0.17687252 1.365 4284573032
-0.089447789 -0.17622463 1.36 4284046686
-0.085539751 -0.17583591 1.3570001 4284902254
-0.081587814 -0.1753176 1.353 4284639082
-0.077715322 -0.17492887 1.35 4284902254
-0.073859237 -0.17454013 1.3470001 4285033840
-0.070019558 -0.17415141 1.3440001 4285494391
-0.066146925 -0.1736331 1.34 4282599500
-0.062436052 -0.17350352 1.3390001 4285757564
-0.058818441 -0.1736331 1.34 4282204742
-0.05540115 -0.17441057 1.3460001 4285231220
-0.051874205 -0.17492887 1.35 4282402121
-0.048325378 -0.17544718 1.3540001 4286020736
-0.044688765 -0.17570633 1.3560001 4283388503
-0.041071437 -0.17609505 1.3590001 4286546567
-0.037492674 -0.17674294 1.3640001 4281677371
-0.034208354 -0.17907533 1.3820001 4282137922
-0.030693477 -0.18063027 1.3940001 4282203715
-0.027190112 -0.1827035 1.4100001 4283585368
-0.023582693 -0.18464714 1.4250001 4283256917
-0.019934682 -0.18697952 1.4430001 4285099121
-0.016154988 -0.18892318 1.4580001 4286546567
-0.012326641 -0.19138514 1.4770001 4285559672
-0.1594649 -0.18468258 1.4560001 4283915359
-0.15281373 -0.18151152 1.4310001 4281678649
-0.14806823 -0.18049678 1.4230001 4283257681
-0.14407571 -0.18036993 1.4220001 4282599751
-0.14038441 -0.18062362 1.424 4280889133
-0.13658631 -0.18075047 1.4250001 4282073407
-0.13250341 -0.18049678 1.4230001 4280954928
-0.12843142 -0.18024309 1.4210001 4280954928
-0.12428275 -0.17986257 1.4180001 4281152307
-0.12023539 -0.17960888 1.416 4281481272
-0.11628115 -0.17948204 1.4150001 4282204995
-0.11185572 -0.17859414 1.4080001 4282139202
-0.10708503 -0.17707203 1.396 4282928718
-0.10215805 -0.17516939 1.381 4283389269
-0.097740531 -0.17402782 1.3720001 4283388756
-0.093440741 -0.17301308 1.3640001 4284046686
-0.089316249 -0.17225203 1.358 4283849820
-0.085413679 -0.17187148 1.355 4284573543
-0.081467211 -0.17136411 1.3510001 4284376164
-0.077485055 -0.17072992 1.3460001 4284441955
-0.073639907 -0.17034937 1.3430001 4283126097
-0.06986326 -0.1700957 1.3410001 4283915613
-0.066097558 -0.16984202 1.3390001 4280888624
-0.062482681 -0.16996886 1.34 4280164646
-0.058906227 -0.17022254 1.342 4281348920
-0.055442315 -0.17085674 1.3470001 4280296232
-0.051874205 -0.17123729 1.35 4281414713
-0.04828969 -0.17161781 1.353 4280230694
-0.044688765 -0.17199834 1.3560001 4281020210
-0.041071437 -0.17237885 1.3590001 4280493611
-0.037547648 -0.17326677 1.3660001 4281348406
-0.033837061 -0.17339361 1.3670001 4281019441
-0.030209078 -0.17402782 1.3720001 4281348406
-0.026553748 -0.17466202 1.3770001 4280690476
-0.022920722 -0.17567676 1.3850001 4280953648
-0.01925776 -0.17681834 1.3940001 4281019441
-0.015578816 -0.17834045 1.406 4281282613
-0.011867627 -0.18036993 1.4220001 4282335301
-0.0081194341 -0.183541 1.447 4285888123
-0.0042230096 -0.18620469 1.4680001 4284375398
-0.15749347 -0.17846718 1.4380001 4281941823
-0.15185265 -0.17648147 1.4220001 4282665544
-0.14754796 -0.17598504 1.4180001 4282007614
-0.14377174 -0.17610914 1.419 4282336579
-0.14018723 -0.17648147 1.4220001 4283323474
-0.13639461 -0.17660557 1.4230001 4281020719
-0.13231717 -0.17635736 1.4210001 4281415479
-0.12825066 -0.17610914 1.419 4281283893
-0.12410746 -0.17573681 1.416 4280428584
-0.12023539 -0.17573681 1.416 4280954674
-0.11628115 -0.1756127 1.4150001 4281612858
-0.11209405 -0.17511627 1.411 4282402374
-0.10739186 -0.17375109 1.4000001 4278190080
-0.10245394 -0.17188947 1.3850001 4282468167
-0.097811766 -0.17040017 1.373 4283586648
-0.09330374 -0.16903499 1.3620001 4283060304
-0.089118935 -0.16816624 1.355 4283455062
-0.085035458 -0.16742159 1.3490001 4284046945
-0.081045099 -0.16680105 1.3440001 4283718234
-0.077082083 -0.16618051 1.3390001 4285428852
-0.073310912 -0.1659323 1.337 4280889135
-0.069654875 -0.1659323 1.337 4282204995
-0.065998837 -0.1659323 1.337 4283981152
-0.062436052 -0.16618051 1.3390001 4285428341
-0.058862329 -0.16642873 1.3410001 4284704363
-0.055359993 -0.16692516 1.345 4284638570
-0.051797349 -0.16729748 1.348 4284375398
-0.048182618 -0.16754569 1.35 4285164914
-0.044556942 -0.16779391 1.3520001 4284572263
-0.040950548 -0.16816624 1.355 4285361779
-0.037355237 -0.16866265 1.3590001 4284835435
-0.033663791 -0.16878676 1.36 4285164400
-0.029988892 -0.16903499 1.3620001 4286151295
-0.026322342 -0.16940731 1.365 4285427572
-0.022622837 -0.16965553 1.3670001 4285624951
-0.01894002 -0.17015196 1.3710001 4285624951
-0.015235329 -0.1706484 1.3750001 4286085248
-0.01156718 -0.17201358 1.386 4286085248
-0.0078557068 -0.17375109 1.4000001 4284900974
-0.0040993113 -0.17685379 1.4250001 4282927438
-0.00020647417 -0.1802047 1.452 4282862159
-0.16310957 -0.17635556 1.4530001 4282796878
-0.1566173 -0.17356397 1.4300001 4282994511
-0.15174586 -0.17247161 1.4210001 4282468165
-0.14786012 -0.17247161 1.4210001 4282928716
-0.14397438 -0.17247161 1.4210001 4282533958
-0.14028582 -0.17271435 1.4230001 4281415479
-0.13639461 -0.17271435 1.4230001 4282862925
-0.13241029 -0.172593 1.4220001 4281612856
-0.12816028 -0.1721075 1.4180001 4281612856
-0.12410746 -0.17186475 1.416 4281481270
-0.12015048 -0.17174338 1.4150001 4280625961
-0.11628115 -0.17174338 1.4150001 4281678649
-0.11225294 -0.17150064 1.4130001 4281547063
-0.10777541 -0.17052965 1.4050001 4278190080
-0.10297175 -0.16895179 1.3920001 4283060304
-0.098167971 -0.16725256 1.378 4283586394
-0.093509249 -0.1656747 1.365 4281744191
-0.089118935 -0.16446097 1.355 4283389015
-0.085035458 -0.16373274 1.3490001 4283652188
-0.080924496 -0.16288312 1.342 4284178531
-0.076966956 -0.16227625 1.337 4281086260
-0.073256083 -0.16215488 1.3360001 4284112479
-0.069654875 -0.16227625 1.337 4283783514
-0.066048197 -0.16239762 1.3380001 4285757306
-0.062389422 -0.16239762 1.3380001 4283848539
-0.058774542 -0.16251899 1.3390001 4285822330
-0.055195354 -0.16276175 1.3410001 4284243044
-0.051682077 -0.16324724 1.345 4286217088
-0.04811123 -0.16361135 1.348 4283585368
-0.044523984 -0.16397548 1.3510001 4286348163
-0.040920325 -0.1643396 1.3540001 4283650650
-0.037300263 -0.16470371 1.3570001 4285492854
-0.033589531 -0.16470371 1.3570001 4284572009
-0.029966876 -0.16518921 1.3610001 4285493111
-0.026264491 -0.16531059 1.3620001 4284111458
-0.022589738 -0.1656747 1.365 4285756283
-0.018870946 -0.16579609 1.3660001 4284243044
-0.015157767 -0.16603883 1.368 4285361525
-0.011441995 -0.16640295 1.3710001 4284505959
-0.0077210376 -0.16700982 1.376 4285558904
-0.0039986265 -0.16870904 1.3900001 4284637802
-0.00020035959 -0.17101514 1.409 4285427572
0.003756257 -0.17587008 1.4490001 4285032814
-0.16108893 -0.17024682 1.4350001 4283060050
-0.15585065 -0.16882315 1.4230001 4282007362
-0.15153228 -0.1683486 1.419 4282402374
-0.14765202 -0.1683486 1.419 4282862925
-0.14356911 -0.16811132 1.4170001 4282928716
-0.1396943 -0.16811132 1.4170001 4282533958
-0.1360112 -0.1683486 1.419 4281612856
-0.13213094 -0.1683486 1.419 4281941821
-0.12816028 -0.16822997 1.4180001 4281481270
-0.12393217 -0.16775541 1.414 4281283889
-0.12006557 -0.16775541 1.414 4281218096
-0.1161168 -0.16763677 1.4130001 4280889131
-0.11225294 -0.16763677 1.4130001 4280823340
-0.10792883 -0.16692494 1.4070001 4281810235
-0.10334163 -0.16573855 1.3970001 4278190080
-0.098452926 -0.16395897 1.3820001 4282928464
-0.093646258 -0.16217938 1.3670001 4283060050
-0.089250475 -0.16099299 1.3570001 4282862672
-0.084972419 -0.15992524 1.348 4283191637
-0.080864199 -0.15909477 1.3410001 4281809983
-0.076909386 -0.15850158 1.3360001 4283849566
-0.073146418 -0.15826429 1.3340001 4284901997
-0.069498576 -0.15826429 1.3340001 4284573032
-0.065752015 -0.15802702 1.332 4285165169
-0.06206302 -0.15790838 1.3310001 4285164400
-0.05846728 -0.15802702 1.332 4285822076
-0.054866076 -0.15814567 1.3330001 4285164146
-0.0514131 -0.15873885 1.3380001 4285361525
-0.047932778 -0.15933204 1.3430001 4284835181
-0.044425115 -0.15992524 1.348 4284571752
-0.040890105 -0.16051844 1.353 4285098096
-0.03713534 -0.16028115 1.3510001 4284242787
-0.033515275 -0.16063708 1.3540001 4285361014
-0.029856784 -0.16087435 1.3560001 4283190358
-0.026187358 -0.16111164 1.358 4286216834
-0.022490442 -0.16123027 1.3590001 4284900974
-0.018801872 -0.16146754 1.3610001 4284769388
-0.015080204 -0.16146754 1.3610001 4284177251
-0.01137523 -0.16170482 1.363 4285492854
-0.0076593142 -0.16194209 1.365 4283650909
-0.0039468454 -0.16277257 1.3720001 4285953405
-0.00019609359 -0.16360305 1.3790001 4284966510
0.0036162722 -0.16550127 1.3950001 4286414467
0.0076013715 -0.16929771 1.427 4286019709
-0.16524294 -0.16655461 1.437 4283521371
-0.15985411 -0.16504785 1.424 4282270535
-0.15541255 -0.16446833 1.419 4282599500
-0.15153228 -0.16446833 1.419 4282862671
-0.14775607 -0.16458423 1.4200001 4282533706
-0.14356911 -0.16423653 1.4170001 4283125843
-0.13979289 -0.16435243 1.4180001 4281744444
-0.1360112 -0.16446833 1.419 4282139202
-0.13231717 -0.16470014 1.4210001 4282139200
-0.12816028 -0.16435243 1.4180001 4281547063
-0.12410746 -0.16412061 1.416 4281547061
-0.12006557 -0.16388881 1.414 4280823338
-0.11628115 -0.16400471 1.4150001 4281349682
-0.11225294 -0.16377291 1.4130001 4280823338
-0.10823566 -0.16354109 1.411 4280823340
-0.10385945 -0.16272977 1.404 4278190080
-0.098880365 -0.16087531 1.388 4281876030
-0.093988784 -0.15902083 1.3720001 4282336327
-0.089513563 -0.15774588 1.3610001 4283191637
-0.085224569 -0.15670274 1.3520001 4281481019
-0.080984794 -0.1556596 1.3430001 4282928465
-0.077024519 -0.15508007 1.3380001 4282533706
-0.073256083 -0.15484826 1.3360001 4283849054
-0.069498576 -0.15461646 1.3340001 4284572777
-0.065653287 -0.15415284 1.33 4285559672
-0.061923131 -0.15392104 1.3280001 4284770156
-0.058291703 -0.15392104 1.3280001 4285690490
-0.054866076 -0.15450056 1.3330001 4284440677
-0.0514131 -0.15508007 1.3380001 4285032814
-0.04796847 -0.1557755 1.3440001 4284177251
-0.044425115 -0.15623912 1.348 4284571752
-0.040890105 -0.15681864 1.353 4284966510
-0.0372178 -0.15693454 1.3540001 4284900717
-0.033540029 -0.15705045 1.355 4284440166
-0.029900823 -0.15739816 1.358 4284769388
-0.026206641 -0.15751407 1.3590001 4284769388
-0.022506991 -0.15762997 1.36 4285229939
-0.018788058 -0.15762997 1.36 4284966767
-0.015080204 -0.15774588 1.3610001 4285492854
-0.011358537 -0.15774588 1.3610001 4285427061
-0.0076424805 -0.15786178 1.3620001 4285887869
-0.0039267084 -0.15820949 1.365 4286217088
-0.00019438719 -0.15844131 1.3670001 4285559158
0.0035618339 -0.15925263 1.3740001 4286282881
0.0073723183 -0.16041169 1.3840001 4285559672
0.011285861 -0.16226615 1.4000001 4285889150
0.015351683 -0.16481605 1.4220001 4286481287
0.019578414 -0.16771366 1.447 4284178534
-0.16870153 -0.16217244 1.4330001 4282337098
-0.16340308 -0.1608144 1.4210001 4282534477
-0.15918057 -0.1604749 1.4180001 4282928465
-0.15497446 -0.16013537 1.4150001 4282336328
-0.15110514 -0.16013537 1.4150001 4282533707
-0.14713176 -0.16002221 1.414 4283125843
-0.14316383 -0.15990904 1.4130001 4282796878
-0.13939856 -0.16002221 1.414 4283191636
-0.13562781 -0.16013537 1.4150001 4282796878
-0.13194472 -0.16036172 1.4170001 4281612858
-0.12797952 -0.16024855 1.416 4282403142
-0.12410746 -0.16024855 1.416 4281613626
-0.12015048 -0.16013537 1.4150001 4281942591
-0.11619897 -0.16002221 1.414 4280560936
-0.11217349 -0.15979587 1.4120001 4281087280
-0.10815895 -0.15956953 1.4100001 4281218096
-0.10393342 -0.15900369 1.4050001 4281218098
-0.099307798 -0.15775882 1.3940001 4278190080
-0.094399817 -0.1559481 1.378 4278190080
-0.08977665 -0.15447688 1.365 4282467913
-0.08535064 -0.15323202 1.3540001 4282138949
-0.081105404 -0.1522135 1.345 4283322710
-0.077139653 -0.15164764 1.34 4283256917
-0.073201247 -0.15108179 1.335 4284638570
-0.06939438 -0.15074228 1.332 4285033330
-0.065554559 -0.15028961 1.3280001 4283322710
-0.06201639 -0.15051594 1.33 4284178019
-0.058511175 -0.15085545 1.3330001 4281743678
-0.055236515 -0.15187398 1.342 4284441191
-0.05175893 -0.15243983 1.3470001 4283520089
-0.048218306 -0.1528925 1.3510001 4285099121
-0.04449103 -0.15277934 1.35 4283848540
-0.040829662 -0.1528925 1.3510001 4284835435
-0.03713534 -0.1528925 1.3510001 4284176994
-0.03349052 -0.15311885 1.353 4285821819
-0.029812748 -0.15323202 1.3540001 4284703338
-0.026129507 -0.15334518 1.355 4285690233
-0.022440795 -0.15345836 1.3560001 4285032303
-0.018746613 -0.15357153 1.3570001 4285821819
-0.015058045 -0.15379786 1.3590001 4284966508
-0.011350191 -0.15391104 1.36 4286084988
-0.0076424805 -0.15413739 1.3620001 4285361779
-0.0039209551 -0.15425055 1.363 4285822330
-0.00019438719 -0.15470323 1.3670001 4286875018
0.0035566492 -0.15526907 1.3720001 4283783516
0.007351011 -0.15617444 1.3800001 4285099633
0.011173002 -0.15685345 1.386 4280428330
0.015027808 -0.15753248 1.3920001 4280559916
0.018901898 -0.15809833 1.3970001 4280165159
0.02290092 -0.1593432 1.4080001 4280625710
0.027207095 -0.16205926 1.432 4281152056
-0.17213824 -0.15781215 1.429 4282138949
-0.16728881 -0.15692866 1.4210001 4282995028
-0.16282812 -0.15637648 1.416 4282666063
-0.15895605 -0.15637648 1.416 4282468684
-0.15497446 -0.15626605 1.4150001 4282599499
-0.15110514 -0.15626605 1.4150001 4282731085
-0.1472358 -0.15626605 1.4150001 4282402120
-0.14346778 -0.15637648 1.416 4283060050
-0.1396943 -0.15648693 1.4170001 4282731085
-0.13572365 -0.15637648 1.416 4282533706
-0.13194472 -0.15648693 1.4170001 4282533960
-0.12806991 -0.15648693 1.4170001 4281876030
-0.12428275 -0.15659736 1.4180001 4282139200
-0.12023539 -0.15637648 1.416 4281745212
-0.11628115 -0.15626605 1.4150001 4281350452
-0.11225294 -0.15604518 1.4130001 4281350452
-0.10815895 -0.15571389 1.4100001 4280625959
-0.10408137 -0.15538256 1.4070001 4281152305
-0.099806473 -0.15471996 1.401 4281020721
-0.09522187 -0.15350516 1.3900001 4281678651
-0.09043435 -0.15184864 1.3750001 4282007616
-0.085791893 -0.15030254 1.3610001 4281283639
-0.081467211 -0.14919819 1.3510001 4281941569
-0.077485055 -0.14864601 1.3460001 4283256917
-0.073585078 -0.14820427 1.342 4283980640
-0.069654875 -0.14765209 1.337 4284638570
-0.06594947 -0.14754166 1.3360001 4279704095
-0.062622562 -0.1483147 1.3430001 4279638814
-0.059432957 -0.1495295 1.3540001 4279770400
-0.056059707 -0.15041298 1.3620001 4279770400
-0.052450582 -0.15074429 1.365 4280165158
-0.048753671 -0.15085472 1.3660001 4281941570
-0.044589896 -0.14941905 1.353 4284836462
-0.040890105 -0.14941905 1.353 4283520602
-0.0372178 -0.1495295 1.3540001 4286019709
-0.03356478 -0.14975037 1.3560001 4283980126
-0.029856784 -0.14975037 1.3560001 4286282881
-0.026168073 -0.1498608 1.3570001 4284374371
-0.022490442 -0.15008166 1.3590001 4286545540
-0.018801872 -0.15030254 1.3610001 4284901228
-0.015102366 -0.15052342 1.363 4286809225
-0.011391919 -0.15074429 1.365 4284572777
-0.0076761479 -0.15107559 1.368 4286283395
-0.0039468454 -0.15151733 1.3720001 4280690990
-0.00019609359 -0.15229037 1.3790001 4280954162
0.0035903491 -0.15295298 1.3850001 4279507228
0.0073989523 -0.15339473 1.3890001 4280033826
0.011213308 -0.15361561 1.391 4279770400
0.015006216 -0.15350516 1.3900001 4280230951
0.018780123 -0.1532843 1.388 4280362537
0.022608152 -0.15350516 1.3900001 4280823089
0.026599115 -0.15460952 1.4000001 4280099368
-0.18033126 -0.15422763 1.432 4282533194
-0.1749371 -0.15293522 1.4200001 4282467914
-0.17033133 -0.15228902 1.414 4283125844
-0.16599382 -0.15185823 1.4100001 4283257430
-0.16202317 -0.15175052 1.409 4283060051
-0.15839477 -0.15196592 1.411 4283126614
-0.15453638 -0.15196592 1.411 4282666063
-0.15067798 -0.15196592 1.411 4282994258
-0.14681959 -0.15196592 1.411 4282731086
-0.14316383 -0.15218133 1.4130001 4282928464
-0.13920139 -0.15207362 1.4120001 4282731085
-0.13534026 -0.15207362 1.4120001 4282599499
-0.13147913 -0.15207362 1.4120001 4282270534
-0.12788914 -0.15239672 1.4150001 4282204995
-0.12401981 -0.15239672 1.4150001 4281612856
-0.12015048 -0.15239672 1.4150001 4281876028
-0.1161168 -0.15218133 1.4130001 4280889903
-0.11217349 -0.15207362 1.4120001 4281021489
-0.10808223 -0.15175052 1.409 4281218098
-0.10415534 -0.15164281 1.4080001 4281218098
-0.10009143 -0.15131971 1.4050001 4281020719
-0.095838413 -0.15067351 1.399 4278190080
-0.09122359 -0.1493811 1.3870001 4281876030
-0.086359218 -0.14755018 1.3700001 4281086514
-0.081889324 -0.14625777 1.358 4281547065
-0.077830456 -0.14561157 1.3520001 4283849309
-0.073859237 -0.14507306 1.3470001 4281612347
-0.069967456 -0.14464225 1.3430001 4279901986
-0.06639374 -0.14485766 1.345 4279967779
-0.063228741 -0.14604236 1.3560001 4279836447
-0.060003582 -0.14722708 1.3670001 4279836447
-0.056512468 -0.14787328 1.373 4279704861
-0.052834835 -0.14808869 1.3750001 4279573275
-0.048753671 -0.14711937 1.3660001 4279836447
-0.044820592 -0.14647317 1.36 4280625709
-0.041101657 -0.14647317 1.36 4280691502
-0.037382726 -0.14647317 1.36 4281151796
-0.033688542 -0.14658087 1.3610001 4283651675
-0.029922839 -0.14636546 1.3590001 4282467401
-0.026264491 -0.14668858 1.3620001 4283980640
-0.022573188 -0.14690398 1.3640001 4281612092
-0.018884761 -0.14722708 1.3670001 4281086003
-0.015179927 -0.14755018 1.3700001 4280296744
-0.011441995 -0.14765789 1.3710001 4280165412
-0.0077210376 -0.1481964 1.376 4279836193
-0.0039756126 -0.14884259 1.3820001 4280165158
-0.00019765779 -0.1497042 1.3900001 4279967779
0.0036084955 -0.1499196 1.3920001 4280033826
0.0074202595 -0.1500273 1.393 4280165412
0.011229432 -0.1500273 1.393 4280625709
0.015006216 -0.1497042 1.3900001 4280559916
0.018766593 -0.1493811 1.3870001 4280428331
0.022543095 -0.1492734 1.386 4280888882
0.02642812 -0.14981189 1.391 4280428333
0.030949043 -0.15336603 1.424 4294113277
-0.18321775 -0.14947209 1.424 4282599500
-0.17768674 -0.14810751 1.411 4282796879
-0.17321236 -0.14758268 1.406 4283257430
-0.16924718 -0.14747773 1.4050001 4283257430
-0.16516975 -0.14726779 1.4030001 4282862674
-0.16133322 -0.14726779 1.4030001 4282994260
-0.15760897 -0.14737275 1.404 4282797649
-0.15409829 -0.14768766 1.4070001 4282600270
-0.1504644 -0.14789759 1.409 4282995028
-0.14661148 -0.14789759 1.409 4282928464
-0.14296119 -0.14810751 1.411 4282796878
-0.1391028 -0.14810751 1.411 4282533706
-0.13553196 -0.14842242 1.414 4282928464
-0.13166536 -0.14842242 1.414 4282862925
-0.12788914 -0.14852738 1.4150001 4282073409
-0.12401981 -0.14852738 1.4150001 4281810235
-0.12023539 -0.14863235 1.416 4281218098
-0.11619897 -0.14842242 1.414 4281218098
-0.11217349 -0.14821249 1.4120001 4280954928
-0.10823566 -0.14810751 1.411 4280889135
-0.10430329 -0.14800256 1.4100001 4280823342
-0.10037638 -0.14789759 1.409 4280823342
-0.096317947 -0.14758268 1.406 4280823342
-0.091947064 -0.14674295 1.3980001 4280889135
-0.087178677 -0.14516847 1.383 4281678651
-0.082552634 -0.14369893 1.3690001 4281020467
-0.078348562 -0.14285921 1.3610001 4283257429
-0.074297898 -0.14222941 1.355 4281678651
-0.070436344 -0.1419145 1.3520001 4279902240
-0.066887371 -0.14222941 1.355 4279836447
-0.063648403 -0.14327908 1.365 4279968031
-0.060266949 -0.1441188 1.373 4279902238
-0.056718268 -0.14464363 1.378 4280033824
-0.053026963 -0.14485358 1.3800001 4280296998
-0.049039196 -0.14422376 1.3740001 4279968031
-0.045150153 -0.14380391 1.3700001 4280099619
-0.041434098 -0.14390887 1.3710001 4280296998
-0.03771257 -0.14401384 1.3720001 4280099619
-0.033960823 -0.14401384 1.3720001 4279968033
-0.030187059 -0.14390887 1.3710001 4280165412
-0.02645733 -0.14401384 1.3720001 4280099619
-0.022738682 -0.14422376 1.3740001 4280362791
-0.018981464 -0.14422376 1.3740001 4280362791
-0.015246409 -0.14443371 1.376 4280954926
-0.011483723 -0.14443371 1.376 4280691754
-0.0077490937 -0.14495853 1.381 4280560168
-0.0039813663 -0.14527343 1.3840001 4283849820
-0.00019751559 -0.14579827 1.3890001 4282468167
0.0036084955 -0.14611317 1.3920001 4283849309
0.0074202595 -0.14621814 1.393 4283585882
0.011245553 -0.14642806 1.3950001 4282138949
0.015027808 -0.14611317 1.3920001 4282007363
0.018793656 -0.14579827 1.3890001 4282138438
0.022591889 -0.14579827 1.3890001 4281612607
0.026561115 -0.14674295 1.3980001 4281546560
-0.18579772 -0.14455584 1.414 4283191637
-0.17961515 -0.14271565 1.396 4282599500
-0.17504221 -0.14210226 1.3900001 4282862672
-0.17111805 -0.14200002 1.3890001 4282862672
-0.16744027 -0.14210226 1.3900001 4283257430
-0.16352157 -0.14200002 1.3890001 4283191637
-0.15995333 -0.14220449 1.391 4282863188
-0.15626188 -0.14230673 1.3920001 4282994774
-0.1526745 -0.14251119 1.3940001 4283126614
-0.14918295 -0.14281788 1.3970001 4283323993
-0.14557095 -0.14302234 1.399 4283191637
-0.14204933 -0.14332904 1.4020001 4282665293
-0.13821554 -0.14332904 1.4020001 4282731085
-0.1346693 -0.14363575 1.4050001 4282862671
-0.13082732 -0.14363575 1.4050001 4282665546
-0.12716611 -0.14384019 1.4070001 4282534730
-0.12340629 -0.14394243 1.4080001 4282139972
-0.11964101 -0.14404467 1.409 4281811007
-0.11562373 -0.14384019 1.4070001 4281810237
-0.11177628 -0.14384019 1.4070001 4281152307
-0.10792883 -0.14384019 1.4070001 4281152307
-0.10408137 -0.14384019 1.4070001 4281086514
-0.10030515 -0.14394243 1.4080001 4280362791
-0.096317947 -0.14373797 1.406 4280428582
-0.092144378 -0.14322682 1.401 4280428582
-0.08768297 -0.14220449 1.391 4280823342
-0.083155647 -0.14097771 1.3790001 4280954928
-0.078751527 -0.13985315 1.368 4282599753
-0.07451722 -0.13893306 1.3590001 4281349686
-0.070644736 -0.13862638 1.3560001 4280165412
-0.067035466 -0.13883084 1.358 4280296998
-0.06360177 -0.13944423 1.3640001 4280362789
-0.059959691 -0.13964871 1.3660001 4280428582
-0.056388989 -0.14005762 1.3700001 4280362789
-0.052834835 -0.14056879 1.3750001 4280428582
-0.049074885 -0.14056879 1.3750001 4280428582
-0.045347892 -0.14067101 1.376 4280165412
-0.041585207 -0.14067101 1.376 4280296998
-0.037877493 -0.14087547 1.378 4280165412
-0.034109339 -0.14087547 1.378 4280033826
-0.030297151 -0.14067101 1.376 4280099619
-0.026534464 -0.14067101 1.376 4280494375
-0.022771779 -0.14067101 1.376 4280757547
-0.018995279 -0.14056879 1.3750001 4280362787
-0.015213167 -0.14036432 1.373 4281218096
-0.011458686 -0.14036432 1.373 4281678647
-0.0077042039 -0.14036432 1.373 4281283891
-0.0039497223 -0.14036432 1.373 4285165678
-0.00019552479 -0.14056879 1.3750001 4283784027
0.00357998 -0.14118217 1.381 4282204229
0.0073989523 -0.14200002 1.3890001 4284309605
0.011261677 -0.14281788 1.3970001 4284770156
0.015092583 -0.14292011 1.3980001 4285362295
0.018915428 -0.14292011 1.3980001 4286876047
0.022787068 -0.14322682 1.401 4292928749
0.026998103 -0.14527145 1.4210001 4293257714
-0.18953018 -0.14058973 1.4130001 4282270535
-0.18264414 -0.1383013 1.3900001 4283389015
-0.1776852 -0.13740581 1.381 4282533706
-0.17390884 -0.13740581 1.381 4283389015
-0.1698861 -0.13720682 1.3790001 4283060051
-0.16611521 -0.13720682 1.3790001 4282796879
-0.16210887 -0.13700782 1.3770001 4283586395
-0.15857343 -0.13720682 1.3790001 4283191637
-0.15502706 -0.13740581 1.381 4283125844
-0.15146974 -0.13760482 1.383 4282796879
-0.14811507 -0.1380028 1.3870001 4283783774
-0.14432229 -0.1380028 1.3870001 4282599500
-0.14103614 -0.13850029 1.3920001 4282796879
-0.13742687 -0.13869928 1.3940001 4282731086
-0.13390251 -0.13899778 1.3970001 4282796879
-0.13026862 -0.13919677 1.399 4282599499
-0.12662381 -0.13939577 1.401 4282468937
-0.12288041 -0.13949525 1.4020001 4282469194
-0.11913154 -0.13959476 1.4030001 4282205765
-0.11513067 -0.13939577 1.401 4281876030
-0.11129962 -0.13939577 1.401 4281678651
-0.10746858 -0.13939577 1.401 4281481272
-0.10363752 -0.13939577 1.401 4281152307
-0.099877715 -0.13949525 1.4020001 4280757549
-0.095975429 -0.13939577 1.401 4280889135
-0.092012838 -0.13919677 1.399 4280625963
-0.087935112 -0.13879877 1.3950001 4280428584
-0.083758667 -0.13820179 1.3890001 4280362537
-0.079499893 -0.13740581 1.381 4281218100
-0.075175211 -0.13641085 1.3710001 4282468167
-0.07100942 -0.13561487 1.363 4280691756
-0.067183554 -0.13541587 1.3610001 4280560170
-0.063508511 -0.13551538 1.3620001 4280428582
-0.059871897 -0.13571435 1.3640001 4280757547
-0.056265507 -0.13601285 1.3670001 4280889133
-0.052681137 -0.13641085 1.3710001 4280889133
-0.048967816 -0.13651034 1.3720001 4281415477
-0.045314934 -0.13680884 1.3750001 4281744442
-0.041585207 -0.13690834 1.376 4282665544
-0.037959956 -0.13740581 1.381 4282402374
-0.034183599 -0.13740581 1.381 4280823342
-0.030429261 -0.13750531 1.3820001 4280560170
-0.0266116 -0.13730632 1.3800001 4280560168
-0.022821428 -0.13720682 1.3790001 4280428580
-0.018981464 -0.13670933 1.3740001 4280691752
-0.015191008 -0.13641085 1.3710001 4280954924
-0.011425302 -0.13621184 1.3690001 4280954924
-0.0076705366 -0.13601285 1.3670001 4281349682
-0.0039267084 -0.13581386 1.365 4284310369
-0.00019424499 -0.13591336 1.3660001 4281547065
0.003572203 -0.13710733 1.378 4283585882
0.0074575474 -0.13929626 1.4000001 4284572777
-0.19243598 -0.13604853 1.406 4281612605
-0.18590859 -0.13411327 1.386 4284507497
-0.18041037 -0.13285536 1.373 4282336327
-0.17652723 -0.13275859 1.3720001 4282796878
-0.17264955 -0.13266183 1.3710001 4283520601
-0.16840775 -0.13227478 1.3670001 4283652187
-0.16442876 -0.13208126 1.365 4282336327
-0.16057843 -0.13198449 1.3640001 4283783773
-0.15730852 -0.13237154 1.368 4282731086
-0.15390448 -0.13266183 1.3710001 4283389015
-0.15015547 -0.13266183 1.3710001 4283520601
-0.14662004 -0.13285536 1.373 4282796879
-0.14286555 -0.13285536 1.373 4283257430
-0.13971898 -0.13343593 1.3790001 4283060051
-0.13604668 -0.1335327 1.3800001 4282599500
-0.13256061 -0.13382299 1.383 4282731086
-0.12905812 -0.13411327 1.386 4282402121
-0.12562962 -0.13450032 1.3900001 4282797648
-0.12182865 -0.13450032 1.3900001 4282402890
-0.11794277 -0.13440356 1.3890001 4282797648
-0.11406236 -0.1343068 1.388 4282468167
-0.11042574 -0.13450032 1.3900001 4282862925
-0.10654807 -0.13440356 1.3890001 4282204995
-0.10267586 -0.1343068 1.388 4281612858
-0.098737881 -0.13411327 1.386 4280889135
-0.094879352 -0.1340165 1.3850001 4280691756
-0.09109205 -0.1340165 1.3850001 4280823342
-0.087556899 -0.13440356 1.3890001 4280559916
-0.083879262 -0.13459709 1.391 4280362537
-0.079960428 -0.13440356 1.3890001 4280165158
-0.075723536 -0.13362946 1.381 4280691756
-0.0714783 -0.13275859 1.3720001 4281152053
-0.06743037 -0.13217802 1.3660001 4281283893
-0.063508511 -0.13179097 1.3620001 4282204993
-0.059740219 -0.1316942 1.3610001 4281481270
-0.056142028 -0.13198449 1.3640001 4282862923
-0.052489009 -0.13217802 1.3660001 4281744442
-0.048860744 -0.1324683 1.3690001 4282533958
-0.045183111 -0.13266183 1.3710001 4282336579
-0.041464318 -0.13275859 1.3720001 4281613626
-0.037795033 -0.13304889 1.3750001 4280494377
-0.034059834 -0.13314565 1.376 4281283893
-0.030341186 -0.13333917 1.378 4281283893
-0.02657303 -0.13333917 1.378 4281349686
-0.022788327 -0.1332424 1.3770001 4280231201
-0.018981464 -0.13295212 1.3740001 4280296994
-0.015179927 -0.13256507 1.3700001 4280955694
-0.011408612 -0.13227478 1.3670001 4281218866
-0.007653703 -0.13198449 1.3640001 4282139200
-0.0039209551 -0.13188773 1.363 4281810237
-0.00019438719 -0.13227478 1.3670001 4282402120
0.0035981261 -0.1343068 1.388 4283783261
-0.19404705 -0.13069935 1.3900001 4281744191
-0.18860367 -0.12957102 1.378 4284507497
-0.18362831 -0.12872475 1.3690001 4282204742
-0.17935918 -0.12834865 1.365 4282994257
-0.17575525 -0.12844267 1.3660001 4282665292
-0.1720199 -0.12844267 1.3660001 4282994257
-0.16766858 -0.12797253 1.3610001 4282796878
-0.16358553 -0.12769045 1.358 4284639336
-0.15987207 -0.12769045 1.358 4282928464
-0.15638858 -0.1278785 1.36 4283389015
-0.15300642 -0.1281606 1.363 4283586648
-0.14916977 -0.12806657 1.3620001 4282467913
-0.14555216 -0.1281606 1.363 4283125843
-0.14182502 -0.1281606 1.363 4283717981
-0.13850315 -0.12853672 1.3670001 4283454809
-0.13496225 -0.12872475 1.3690001 4281941570
-0.13169795 -0.1291949 1.3740001 4283191637
-0.12822008 -0.12947698 1.3770001 4282796879
-0.12463543 -0.12966505 1.3790001 4282731086
-0.12086454 -0.12966505 1.3790001 4282402120
-0.11700875 -0.12957102 1.378 4283520855
-0.11332276 -0.12966505 1.3790001 4282402374
-0.10947243 -0.12957102 1.378 4282665546
-0.10562757 -0.12947698 1.3770001 4282402374
-0.10156625 -0.12910087 1.373 4282994511
-0.097883001 -0.1291949 1.3740001 4281415477
-0.094125785 -0.1291949 1.3740001 4280954926
-0.090565883 -0.12947698 1.3770001 4281152307
-0.087052613 -0.1298531 1.381 4280625963
-0.083638065 -0.13041727 1.3870001 4280691502
-0.080075562 -0.13079338 1.391 4280428330
-0.076162197 -0.13060533 1.3890001 4280231205
-0.072051376 -0.13004115 1.383 4280099365
-0.067973368 -0.12947698 1.3770001 4280165412
-0.063928172 -0.12891282 1.3710001 4280165412
-0.060135268 -0.1288188 1.3700001 4280296996
-0.05643015 -0.12891282 1.3710001 4279968031
-0.052681137 -0.12891282 1.3710001 4280033824
-0.048967816 -0.12900685 1.3720001 4279705629
-0.045216069 -0.12900685 1.3720001 4279903008
-0.041464318 -0.12900685 1.3720001 4280100389
-0.037767548 -0.1291949 1.3740001 4280165412
-0.034010332 -0.1291949 1.3740001 4280296998
-0.030319167 -0.12947698 1.3770001 4280494377
-0.026553748 -0.12947698 1.3770001 4281218100
-0.022804877 -0.12957102 1.378 4281481270
-0.019022908 -0.12947698 1.3770001 4280296996
-0.015235329 -0.12928893 1.3750001 4280034594
-0.011458686 -0.12910087 1.373 4280955696
-0.0076873703 -0.1288188 1.3700001 4280955696
-0.0039410922 -0.1288188 1.3700001 4281021491
-0.00019580919 -0.12947698 1.3770001 4281612604
-0.2020842 -0.12717228 1.393 4280691503
-0.1958553 -0.12562028 1.376 4284375911
-0.19111539 -0.12498122 1.3690001 4283125844
-0.18641379 -0.12434217 1.3620001 4281612605
-0.18228699 -0.12406828 1.3590001 4282599500
-0.17843938 -0.12397699 1.358 4283191637
-0.17485459 -0.12406828 1.3590001 4283257430
-0.17101246 -0.12397699 1.358 4282731085
-0.16668302 -0.12352052 1.353 4284770668
-0.16262186 -0.12324664 1.35 4282007616
-0.15893026 -0.12324664 1.35 4283849309
-0.15569864 -0.12361182 1.3540001 4283717723
-0.15222062 -0.1237944 1.3560001 4283257172
-0.14851263 -0.1237944 1.3560001 4283388758
-0.14459106 -0.12361182 1.3540001 4282862414
-0.14088853 -0.12361182 1.3540001 4283651675
-0.13738865 -0.1237944 1.3560001 4283388503
-0.13387781 -0.12397699 1.358 4283783774
-0.13064361 -0.12443346 1.363 4282994257
-0.1271027 -0.12461604 1.365 4283125843
-0.1233701 -0.12461604 1.365 4282862671
-0.11946219 -0.12443346 1.363 4283586648
-0.11565015 -0.12434217 1.3620001 4283126097
-0.11200792 -0.12443346 1.363 4283126097
-0.10828079 -0.12443346 1.363 4282928718
-0.10463035 -0.12452474 1.3640001 4283257681
-0.10075254 -0.12434217 1.3620001 4281678649
-0.097028136 -0.12434217 1.3620001 4282007614
-0.093372241 -0.12443346 1.363 4281218098
-0.089908183 -0.12479863 1.3670001 4281218098
-0.08642225 -0.12516381 1.3710001 4280757547
-0.082974747 -0.12562028 1.376 4281152307
-0.079442322 -0.12598546 1.3800001 4280560170
-0.075723536 -0.12607674 1.381 4280362791
-0.071895078 -0.12598546 1.3800001 4280362791
-0.068121456 -0.12598546 1.3800001 4280099619
-0.064254574 -0.12580286 1.378 4280165412
-0.060398635 -0.12562028 1.376 4280033826
-0.05663595 -0.12562028 1.376 4280165412
-0.052796412 -0.12543769 1.3740001 4280033826
-0.049003504 -0.12534639 1.373 4280560168
-0.045183111 -0.12516381 1.3710001 4280231203
-0.041403875 -0.12507251 1.3700001 4280889135
-0.037602622 -0.12488992 1.368 4280494377
-0.033886567 -0.12498122 1.3690001 4280428582
-0.030165039 -0.12507251 1.3700001 4280296996
-0.026438046 -0.12516381 1.3710001 4280625961
-0.022722131 -0.12534639 1.373 4281020719
-0.019022908 -0.12571156 1.3770001 4280823340
-0.015257488 -0.12571156 1.3770001 4280691756
-0.011492068 -0.12571156 1.3770001 4280757549
-0.0077154264 -0.12552898 1.3750001 4281349432
-0.0039641056 -0.12580286 1.378 4282204741
-0.00019723119 -0.12662451 1.3870001 4282402121
-0.19932786 -0.12168047 1.3740001 4283652188
-0.19443193 -0.120972 1.3660001 4281875777
-0.19027779 -0.12070632 1.363 4284704876
-0.18600319 -0.12035207 1.3590001 4282007363
-0.18201873 -0.12017496 1.3570001 4283060051
-0.178308 -0.12017496 1.3570001 4282599499
-0.17446861 -0.1200864 1.3560001 4282796878
-0.17050874 -0.11990929 1.3540001 4283060050
-0.16619025 -0.11946649 1.3490001 4282599499
-0.16214001 -0.11920082 1.3460001 4283455062
-0.15845937 -0.11920082 1.3460001 4282994511
-0.15523867 -0.11955505 1.35 4283520855
-0.15188386 -0.11982073 1.353 4283322963
-0.14818406 -0.11982073 1.353 4282401863
-0.14427069 -0.11964361 1.3510001 4283125586
-0.14036827 -0.11946649 1.3490001 4282796878
-0.13678074 -0.11955505 1.35 4283652187
-0.13328631 -0.11973216 1.3520001 4282533706
-0.13006851 -0.12017496 1.3570001 4283125843
-0.12635778 -0.12017496 1.3570001 4283981152
-0.12255666 -0.1200864 1.3560001 4283323476
-0.11884867 -0.1200864 1.3560001 4282270788
-0.11505575 -0.11999784 1.355 4283257681
-0.11126832 -0.11990929 1.3540001 4283126095
-0.1075658 -0.11990929 1.3540001 4283784025
-0.10393997 -0.11999784 1.355 4283520853
-0.10023472 -0.11999784 1.355 4282731337
-0.096671939 -0.12017496 1.3570001 4282928714
-0.093029708 -0.12026352 1.358 4282336577
-0.089579329 -0.12061776 1.3620001 4281481268
-0.086044036 -0.12088344 1.365 4281876026
-0.082492337 -0.12114911 1.368 4280823340
-0.078924224 -0.1214148 1.3710001 4280954926
-0.075284876 -0.12159191 1.373 4280625963
-0.071582496 -0.12168047 1.3740001 4280691754
-0.068022728 -0.12203471 1.378 4280560170
-0.064301208 -0.12212327 1.3790001 4280494377
-0.060662001 -0.12238894 1.3820001 4280362791
-0.056841746 -0.12230038 1.381 4280560170
-0.05298854 -0.12212327 1.3790001 4280428582
-0.049110577 -0.12185759 1.376 4280362789
-0.04528198 -0.12168047 1.3740001 4280560170
-0.041434098 -0.1214148 1.3710001 4280691756
-0.037657596 -0.12132623 1.3700001 4281020719
-0.033911318 -0.12132623 1.3700001 4280428582
-0.030187059 -0.1214148 1.3710001 4280428582
-0.026399478 -0.12123767 1.3690001 4280428582
-0.022689033 -0.1214148 1.3710001 4280691754
-0.018981464 -0.12168047 1.3740001 4280757547
-0.01529073 -0.12221183 1.3800001 4280954926
-0.011550489 -0.12256607 1.3840001 4280823342
-0.0077659274 -0.12256607 1.3840001 4281415225
-0.0039899964 -0.12283174 1.3870001 4282204741
-0.20352849 -0.11818072 1.3770001 4282731085
-0.19787714 -0.11706501 1.3640001 4282138948
-0.1938626 -0.11689336 1.3620001 4282796878
-0.18985897 -0.1167217 1.36 4281349432
-0.18559259 -0.1163784 1.3560001 4284178531
-0.18161634 -0.11620677 1.3540001 4282467913
-0.17765099 -0.1160351 1.3520001 4283717980
-0.17382528 -0.11594928 1.3510001 4282665292
-0.16975316 -0.11569181 1.348 4284245094
-0.16569746 -0.11543434 1.345 4281678397
-0.16165815 -0.11517686 1.342 4283520855
-0.15798844 -0.11517686 1.342 4284112992
-0.15466371 -0.11543434 1.345 4283586648
-0.15132257 -0.11569181 1.348 4281678651
-0.14752693 -0.11560598 1.3470001 4283257683
-0.14362997 -0.11543434 1.345 4282862925
-0.13974395 -0.11526268 1.3430001 4284704875
-0.1360715 -0.11526268 1.3430001 4282270788
-0.13259621 -0.11543434 1.345 4284441957
-0.12920585 -0.11569181 1.348 4282402374
-0.12561285 -0.11577763 1.3490001 4284244576
-0.12201438 -0.11586346 1.35 4282928716
-0.11823515 -0.11577763 1.3490001 4284310369
-0.11429156 -0.11552016 1.3460001 4283455060
-0.11052872 -0.11543434 1.345 4282073407
-0.10693026 -0.11552016 1.3460001 4283126097
-0.10340302 -0.11569181 1.348 4283191890
-0.099716902 -0.11569181 1.348 4282994509
-0.096173264 -0.11586346 1.35 4283389267
-0.092481673 -0.11586346 1.35 4283257679
-0.088921629 -0.1160351 1.3520001 4282928968
-0.085413679 -0.11629258 1.355 4280889131
-0.081889324 -0.11655006 1.358 4282270784
-0.078290991 -0.1167217 1.36 4280823340
-0.074736558 -0.11697919 1.363 4280954926
-0.071113609 -0.11715083 1.365 4281086512
-0.067578465 -0.11749413 1.3690001 4280625961
-0.06411469 -0.11800908 1.3750001 4280954928
-0.060486421 -0.11826655 1.378 4280691756
-0.056759428 -0.11835238 1.3790001 4280560170
-0.05295011 -0.11826655 1.378 4280560170
-0.049074885 -0.11800908 1.3750001 4280625963
-0.045249023 -0.11783743 1.373 4280428584
-0.041403875 -0.11757996 1.3700001 4280757549
-0.037602622 -0.1174083 1.368 4280625959
-0.033837061 -0.11732248 1.3670001 4281283889
-0.030121004 -0.1174083 1.368 4280494373
-0.026360912 -0.11732248 1.3670001 4280494373
-0.022622837 -0.11732248 1.3670001 4280889131
-0.018926205 -0.11757996 1.3700001 4280823340
-0.015268569 -0.11826655 1.378 4281283891
-0.01156718 -0.11895315 1.386 4280428584
-0.20264165 -0.11391677 1.3710001 4281086260
-0.19787714 -0.11333513 1.3640001 4282073409
-0.19414726 -0.11333513 1.3640001 4282994511
-0.18985897 -0.11300277 1.36 4284112992
-0.18572946 -0.1127535 1.3570001 4282204995
-0.1814822 -0.11242114 1.353 4282533960
-0.1775196 -0.11225495 1.3510001 4282204741
-0.17356795 -0.11208878 1.3490001 4284244324
-0.16962723 -0.1119226 1.3470001 4281744190
-0.16557427 -0.11167333 1.3440001 4285494391
-0.16177863 -0.11159024 1.3430001 4282994257
-0.15810618 -0.11159024 1.3430001 4282402120
-0.15466371 -0.11175642 1.345 4282928464
-0.15098579 -0.11175642 1.345 4284705129
-0.14719836 -0.11167333 1.3440001 4282599753
-0.14330959 -0.11150714 1.342 4284310371
-0.13953583 -0.11142406 1.3410001 4282336581
-0.13597018 -0.11150714 1.342 4285231473
-0.13249764 -0.11167333 1.3440001 4281152307
-0.12901416 -0.11183952 1.3460001 4284639336
-0.1253335 -0.11183952 1.3460001 4284507748
-0.12156247 -0.11175642 1.345 4283981404
-0.11779691 -0.11167333 1.3440001 4281547063
-0.11412173 -0.11167333 1.3440001 4283389267
-0.11044655 -0.11167333 1.3440001 4284244576
-0.10669193 -0.11159024 1.3430001 4284507750
-0.10309619 -0.11167333 1.3440001 4282139202
-0.099421009 -0.11167333 1.3440001 4283455060
-0.095959544 -0.1119226 1.3470001 4282073407
-0.092276156 -0.1119226 1.3470001 4283455060
-0.088724315 -0.11208878 1.3490001 4281547061
-0.085098498 -0.11217187 1.35 4283849818
-0.081587814 -0.11242114 1.353 4281744442
-0.07794559 -0.11250424 1.3540001 4281415477
-0.074462391 -0.1128366 1.358 4281020719
-0.070801027 -0.11291968 1.3590001 4281086512
-0.067331642 -0.11333513 1.3640001 4280954926
-0.063928172 -0.11391677 1.3710001 4281547065
-0.060398635 -0.11433222 1.376 4281020721
-0.056800585 -0.11466458 1.3800001 4280494377
-0.053026963 -0.11466458 1.3800001 4280428584
-0.049181957 -0.1144984 1.378 4280625961
-0.045347892 -0.11433222 1.376 4280625961
-0.041524764 -0.11416604 1.3740001 4280625961
-0.03771257 -0.11399985 1.3720001 4281152303
-0.033886567 -0.11375058 1.3690001 4280625959
-0.030143021 -0.11375058 1.3690001 4280296994
-0.026360912 -0.11358441 1.3670001 4280823338
-0.022622837 -0.11358441 1.3670001 4280296994
-0.018926205 -0.11383368 1.3700001 4280889133
-0.01527965 -0.11458149 1.3790001 4281217585
-0.20175482 -0.10968561 1.365 4282336581
-0.19744192 -0.1093642 1.3610001 4282468167
-0.1938626 -0.10944455 1.3620001 4282073409
-0.18971939 -0.10920348 1.3590001 4283586648
-0.18559259 -0.10896242 1.3560001 4281809983
-0.18134806 -0.10864099 1.3520001 4283915359
-0.17712539 -0.10831957 1.348 4284046945
-0.17305329 -0.10807851 1.345 4281481272
-0.16912352 -0.10791779 1.3430001 4284441957
-0.16520467 -0.10775708 1.3410001 4281349432
-0.16165815 -0.10783743 1.342 4282994257
-0.15798844 -0.10783743 1.342 4283586394
-0.15443373 -0.10791779 1.3430001 4283849566
-0.15042451 -0.10767672 1.34 4281415479
-0.14654122 -0.10751601 1.3380001 4283323476
-0.14277567 -0.10743566 1.337 4284310371
-0.13911963 -0.10743566 1.337 4283718234
-0.13556491 -0.10751601 1.3380001 4281218100
-0.13200471 -0.10759637 1.3390001 4285560438
-0.1285349 -0.10775708 1.3410001 4281744442
-0.12486792 -0.10775708 1.3410001 4284770920
-0.12120095 -0.10775708 1.3410001 4282533958
-0.11744633 -0.10767672 1.34 4285823608
-0.11369716 -0.10759637 1.3390001 4283323476
-0.11003566 -0.10759637 1.3390001 4281481272
-0.10637415 -0.10759637 1.3390001 4282073409
-0.10278936 -0.10767672 1.34 4285692024
-0.099199086 -0.10775708 1.3410001 4281876030
-0.095532104 -0.10775708 1.3410001 4284310369
-0.091796629 -0.10767672 1.34 4283060300
-0.088198148 -0.10775708 1.3410001 4282402372
-0.084720284 -0.10799815 1.3440001 4282468165
