# .PCD v0.7 - Point Cloud Data file format
VERSION 0.7
FIELDS x y z rgba
SIZE 4 4 4 4
TYPE F F F U
COUNT 1 1 1 1
WIDTH 921
HEIGHT 1
VIEWPOINT 0 0 0 1 0 0 0
POINTS 921
DATA ascii
-0.15879853 -0.32211512 1.289 4278190080
-0.1520213 -0.31536797 1.2620001 4278190080
-0.14680447 -0.31161952 1.2470001 4278190080
-0.14350952 -0.31186941 1.248 4278190080
-0.16484191 -0.32353356 1.309 4278190080
-0.15867533 -0.31834319 1.2880001 4278190080
-0.1520213 -0.31191701 1.2620001 4289905646
-0.14680447 -0.30820957 1.2470001 4286354354
-0.14350952 -0.30845675 1.248 4289312957
-0.16484191 -0.3199541 1.309 4278190080
-0.15867533 -0.31482112 1.2880001 4278190080
-0.15153947 -0.30748835 1.258 4285632703
-0.14598039 -0.30308867 1.24 4281291915
-0.14247461 -0.30284423 1.2390001 4282143864
-0.13987234 -0.30455524 1.2460001 4284246898
-0.13920321 -0.31066591 1.271 4287799710
-0.16421227 -0.31516615 1.304 4278190080
-0.15892173 -0.31178248 1.2900001 4278190080
-0.15226224 -0.30549848 1.2640001 4279052920
-0.14656901 -0.30090636 1.245 4279645575
-0.14293456 -0.30042297 1.243 4278658688
-0.14043362 -0.30235648 1.251 4279581596
-0.1390937 -0.30694863 1.2700001 4279385500
-0.13722269 -0.31057402 1.2850001 4279515266
-0.13360478 -0.31033233 1.284 4287929774
-0.13049895 -0.31129909 1.2880001 4289903026
-0.16764939 -0.3113614 1.3030001 4279052419
-0.16282703 -0.30897182 1.2930001 4279315078
-0.15818256 -0.30682123 1.284 4278789245
-0.15250316 -0.30251998 1.266 4278856835
-0.14739309 -0.29917458 1.2520001 4279975326
-0.14362451 -0.29845771 1.2490001 4279779487
-0.14099491 -0.3001304 1.256 4279318174
-0.13898417 -0.30323684 1.2690001 4279450273
-0.1362616 -0.30490956 1.276 4279648151
-0.13298045 -0.30538747 1.2780001 4282536833
-0.13009366 -0.30682123 1.284 4290165687
-0.12766699 -0.30944976 1.2950001 4278190080
-0.16764939 -0.30779833 1.3030001 4279645332
-0.16219738 -0.30425498 1.2880001 4279777435
-0.15732019 -0.30165654 1.2770001 4279711897
-0.15286455 -0.29976675 1.2690001 4279712665
-0.14880581 -0.29858565 1.2640001 4279450010
-0.14523441 -0.29834941 1.263 4279122328
-0.142342 -0.29953054 1.268 4279515805
-0.1390937 -0.30000299 1.2700001 4279713695
-0.13594122 -0.30071163 1.273 4279977369
-0.13298045 -0.30189276 1.2780001 4281155178
-0.13049895 -0.30425498 1.2880001 4289507755
-0.12835708 -0.30756211 1.302 4278190080
-0.16790673 -0.30470225 1.3050001 4279580044
-0.16194552 -0.30026597 1.286 4279579793
-0.15695061 -0.2974641 1.274 4279777686
-0.15286455 -0.29629666 1.2690001 4280305056
-0.149159 -0.29582968 1.2670001 4280568744
-0.14569438 -0.29582968 1.2670001 4280700843
-0.142342 -0.29606315 1.268 4280502433
-0.13898417 -0.29629666 1.2690001 4279251853
-0.13583444 -0.29699713 1.2720001 4279711368
-0.13318858 -0.29886505 1.2800001 4285692299
-0.1308029 -0.30143341 1.291 4288982694
-0.1289486 -0.30540273 1.3080001 4289376169
-0.1690647 -0.3032105 1.314 4279711101
-0.16257517 -0.29790315 1.291 4279381887
-0.15756659 -0.29513413 1.279 4279185022
-0.15334637 -0.29374957 1.273 4279053951
-0.14962989 -0.29328808 1.271 4278922880
-0.14615433 -0.29328808 1.271 4278988673
-0.14279103 -0.29351884 1.2720001 4279317123
-0.13975082 -0.29444185 1.276 4279316860
-0.13668874 -0.29536486 1.2800001 4280170108
-0.134021 -0.2972109 1.2880001 4284442492
-0.13171478 -0.29997995 1.3000001 4289178540
-0.12993445 -0.3041335 1.3180001 4278190080
-0.12920585 -0.31105614 1.348 4278190080
-0.17502302 -0.3037217 1.332 4278190080
-0.1690647 -0.29961735 1.314 4280235127
-0.1630789 -0.29528499 1.2950001 4279447417
-0.15805936 -0.29254875 1.2830001 4279251067
-0.15394868 -0.29140866 1.2780001 4279185535
-0.15021853 -0.29095259 1.276 4279053949
-0.14672929 -0.29095259 1.276 4279251328
-0.14346457 -0.29140866 1.2780001 4279250815
-0.14029843 -0.29209271 1.281 4279382653
-0.13722269 -0.29300478 1.2850001 4280499327
-0.13443722 -0.29460093 1.2920001 4285165452
-0.13201873 -0.29710913 1.3030001 4293784310
-0.13003302 -0.30075744 1.319 4278190080
-0.17410323 -0.29850233 1.325 4281418876
-0.16919337 -0.29624948 1.3150001 4280564342
-0.16370854 -0.29287022 1.3000001 4279644536
-0.15879853 -0.29039207 1.289 4279513209
-0.15467145 -0.28926566 1.284 4279316858
-0.15104261 -0.28904036 1.2830001 4279316860
-0.14753424 -0.28904036 1.2830001 4279316860
-0.14402586 -0.28904036 1.2830001 4279251067
-0.14084604 -0.28971621 1.286 4279185785
-0.13775662 -0.29061738 1.2900001 4280039803
-0.13506153 -0.29241964 1.2980001 4281481822
-0.13262665 -0.29489776 1.309 4293588221
-0.1308217 -0.29895291 1.327 4278190080
-0.17278925 -0.29265359 1.3150001 4281483642
-0.16855004 -0.29154083 1.3100001 4280038775
-0.16383448 -0.28953791 1.3010001 4279579513
-0.15916812 -0.28753495 1.2920001 4279382906
-0.15479191 -0.2859771 1.2850001 4279185272
-0.15116033 -0.28575456 1.284 4279382651
-0.14753424 -0.285532 1.2830001 4279382651
-0.14425038 -0.2859771 1.2850001 4279251065
-0.14084604 -0.28619963 1.286 4279382137
-0.13797019 -0.28753495 1.2920001 4280171389
-0.13516559 -0.28909281 1.299 4282667126
-0.13303192 -0.29220852 1.3130001 4293063674
-0.13092028 -0.29554674 1.3280001 4294443007
-0.17853126 -0.29257479 1.3310001 4278455355
-0.17252645 -0.28861809 1.3130001 4280825714
-0.16867872 -0.28817847 1.3110001 4280170361
-0.16433819 -0.28685957 1.3050001 4279776892
-0.15966091 -0.28488123 1.296 4279251320
-0.15491237 -0.28268307 1.286 4279316858
-0.15127806 -0.28246325 1.2850001 4279251065
-0.14776422 -0.28246325 1.2850001 4279382651
-0.14458714 -0.28312269 1.2880001 4279316860
-0.14117461 -0.28334251 1.289 4279383164
-0.13818377 -0.28444159 1.294 4280039803
-0.13558181 -0.28641993 1.3030001 4282603137
-0.13353853 -0.2897172 1.3180001 4278457629
-0.13141321 -0.29301441 1.3330001 4279047707
-0.13141041 -0.3013674 1.3710001 4278190080
-0.17759232 -0.28741559 1.3240001 4278325827
-0.17239505 -0.2848106 1.312 4279774823
-0.16855004 -0.28437644 1.3100001 4280301696
-0.16446412 -0.28350812 1.3060001 4279513722
-0.15978409 -0.2815544 1.2970001 4279317113
-0.15503283 -0.27938357 1.2870001 4279185272
-0.15116033 -0.27873233 1.284 4279316860
-0.14787921 -0.27916649 1.286 4279251067
-0.14481166 -0.28003481 1.2900001 4279316860
-0.14150319 -0.280469 1.2920001 4279513469
-0.13829057 -0.28112024 1.2950001 4279842939
-0.13568586 -0.28307396 1.304 4282406022
-0.1334372 -0.285896 1.317 4279575595
-0.13131462 -0.28915223 1.332 4280297265
-0.12997265 -0.29436219 1.3560001 4278190080
-0.17745818 -0.28358072 1.3230001 4279707231
-0.17252645 -0.28143728 1.3130001 4279182687
-0.16893603 -0.28143728 1.3130001 4280367741
-0.16496783 -0.28079423 1.3100001 4279710842
-0.16052327 -0.27929381 1.3030001 4279513722
-0.15575559 -0.27715033 1.2930001 4279251067
-0.15186669 -0.27650729 1.2900001 4279316860
-0.14856917 -0.27693599 1.2920001 4279316860
-0.14526068 -0.27736467 1.294 4279317373
-0.14216033 -0.27822208 1.2980001 4279448446
-0.13882451 -0.27865076 1.3000001 4279646335
-0.13610207 -0.28036556 1.3080001 4281879938
-0.13374116 -0.28293771 1.3200001 4279111717
-0.13141321 -0.28572419 1.3330001 4280099886
-0.12939756 -0.28936809 1.35 4278190080
-0.14488077 -0.34359783 1.603 4280231468
-0.14409086 -0.35238603 1.6440001 4280165675
-0.17732406 -0.27975136 1.322 4279444057
-0.17252645 -0.27784687 1.3130001 4278985056
-0.16880737 -0.27763525 1.312 4280630913
-0.16509376 -0.27742365 1.3110001 4279842428
-0.16089284 -0.27636558 1.3060001 4279513722
-0.1563579 -0.27467269 1.2980001 4279185787
-0.15245533 -0.27403784 1.2950001 4279317119
-0.14902912 -0.27424946 1.296 4279448705
-0.14548521 -0.27424946 1.296 4279448959
-0.14237936 -0.27509591 1.3000001 4279382651
-0.13914487 -0.27573073 1.3030001 4279842687
-0.13651828 -0.27763525 1.312 4280892534
-0.13384248 -0.27953976 1.3210001 4293192447
-0.13141321 -0.2820791 1.3330001 4289507002
-0.1304519 -0.28800425 1.3610001 4278190080
-0.17732406 -0.27613634 1.322 4279574875
-0.17265785 -0.27446532 1.314 4278721884
-0.1690647 -0.27446532 1.314 4280828038
-0.16559748 -0.27467421 1.3150001 4279711616
-0.16163202 -0.27404755 1.312 4279645827
-0.15696019 -0.27216768 1.3030001 4279317119
-0.15316169 -0.27174991 1.3010001 4279448959
-0.14971907 -0.2719588 1.302 4279448446
-0.14615874 -0.2719588 1.302 4279645827
-0.14281747 -0.27237654 1.304 4279448444
-0.13967881 -0.27321208 1.3080001 4279908480
-0.13683045 -0.27467421 1.3150001 4281155707
-0.13414644 -0.27655411 1.3240001 4293784575
-0.13161038 -0.27885175 1.335 4293322996
-0.13112286 -0.28574473 1.368 4278190080
-0.17692167 -0.27190289 1.319 4279904094
-0.17239505 -0.27045989 1.312 4278982225
-0.16867872 -0.27025375 1.3110001 4281288330
-0.16534562 -0.27066603 1.3130001 4279711618
-0.16175522 -0.27066603 1.3130001 4279580032
-0.15732157 -0.26922303 1.3060001 4279514239
-0.15339713 -0.26860461 1.3030001 4279514237
-0.14983407 -0.26860461 1.3030001 4279843202
-0.14627101 -0.26860461 1.3030001 4280237962
-0.14281747 -0.26881075 1.304 4280237446
-0.13967881 -0.26963532 1.3080001 4280040066
-0.13672639 -0.27087218 1.314 4280760949
-0.1339438 -0.27252132 1.322 4283651438
-0.13131462 -0.27458277 1.332 4293192691
-0.12978095 -0.27911791 1.3540001 4278190080
-0.17678753 -0.26809269 1.3180001 4283193484
-0.17226365 -0.26666883 1.3110001 4281876082
-0.16867872 -0.26666883 1.3110001 4282407321
-0.16547155 -0.26727903 1.314 4279514237
-0.1621248 -0.26768586 1.3160001 4279711616
-0.15780342 -0.2664654 1.3100001 4279646078
-0.15363258 -0.26544836 1.3050001 4282475175
-0.14983407 -0.26504153 1.3030001 4279448697
-0.14627101 -0.26504153 1.3030001 4279382906
-0.14314602 -0.26585516 1.307 4280105608
-0.13999918 -0.26666883 1.3110001 4279776894
-0.13693449 -0.26768586 1.3160001 4283983511
-0.1339438 -0.2689063 1.322 4292204777
-0.13111746 -0.27053356 1.33 4293257717
-0.12958924 -0.27500859 1.3520001 4278190080
-0.23115481 -0.32589489 1.6240001 4278190080
-0.22643475 -0.32549354 1.6220001 4278190080
-0.17759232 -0.26569262 1.3240001 4281947265
-0.17252645 -0.26348522 1.3130001 4281552256
-0.16855004 -0.26288319 1.3100001 4280895624
-0.16547155 -0.26368588 1.314 4279777411
-0.162248 -0.26428792 1.317 4279711869
-0.15804434 -0.26328453 1.312 4280567178
-0.15351486 -0.26167914 1.304 4282540970
-0.14960408 -0.26107714 1.3010001 4281488280
-0.14615874 -0.26127779 1.302 4279316858
-0.1430365 -0.26208049 1.3060001 4280236679
-0.14010596 -0.26328453 1.312 4281027454
-0.13683045 -0.26388654 1.3150001 4287339452
-0.13374116 -0.26488993 1.3200001 4289046715
-0.1308217 -0.26629466 1.327 4293127413
-0.1287266 -0.26950544 1.3430001 4278190080
-0.18000673 -0.26563507 1.342 4284051360
-0.17357764 -0.26147833 1.3210001 4282406543
-0.1690647 -0.26009274 1.314 4280368508
-0.16597527 -0.26088452 1.3180001 4280040316
-0.16274078 -0.26147833 1.3210001 4279843455
-0.15852618 -0.26048863 1.3160001 4279317111
-0.15386803 -0.25870717 1.307 4284251835
-0.14994906 -0.25811335 1.304 4280501637
-0.14649552 -0.2583113 1.3050001 4279646076
-0.14347459 -0.25930098 1.3100001 4280172171
-0.14042632 -0.26029068 1.3150001 4280041085
-0.13714261 -0.26088452 1.3180001 4281355136
-0.13424775 -0.26227006 1.325 4286153892
-0.13141321 -0.26385358 1.3330001 4293323510
-0.12987681 -0.26820827 1.355 4278190080
-0.14119853 -0.31888083 1.6110001 4279838506
-0.13271666 -0.31967258 1.6150001 4280101676
-0.12853874 -0.3202664 1.618 4280166699
-0.18094565 -0.26333177 1.3490001 4282799754
-0.17410323 -0.25864685 1.325 4281617277
-0.16957936 -0.25728044 1.3180001 4280959875
-0.16635306 -0.25786605 1.3210001 4280303490
-0.16323356 -0.25864685 1.325 4279514239
-0.1587671 -0.25728044 1.3180001 4279514752
-0.15422121 -0.25571877 1.3100001 4281751712
-0.15029402 -0.25513315 1.307 4279251577
-0.14694454 -0.25552356 1.309 4279777664
-0.14369364 -0.25610918 1.312 4279711871
-0.1405331 -0.25689 1.3160001 4279843455
-0.13714261 -0.25728044 1.3180001 4280566662
-0.13445039 -0.25903726 1.327 4293061375
-0.13180755 -0.26098931 1.337 4293324024
-0.13026021 -0.26528382 1.3590001 4293258997
-0.17973845 -0.2579107 1.34 4283391891
-0.17410323 -0.25502363 1.325 4282209414
-0.16996536 -0.25425375 1.3210001 4279578222
-0.16698271 -0.25521612 1.3260001 4280302979
-0.16397274 -0.25617847 1.3310001 4279579780
-0.15936941 -0.25463867 1.3230001 4279514502
-0.15469213 -0.25290644 1.314 4279711879
-0.150869 -0.25252151 1.312 4279317373
-0.14739357 -0.25271398 1.3130001 4279514750
-0.14402221 -0.25309891 1.3150001 4279646335
-0.14074668 -0.25367635 1.3180001 4279843455
-0.13745476 -0.25425375 1.3210001 4280566149
-0.13475436 -0.25598598 1.33 4291351535
-0.13239905 -0.25848809 1.3430001 4294574079
-0.13054776 -0.26214504 1.3620001 4278190080
-0.12896501 -0.26657188 1.3850001 4278190080
-0.13988383 -0.30718318 1.5960001 4280166699
-0.17866538 -0.25272855 1.332 4284180890
-0.17397183 -0.25121066 1.3240001 4281617019
-0.17035134 -0.25121066 1.3240001 4278986078
-0.16748643 -0.25234908 1.33 4280434050
-0.16421913 -0.25291827 1.3330001 4279974022
-0.15948987 -0.25121066 1.3240001 4279580545
-0.1550453 -0.24988252 1.317 4279317887
-0.15121396 -0.24950303 1.3150001 4279580545
-0.14761809 -0.24950303 1.3150001 4279712131
-0.14402221 -0.24950303 1.3150001 4279448957
-0.1406399 -0.24988252 1.317 4279777664
-0.13745476 -0.25064147 1.3210001 4280435076
-0.13475436 -0.25234908 1.33 4282404980
-0.13239905 -0.25481564 1.3430001 4279047969
-0.1304519 -0.25823089 1.3610001 4278190080
-0.13734208 -0.29731655 1.567 4280166699
-0.13534974 -0.30243942 1.5940001 4280100906
-0.17893367 -0.24946021 1.3340001 4285233829
-0.17449743 -0.24833818 1.3280001 4282339965
-0.170866 -0.24833818 1.3280001 4280893821
-0.16811608 -0.2496472 1.335 4280566660
-0.16471191 -0.25002119 1.337 4279581061
-0.16021264 -0.24871218 1.33 4279580545
-0.15539847 -0.24684216 1.3200001 4279514500
-0.15167393 -0.24665517 1.319 4279383682
-0.14795485 -0.24646817 1.3180001 4279580034
-0.14446029 -0.24665517 1.319 4279777924
-0.14106706 -0.24702919 1.3210001 4279711871
-0.13787098 -0.24777718 1.325 4280370310
-0.13526094 -0.2496472 1.335 4282538883
-0.13289197 -0.25207821 1.348 4279904305
-0.13083531 -0.25525725 1.365 4279969838
-0.14036173 -0.29041356 1.5530001 4279903527
-0.1383062 -0.29508859 1.5780001 4280034856
-0.13492517 -0.29714561 1.5890001 4280100649
-0.18014085 -0.24747077 1.3430001 4284378783
-0.17528582 -0.24581237 1.3340001 4278392135
-0.171252 -0.24525957 1.3310001 4281287290
-0.1686198 -0.2467337 1.3390001 4278190080
-0.16508149 -0.24691796 1.34 4279646856
-0.1603331 -0.24525957 1.3310001 4279645573
-0.15563393 -0.24360114 1.322 4279383941
-0.15178892 -0.24323261 1.3200001 4279514498
-0.14817937 -0.24323261 1.3200001 4279646854
-0.14467934 -0.24341689 1.3210001 4279711877
-0.14138742 -0.24396969 1.3240001 4279908995
-0.13828719 -0.24489103 1.3290001 4280369797
-0.13556491 -0.24654943 1.3380001 4282736001
-0.13308914 -0.24876064 1.35 4279969324
-0.13093115 -0.25170889 1.3660001 4280034604
-0.12868567 -0.25465718 1.3820001 4278190080
-0.13390623 -0.29058927 1.577 4280297774
0.090620928 -0.29151061 1.582 4280759608
-0.18201873 -0.24633977 1.3570001 4284117161
-0.176337 -0.24361679 1.342 4280362063
-0.17215264 -0.24289064 1.3380001 4294114303
-0.16987909 -0.2448875 1.3490001 4278190080
-0.16619025 -0.2448875 1.3490001 4279646086
-0.16081494 -0.24234605 1.335 4279842952
-0.15610483 -0.24071227 1.3260001 4279383684
-0.15224889 -0.2403492 1.3240001 4279383684
-0.1486284 -0.2403492 1.3240001 4279580293
-0.14522696 -0.24071227 1.3260001 4279581063
-0.14192136 -0.24125686 1.3290001 4279909510
-0.13870341 -0.24198298 1.3330001 4280829069
-0.1360715 -0.24379832 1.3430001 4282799235
-0.13348348 -0.24579516 1.3540001 4279111459
-0.13112286 -0.24833664 1.368 4278849050
-0.12989616 -0.25323802 1.3950001 4278190080
-0.13593975 -0.28155711 1.5510001 4280428081
-0.18309179 -0.24405944 1.365 4279774572
-0.1767312 -0.24048346 1.345 4279506495
-0.17253864 -0.23976827 1.3410001 4293852159
-0.17038281 -0.24191386 1.353 4278190080
-0.16692941 -0.24227145 1.355 4279646084
-0.1609354 -0.23887427 1.3360001 4279842952
-0.15610483 -0.23708631 1.3260001 4279646088
-0.15224889 -0.23672871 1.3240001 4279646086
-0.1486284 -0.23672871 1.3240001 4279711879
-0.14511743 -0.2369075 1.325 4279515016
-0.14170778 -0.2372651 1.327 4279975051
-0.13880746 -0.23851669 1.3340001 4280764557
-0.1360715 -0.24012586 1.3430001 4281484143
-0.1333849 -0.24191386 1.353 4294769663
-0.13093115 -0.24423823 1.3660001 4294375679
-0.13036175 -0.25031736 1.4000001 4294178815
-0.18322591 -0.24050289 1.3660001 4279971183
-0.17699401 -0.23715769 1.3470001 4279637564
-0.17305329 -0.23680556 1.345 4293852671
-0.17088653 -0.2389183 1.3570001 4278190080
-0.16754539 -0.23944651 1.36 4280040583
-0.16129677 -0.23574917 1.3390001 4279908745
-0.15645801 -0.23398854 1.3290001 4279777674
-0.15259387 -0.23363641 1.327 4279777672
-0.14896518 -0.23363641 1.327 4279515270
-0.14533648 -0.23363641 1.327 4279909258
-0.14202815 -0.2341646 1.33 4279646854
-0.13891152 -0.23504491 1.335 4280238472
-0.13617282 -0.23662947 1.3440001 4281089648
-0.13358206 -0.23856619 1.355 4294245375
-0.13093115 -0.24050289 1.3660001 4278190080
-0.12989616 -0.24560873 1.3950001 4293520889
-0.1824211 -0.23572758 1.36 4279641964
-0.176337 -0.23260765 1.342 4281347669
-0.17253864 -0.23243432 1.3410001 4293984255
-0.17063467 -0.23486093 1.355 4278190080
-0.16742219 -0.23555423 1.3590001 4280040585
-0.16117632 -0.23191433 1.3380001 4279908747
-0.15657574 -0.2305277 1.33 4279777672
-0.15259387 -0.23000771 1.327 4279777670
-0.14885291 -0.22983439 1.3260001 4279515270
-0.14522696 -0.22983439 1.3260001 4279384195
-0.14192136 -0.23035437 1.3290001 4279909510
-0.13891152 -0.23139434 1.335 4280304008
-0.13597018 -0.23260765 1.342 4280958325
-0.13358206 -0.23486093 1.355 4294244607
-0.13112286 -0.23711421 1.368 4278190080
-0.1814822 -0.23081447 1.353 4279773804
-0.17581141 -0.22825556 1.3380001 4278718016
-0.1722813 -0.22842616 1.3390001 4293787391
-0.17063467 -0.23115566 1.355 4278190080
-0.16766858 -0.23217922 1.3610001 4280040842
-0.16129677 -0.22842616 1.3390001 4279777159
-0.15669346 -0.22706141 1.3310001 4279515270
-0.15270886 -0.2265496 1.3280001 4279646086
-0.14918968 -0.22672021 1.3290001 4279449477
-0.14555551 -0.22672021 1.3290001 4279646084
-0.14224172 -0.22723199 1.332 4279581061
-0.13911963 -0.22808497 1.337 4280304008
-0.13617282 -0.22927912 1.3440001 4281024631
-0.13377923 -0.23149684 1.3570001 4293850623
-0.13141041 -0.23388518 1.3710001 4293324277
-0.18040913 -0.2257718 1.345 4279445098
-0.17489162 -0.22342177 1.3310001 4278850883
-0.17138065 -0.22358963 1.332 4293918207
-0.17013095 -0.22677895 1.3510001 4278190080
-0.16754539 -0.22828971 1.36 4279974788
-0.16129677 -0.22476465 1.3390001 4279645827
-0.15657574 -0.22325391 1.33 4279383430
-0.15236388 -0.2224146 1.325 4279646086
-0.14874065 -0.2224146 1.325 4279711877
-0.14533648 -0.22275032 1.327 4279712129
-0.14213493 -0.22342177 1.3310001 4280039040
-0.13901557 -0.22426105 1.3360001 4280500356
-0.1360715 -0.22543608 1.3430001 4281747323
-0.13387781 -0.22795399 1.358 4293653759
-0.13169795 -0.23063974 1.3740001 4293258997
-0.13138601 -0.23685056 1.411 4278190080
-0.18027499 -0.22192875 1.3440001 4279511149
-0.17476024 -0.21961699 1.33 4278325309
-0.17138065 -0.21994726 1.332 4293918719
-0.17038281 -0.2234149 1.353 4278190080
-0.16779178 -0.22490102 1.3620001 4280106374
-0.16165815 -0.22159852 1.342 4279843206
-0.15692893 -0.22011237 1.3330001 4279514502
-0.15247887 -0.21895652 1.3260001 4279448448
-0.14885291 -0.21895652 1.3260001 4279712131
-0.145446 -0.21928674 1.3280001 4279711618
-0.14234851 -0.22011237 1.3330001 4280039027
-0.13932772 -0.22110315 1.3390001 4280498026
-0.13637546 -0.222259 1.3460001 4281219944
-0.13417357 -0.2247359 1.3610001 4292337392
-0.13227305 -0.22787328 1.3800001 4293061877
-0.13166536 -0.23348755 1.414 4278190080
-0.18054324 -0.21857835 1.3460001 4280034925
-0.17489162 -0.21614251 1.3310001 4292403195
-0.17163798 -0.21662968 1.3340001 4293655551
-0.17038281 -0.2197151 1.353 4278190080
-0.16766858 -0.22101423 1.3610001 4279777159
-0.16177863 -0.21809119 1.3430001 4279711366
-0.15716437 -0.21679206 1.335 4279186051
-0.15282385 -0.21581772 1.3290001 4279711877
-0.14907743 -0.21565531 1.3280001 4279776894
-0.145446 -0.21565531 1.3280001 4279447917
-0.14234851 -0.21646728 1.3330001 4279841638
-0.13932772 -0.21744163 1.3390001 4280629097
-0.13657808 -0.21890314 1.348 4281153388
-0.13437074 -0.22133902 1.363 4287600047
-0.13236891 -0.22426206 1.381 4293127671
-0.13092043 -0.22832182 1.406 4278190080
-0.1814822 -0.21601531 1.353 4279904107
-0.17581141 -0.21362045 1.3380001 4294178047
-0.17266729 -0.21425909 1.342 4293588479
-0.17113839 -0.21697325 1.3590001 4278190080
-0.16779178 -0.21745221 1.3620001 4279777672
-0.16214001 -0.21489771 1.3460001 4279448194
-0.15775301 -0.21393977 1.34 4279382916
-0.15351379 -0.21314149 1.335 4279580034
-0.14975098 -0.21298184 1.3340001 4279842174
-0.14599362 -0.21282217 1.3330001 4280104568
-0.14266887 -0.21330114 1.3360001 4279840606
-0.13953583 -0.21409942 1.3410001 4280431714
-0.13667941 -0.21537668 1.3490001 4281087340
-0.13446933 -0.21777153 1.3640001 4281022305
-0.13227305 -0.22032604 1.3800001 4293654783
-0.13036175 -0.22351916 1.4000001 4293324277
-0.1977738 -0.22675234 1.4450001 4278190080
-0.18255524 -0.21357089 1.3610001 4279375694
-0.1767312 -0.21106014 1.345 4293850111
-0.17369661 -0.21184476 1.35 4293522175
-0.17164211 -0.21388474 1.363 4278190080
-0.16754539 -0.21341398 1.36 4279646338
-0.16201954 -0.21106014 1.345 4279579780
-0.15763527 -0.21011862 1.3390001 4279316608
-0.15351379 -0.20949093 1.335 4279514752
-0.14975098 -0.209334 1.3340001 4279842175
-0.14588408 -0.20902015 1.332 4280104319
-0.14234851 -0.20917708 1.3330001 4279578214
-0.13922368 -0.20996168 1.3380001 4279905370
-0.13627413 -0.21106014 1.345 4280759392
-0.13387781 -0.21310014 1.358 4281417061
-0.13179381 -0.2157678 1.3750001 4293588735
-0.13017552 -0.21937701 1.3980001 4278190080
-0.13041982 -0.22643849 1.4430001 4293193204
-0.19832128 -0.22341773 1.4490001 4278190080
-0.18389659 -0.21139111 1.3710001 4281806948
-0.17804518 -0.2089241 1.355 4293979903
-0.17511192 -0.20984922 1.3610001 4282997392
-0.17277548 -0.21154529 1.3720001 4278190080
-0.16779178 -0.21000341 1.3620001 4279711879
-0.16226047 -0.20769061 1.3470001 4279513989
-0.15775301 -0.20661129 1.34 4279448707
-0.15374379 -0.20614873 1.337 4279382912
-0.14997549 -0.20599453 1.3360001 4279775617
-0.14610313 -0.20568617 1.3340001 4279972733
-0.14245529 -0.20568617 1.3340001 4279578215
-0.13911963 -0.20614873 1.337 4280102498
-0.13597018 -0.20691967 1.342 4280562011
-0.13358206 -0.2089241 1.355 4281614440
-0.13160211 -0.21169949 1.373 4291483624
-0.13036175 -0.21586254 1.4000001 4293324790
-0.1969526 -0.2179409 1.439 4278190080
-0.18429899 -0.20809644 1.3740001 4282400617
-0.17843938 -0.2056732 1.358 4294244095
-0.1754979 -0.20658192 1.3640001 4278190080
-0.17302734 -0.20809644 1.3740001 4278190080
-0.16779178 -0.20627901 1.3620001 4279579780
-0.16226047 -0.20400722 1.3470001 4279316862
-0.15751755 -0.20264414 1.3380001 4279316344
-0.1536288 -0.20234123 1.3360001 4279579516
-0.14975098 -0.20203833 1.3340001 4279906174
-0.14588408 -0.20173542 1.332 4280234872
-0.14224172 -0.20173542 1.332 4279905897
-0.13880746 -0.20203833 1.3340001 4279971681
-0.13576755 -0.20294705 1.34 4280364892
-0.13318773 -0.20461303 1.3510001 4280693597
-0.13112286 -0.20718774 1.368 4282272352
-0.12980305 -0.21112551 1.3940001 4294048511
-0.12942563 -0.21688072 1.432 4278190080
-0.19599453 -0.21296491 1.432 4278190080
-0.18443312 -0.20448793 1.3750001 4281613159
-0.17883359 -0.20240588 1.3610001 4294573055
-0.1758839 -0.2032982 1.3670001 4282735749
-0.1732792 -0.20463668 1.376 4280171401
-0.16779178 -0.2025546 1.3620001 4279579780
-0.16238092 -0.20047255 1.348 4279579515
-0.15775301 -0.1992828 1.34 4278921072
-0.15397376 -0.1991341 1.3390001 4279381615
-0.15019999 -0.19898535 1.3380001 4279840106
-0.14632219 -0.19868791 1.3360001 4279906148
-0.14256209 -0.19853921 1.335 4279840606
-0.13911963 -0.19883665 1.337 4279510865
-0.13586886 -0.19943151 1.3410001 4280102489
-0.13308914 -0.20076999 1.35 4280825186
-0.13064361 -0.20270333 1.363 4281679465
-0.12924436 -0.20642129 1.388 4293588223
-0.12806991 -0.21073411 1.4170001 4293193202
-0.1973632 -0.21050893 1.442 4278190080
-0.18510379 -0.20145792 1.3800001 4282399587
-0.17922778 -0.19912218 1.3640001 4294442239
-0.17601258 -0.19970612 1.368 4278190080
-0.17277548 -0.20029004 1.3720001 4279710848
-0.16742219 -0.19839224 1.3590001 4279776132
-0.16214001 -0.19649446 1.3460001 4279381623
-0.15787072 -0.19576454 1.3410001 4279511404
-0.15397376 -0.19547258 1.3390001 4279709031
-0.15031224 -0.19547258 1.3390001 4279840098
-0.14632219 -0.19503461 1.3360001 4280103267
-0.14277567 -0.19518061 1.337 4280168544
-0.13911963 -0.19518061 1.337 4280036697
-0.13576755 -0.19561855 1.34 4280234076
-0.13249764 -0.19620249 1.3440001 4280825445
-0.12978095 -0.19766232 1.3540001 4281350763
-0.12803386 -0.20072798 1.3750001 4289969872
-0.12707572 -0.2052535 1.406 4293192951
-0.1291033 -0.21503443 1.473 4293193206
-0.20146923 -0.21086326 1.4720001 4278190080
-0.18765232 -0.20040604 1.399 4292926717
-0.18133017 -0.19768429 1.3800001 4294245631
-0.17729922 -0.19739781 1.378 4278190080
-0.1732792 -0.19711131 1.376 4279776641
-0.16779178 -0.19510579 1.3620001 4279578753
-0.16250139 -0.19324355 1.3490001 4279447416
-0.15810618 -0.19238406 1.3430001 4279445607
-0.15431874 -0.19224082 1.342 4279708771
-0.15076129 -0.19238406 1.3430001 4279839581
-0.14665075 -0.19181107 1.3390001 4279971165
-0.14277567 -0.19152457 1.337 4280102751
-0.13911963 -0.19152457 1.337 4280168542
-0.13566622 -0.19181107 1.3390001 4279971163
-0.13230047 -0.19224082 1.342 4280036956
-0.12939756 -0.19338681 1.35 4281088104
-0.12738205 -0.1959653 1.368 4281877861
-0.12626229 -0.20011954 1.3970001 4293654783
-0.12735038 -0.20814151 1.4530001 4292995827
-0.19328591 -0.20248209 1.4410001 4278190080
-0.18474653 -0.19756405 1.406 4278190080
-0.17922917 -0.19573736 1.393 4278190080
-0.17353106 -0.19362965 1.378 4279711620
-0.16754539 -0.19110037 1.36 4279447167
-0.16238092 -0.18941419 1.348 4279513210
-0.15810618 -0.18871161 1.3430001 4279577193
-0.15431874 -0.18857111 1.342 4279511392
-0.15053678 -0.18843058 1.3410001 4279511130
-0.14632219 -0.187728 1.3360001 4279511130
-0.14245529 -0.187447 1.3340001 4279839579
-0.13901557 -0.187728 1.3360001 4280037728
-0.13566622 -0.18814957 1.3390001 4280037474
-0.13230047 -0.18857111 1.342 4279906659
-0.12920585 -0.18941419 1.348 4280695666
-0.12700959 -0.19166243 1.3640001 4281022575
-0.12544885 -0.19503479 1.388 4293785087
-0.12454569 -0.19967179 1.4210001 4292865266
-0.19157927 -0.20088392 1.4580001 4278190080
-0.18270311 -0.19564827 1.4200001 4278190080
-0.17466442 -0.19110151 1.3870001 4279514241
-0.16791497 -0.18779479 1.363 4279579003
-0.16262186 -0.18600364 1.35 4279513714
-0.15834163 -0.18531473 1.345 4279314789
-0.1547787 -0.18545251 1.3460001 4279577694
-0.15076129 -0.18503916 1.3430001 4279905889
-0.14676027 -0.18462583 1.34 4279774303
-0.14277567 -0.18421249 1.337 4279708510
-0.13922368 -0.18435027 1.3380001 4279577437
-0.13586886 -0.1847636 1.3410001 4279841386
-0.13269481 -0.18545251 1.3460001 4279380836
-0.12978095 -0.18655474 1.3540001 4280366709
-0.1271027 -0.18807036 1.365 4281287813
-0.12508732 -0.19068818 1.3840001 4285102233
-0.1230557 -0.19344378 1.404 4293061877
-0.12371679 -0.20074615 1.457 4293127158
-0.18669169 -0.19595167 1.4510001 4278190080
-0.17529407 -0.18798397 1.3920001 4279514241
-0.16791497 -0.18406765 1.363 4279578749
-0.16286276 -0.18258214 1.3520001 4279250802
-0.1586948 -0.18204196 1.348 4279250014
-0.15500869 -0.18204196 1.348 4279644772
-0.15098579 -0.18163683 1.345 4279906150
-0.14719836 -0.18150176 1.3440001 4279906150
-0.14341639 -0.18136673 1.3430001 4279840357
-0.13984799 -0.18150176 1.3440001 4279380065
-0.13637546 -0.18177186 1.3460001 4279315304
-0.13289197 -0.18204196 1.348 4279842164
-0.12987681 -0.18298729 1.355 4280105857
-0.12682335 -0.18393259 1.3620001 4280960647
-0.12445466 -0.18595828 1.3770001 4284641179
-0.12209158 -0.18811901 1.393 4293391612
-0.12176381 -0.19365591 1.434 4293061365
-0.17592372 -0.1848391 1.3970001 4279777413
-0.16840775 -0.18086974 1.3670001 4279185024
-0.16334462 -0.17941432 1.3560001 4279447680
-0.15916571 -0.17888507 1.3520001 4279447678
-0.15523867 -0.17862046 1.35 4279513461
-0.15132257 -0.17835583 1.348 4279709810
-0.14752693 -0.17822352 1.3470001 4279775603
-0.14384355 -0.17822352 1.3470001 4279972469
-0.14026421 -0.17835583 1.348 4279972982
-0.13657808 -0.17835583 1.348 4279842428
-0.13299057 -0.17848815 1.3490001 4279710589
-0.12997265 -0.17941432 1.3560001 4280171399
-0.12673023 -0.18007588 1.3610001 4280368770
-0.12400276 -0.18153131 1.3720001 4284709290
-0.12147807 -0.18338367 1.386 4293324543
-0.12006557 -0.18708839 1.414 4293061365
-0.18643437 -0.187757 1.4490001 4278190080
-0.17542 -0.18050067 1.393 4279842952
-0.16828457 -0.1770021 1.3660001 4279513219
-0.16346507 -0.17583591 1.3570001 4279185537
-0.15940116 -0.17544718 1.3540001 4279316610
-0.15546864 -0.17518802 1.3520001 4279382401
-0.15154709 -0.17492887 1.35 4279513209
-0.14752693 -0.17454013 1.3470001 4279776633
-0.14384355 -0.17454013 1.3470001 4280170361
-0.1400561 -0.17441057 1.3460001 4280500094
-0.13647677 -0.17454013 1.3470001 4280566147
-0.13289197 -0.17466971 1.348 4280434822
-0.1296851 -0.1753176 1.353 4280171401
-0.12645088 -0.17596549 1.358 4280435074
-0.12346048 -0.1770021 1.3660001 4283921580
-0.12095218 -0.17881618 1.3800001 4289839315
-0.11921645 -0.18192601 1.404 4292996087
-0.18463308 -0.18201888 1.4350001 4278190080
-0.17491628 -0.17618413 1.3890001 4279908231
-0.16853096 -0.17352045 1.368 4279514502
-0.16382645 -0.17250571 1.36 4279250817
-0.15975434 -0.17212518 1.3570001 4279382401
-0.15581362 -0.17187148 1.355 4279317119
-0.15177159 -0.17149097 1.3520001 4279382651
-0.14774598 -0.17111044 1.3490001 4280171902
-0.14395033 -0.1709836 1.348 4280500348
-0.14016016 -0.17085674 1.3470001 4280696957
-0.13647677 -0.17085674 1.3470001 4280763520
-0.13308914 -0.17123729 1.35 4280632191
-0.12978095 -0.17174466 1.3540001 4280829572
-0.12654401 -0.17237885 1.3590001 4280764290
-0.12346048 -0.17326677 1.3660001 4283985324
-0.12086454 -0.17491572 1.3790001 4282342275
-0.11887681 -0.1775794 1.4000001 4293718527
-0.11849995 -0.18290679 1.442 4292995572
-0.18296042 -0.17648147 1.4220001 4278190080
-0.17403477 -0.17151715 1.3820001 4279711368
-0.16816136 -0.16940731 1.365 4279382916
-0.16370599 -0.16866265 1.3590001 4279448196
-0.15987207 -0.16853856 1.358 4279448448
-0.15604362 -0.16841444 1.3570001 4279317373
-0.15188386 -0.16791801 1.353 4280303236
-0.14763644 -0.16729748 1.348 4280698245
-0.14362997 -0.16692516 1.345 4280434555
-0.1400561 -0.16704926 1.3460001 4280631934
-0.13637546 -0.16704926 1.3460001 4280697984
-0.13289197 -0.16729748 1.348 4280566398
-0.1294934 -0.1676698 1.3510001 4280961667
-0.12635778 -0.16841444 1.3570001 4280830853
-0.1233701 -0.16940731 1.365 4283723431
-0.12068924 -0.1708966 1.3770001 4283195800
-0.11853715 -0.17325465 1.396 4293455871
-0.11726728 -0.17710201 1.427 4293061365
-0.18180245 -0.17150064 1.4130001 4280041614
-0.17390884 -0.16761668 1.381 4279777674
-0.16853096 -0.16603883 1.368 4279186051
-0.16418783 -0.16543196 1.363 4279251328
-0.1604607 -0.16543196 1.363 4279316858
-0.15661858 -0.16531059 1.3620001 4279777664
-0.15233289 -0.16470371 1.3570001 4280303490
-0.14796501 -0.16397548 1.3510001 4280566402
-0.14373676 -0.16336861 1.3460001 4280434816
-0.14026421 -0.16361135 1.348 4279842936
-0.13657808 -0.16361135 1.348 4279646328
-0.13328631 -0.16409685 1.3520001 4280238464
-0.12978095 -0.1643396 1.3540001 4280896392
-0.12663712 -0.16506784 1.36 4280830851
-0.12355085 -0.16591746 1.3670001 4283199910
-0.1206016 -0.16700982 1.376 4283924137
-0.11819751 -0.16895179 1.3920001 4288984267
-0.11636332 -0.17186475 1.416 4292929781
-0.18128781 -0.16716221 1.409 4280041873
-0.17365699 -0.16360305 1.3790001 4279580809
-0.16840775 -0.16217938 1.3670001 4279120258
-0.16406737 -0.16158618 1.3620001 4279448194
-0.16022524 -0.16146754 1.3610001 4279316858
-0.15650357 -0.16146754 1.3610001 4279975041
-0.15233289 -0.16099299 1.3570001 4280566147
-0.14796501 -0.16028115 1.3510001 4280697988
-0.14373676 -0.15968797 1.3460001 4280106109
-0.14016016 -0.15980659 1.3470001 4279580281
-0.13657808 -0.15992524 1.348 4279711869
-0.13328631 -0.16039979 1.3520001 4279843453
-0.12987681 -0.16075571 1.355 4280896394
-0.12663712 -0.16134891 1.36 4280896644
-0.1233701 -0.16194209 1.365 4280700292
-0.12033866 -0.16289121 1.373 4284383146
-0.11777294 -0.16455215 1.3870001 4284773013
-0.11562373 -0.16692494 1.4070001 4293718783
-0.18103047 -0.16307747 1.4070001 4279975567
-0.17403477 -0.16017987 1.3820001 4279647115
-0.16890053 -0.15890492 1.3710001 4279318150
-0.16442876 -0.15820949 1.365 4279317891
-0.1604607 -0.15797769 1.363 4279448705
-0.15661858 -0.15786178 1.3620001 4279908480
-0.1525574 -0.15751407 1.3590001 4280566149
-0.14840311 -0.15705045 1.355 4280632195
-0.14427069 -0.15658683 1.3510001 4280369280
-0.14057638 -0.15658683 1.3510001 4279842937
-0.13698336 -0.15670274 1.3520001 4279646074
-0.13377923 -0.15728226 1.3570001 4279909246
-0.13035606 -0.15762997 1.36 4280764555
-0.12691647 -0.15797769 1.363 4280764806
-0.12364125 -0.15855721 1.368 4280304258
-0.1206016 -0.15948445 1.376 4281747843
-0.11777294 -0.16075939 1.3870001 4283390350
-0.11545938 -0.16284567 1.4050001 4293391103
-0.18038715 -0.15866417 1.4020001 4279843981
-0.17378291 -0.15617444 1.3800001 4279515529
-0.16890053 -0.15515591 1.3710001 4279449223
-0.16430829 -0.15436372 1.3640001 4279252098
-0.16034298 -0.15413739 1.3620001 4279448957
-0.15638858 -0.15391104 1.36 4279842687
-0.15244514 -0.15368471 1.358 4280304004
-0.14829358 -0.15323202 1.3540001 4280764038
-0.14416391 -0.15277934 1.35 4280632706
-0.14047232 -0.15277934 1.35 4280435327
-0.13698336 -0.15300567 1.3520001 4280041085
-0.13358206 -0.15334518 1.355 4280435841
-0.13006851 -0.15357153 1.3570001 4280829321
-0.12673023 -0.15402421 1.3610001 4280699016
-0.12364125 -0.15481639 1.368 4281155968
-0.12051395 -0.15560859 1.3750001 4282402432
-0.11760312 -0.15674028 1.3850001 4283127178
-0.11504849 -0.15843783 1.4000001 4288851906
-0.18012983 -0.15460952 1.4000001 4279976591
-0.17378291 -0.15240082 1.3800001 4279581320
-0.16902374 -0.15151733 1.3720001 4279515529
-0.16454922 -0.15085472 1.3660001 4279317637
-0.16057843 -0.15063384 1.3640001 4279317889
-0.15661858 -0.15041298 1.3620001 4279448959
-0.15289417 -0.15041298 1.3620001 4280106627
-0.14873168 -0.14997123 1.358 4280172671
-0.14459106 -0.1495295 1.3540001 4280764290
-0.14078449 -0.14941905 1.353 4280566909
-0.13718601 -0.1495295 1.3540001 4280632704
-0.13368066 -0.14975037 1.3560001 4280633220
-0.13006851 -0.1498608 1.3570001 4280764806
-0.12673023 -0.15030254 1.3610001 4280435841
-0.12364125 -0.15107559 1.368 4281547901
-0.12068924 -0.15206951 1.3770001 4282205057
-0.11768803 -0.15306343 1.386 4282862983
-0.11496631 -0.15449908 1.399 4283784336
-0.17974383 -0.15045811 1.3970001 4280173711
-0.17353106 -0.14841178 1.378 4279581322
-0.16877733 -0.14755018 1.3700001 4279581322
-0.16430829 -0.14690398 1.3640001 4279186052
-0.16057843 -0.14690398 1.3640001 4279251844
-0.15661858 -0.14668858 1.3620001 4279317637
-0.15300642 -0.14679629 1.363 4279580291
-0.1488412 -0.14636546 1.3590001 4280172422
-0.14491142 -0.14615007 1.3570001 4280435590
-0.14099258 -0.14593467 1.355 4280698245
-0.13728732 -0.14593467 1.355 4280567427
-0.13368066 -0.14604236 1.3560001 4280633220
-0.13006851 -0.14615007 1.3570001 4280567427
-0.12682335 -0.14668858 1.3620001 4280369532
-0.12364125 -0.14733477 1.368 4281745280
-0.12051395 -0.14808869 1.3750001 4282140292
-0.11734839 -0.14884259 1.3820001 4282403974
-0.11447325 -0.1500273 1.393 4283587474
-0.17961515 -0.14653303 1.396 4280305554
-0.17365699 -0.1447486 1.3790001 4279778701
-0.16902374 -0.14401384 1.3720001 4279449736
-0.16466968 -0.143489 1.3670001 4279382661
-0.16081388 -0.14338404 1.3660001 4279317638
-0.15696356 -0.14327908 1.365 4279317637
-0.1533432 -0.14338404 1.3660001 4279448707
-0.1492793 -0.14306915 1.363 4279383166
-0.14533858 -0.14285921 1.3610001 4279777921
-0.1414088 -0.14264926 1.3590001 4280304517
-0.13759127 -0.14254431 1.358 4280239491
-0.13387781 -0.14254431 1.358 4281095313
-0.13006851 -0.14243934 1.3570001 4281095824
-0.12673023 -0.14285921 1.3610001 4281289864
-0.1233701 -0.14327908 1.365 4281745280
-0.12033866 -0.1441188 1.373 4282008706
-0.11726348 -0.14495853 1.381 4282207878
-0.11430889 -0.14600819 1.391 4282605203
-0.17910051 -0.14230673 1.3920001 4280173198
-0.1732792 -0.14067101 1.376 4279712908
-0.16877733 -0.14005762 1.3700001 4279318150
-0.16442876 -0.13954647 1.365 4279318151
-0.16081388 -0.13964871 1.3660001 4279251847
-0.15684855 -0.13944423 1.3640001 4279383431
-0.15311868 -0.13944423 1.3640001 4279449224
-0.1492793 -0.13934201 1.363 4279449477
-0.14533858 -0.13913754 1.3610001 4279449986
-0.1414088 -0.13893306 1.3590001 4279844997
-0.13748996 -0.13872862 1.3570001 4280964757
-0.13377923 -0.13872862 1.3570001 4281162649
-0.12997265 -0.13862638 1.3560001 4281229209
-0.12654401 -0.13893306 1.3590001 4281360025
-0.12318933 -0.13934201 1.363 4281355914
-0.12007572 -0.14005762 1.3700001 4281549694
-0.11692382 -0.14077325 1.3770001 4281945223
-0.113898 -0.14169334 1.386 4282145941
-0.17365699 -0.13720682 1.3790001 4279647115
-0.16914693 -0.13660984 1.373 4279515529
-0.1649106 -0.13621184 1.3690001 4279383944
-0.16104934 -0.13611235 1.368 4279449224
-0.15719353 -0.13601285 1.3670001 4279383431
-0.1533432 -0.13591336 1.3660001 4279383431
-0.14949834 -0.13581386 1.365 4279383430
-0.14555216 -0.13561487 1.363 4279516038
-0.14151286 -0.13531637 1.36 4281490850
-0.13748996 -0.13501789 1.3570001 4281293981
-0.13377923 -0.13501789 1.3570001 4280570258
-0.13016436 -0.13511738 1.358 4279320445
-0.12673023 -0.13541587 1.3610001 4281163414
-0.12318933 -0.13561487 1.363 4282344349
-0.12007572 -0.13631135 1.3700001 4281419649
-0.11692382 -0.13700782 1.3770001 4282932616
-0.11398017 -0.1380028 1.3870001 4282539664
-0.17353106 -0.13333917 1.378 4279647115
-0.16902374 -0.13275859 1.3720001 4279449737
-0.1649106 -0.1324683 1.3690001 4279449226
-0.16116706 -0.1324683 1.3690001 4279317638
-0.15719353 -0.13227478 1.3670001 4279580810
-0.15323095 -0.13208126 1.365 4279251844
-0.1492793 -0.13188773 1.363 4279449734
-0.14544536 -0.13179097 1.3620001 4279647878
-0.1414088 -0.13150068 1.3590001 4281556642
-0.13748996 -0.13130715 1.3570001 4281228188
-0.13387781 -0.13140392 1.358 4279122812
-0.1304519 -0.1316942 1.3610001 4279255679
-0.12700959 -0.13198449 1.3640001 4281031063
-0.12346048 -0.13217802 1.3660001 4281688478
-0.12007572 -0.13256507 1.3700001 4281159038
-0.11683892 -0.13314565 1.376 4281946747
-0.16939332 -0.12928893 1.3750001 4279580810
-0.16527198 -0.12900685 1.3720001 4279712396
-0.16152024 -0.12900685 1.3720001 4279580810
-0.1575385 -0.1288188 1.3700001 4279449224
-0.15345545 -0.12853672 1.3670001 4279515017
-0.14949834 -0.12834865 1.365 4279449734
-0.14576574 -0.12834865 1.365 4279516292
-0.14172097 -0.12806657 1.3620001 4281359263
-0.13779393 -0.1278785 1.36 4281425821
-0.13407499 -0.1278785 1.36 4280767891
-0.13073945 -0.12825462 1.3640001 4279847305
-0.12728892 -0.12853672 1.3670001 4281426335
-0.12373162 -0.12872475 1.3690001 4281031060
-0.12016336 -0.12891282 1.3710001 4281158527
-0.16140251 -0.12516381 1.3710001 4279317638
-0.1575385 -0.12507251 1.3700001 4279317638
-0.15356772 -0.12488992 1.368 4279383944
-0.14960785 -0.12470734 1.3660001 4279449994
-0.14576574 -0.12461604 1.365 4279319431
-0.14172097 -0.12434217 1.3620001 4279912331
-0.13779393 -0.12415957 1.36 4281228188
-0.13387781 -0.12397699 1.358 4281360544
-0.1304519 -0.12425087 1.3610001 4281293981
-0.12700959 -0.12452474 1.3640001 4281621917
-0.12355085 -0.12479863 1.3670001 4280831377
-0.11998808 -0.12498122 1.3690001 4283724975
-0.1381992 -0.12079488 1.3640001 4279912331
-0.13427216 -0.12061776 1.3620001 4280701846
-0.13073945 -0.12079488 1.3640001 4281095575
