# .PCD v0.7 - Point Cloud Data file format
VERSION 0.7
FIELDS x y z rgba
SIZE 4 4 4 4
TYPE F F F U
COUNT 1 1 1 1
WIDTH 899
HEIGHT 1
VIEWPOINT 0 0 0 1 0 0 0
POINTS 899
DATA ascii
-0.14727537 -0.29893562 1.251 4288064203
-0.14166966 -0.29439545 1.2320001 4284448662
-0.13796398 -0.29367855 1.2290001 4289180080
-0.15406914 -0.302129 1.279 4278190080
-0.14680447 -0.29456985 1.2470001 4287804141
-0.14086473 -0.28937295 1.225 4286292958
-0.1368414 -0.28795561 1.2190001 4281683588
-0.13405564 -0.28913674 1.2240001 4288982462
-0.13295116 -0.29409742 1.245 4289838013
-0.15916812 -0.30166692 1.2920001 4278190080
-0.15346684 -0.2974641 1.274 4278195798
-0.14645129 -0.29045945 1.2440001 4280304266
-0.14074972 -0.2857897 1.2240001 4279976589
-0.13672915 -0.28438875 1.2180001 4278857340
-0.13416517 -0.28602317 1.225 4278595457
-0.13241722 -0.28952551 1.24 4279384454
-0.1313156 -0.29466224 1.2620001 4280498790
-0.12786464 -0.29466224 1.2620001 4288193185
-0.12480804 -0.29559621 1.266 4289310375
-0.15842895 -0.29674938 1.286 4278723719
-0.15298501 -0.29305732 1.2700001 4278329726
-0.14680447 -0.28774998 1.2470001 4278396286
-0.14143968 -0.28382719 1.23 4278857356
-0.13751495 -0.28267342 1.225 4279516058
-0.13482231 -0.28405792 1.2310001 4279713184
-0.13273758 -0.28682697 1.243 4279582625
-0.13079534 -0.29005751 1.2570001 4279647901
-0.12756069 -0.29051903 1.2590001 4280565359
-0.12451229 -0.29144204 1.263 4289638838
-0.12163371 -0.29282656 1.2690001 4278190080
-0.15645783 -0.28958449 1.2700001 4279382932
-0.15117809 -0.28616419 1.2550001 4279514526
-0.14656901 -0.28388402 1.245 4279909284
-0.14235961 -0.2822879 1.238 4279647139
-0.13874978 -0.28183183 1.2360001 4279450271
-0.13580802 -0.28274393 1.24 4279384217
-0.13305794 -0.28411204 1.2460001 4279450525
-0.13017102 -0.28525212 1.251 4279846050
-0.12715542 -0.28616419 1.2550001 4279709801
-0.12421653 -0.28730431 1.2600001 4293256939
-0.12144201 -0.28890043 1.2670001 4278190080
-0.15608823 -0.28543583 1.2670001 4279909787
-0.15069625 -0.28183126 1.251 4280173988
-0.14680447 -0.2809301 1.2470001 4280108195
-0.14316455 -0.28047955 1.245 4280239781
-0.13976009 -0.28047955 1.245 4280502951
-0.13646515 -0.28070483 1.2460001 4280700328
-0.13337831 -0.28138068 1.2490001 4279911066
-0.13027507 -0.28205654 1.2520001 4279580560
-0.12756069 -0.28363353 1.2590001 4280430184
-0.12490663 -0.28543583 1.2670001 4293061105
-0.1225922 -0.28813925 1.279 4278190080
-0.16244924 -0.28708985 1.2900001 4279973248
-0.15596505 -0.28174865 1.266 4279185284
-0.15069625 -0.2784104 1.251 4278988934
-0.14668673 -0.27729765 1.2460001 4278988936
-0.14316455 -0.27707508 1.245 4278923401
-0.13987234 -0.27729765 1.2460001 4278989193
-0.13646515 -0.27729765 1.2460001 4278923141
-0.13337831 -0.27796528 1.2490001 4279186052
-0.13037913 -0.2788555 1.253 4279776643
-0.12766202 -0.28041333 1.2600001 4281546075
-0.12530096 -0.28286141 1.271 4292929519
-0.12316731 -0.2859771 1.2850001 4278190080
-0.1630789 -0.28466141 1.2950001 4280038271
-0.15695061 -0.2800453 1.274 4279644546
-0.15165992 -0.27674803 1.2590001 4279053951
-0.14751083 -0.27542916 1.253 4279185282
-0.1438545 -0.27498952 1.251 4279054468
-0.14054589 -0.27520934 1.2520001 4279250815
-0.13712227 -0.27520934 1.2520001 4279316608
-0.13412583 -0.2760886 1.256 4279381883
-0.13110749 -0.27696785 1.2600001 4279711871
-0.12837125 -0.27850658 1.2670001 4281217372
-0.12599105 -0.28092453 1.2780001 4294442495
-0.12383825 -0.28400198 1.2920001 4282534740
-0.16345669 -0.28177148 1.2980001 4280300415
-0.15732019 -0.27721277 1.2770001 4279775101
-0.15238269 -0.27460778 1.2650001 4279250297
-0.14798173 -0.27287114 1.2570001 4279185276
-0.14454445 -0.27287114 1.2570001 4279251069
-0.14121942 -0.27308822 1.258 4279316860
-0.13788894 -0.2733053 1.2590001 4279251580
-0.13465977 -0.27373946 1.261 4279382655
-0.13141966 -0.27417362 1.263 4279974523
-0.12857389 -0.27547613 1.2690001 4281155177
-0.12608965 -0.27764693 1.279 4294180863
-0.12402995 -0.28090313 1.294 4278456085
-0.12347119 -0.28784975 1.3260001 4278190080
-0.16446412 -0.27993685 1.3060001 4280235644
-0.15818256 -0.27522123 1.284 4279973248
-0.15310545 -0.27243471 1.271 4279579516
-0.14868809 -0.27071992 1.263 4279185274
-0.1451194 -0.27050558 1.2620001 4279316860
-0.14178072 -0.27071992 1.263 4279185276
-0.13843656 -0.27093428 1.2640001 4279185787
-0.13519371 -0.27136299 1.266 4279251065
-0.13204399 -0.27200603 1.2690001 4280039803
-0.1291818 -0.27329209 1.2750001 4281879928
-0.12668115 -0.27543557 1.2850001 4278786853
-0.12441336 -0.27822208 1.2980001 4279706920
-0.12365743 -0.28465247 1.3280001 4278190080
-0.16471598 -0.2767888 1.3080001 4280235901
-0.15830576 -0.27192172 1.2850001 4279776382
-0.1535873 -0.26980558 1.2750001 4279250550
-0.14880581 -0.26747787 1.2640001 4279316860
-0.14523441 -0.26726624 1.263 4279316860
-0.14189297 -0.26747787 1.2640001 4279382655
-0.1386556 -0.26790109 1.266 4279185785
-0.1353005 -0.26811269 1.2670001 4279579516
-0.13214804 -0.26874754 1.2700001 4280038522
-0.12938444 -0.27022883 1.2770001 4281747578
-0.12687832 -0.27234495 1.2870001 4279444787
-0.1245092 -0.27488428 1.299 4279706918
-0.12281939 -0.27911654 1.319 4278190080
-0.1354285 -0.34873697 1.6480001 4280099886
-0.17240997 -0.27989614 1.34 4278190080
-0.16509376 -0.2738387 1.3110001 4280236669
-0.15879853 -0.26924339 1.289 4279644795
-0.15431006 -0.26757234 1.281 4279579516
-0.14951217 -0.2652747 1.2700001 4279316860
-0.14569438 -0.26464808 1.2670001 4279448444
-0.14222975 -0.26464808 1.2670001 4279316860
-0.13898417 -0.26506585 1.2690001 4279382651
-0.13572764 -0.26548359 1.271 4279382904
-0.13256425 -0.26611021 1.274 4279842939
-0.12989104 -0.26778126 1.2820001 4281222010
-0.12737124 -0.26987001 1.2920001 4279642426
-0.12498846 -0.27237654 1.304 4279706918
-0.12477481 -0.27989614 1.34 4278190080
-0.17060867 -0.27334592 1.3260001 4278190080
-0.16496783 -0.27004761 1.3100001 4280696957
-0.15904492 -0.26613089 1.291 4279842426
-0.15443052 -0.26427561 1.2820001 4279645308
-0.14962989 -0.26200804 1.271 4279316862
-0.14580935 -0.26138958 1.268 4279382653
-0.14245427 -0.26159576 1.2690001 4279316860
-0.13931274 -0.26221415 1.2720001 4279448444
-0.13604802 -0.26262647 1.274 4279579515
-0.13277236 -0.26303872 1.276 4280038524
-0.12999235 -0.26448175 1.2830001 4281419138
-0.12746982 -0.26654318 1.2930001 4278983721
-0.125276 -0.26942918 1.307 4279706920
-0.12402988 -0.27458277 1.332 4278190080
-0.17048001 -0.26951653 1.325 4278190080
-0.16509376 -0.26666883 1.3110001 4280893571
-0.1594145 -0.26321086 1.294 4279907708
-0.15503283 -0.261787 1.2870001 4279644795
-0.15033625 -0.25975293 1.2770001 4279251069
-0.14638431 -0.25893927 1.273 4279382653
-0.14290328 -0.25893927 1.273 4279251067
-0.13975082 -0.2595495 1.276 4279185785
-0.13668874 -0.26036313 1.2800001 4279513209
-0.13339669 -0.26076996 1.2820001 4280040064
-0.13049895 -0.2619904 1.2880001 4280893055
-0.12806132 -0.2642279 1.299 4280628816
-0.12585109 -0.26707563 1.3130001 4279706666
-0.12421612 -0.27134722 1.3340001 4278190080
-0.16970803 -0.26468927 1.319 4281286776
-0.16471598 -0.26248184 1.3080001 4280959877
-0.1594145 -0.2596724 1.294 4279580285
-0.15539421 -0.25886971 1.2900001 4279579262
-0.15080716 -0.25706363 1.281 4279316862
-0.14672929 -0.25606027 1.276 4279448448
-0.14324006 -0.25606027 1.276 4279448446
-0.13996987 -0.25646162 1.2780001 4279316858
-0.13679552 -0.25706363 1.281 4279382906
-0.13360478 -0.25766566 1.284 4280038526
-0.13060027 -0.25866902 1.289 4281025661
-0.12815991 -0.26087645 1.3000001 4279443243
-0.12556355 -0.26288319 1.3100001 4279575845
-0.12393677 -0.26709735 1.3310001 4278190080
-0.13856913 -0.3172659 1.5810001 4279048218
-0.075398877 -0.32449016 1.6170001 4280429873
-0.071021065 -0.32469085 1.618 4280299057
-0.16932203 -0.26048863 1.3160001 4279510361
-0.16446412 -0.25850922 1.3060001 4281223049
-0.15966091 -0.25652984 1.296 4279843457
-0.15599652 -0.25633189 1.2950001 4279514239
-0.15163124 -0.25494632 1.2880001 4279382912
-0.14753424 -0.25395662 1.2830001 4279513469
-0.14380135 -0.25356072 1.281 4279776895
-0.14029843 -0.25356072 1.281 4279776895
-0.13700911 -0.25395662 1.2830001 4279645306
-0.13391694 -0.25474837 1.2870001 4280433798
-0.13090423 -0.25573808 1.2920001 4281157246
-0.12845567 -0.25791541 1.3030001 4283851638
-0.12565941 -0.25949892 1.3110001 4279969071
-0.12365743 -0.2628639 1.3280001 4280099886
-0.13492517 -0.31452614 1.5890001 4280363569
-0.16829272 -0.25532839 1.3080001 4282274436
-0.16370854 -0.25376675 1.3000001 4282012306
-0.1595377 -0.25279072 1.2950001 4280039805
-0.15611698 -0.25298589 1.296 4279448444
-0.15186669 -0.25181466 1.2900001 4279645825
-0.14764923 -0.25064346 1.284 4279646078
-0.14391361 -0.25025305 1.2820001 4280105346
-0.14040796 -0.25025305 1.2820001 4279974273
-0.1371159 -0.25064346 1.284 4279776122
-0.13391694 -0.25122908 1.2870001 4279974271
-0.1308029 -0.25200987 1.291 4280695917
-0.12815991 -0.25376675 1.3000001 4286942626
-0.125276 -0.25513315 1.307 4278978585
-0.12281939 -0.25747561 1.319 4278190080
-0.11993562 -0.25903726 1.327 4278190080
-0.13543464 -0.31135225 1.595 4279572772
-0.16803539 -0.25136667 1.3060001 4282866574
-0.16370854 -0.25021186 1.3000001 4282406294
-0.1599073 -0.24982692 1.2980001 4280104834
-0.15647836 -0.2500194 1.299 4280171650
-0.1523376 -0.24905702 1.294 4281554071
-0.14787921 -0.24751727 1.286 4281816726
-0.14391361 -0.24674739 1.2820001 4280236669
-0.14051749 -0.24693985 1.2830001 4279842428
-0.13732947 -0.24751727 1.286 4280105087
-0.13412505 -0.24809468 1.289 4279709297
-0.13090423 -0.24867211 1.2920001 4285036965
-0.12806132 -0.2500194 1.299 4287733425
-0.12537186 -0.25175163 1.3080001 4293981439
-0.12309873 -0.25444621 1.322 4278190080
-0.16790673 -0.2476057 1.3050001 4283195792
-0.16358261 -0.24646726 1.299 4281682569
-0.16003048 -0.24646726 1.299 4280498826
-0.15671928 -0.24684674 1.3010001 4279842428
-0.15257305 -0.24589805 1.296 4281290383
-0.14787921 -0.24400069 1.286 4282474910
-0.14380135 -0.24305201 1.281 4280105600
-0.14040796 -0.24324176 1.2820001 4279841913
-0.13732947 -0.24400069 1.286 4280038524
-0.13422911 -0.24475965 1.2900001 4283787939
-0.1308029 -0.24494937 1.291 4287207867
-0.12786415 -0.2460878 1.2970001 4293652989
-0.12518016 -0.24779542 1.3060001 4293587447
-0.12328497 -0.25121066 1.3240001 4278190080
-0.17502302 -0.24908619 1.332 4280694629
-0.16829272 -0.24459815 1.3080001 4284840615
-0.16408633 -0.24366315 1.3030001 4281222018
-0.16076966 -0.24403715 1.3050001 4280236673
-0.15732157 -0.24422415 1.3060001 4279842685
-0.15304396 -0.24310215 1.3000001 4283528112
-0.14810918 -0.24085812 1.2880001 4283922872
-0.14425038 -0.24029711 1.2850001 4279777664
-0.14073654 -0.24029711 1.2850001 4279777662
-0.13775662 -0.24123213 1.2900001 4279776894
-0.13443722 -0.24160613 1.2920001 4281487249
-0.13120818 -0.24216713 1.2950001 4280893825
-0.12835708 -0.24347614 1.302 4282470509
-0.12585109 -0.24553317 1.3130001 4281352770
-0.12412301 -0.24927318 1.3330001 4288917168
-0.17541721 -0.24599662 1.335 4281878652
-0.16855004 -0.24138993 1.3100001 4282405771
-0.16421227 -0.24028434 1.304 4280893053
-0.16076966 -0.24046862 1.3050001 4280499591
-0.15732157 -0.24065287 1.3060001 4280040067
-0.15327941 -0.2399158 1.302 4280238215
-0.14845416 -0.23788887 1.291 4280632971
-0.14469941 -0.23752032 1.289 4279843455
-0.14106509 -0.23733607 1.2880001 4279843457
-0.13797019 -0.23807314 1.2920001 4279777409
-0.13454126 -0.23825741 1.2930001 4279580285
-0.13141082 -0.23899448 1.2970001 4280566659
-0.12875143 -0.24065287 1.3060001 4282406777
-0.1262345 -0.24267982 1.317 4279905326
-0.12412301 -0.24562809 1.3330001 4280167469
-0.12201438 -0.24876064 1.35 4278190080
-0.16932203 -0.23889694 1.3160001 4281617030
-0.16484191 -0.23762621 1.309 4280697220
-0.16150883 -0.23798928 1.3110001 4280302977
-0.15780342 -0.23780774 1.3100001 4279909250
-0.15363258 -0.23690009 1.3050001 4279712128
-0.14902912 -0.23526628 1.296 4279448957
-0.14537294 -0.23508476 1.2950001 4279448957
-0.14172223 -0.23490322 1.294 4279777921
-0.13829057 -0.23508476 1.2950001 4279448956
-0.13485342 -0.23526628 1.296 4279646078
-0.13171478 -0.23599242 1.3000001 4280172420
-0.12924434 -0.23798928 1.3110001 4282603384
-0.12690546 -0.2403492 1.3240001 4279838255
-0.12449547 -0.24270913 1.337 4279903529
-0.12255666 -0.24615824 1.3560001 4278190080
-0.17009401 -0.2363711 1.322 4281224067
-0.16521969 -0.23458312 1.312 4280500866
-0.16187842 -0.23494072 1.314 4280238726
-0.15804434 -0.23458312 1.312 4279909508
-0.15363258 -0.23333155 1.3050001 4279712645
-0.14914411 -0.23190117 1.2970001 4279449727
-0.14526068 -0.23136476 1.294 4279580291
-0.14161271 -0.23118596 1.2930001 4279515268
-0.13807699 -0.23118596 1.2930001 4279711102
-0.13485342 -0.23172235 1.296 4279646078
-0.13161346 -0.23225875 1.299 4280632453
-0.12914576 -0.23422553 1.3100001 4283521667
-0.12671375 -0.2363711 1.322 4278322970
-0.12449547 -0.23905309 1.337 4280362289
-0.12309895 -0.24352303 1.3620001 4278190080
-0.12844342 -0.27946144 1.5630001 4280297776
-0.170866 -0.23381247 1.3280001 4281485434
-0.16584936 -0.23187576 1.317 4284182185
-0.16274078 -0.23258004 1.3210001 4280369032
-0.1587671 -0.23205185 1.3180001 4280106378
-0.15422121 -0.23064332 1.3100001 4279645825
-0.14960408 -0.22905876 1.3010001 4279710848
-0.14570972 -0.22853056 1.2980001 4279645825
-0.14205079 -0.22835451 1.2970001 4279580543
-0.13850413 -0.22835451 1.2970001 4279580545
-0.13516559 -0.22870661 1.299 4279646338
-0.13212006 -0.22958694 1.304 4280500356
-0.12944151 -0.23117152 1.3130001 4282865798
-0.1270013 -0.23328428 1.325 4294835455
-0.12486792 -0.23610128 1.3410001 4278190080
-0.12526809 -0.24402417 1.386 4278190080
-0.17138065 -0.23087436 1.332 4282730623
-0.16622713 -0.2287944 1.3200001 4288720096
-0.16311036 -0.22948773 1.3240001 4280434824
-0.15924895 -0.22914106 1.322 4279974792
-0.15457439 -0.22758111 1.3130001 4279711618
-0.14971907 -0.22567448 1.302 4279711620
-0.14570972 -0.22498117 1.2980001 4279646084
-0.14194128 -0.2246345 1.296 4279514498
-0.13839735 -0.2246345 1.296 4279777411
-0.13526964 -0.22532783 1.3000001 4279777411
-0.13222137 -0.22619449 1.3050001 4280368772
-0.1295401 -0.22775443 1.314 4281022311
-0.127193 -0.23000771 1.327 4293257716
-0.12514727 -0.23295429 1.3440001 4278190080
-0.17202398 -0.22808497 1.337 4279372876
-0.16685678 -0.22603782 1.325 4291482622
-0.16384953 -0.2268908 1.33 4279908219
-0.16021264 -0.2268908 1.33 4279843717
-0.15539847 -0.22518484 1.3200001 4279711877
-0.15040903 -0.22313772 1.3080001 4279515266
-0.14638326 -0.22245534 1.304 4279646084
-0.14259841 -0.22211415 1.302 4279777670
-0.13893129 -0.22194356 1.3010001 4279646338
-0.13558181 -0.22228475 1.3030001 4279712131
-0.13252534 -0.22313772 1.3080001 4280631944
-0.12993445 -0.22484368 1.3180001 4281677935
-0.12776811 -0.22740258 1.3330001 4293258231
-0.12579907 -0.23047328 1.3510001 4293389302
-0.17215264 -0.22459678 1.3380001 4279306315
-0.16710864 -0.22275032 1.327 4292534271
-0.16421913 -0.22375748 1.3330001 4279908217
-0.16057402 -0.22375748 1.3330001 4280238475
-0.15551621 -0.22174317 1.3210001 4279778438
-0.15052402 -0.21972884 1.309 4279712647
-0.14638326 -0.21888953 1.304 4279646338
-0.14259841 -0.21855381 1.302 4279778440
-0.13893129 -0.21838596 1.3010001 4279777670
-0.13568586 -0.21888953 1.304 4279975301
-0.13252534 -0.21956098 1.3080001 4280566151
-0.13003302 -0.22140744 1.319 4281612659
-0.12776811 -0.22375748 1.3330001 4293981183
-0.12579907 -0.22677895 1.3510001 4293258486
-0.12544885 -0.23298977 1.388 4293258482
-0.1722813 -0.22110315 1.3390001 4279240522
-0.16723457 -0.21928674 1.3280001 4293061631
-0.1644655 -0.22044264 1.335 4279579503
-0.16081494 -0.22044264 1.335 4280172680
-0.15575165 -0.21846111 1.3230001 4279909510
-0.150869 -0.21664473 1.312 4279515270
-0.14672002 -0.21581911 1.307 4279711877
-0.1430365 -0.21565399 1.3060001 4279646854
-0.13935845 -0.21548888 1.3050001 4279646084
-0.13610207 -0.21598424 1.3080001 4279711616
-0.13313325 -0.21697499 1.314 4280106629
-0.13032877 -0.21829599 1.322 4281417596
-0.12805566 -0.22060774 1.3360001 4294376703
-0.12570597 -0.22291952 1.35 4293192691
-0.12562962 -0.22952454 1.3900001 4278190080
-0.17150933 -0.21646728 1.3330001 4279044422
-0.16660492 -0.21484336 1.3230001 4294441215
-0.16421913 -0.21646728 1.3330001 4279906930
-0.1609354 -0.21695444 1.3360001 4280041096
-0.15575165 -0.21484336 1.3230001 4279646856
-0.150754 -0.21289468 1.3110001 4279580291
-0.14660777 -0.21208273 1.3060001 4279514498
-0.14281747 -0.21175793 1.304 4279580291
-0.13946523 -0.21208273 1.3060001 4279974792
-0.13620612 -0.21256989 1.309 4279711616
-0.13323456 -0.21354423 1.3150001 4280040581
-0.13032877 -0.21468097 1.322 4281682569
-0.12786396 -0.21662968 1.3340001 4293127935
-0.12551974 -0.21890314 1.348 4292996338
-0.12599115 -0.22637314 1.3940001 4278190080
-0.17857079 -0.21697325 1.3590001 4279642477
-0.17060867 -0.2117046 1.3260001 4278653262
-0.1661012 -0.21058698 1.319 4294507775
-0.16421913 -0.21282217 1.3330001 4279512683
-0.16117632 -0.21362045 1.3380001 4280040842
-0.15598711 -0.21154492 1.325 4279646856
-0.15098397 -0.20962906 1.3130001 4279646084
-0.1470568 -0.20915006 1.3100001 4279711620
-0.14325555 -0.20883077 1.3080001 4279580291
-0.1397856 -0.20899042 1.309 4279777411
-0.13651828 -0.20946938 1.312 4279908995
-0.1334372 -0.21026766 1.317 4279843717
-0.13052595 -0.21138526 1.3240001 4281092233
-0.1279598 -0.21314149 1.335 4288587716
-0.12561285 -0.21537668 1.3490001 4293127924
-0.1247258 -0.22032604 1.3800001 4278190080
-0.17607422 -0.21027553 1.34 4279773034
-0.16957936 -0.20682326 1.3180001 4278585913
-0.16547155 -0.20619556 1.314 4294573567
-0.16372633 -0.2085494 1.3290001 4279906928
-0.16105586 -0.20980477 1.337 4280040585
-0.15575165 -0.20760785 1.3230001 4279711366
-0.150869 -0.20588171 1.312 4279515268
-0.14683229 -0.20525403 1.3080001 4279776641
-0.14314602 -0.20509709 1.307 4279645823
-0.13967881 -0.20525403 1.3080001 4279908480
-0.13641423 -0.20572479 1.3110001 4279908481
-0.13323456 -0.20635247 1.3150001 4279777914
-0.13032877 -0.20745093 1.322 4281549948
-0.12786396 -0.209334 1.3340001 4293060862
-0.12561285 -0.21168782 1.3490001 4292996854
-0.12463543 -0.2163955 1.3790001 4278190080
-0.17581141 -0.20630291 1.3380001 4279773032
-0.16970803 -0.20337336 1.319 4280033349
-0.16559748 -0.20275658 1.3150001 4294507775
-0.16384953 -0.20506941 1.33 4280037487
-0.16105586 -0.20614873 1.337 4279974020
-0.15575165 -0.20399009 1.3230001 4279777159
-0.15109898 -0.20260242 1.314 4279645573
-0.14716905 -0.20213985 1.3110001 4279514500
-0.14347459 -0.20198566 1.3100001 4279580034
-0.13989238 -0.20198566 1.3100001 4279645306
-0.13662234 -0.20244823 1.3130001 4279775090
-0.1334372 -0.20306496 1.317 4280037996
-0.13042736 -0.20399009 1.3230001 4280825963
-0.12805566 -0.20599453 1.3360001 4286810790
-0.12598531 -0.20861572 1.353 4293324024
-0.1247258 -0.21277878 1.3800001 4278190080
-0.17646842 -0.2034014 1.3430001 4279838827
-0.17009401 -0.20022088 1.322 4286150807
-0.16622713 -0.19991797 1.3200001 4293917695
-0.16421913 -0.20188686 1.3330001 4279710832
-0.16105586 -0.20249268 1.337 4279777411
-0.15563393 -0.20022088 1.322 4279580293
-0.15121396 -0.19916071 1.3150001 4279513987
-0.14728132 -0.19870636 1.312 4279579780
-0.14358412 -0.1985549 1.3110001 4279907706
-0.1397856 -0.19825199 1.309 4279380568
-0.13641423 -0.1985549 1.3110001 4279643738
-0.1334372 -0.19946362 1.317 4280300647
-0.13052595 -0.20052379 1.3240001 4280758888
-0.12815151 -0.20249268 1.337 4281153121
-0.12617154 -0.20521885 1.355 4293720831
-0.1247258 -0.20900516 1.3800001 4278190080
-0.1781766 -0.2016623 1.3560001 4278849353
-0.17163798 -0.1983905 1.3340001 4288453814
-0.16761236 -0.19794434 1.3310001 4287340747
-0.16545108 -0.19972895 1.3430001 4280105085
-0.16141725 -0.1992828 1.34 4279711620
-0.15598711 -0.19705202 1.325 4279513987
-0.15155894 -0.19601101 1.3180001 4279251326
-0.14773034 -0.19571356 1.3160001 4279644805
-0.14402221 -0.19556484 1.3150001 4279841915
-0.14010596 -0.19511868 1.312 4279447131
-0.13672639 -0.19541612 1.314 4279709020
-0.13374116 -0.19630842 1.3200001 4280234854
-0.13111746 -0.19779561 1.33 4280957031
-0.12843905 -0.1992828 1.34 4281219179
-0.12607843 -0.20136486 1.3540001 4293128441
-0.1242739 -0.20448793 1.3750001 4293324277
-0.17949057 -0.19941415 1.3660001 4282270319
-0.17279597 -0.19605651 1.3430001 4294573311
-0.16887166 -0.19576454 1.3410001 4278190080
-0.16619025 -0.19693241 1.3490001 4279448181
-0.16141725 -0.19561855 1.34 4279579780
-0.15598711 -0.1934288 1.325 4279513989
-0.15155894 -0.19240692 1.3180001 4279382914
-0.14761809 -0.19196895 1.3150001 4279645057
-0.14369364 -0.191531 1.312 4279906940
-0.13989238 -0.19123903 1.3100001 4279709801
-0.13662234 -0.191677 1.3130001 4279972194
-0.13363984 -0.19255289 1.319 4280037726
-0.13101886 -0.19401275 1.3290001 4280759652
-0.12815151 -0.19518061 1.337 4281417322
-0.12579907 -0.19722438 1.3510001 4289378248
-0.123822 -0.19999807 1.3700001 4293324790
-0.12375687 -0.20612942 1.4120001 4278190080
-0.19637097 -0.20971724 1.4640001 4283259784
-0.17988476 -0.19610855 1.3690001 4282271089
-0.17369661 -0.19338681 1.35 4294770175
-0.16987909 -0.19324355 1.3490001 4278190080
-0.16692941 -0.19410306 1.355 4280238211
-0.16153771 -0.19209756 1.3410001 4279710852
-0.15622257 -0.19009207 1.327 4279448196
-0.15167393 -0.18894608 1.319 4279382401
-0.14773034 -0.18851633 1.3160001 4279448446
-0.14391269 -0.18822983 1.314 4279841661
-0.14021274 -0.18808658 1.3130001 4279907179
-0.13693449 -0.18851633 1.3160001 4280103781
-0.13384248 -0.18923259 1.3210001 4279971931
-0.13092028 -0.19023532 1.3280001 4280694112
-0.1279598 -0.19123806 1.335 4281351777
-0.12551974 -0.1931003 1.348 4281351504
-0.123822 -0.19625179 1.3700001 4293324792
-0.1230557 -0.20112227 1.404 4293324277
-0.19570029 -0.20501137 1.4590001 4278190080
-0.17975338 -0.1922245 1.368 4282468215
-0.17369661 -0.18969522 1.35 4294573311
-0.17000502 -0.18969522 1.35 4278190080
-0.16692941 -0.1903978 1.355 4280171650
-0.16117632 -0.18800904 1.3380001 4279645823
-0.15610483 -0.18632287 1.3260001 4279644795
-0.15167393 -0.18533926 1.319 4279579256
-0.14795485 -0.18519875 1.3180001 4279578741
-0.14402221 -0.18477719 1.3150001 4279972220
-0.14031954 -0.18463668 1.314 4280235626
-0.13683045 -0.18477719 1.3150001 4280104283
-0.13353853 -0.18519875 1.3180001 4279709010
-0.13042736 -0.18590131 1.3230001 4280102489
-0.12757641 -0.18702544 1.3310001 4280759903
-0.12524039 -0.18899265 1.345 4280957262
-0.12355085 -0.19208397 1.3670001 4293654015
-0.12252983 -0.19643994 1.3980001 4293258999
-0.19610269 -0.20143506 1.462 4278190080
-0.18067317 -0.18944813 1.3750001 4282272119
-0.17446861 -0.18683031 1.3560001 4294443007
-0.17050874 -0.18655474 1.3540001 4278190080
-0.1671758 -0.18696809 1.3570001 4280105600
-0.16117632 -0.18435027 1.3380001 4279776635
-0.15634029 -0.18297246 1.3280001 4279644017
-0.1520189 -0.18214577 1.322 4279446880
-0.1486284 -0.18242134 1.3240001 4279776098
-0.14478886 -0.18214577 1.322 4280037995
-0.14106706 -0.18200801 1.3210001 4280104032
-0.13745476 -0.18200801 1.3210001 4279643469
-0.1339438 -0.18214577 1.322 4279774035
-0.13062453 -0.18255912 1.325 4280366174
-0.12738471 -0.18311025 1.3290001 4280496729
-0.12486792 -0.1847636 1.3410001 4281812330
-0.12282781 -0.18724366 1.3590001 4291351776
-0.12156571 -0.19110151 1.3870001 4293061618
-0.12354697 -0.20047058 1.455 4293390070
-0.18356395 -0.18865921 1.3970001 4282864507
-0.17614123 -0.18487792 1.3690001 4278190080
-0.17151618 -0.18393259 1.3620001 4278190080
-0.16729899 -0.18339242 1.358 4280105087
-0.16117632 -0.1806915 1.3380001 4279710329
-0.15622257 -0.17920598 1.327 4279643758
-0.1521339 -0.1786658 1.3230001 4279775328
-0.14874065 -0.17893589 1.325 4280037223
-0.14489838 -0.1786658 1.3230001 4279905888
-0.14096026 -0.17826067 1.3200001 4279905888
-0.13724665 -0.17812562 1.319 4280168542
-0.13384248 -0.1783957 1.3210001 4280366174
-0.13032877 -0.17853075 1.322 4280103000
-0.1270013 -0.17893589 1.325 4280562526
-0.12412301 -0.18001626 1.3330001 4281022816
-0.12219513 -0.18258214 1.3520001 4283982713
-0.12068924 -0.18595828 1.3770001 4293193206
-0.12049013 -0.19163021 1.419 4293258484
-0.18921408 -0.19052848 1.4400001 4278190080
-0.18012983 -0.18523604 1.4000001 4278190080
-0.17390884 -0.18272212 1.381 4278190080
-0.16791497 -0.18034051 1.363 4280171140
-0.16141725 -0.17729734 1.34 4279907190
-0.15645801 -0.17584193 1.3290001 4279774826
-0.15236388 -0.17531267 1.325 4279905637
-0.14896518 -0.1755773 1.327 4279905372
-0.14522696 -0.17544498 1.3260001 4279970906
-0.14117384 -0.17491573 1.322 4280036956
-0.13724665 -0.17451881 1.319 4280103003
-0.13374116 -0.17465112 1.3200001 4280168795
-0.13032877 -0.17491573 1.322 4279971416
-0.12690546 -0.17518036 1.3240001 4279972184
-0.12393677 -0.17610654 1.3310001 4280891491
-0.12174324 -0.17822352 1.3470001 4281679714
-0.1204263 -0.18179594 1.3740001 4293851391
-0.1195561 -0.18629453 1.4080001 4293324277
-0.18604837 -0.18736826 1.4460001 4278190080
-0.17730895 -0.18244433 1.4080001 4278190080
-0.16890053 -0.17764999 1.3710001 4279841923
-0.16153771 -0.17376268 1.3410001 4280038011
-0.15634029 -0.17207818 1.3280001 4279775077
-0.1521339 -0.17143029 1.3230001 4279906402
-0.14874065 -0.17168944 1.325 4279642970
-0.14489838 -0.17143029 1.3230001 4279707991
-0.14085348 -0.17091198 1.319 4279971163
-0.13683045 -0.17039368 1.3150001 4279971417
-0.13313325 -0.1702641 1.314 4279906138
-0.12993445 -0.1707824 1.3180001 4280103772
-0.12661791 -0.17117113 1.3210001 4280103770
-0.12375054 -0.17220776 1.3290001 4280630116
-0.12156247 -0.17428099 1.345 4281549936
-0.11981278 -0.17713168 1.3670001 4291022564
-0.11836734 -0.18063027 1.3940001 4293127413
-0.11874648 -0.18723868 1.4450001 4293127413
-0.18096091 -0.18227257 1.437 4278190080
-0.1698861 -0.17491572 1.3790001 4279908481
-0.16201954 -0.17060307 1.345 4279842166
-0.15692893 -0.16908096 1.3330001 4279709284
-0.15270886 -0.16844675 1.3280001 4279577945
-0.14907743 -0.16844675 1.3280001 4279510879
-0.14522696 -0.16819306 1.3260001 4279642716
-0.14128062 -0.16781254 1.3230001 4279708763
-0.13724665 -0.16730517 1.319 4279642966
-0.13333587 -0.16692464 1.3160001 4279709272
-0.12993445 -0.16717832 1.3180001 4280037985
-0.1268096 -0.16781254 1.3230001 4279775845
-0.12412301 -0.16908096 1.3330001 4279972719
-0.12156247 -0.17060307 1.345 4280764039
-0.1192869 -0.17263255 1.3610001 4285430945
-0.11717856 -0.17504255 1.3800001 4293783807
-0.11652768 -0.17986257 1.4180001 4292996085
-0.16976291 -0.17102072 1.378 4279711102
-0.16201954 -0.16692516 1.345 4279579252
-0.15704665 -0.16555996 1.3340001 4278986588
-0.15305384 -0.16518764 1.3310001 4279184218
-0.14918968 -0.16493943 1.3290001 4279446363
-0.14533648 -0.16469121 1.327 4279577437
-0.141601 -0.1645671 1.3260001 4279709020
-0.13776693 -0.16431889 1.3240001 4279445597
-0.1339438 -0.16407067 1.322 4279380566
-0.13042736 -0.16419478 1.3230001 4279709801
-0.12709714 -0.1645671 1.3260001 4279842164
-0.12412301 -0.16543587 1.3330001 4280236932
-0.12129132 -0.16655283 1.342 4280434822
-0.11849808 -0.16779391 1.3520001 4284247457
-0.1160747 -0.16965553 1.3670001 4293587711
-0.11439107 -0.17275822 1.3920001 4293061620
-0.1695165 -0.16700982 1.376 4280104843
-0.16238092 -0.16361135 1.348 4279448196
-0.15751755 -0.16239762 1.3380001 4279250817
-0.15351379 -0.1620335 1.335 4279512958
-0.14952645 -0.16166939 1.332 4279578489
-0.14577457 -0.161548 1.3310001 4279710325
-0.14192136 -0.16130526 1.3290001 4280104820
-0.13818315 -0.16118389 1.3280001 4280104820
-0.13445039 -0.16106252 1.327 4279776120
-0.13092028 -0.16118389 1.3280001 4279710589
-0.12748055 -0.16142663 1.33 4279907457
-0.12430923 -0.1620335 1.335 4280038789
-0.12120095 -0.16276175 1.3410001 4280828291
-0.11823515 -0.16373274 1.3490001 4284774571
-0.11565015 -0.16531059 1.3620001 4290628833
-0.1135693 -0.16773805 1.3820001 4292996085
-0.17932381 -0.1689418 1.424 4278190080
-0.16877733 -0.16253529 1.3700001 4279842184
-0.16201954 -0.15956932 1.345 4279448707
-0.15739982 -0.15862021 1.337 4279447680
-0.15339881 -0.15826429 1.3340001 4279448959
-0.14963871 -0.15814567 1.3330001 4279579515
-0.14577457 -0.15790838 1.3310001 4279579767
-0.14181457 -0.15755247 1.3280001 4279974263
-0.13797502 -0.15731518 1.3260001 4280434555
-0.13424775 -0.15719654 1.325 4280303226
-0.1307231 -0.15731518 1.3260001 4280237695
-0.12728885 -0.15755247 1.3280001 4280039807
-0.12402988 -0.15802702 1.332 4279908732
-0.12092981 -0.15873885 1.3380001 4281946772
-0.11788455 -0.15956932 1.345 4284116391
-0.11522558 -0.16099299 1.3570001 4285298068
-0.11307623 -0.16324714 1.376 4293587709
-0.11272959 -0.1683486 1.419 4293126900
-0.1779386 -0.16377291 1.4130001 4278190080
-0.16853096 -0.15855721 1.368 4279973770
-0.16226047 -0.15612321 1.3470001 4279448194
-0.15763527 -0.15519598 1.3390001 4279382401
-0.1536288 -0.15484826 1.3360001 4279119992
-0.14975098 -0.15461646 1.3340001 4279382904
-0.14577457 -0.15426874 1.3310001 4280237695
-0.14170778 -0.15380512 1.327 4280369532
-0.13766287 -0.15334152 1.3230001 4280698238
-0.13404511 -0.15334152 1.3230001 4280632445
-0.13062453 -0.15357332 1.325 4280632445
-0.12728885 -0.15392104 1.3280001 4280829824
-0.12402988 -0.15438466 1.332 4280304507
-0.12092981 -0.15508007 1.3380001 4282540188
-0.11788455 -0.1558914 1.345 4283132836
-0.1153105 -0.15739816 1.358 4282471301
-0.11307623 -0.15948445 1.376 4293258744
-0.11177628 -0.16307747 1.4070001 4293061620
-0.17642744 -0.15855101 1.401 4278190080
-0.16779178 -0.15413739 1.3620001 4279711368
-0.16214001 -0.15232667 1.3460001 4279448194
-0.15775301 -0.15164764 1.34 4279316862
-0.15397376 -0.15153447 1.3390001 4279382906
-0.14997549 -0.15119496 1.3360001 4280566662
-0.14577457 -0.15062912 1.3310001 4280434816
-0.1414942 -0.14995009 1.325 4280632445
-0.13735071 -0.14938425 1.3200001 4280500859
-0.13374116 -0.14938425 1.3200001 4280500605
-0.13052595 -0.14983693 1.3240001 4280501370
-0.127193 -0.15017644 1.327 4280764288
-0.12393677 -0.15062912 1.3310001 4281027714
-0.12056828 -0.15096861 1.3340001 4282146711
-0.11762162 -0.15187398 1.342 4283198370
-0.11488594 -0.15311885 1.353 4281880967
-0.11266534 -0.15515591 1.3710001 4289837771
-0.1109024 -0.15798515 1.396 4292996338
-0.17592372 -0.15427822 1.3970001 4280106378
-0.16766858 -0.15030254 1.3610001 4279842954
-0.16238092 -0.14886688 1.348 4279448196
-0.15810618 -0.1483147 1.3430001 4279579262
-0.15431874 -0.14820427 1.342 4280040318
-0.15019999 -0.14776252 1.3380001 4280434563
-0.14610313 -0.14732078 1.3340001 4280566398
-0.14192136 -0.14676861 1.3290001 4280632445
-0.13776693 -0.14621644 1.3240001 4280106362
-0.13414644 -0.14621644 1.3240001 4279974776
-0.1308217 -0.14654773 1.327 4280172921
-0.12757641 -0.14698948 1.3310001 4280698495
-0.12412301 -0.14721036 1.3330001 4280765056
-0.12074905 -0.14754166 1.3360001 4280765568
-0.11762162 -0.14820427 1.342 4283133855
-0.11488594 -0.14941905 1.353 4284184740
-0.11233663 -0.15096515 1.3670001 4285562271
-0.11026686 -0.1532843 1.388 4293390591
-0.17504221 -0.1497042 1.3900001 4280106376
-0.1671758 -0.14615007 1.3570001 4279909256
-0.16214001 -0.14496537 1.3460001 4279514500
-0.15810618 -0.14464225 1.3430001 4279513469
-0.15443373 -0.14464225 1.3430001 4280237184
-0.15019999 -0.14410375 1.3380001 4280566400
-0.14621265 -0.14378065 1.335 4280500605
-0.14213493 -0.14334984 1.3310001 4280369534
-0.13807909 -0.14291905 1.327 4279514742
-0.13434906 -0.14281134 1.3260001 4279711867
-0.13092028 -0.14302675 1.3280001 4279909500
-0.12767226 -0.14345755 1.332 4280501634
-0.12421612 -0.14367294 1.3340001 4280699265
-0.12083942 -0.14399606 1.337 4280765056
-0.11770927 -0.14464225 1.3430001 4283398056
-0.11471611 -0.14550386 1.3510001 4283856291
-0.11200792 -0.14679629 1.363 4285036450
-0.10963131 -0.14862719 1.3800001 4293258751
-0.17453849 -0.14548336 1.386 4279974790
-0.16742219 -0.14264926 1.3590001 4279777672
-0.16250139 -0.14159961 1.3490001 4279448705
-0.15834163 -0.14117974 1.345 4279580285
-0.15443373 -0.14096981 1.3430001 4280237695
-0.15031224 -0.14054994 1.3390001 4280566911
-0.14632219 -0.14023505 1.3360001 4280763777
-0.14245529 -0.14002511 1.3340001 4280435073
-0.1384953 -0.13971022 1.3310001 4279646074
-0.13485567 -0.13971022 1.3310001 4279580281
-0.13141321 -0.13992015 1.3330001 4279646328
-0.12815151 -0.14034002 1.337 4280435073
-0.12449547 -0.14034002 1.337 4280567681
-0.12120095 -0.14075989 1.3410001 4280502399
-0.11797221 -0.14128472 1.3460001 4280370298
-0.11488594 -0.14201948 1.353 4283395491
-0.11200792 -0.14306915 1.363 4283460766
-0.10947243 -0.14464363 1.378 4289509325
-0.17340513 -0.14077325 1.3770001 4280237964
-0.16705261 -0.13862638 1.3560001 4279975051
-0.16250139 -0.13791075 1.3490001 4279711879
-0.15834163 -0.13750184 1.345 4279448446
-0.15431874 -0.13719513 1.342 4279711871
-0.15008774 -0.13668397 1.337 4280501383
-0.14621265 -0.13647951 1.335 4280632452
-0.14224172 -0.13617282 1.332 4280501120
-0.1384953 -0.13607058 1.3310001 4280106362
-0.13485567 -0.13607058 1.3310001 4279646327
-0.13141321 -0.13627505 1.3330001 4279974776
-0.12805566 -0.13658175 1.3360001 4280632706
-0.12449547 -0.13668397 1.337 4280763781
-0.12120095 -0.1370929 1.3410001 4280238714
-0.11797221 -0.13760407 1.3460001 4280892796
-0.11471611 -0.13811521 1.3510001 4282139013
-0.11176139 -0.1390353 1.36 4282536592
-0.10915466 -0.14046656 1.3740001 4283654282
-0.17290141 -0.13660984 1.373 4280238221
-0.16705261 -0.13491838 1.3560001 4279975051
-0.1627423 -0.13442089 1.3510001 4279646088
-0.1586948 -0.1341224 1.348 4279580293
-0.1547787 -0.13392341 1.3460001 4279514239
-0.15053678 -0.13342592 1.3410001 4280172422
-0.14665075 -0.13322693 1.3390001 4280567176
-0.14256209 -0.13282894 1.335 4280370048
-0.13870341 -0.13262995 1.3330001 4280500859
-0.13495699 -0.13253045 1.332 4280764031
-0.13161038 -0.13282894 1.335 4280566909
-0.12815151 -0.13302794 1.337 4280697984
-0.12458858 -0.13312742 1.3380001 4280960129
-0.12120095 -0.13342592 1.3410001 4280696444
-0.11788455 -0.13382392 1.345 4281089660
-0.11463121 -0.13432141 1.35 4282008697
-0.11176139 -0.13531637 1.36 4282667148
-0.10907521 -0.13660984 1.373 4283259024
-0.17252362 -0.13256507 1.3700001 4280304014
-0.16680622 -0.13101687 1.3540001 4279844235
-0.16262186 -0.13062982 1.35 4279515016
-0.15881254 -0.13053305 1.3490001 4279514502
-0.15500869 -0.13043629 1.348 4279448707
-0.15076129 -0.12995248 1.3430001 4279711618
-0.14676027 -0.12966219 1.34 4279909250
-0.14256209 -0.12917838 1.335 4280370051
-0.13870341 -0.12898485 1.3330001 4280632706
-0.13485567 -0.12879132 1.3310001 4280764288
-0.13141321 -0.12898485 1.3330001 4280699265
-0.1279598 -0.12917838 1.335 4280436095
-0.12458858 -0.12946865 1.3380001 4280434553
-0.12138171 -0.12995248 1.3430001 4281023099
-0.11797221 -0.13024276 1.3460001 4281613948
-0.11446138 -0.13043629 1.348 4281221499
-0.11143268 -0.13121039 1.3560001 4282075530
-0.10875744 -0.1324683 1.3690001 4283195547
-0.17264955 -0.12891282 1.3710001 4280304784
-0.16729899 -0.12769045 1.358 4279778442
-0.16286276 -0.12712628 1.3520001 4279449737
-0.15928344 -0.1272203 1.353 4279317638
-0.15523867 -0.12693822 1.35 4279382661
-0.15121031 -0.12665613 1.3470001 4279448194
-0.14730787 -0.12646808 1.345 4279580032
-0.14320281 -0.12609197 1.3410001 4279646076
-0.13911963 -0.12571585 1.337 4280238465
-0.13526094 -0.1255278 1.335 4280501634
-0.13151179 -0.12543377 1.3340001 4280765317
-0.1279598 -0.1255278 1.335 4281159048
-0.12458858 -0.12580988 1.3380001 4280303737
-0.12138171 -0.12628002 1.3430001 4280761208
-0.11805985 -0.12665613 1.3470001 4281810044
-0.11463121 -0.12693822 1.35 4281615488
-0.11151486 -0.12759642 1.3570001 4281746563
-0.10875744 -0.12872475 1.3690001 4282471574
-0.17239769 -0.12498122 1.3690001 4280172430
-0.16729899 -0.12397699 1.358 4280041360
-0.16286276 -0.12342922 1.3520001 4279515017
-0.15916571 -0.12342922 1.3520001 4279515017
-0.15523867 -0.12324664 1.35 4279383431
-0.15121031 -0.12297275 1.3470001 4279448454
-0.14719836 -0.12269887 1.3440001 4279317121
-0.14320281 -0.122425 1.3410001 4279514498
-0.13911963 -0.12205982 1.337 4279778692
-0.13515963 -0.12178593 1.3340001 4280897681
-0.13131462 -0.12160335 1.332 4281424791
-0.12776811 -0.12169465 1.3330001 4281228439
-0.12440235 -0.12196852 1.3360001 4281229718
-0.12111057 -0.1223337 1.34 4281556114
-0.11788455 -0.12279017 1.345 4281220472
-0.11446138 -0.12306405 1.348 4282270335
-0.11126832 -0.12361182 1.3540001 4281682310
-0.10836022 -0.12452474 1.3640001 4281291153
-0.16729899 -0.12026352 1.358 4279647116
-0.16322415 -0.11999784 1.355 4279580812
-0.15951888 -0.11999784 1.355 4279383690
-0.15546864 -0.11973216 1.3520001 4279186311
-0.15154709 -0.11955505 1.35 4279449224
-0.14752693 -0.11928937 1.3470001 4279449477
-0.14362997 -0.11911225 1.345 4279252609
-0.13943179 -0.11866946 1.34 4281226908
-0.13546358 -0.11840378 1.337 4281292954
-0.13151179 -0.1181381 1.3340001 4280899475
-0.1279598 -0.11822665 1.335 4280110212
-0.12449547 -0.11840378 1.337 4280835221
-0.12111057 -0.11866946 1.34 4281359250
-0.11770927 -0.11893513 1.3430001 4281025409
-0.11454629 -0.11946649 1.3490001 4282076031
-0.11143268 -0.1200864 1.3560001 4282274445
-0.10843968 -0.12088344 1.365 4281094286
-0.16705261 -0.1163784 1.3560001 4279778702
-0.16322415 -0.11629258 1.355 4279515019
-0.15940116 -0.11620677 1.3540001 4279318410
-0.15535367 -0.11594928 1.3510001 4279186824
-0.15121031 -0.11560598 1.3470001 4279383943
-0.14730787 -0.11543434 1.345 4279449988
-0.14352317 -0.11534851 1.3440001 4279253120
-0.13943179 -0.11500521 1.34 4281490079
-0.13536227 -0.11466192 1.3360001 4281359517
-0.13161038 -0.11457609 1.335 4279254650
-0.12815151 -0.11474774 1.337 4279386236
-0.12477481 -0.11500521 1.34 4279846787
-0.12111057 -0.11500521 1.34 4281819801
-0.11770927 -0.11526268 1.3430001 4280699265
-0.11446138 -0.11569181 1.348 4282209665
-0.11126832 -0.11620677 1.3540001 4281880967
-0.15951888 -0.11258732 1.355 4279383690
-0.15546864 -0.11233805 1.3520001 4279383944
-0.15143482 -0.11208878 1.3490001 4279449736
-0.14763644 -0.11200569 1.348 4279450245
-0.14395033 -0.11200569 1.348 4279253888
-0.13984799 -0.11167333 1.3440001 4281293724
-0.13576755 -0.11134097 1.34 4281491103
-0.13200471 -0.11125787 1.3390001 4279583615
-0.1285349 -0.11142406 1.3410001 4279451516
-0.12496104 -0.11150714 1.342 4280373647
-0.12129132 -0.11150714 1.342 4281360277
-0.11788455 -0.11175642 1.345 4280765058
-0.11454629 -0.11208878 1.3490001 4281947263
-0.15132257 -0.10831957 1.348 4279449736
-0.14763644 -0.10831957 1.348 4279450247
-0.14395033 -0.10831957 1.348 4279451013
-0.13995205 -0.10807851 1.345 4280570260
-0.13597018 -0.10783743 1.342 4281293981
-0.13200471 -0.10759637 1.3390001 4281228442
-0.12834319 -0.10759637 1.3390001 4281295002
-0.12468169 -0.10759637 1.3390001 4281491612
-0.12092981 -0.10751601 1.3380001 4281359766
-0.11762162 -0.10783743 1.342 4279909751
-0.11429156 -0.10815886 1.3460001 4281948795
-0.13239905 -0.10424534 1.3430001 4281293981
-0.1285349 -0.10409011 1.3410001 4281622687
-0.12477481 -0.10401248 1.34 4281425306
-0.12102018 -0.10393486 1.3390001 4281358222
-0.11770927 -0.10424534 1.3430001 4283528362
