# .PCD v0.7 - Point Cloud Data file format
VERSION 0.7
FIELDS x y z rgba
SIZE 4 4 4 4
TYPE F F F U
COUNT 1 1 1 1
WIDTH 1108
HEIGHT 1
VIEWPOINT 0 0 0 1 0 0 0
POINTS 1108
DATA ascii
0.058552053 0.032054037 1.319 4289340271
0.05965149 0.032029737 1.3180001 4289079152
0.060795315 0.032029737 1.3180001 4288030319
0.061892148 0.032005437 1.317 4286587762
0.063035108 0.032005437 1.317 4285079669
0.064178064 0.032005437 1.317 4284360065
0.065321021 0.032005437 1.317 4284691606
0.06651444 0.032029737 1.3180001 4285349543
0.067658268 0.032029737 1.3180001 4285415596
0.068854295 0.032054037 1.319 4285087657
0.07005205 0.032078341 1.3200001 4284562340
0.071251556 0.032102644 1.3210001 4284562343
0.072397985 0.032102644 1.3210001 4284562600
0.073544413 0.032102644 1.3210001 4284497064
0.074634299 0.032078341 1.3200001 4284365478
0.075779855 0.032078341 1.3200001 4284233892
0.076867141 0.032054037 1.319 4284036513
0.07795269 0.032029737 1.3180001 4283970720
0.079096518 0.032029737 1.3180001 4284168099
0.080179468 0.032005437 1.317 4284299685
0.081260674 0.031981133 1.3160001 4284365478
0.082402758 0.031981133 1.3160001 4284431273
0.08354485 0.031981133 1.3160001 4284299687
0.084622592 0.031956829 1.3150001 4284102054
0.08569859 0.031932529 1.314 4284036261
0.086838946 0.031932529 1.314 4284036261
0.087912343 0.031908229 1.3130001 4283904675
0.089051828 0.031908229 1.3130001 4284036261
0.090122625 0.031883925 1.312 4284102055
0.091261245 0.031883925 1.312 4284167847
0.092399858 0.031883925 1.312 4284167847
0.093538478 0.031883925 1.312 4283970470
0.094677098 0.031883925 1.312 4283773092
0.095815711 0.031883925 1.312 4283838884
0.096954331 0.031883925 1.312 4283904676
0.098167717 0.031908229 1.3130001 4284101543
0.099231571 0.031883925 1.312 4284101543
0.10037018 0.031883925 1.312 4284035752
0.1015088 0.031883925 1.312 4283969959
0.10264742 0.031883925 1.312 4283969958
0.10378604 0.031883925 1.312 4284035750
0.10500463 0.031908229 1.3130001 4284298923
0.10614412 0.031908229 1.3130001 4284627630
0.10736532 0.031932529 1.314 4284758702
0.10858824 0.031956829 1.3150001 4284890287
0.10972947 0.031956829 1.3150001 4284956082
0.11087069 0.031956829 1.3150001 4285021875
0.11218227 0.032005437 1.317 4285087410
0.11341128 0.032029737 1.3180001 4284955824
0.11472893 0.032078341 1.3200001 4285021102
0.11605006 0.032126945 1.322 4285217706
0.117286 0.032151245 1.3230001 4285741988
0.11843417 0.032151245 1.3230001 4286265241
0.11976311 0.032199848 1.325 4286327427
0.12091301 0.032199848 1.325 4287045748
0.12206291 0.032199848 1.325 4288487281
0.12321281 0.032199848 1.325 4289666672
0.12436271 0.032199848 1.325 4290190959
0.12551261 0.032199848 1.325 4290255982
0.1267581 0.032224152 1.3260001 4290189933
0.12790887 0.032224152 1.3260001 4289993326
0.12915698 0.032248452 1.327 4289863028
0.13030861 0.032248452 1.327 4289471102
0.13155931 0.032272752 1.3280001 4288488328
0.13281174 0.032297056 1.3290001 4287112336
0.13426752 0.03236996 1.332 4286197151
0.13552517 0.032394264 1.3330001 4285675435
0.13678454 0.032418568 1.3340001 4285216428
0.13835588 0.032515772 1.3380001 4285020077
0.13962133 0.032540075 1.3390001 4285546421
0.14099367 0.032588676 1.3410001 4286599366
0.14268748 0.032710187 1.3460001 4287257038
0.14406937 0.032758787 1.348 4287454161
0.14556247 0.032831695 1.3510001 4287520210
0.14867374 0.033001807 1.358 4287717587
0.15029368 0.033099014 1.3620001 4287849172
0.15180935 0.033171918 1.365 4287717844
0.15411478 0.033414938 1.3750001 4287258062
0.15564694 0.033487841 1.378 4286995145
0.1572981 0.033585049 1.3820001 4287061446
0.1608524 0.033828069 1.3920001 4287392187
0.16240969 0.033900972 1.3950001 4290551511
0.16397223 0.033973876 1.3980001 4293976055
-0.031572837 0.034096673 1.355 4285223349
-0.030374469 0.034071509 1.3540001 4284498862
-0.02911314 0.033970859 1.35 4284235693
-0.027941544 0.033970859 1.35 4284629427
-0.026750118 0.033945695 1.3490001 4284497840
-0.025579389 0.033945695 1.3490001 4284432047
-0.024408661 0.033945695 1.3490001 4284366254
-0.023237932 0.033945695 1.3490001 4283905707
-0.022067204 0.033945695 1.3490001 4283971500
-0.020896476 0.033945695 1.3490001 4284103084
-0.019725747 0.033945695 1.3490001 4284037289
-0.018555019 0.033945695 1.3490001 4283906475
-0.017384291 0.033945695 1.3490001 4283906475
-0.01622558 0.033970859 1.35 4283840682
-0.015053983 0.033970859 1.35 4283709096
-0.01389267 0.03399602 1.3510001 4283643303
-0.012720206 0.03399602 1.3510001 4283577510
-0.011547741 0.03399602 1.3510001 4283445924
-0.010382958 0.034021184 1.3520001 4283380131
-0.0092096254 0.034021184 1.3520001 4283248545
-0.0080422377 0.034046348 1.353 4283380131
-0.0068680374 0.034046348 1.353 4283839912
-0.0056938375 0.034046348 1.353 4284037291
-0.0045229783 0.034071509 1.3540001 4283970985
-0.0033479105 0.034071509 1.3540001 4283905192
-0.0021744473 0.034096673 1.355 4283905192
-0.00099851179 0.034096673 1.355 4284036778
0.00017755482 0.034121841 1.3560001 4284299950
0.0013543583 0.034121841 1.3560001 4284234157
0.0025311618 0.034121841 1.3560001 4284102571
0.0037106997 0.034147006 1.3570001 4284036778
0.0048847687 0.034121841 1.3560001 4284036262
0.0060660425 0.034147006 1.3570001 4284299434
0.0072437134 0.034147006 1.3570001 4284299434
0.0084213847 0.034147006 1.3570001 4284431020
0.0095990561 0.034147006 1.3570001 4284496813
0.010776727 0.034147006 1.3570001 4284365227
0.011954399 0.034147006 1.3570001 4284496812
0.013122393 0.034121841 1.3560001 4284496812
0.014288652 0.034096673 1.355 4284102054
0.015464587 0.034096673 1.355 4283904675
0.016628241 0.034071509 1.3540001 4283970468
0.017803309 0.034071509 1.3540001 4284299433
0.01896436 0.034046348 1.353 4284562605
0.020123675 0.034021184 1.3520001 4284628398
0.021297008 0.034021184 1.3520001 4284694191
0.02247034 0.034021184 1.3520001 4284694191
0.023626186 0.03399602 1.3510001 4284562605
0.024798648 0.03399602 1.3510001 4284431019
0.02595189 0.033970859 1.35 4284299687
0.027123487 0.033970859 1.35 4284299687
0.028274123 0.033945695 1.3490001 4284365480
0.029423023 0.03392053 1.348 4284431273
0.03057019 0.03389537 1.3470001 4284562859
0.031739183 0.03389537 1.3470001 4284562859
0.032834884 0.033819873 1.3440001 4284431273
0.034001272 0.033819873 1.3440001 4284168101
0.035141494 0.033794712 1.3430001 4284102565
0.036252949 0.033744384 1.3410001 4283970722
0.037416734 0.033744384 1.3410001 4283773857
0.038580518 0.033744384 1.3410001 4283773857
0.03968503 0.033694059 1.3390001 4283970207
0.040847082 0.033694059 1.3390001 4284036000
0.04200913 0.033694059 1.3390001 4284036261
0.043138936 0.033668894 1.3380001 4284233640
0.04430012 0.033668894 1.3380001 4284431273
0.045427326 0.03364373 1.337 4284497322
0.046587642 0.03364373 1.337 4284628394
0.04771224 0.033618566 1.3360001 4284562344
0.048835106 0.033593401 1.335 4284627368
0.049918789 0.033543076 1.3330001 4284823206
0.051037315 0.033517912 1.332 4285150628
0.052154109 0.033492748 1.3310001 4286002591
0.053189058 0.033417258 1.3280001 4286721168
0.05430064 0.033392094 1.327 4287439486
0.055285126 0.03329144 1.3230001 4288947576
0.056433294 0.03329144 1.3230001 4289667697
0.057537932 0.033266276 1.322 4289666411
0.058552053 0.033190787 1.319 4289797482
0.059696749 0.033190787 1.319 4289864043
0.060795315 0.033165623 1.3180001 4289733742
0.061892148 0.033140458 1.317 4289078383
0.063035108 0.033140458 1.317 4287897710
0.064178064 0.033140458 1.317 4286323054
0.065321021 0.033140458 1.317 4285274996
0.06651444 0.033165623 1.3180001 4285477775
0.067658268 0.033165623 1.3180001 4285612963
0.068906493 0.033215951 1.3200001 4285481897
0.07005205 0.033215951 1.3200001 4285219499
0.071251556 0.033241116 1.3210001 4284891306
0.072452791 0.033266276 1.322 4284760490
0.073600084 0.033266276 1.322 4284628650
0.074690841 0.033241116 1.3210001 4284497064
0.075837269 0.033241116 1.3210001 4284299685
0.076925419 0.033215951 1.3200001 4284168099
0.078011833 0.033190787 1.319 4284102306
0.079156533 0.033190787 1.319 4284299683
0.080240346 0.033165623 1.3180001 4284299683
0.081322424 0.033140458 1.317 4284365476
0.08246538 0.033140458 1.317 4284365991
0.083608337 0.033140458 1.317 4284299944
0.084686942 0.033115294 1.3160001 4284102566
0.085763812 0.033090129 1.3150001 4283970980
0.086905032 0.033090129 1.3150001 4284036005
0.087912343 0.033039805 1.3130001 4284035749
0.089051828 0.033039805 1.3130001 4284167847
0.090191312 0.033039805 1.3130001 4284299433
0.091330796 0.033039805 1.3130001 4284233640
0.092470288 0.033039805 1.3130001 4284102054
0.093609773 0.033039805 1.3130001 4284036261
0.094749257 0.033039805 1.3130001 4283904676
0.095888741 0.033039805 1.3130001 4283970469
0.097028226 0.033039805 1.3130001 4284102055
0.098167717 0.033039805 1.3130001 4284101799
0.09938284 0.033064969 1.314 4283970470
0.1005232 0.033064969 1.314 4284101543
0.10166354 0.033064969 1.314 4284167336
0.1028039 0.033064969 1.314 4284298665
0.10394426 0.033064969 1.314 4284364457
0.10516458 0.033090129 1.3150001 4284364458
0.1063058 0.033090129 1.3150001 4284562093
0.10752873 0.033115294 1.3160001 4284758702
0.1087534 0.033140458 1.317 4284824238
0.10989635 0.033140458 1.317 4284824751
0.11112362 0.033165623 1.3180001 4284890543
0.11243781 0.033215951 1.3200001 4284955822
0.11366942 0.033241116 1.3210001 4285021612
0.11490277 0.033266276 1.322 4285152428
0.11631342 0.033341765 1.325 4285415081
0.11746332 0.033341765 1.325 4285742496
0.11870272 0.03336693 1.3260001 4285739659
0.11994389 0.033392094 1.327 4285472620
0.12109552 0.033392094 1.327 4286849128
0.12224716 0.033392094 1.327 4288882289
0.1233988 0.033392094 1.327 4289995634
0.12445657 0.03336693 1.3260001 4290322288
0.12560734 0.03336693 1.3260001 4290321262
0.1268537 0.033392094 1.327 4290189933
0.12790887 0.03336693 1.3260001 4290059120
0.12915698 0.033392094 1.327 4290060408
0.130505 0.033442423 1.3290001 4289537154
0.13175744 0.033467587 1.33 4288357260
0.13291168 0.033467587 1.33 4286981012
0.13436833 0.033543076 1.3330001 4286065568
0.13562684 0.033568241 1.3340001 4285609131
0.13688709 0.033593401 1.335 4285150637
0.13835588 0.033668894 1.3380001 4284822444
0.1397256 0.033719223 1.34 4285020335
0.14099367 0.033744384 1.3410001 4286073022
0.14279351 0.03389537 1.3470001 4287059660
0.14417624 0.033945695 1.3490001 4287388624
0.14556247 0.03399602 1.3510001 4287454417
0.1488927 0.034222495 1.36 4287717587
0.15040402 0.034297984 1.363 4287849173
0.15192054 0.034373477 1.3660001 4287718101
0.15411478 0.034599949 1.3750001 4287389648
0.15553398 0.034650274 1.3770001 4287061194
0.15695666 0.034700602 1.3790001 4286864836
0.16131461 0.035128385 1.396 4286866868
0.1628754 0.035203874 1.399 4291012573
0.16444139 0.035279363 1.4020001 4294305018
-0.035281979 0.035446625 1.3620001 4294833406
-0.034049891 0.035394575 1.36 4291015400
-0.032797113 0.035316501 1.3570001 4285947573
-0.031502936 0.035186373 1.3520001 4284565166
-0.030329604 0.035186373 1.3520001 4284498610
-0.02911314 0.035134323 1.35 4284630196
-0.027920846 0.035108294 1.3490001 4284629426
-0.026750118 0.035108294 1.3490001 4284234668
-0.025579389 0.035108294 1.3490001 4284168877
-0.024408661 0.035108294 1.3490001 4284037291
-0.023237932 0.035108294 1.3490001 4283774372
-0.022067204 0.035108294 1.3490001 4283840164
-0.020896476 0.035108294 1.3490001 4283971496
-0.019725747 0.035108294 1.3490001 4283971496
-0.018568773 0.035134323 1.35 4283840680
-0.017410062 0.035160344 1.3510001 4283906473
-0.016249618 0.035186373 1.3520001 4283906475
-0.015076286 0.035186373 1.3520001 4283774889
-0.013913237 0.035212398 1.353 4283643303
-0.012748453 0.035238422 1.3540001 4283577510
-0.011573385 0.035238422 1.3540001 4283577510
-0.010405996 0.035264447 1.355 4283445924
-0.0092300605 0.035264447 1.355 4283379361
-0.0080600698 0.035290476 1.3560001 4283379361
-0.0068883421 0.035316501 1.3570001 4283773606
-0.0057106707 0.035316501 1.3570001 4283970985
-0.0045296592 0.035290476 1.3560001 4283970985
-0.0033553282 0.035316501 1.3570001 4283905192
-0.0021792615 0.035342526 1.358 4284036778
-0.0010007225 0.035342526 1.358 4284168364
0.00017794764 0.035368551 1.3590001 4284431536
0.0013573547 0.035368551 1.3590001 4284365743
0.0025367616 0.035368551 1.3590001 4284365229
0.0037161687 0.035368551 1.3590001 4284233643
0.0048955758 0.035368551 1.3590001 4284167848
0.006079453 0.035394575 1.36 4284365227
0.0072597279 0.035394575 1.36 4284431020
0.0084462082 0.0354206 1.3610001 4284496813
0.0096273506 0.0354206 1.3610001 4284496813
0.010808494 0.0354206 1.3610001 4284496813
0.011980827 0.035394575 1.36 4284496812
0.013151425 0.035368551 1.3590001 4284431019
0.014330832 0.035368551 1.3590001 4284233640
0.01551024 0.035368551 1.3590001 4283970468
0.016665084 0.035316501 1.3570001 4284102054
0.017842755 0.035316501 1.3570001 4284299433
0.019006411 0.035290476 1.3560001 4284496812
0.020168331 0.035264447 1.355 4284628398
0.021328513 0.035238422 1.3540001 4284759984
0.022503579 0.035238422 1.3540001 4284694191
0.023661161 0.035212398 1.353 4284496812
0.024835359 0.035212398 1.353 4284365226
0.025990337 0.035186373 1.3520001 4284365480
0.027143577 0.035160344 1.3510001 4284431273
0.028316041 0.035160344 1.3510001 4284431273
0.029444851 0.035108294 1.3490001 4284497066
0.030615579 0.035108294 1.3490001 4284562859
0.031762745 0.035082269 1.348 4284628652
0.032883745 0.03503022 1.3460001 4284562859
0.034051869 0.03503022 1.3460001 4284431273
0.035193831 0.035004195 1.345 4284299687
0.036307015 0.034952145 1.3430001 4284233894
0.037472539 0.034952145 1.3430001 4283839650
0.038638059 0.034952145 1.3430001 4283708064
0.039803579 0.034952145 1.3430001 4284036257
0.040908091 0.034900092 1.3410001 4284036000
0.042040505 0.034874067 1.34 4283904675
0.043171182 0.034848042 1.3390001 4284233640
0.044333231 0.034848042 1.3390001 4284628652
0.045495279 0.034848042 1.3390001 4284760238
0.046622485 0.034822017 1.3380001 4284562858
0.047747955 0.034795992 1.337 4284496551
0.048871689 0.034769967 1.3360001 4284496040
0.04995624 0.034717917 1.3340001 4284823463
0.051075634 0.034691889 1.3330001 4285216679
0.052232474 0.034691889 1.3330001 4285805728
0.053309213 0.034639835 1.3310001 4286392719
0.054423399 0.034613814 1.33 4287177086
0.055452276 0.03453574 1.327 4288882297
0.056561258 0.034509711 1.3260001 4289668722
0.057668503 0.034483686 1.325 4289797995
0.058596443 0.034353558 1.3200001 4289797223
0.059742004 0.034353558 1.3200001 4289928553
0.060841441 0.034327533 1.319 4289797994
0.061939143 0.034301508 1.3180001 4289405550
0.063082963 0.034301508 1.3180001 4288619633
0.064226791 0.034301508 1.3180001 4287373685
0.065370619 0.034301508 1.3180001 4286194300
0.06651444 0.034301508 1.3180001 4284818048
0.067709602 0.034327533 1.319 4284624783
0.068906493 0.034353558 1.3200001 4285152671
0.070105128 0.034379587 1.3210001 4285285545
0.071251556 0.034379587 1.3210001 4285220525
0.072452791 0.034405608 1.322 4284957611
0.073600084 0.034405608 1.322 4284826027
0.074747384 0.034405608 1.322 4284694442
0.075894676 0.034405608 1.322 4284431270
0.076983698 0.034379587 1.3210001 4284233891
0.078070976 0.034353558 1.3200001 4284365476
0.07921654 0.034353558 1.3200001 4284431269
0.080301225 0.034327533 1.319 4284299685
0.081384167 0.034301508 1.3180001 4284365479
0.082527995 0.034301508 1.3180001 4284365995
0.083671823 0.034301508 1.3180001 4284234411
0.084686942 0.034249458 1.3160001 4284168361
0.085763812 0.03422343 1.3150001 4284102565
0.086905032 0.03422343 1.3150001 4284102052
0.087979302 0.034197409 1.314 4284101794
0.089119658 0.034197409 1.314 4284102053
0.090260006 0.034197409 1.314 4284233640
0.091400363 0.034197409 1.314 4284233640
0.092540719 0.034197409 1.314 4284167847
0.093681067 0.034197409 1.314 4284167847
0.094749257 0.03417138 1.3130001 4284167847
0.095888741 0.03417138 1.3130001 4284102055
0.097028226 0.03417138 1.3130001 4284233641
0.098242484 0.034197409 1.314 4284102055
0.09938284 0.034197409 1.314 4284036262
0.10059969 0.03422343 1.3150001 4284036006
0.10174091 0.03422343 1.3150001 4284101542
0.10288213 0.03422343 1.3150001 4284232873
0.10402336 0.03422343 1.3150001 4284298409
0.10516458 0.03422343 1.3150001 4284298410
0.10638664 0.034249458 1.3160001 4284429995
0.10752873 0.034249458 1.3160001 4284561327
0.10883597 0.034301508 1.3180001 4284627119
0.1099798 0.034301508 1.3180001 4284627374
0.11112362 0.034301508 1.3180001 4284759214
0.11252299 0.034379587 1.3210001 4284955821
0.11375547 0.034405608 1.322 4285087404
0.11498968 0.034431636 1.3230001 4285284525
0.11640119 0.034509711 1.3260001 4285481385
0.11755196 0.034509711 1.3260001 4285545628
0.11879225 0.03453574 1.327 4284950653
0.11994389 0.03453574 1.327 4284880993
0.12109552 0.03453574 1.327 4286783331
0.12233929 0.034561761 1.3280001 4288947566
0.1233988 0.03453574 1.327 4289930096
0.12455043 0.03453574 1.327 4290256495
0.12560734 0.034509711 1.3260001 4290321518
0.1267581 0.034509711 1.3260001 4290321519
0.12800534 0.03453574 1.327 4290124913
0.12915698 0.03453574 1.327 4290060409
0.13060321 0.034613814 1.33 4289471108
0.13175744 0.034613814 1.33 4288225935
0.13301161 0.034639835 1.3310001 4286850199
0.13446912 0.034717917 1.3340001 4285934497
0.13562684 0.034717917 1.3340001 4285412010
0.13688709 0.034743939 1.335 4285019052
0.13845928 0.034848042 1.3390001 4284822445
0.1397256 0.034874067 1.34 4284954287
0.14099367 0.034900092 1.3410001 4285809594
0.14289951 0.035082269 1.348 4286796488
0.14428313 0.035134323 1.35 4287257038
0.14567021 0.035186373 1.3520001 4287388624
0.14900219 0.0354206 1.3610001 4287651795
0.15051438 0.035498675 1.3640001 4287717587
0.15203176 0.035576753 1.3670001 4287849429
0.15400271 0.035758931 1.3740001 4287587026
0.15542103 0.035810985 1.376 4287192781
0.15684283 0.035863034 1.378 4286930886
0.16143017 0.036357515 1.3970001 4286472621
0.16299182 0.036435593 1.4000001 4290355409
0.16455868 0.036513671 1.4030001 4294042614
-0.035230167 0.03656666 1.36 4291869693
-0.033999819 0.036512882 1.358 4286934732
-0.032797113 0.036485996 1.3570001 4285091508
-0.031502936 0.036351562 1.3520001 4284827826
-0.030307172 0.036324672 1.3510001 4284696240
-0.02911314 0.036297787 1.35 4284564656
-0.027920846 0.036270898 1.3490001 4284366256
-0.026750118 0.036270898 1.3490001 4284300465
-0.025579389 0.036270898 1.3490001 4283971500
-0.024408661 0.036270898 1.3490001 4283642535
-0.023237932 0.036270898 1.3490001 4283774121
-0.022067204 0.036270898 1.3490001 4283774119
-0.020896476 0.036270898 1.3490001 4283709096
-0.019740369 0.036297787 1.35 4283709094
-0.018582527 0.036324672 1.3510001 4283774887
-0.017410062 0.036324672 1.3510001 4283906473
-0.016249618 0.036351562 1.3520001 4283906473
-0.015087438 0.036378447 1.353 4283774887
-0.01392352 0.036405332 1.3540001 4283643301
-0.012748453 0.036405332 1.3540001 4283511715
-0.011573385 0.036405332 1.3540001 4283774119
-0.010413677 0.036459111 1.3560001 4283708326
-0.0092368731 0.036459111 1.3560001 4283510947
-0.0080600698 0.036459111 1.3560001 4283445154
-0.0068883421 0.036485996 1.3570001 4283707813
-0.0057106707 0.036485996 1.3570001 4283970985
-0.0045329994 0.036485996 1.3570001 4284102571
-0.0033578009 0.036512882 1.358 4284102571
-0.0021792615 0.036512882 1.358 4284168618
-0.0010014594 0.036539771 1.3590001 4284431790
0.00017807858 0.03656666 1.36 4284759985
0.0013573547 0.036539771 1.3590001 4284694192
0.0025367616 0.036539771 1.3590001 4284562606
0.0037189033 0.03656666 1.36 4284431020
0.0048991782 0.03656666 1.36 4284365227
0.006079453 0.03656666 1.36 4284431020
0.0072650653 0.036593545 1.3610001 4284562606
0.0084462082 0.036593545 1.3610001 4284496813
0.0096273506 0.036593545 1.3610001 4284496813
0.010808494 0.036593545 1.3610001 4284694192
0.011989636 0.036593545 1.3610001 4284628398
0.013161102 0.03656666 1.36 4284496812
0.014341377 0.03656666 1.36 4284431019
0.01551024 0.036539771 1.3590001 4284102054
0.016677367 0.036512882 1.358 4284102054
0.017842755 0.036485996 1.3570001 4284365226
0.019020427 0.036485996 1.3570001 4284628398
0.020168331 0.036432222 1.355 4284759984
0.021344265 0.036432222 1.355 4284694191
0.022520201 0.036432222 1.355 4284628398
0.023661161 0.036378447 1.353 4284628398
0.024835359 0.036378447 1.353 4284628398
0.025971113 0.036324672 1.3510001 4284497066
0.027143577 0.036324672 1.3510001 4284562859
0.028316041 0.036324672 1.3510001 4284497066
0.029444851 0.036270898 1.3490001 4284431273
0.030615579 0.036270898 1.3490001 4284497066
0.031762745 0.036244009 1.348 4284562859
0.032883745 0.036190238 1.3460001 4284628652
0.034051869 0.036190238 1.3460001 4284562859
0.035193831 0.036163349 1.345 4284299687
0.036334053 0.03613646 1.3440001 4284233894
0.037472539 0.036109574 1.3430001 4283905443
0.038638059 0.036109574 1.3430001 4283839650
0.039803579 0.036109574 1.3430001 4284167843
0.040938597 0.036082689 1.342 4284102306
0.042040505 0.036028914 1.34 4283970468
0.043171182 0.036002025 1.3390001 4284299433
0.044333231 0.036002025 1.3390001 4284628653
0.045495279 0.036002025 1.3390001 4284826031
0.046587642 0.035948254 1.337 4284562857
0.047747955 0.035948254 1.337 4284497064
0.048871689 0.035921365 1.3360001 4284627626
0.04995624 0.03586759 1.3340001 4284692390
0.051075634 0.035840701 1.3330001 4285085606
0.052232474 0.035840701 1.3330001 4285477533
0.053269163 0.035760041 1.33 4285867662
0.054423399 0.035760041 1.33 4286717569
0.055452276 0.035679381 1.327 4288684668
0.056561258 0.035652492 1.3260001 4289798261
0.057712022 0.035652492 1.3260001 4289928302
0.058774013 0.035598718 1.3240001 4290058603
0.059877783 0.035571828 1.3230001 4290058347
0.061025947 0.035571828 1.3230001 4289992809
0.062080126 0.035518058 1.3210001 4289861733
0.063178688 0.035491168 1.3200001 4289666406
0.064324245 0.035491168 1.3200001 4289404779
0.06542021 0.035464279 1.319 4288487790
0.066564903 0.035464279 1.319 4286716521
0.067760929 0.035491168 1.3200001 4285472367
0.0689587 0.035518058 1.3210001 4285280134
0.070105128 0.035518058 1.3210001 4285349786
0.071251556 0.035518058 1.3210001 4285680810
0.072452791 0.035544943 1.322 4285418412
0.073600084 0.035544943 1.322 4285155243
0.074803919 0.035571828 1.3230001 4284892074
0.075952083 0.035571828 1.3230001 4284628903
0.077100247 0.035571828 1.3230001 4284365476
0.078189269 0.035544943 1.322 4284365477
0.079336569 0.035544943 1.322 4284497065
0.080422983 0.035518058 1.3210001 4284365736
0.08150766 0.035491168 1.3200001 4284365993
0.082653224 0.035491168 1.3200001 4284431530
0.083608337 0.035410509 1.317 4284431274
0.084751293 0.035410509 1.317 4284299687
0.085829027 0.035383619 1.3160001 4284233894
0.086971119 0.035383619 1.3160001 4284167846
0.088046253 0.03535673 1.3150001 4284036261
0.089187473 0.03535673 1.3150001 4284102054
0.090328701 0.03535673 1.3150001 4284233640
0.091469921 0.03535673 1.3150001 4284299433
0.092540719 0.035329845 1.314 4284233640
0.093681067 0.035329845 1.314 4284233640
0.094821423 0.035329845 1.314 4284167847
0.095961779 0.035329845 1.314 4284102055
0.097102128 0.035329845 1.314 4284102055
0.098317251 0.03535673 1.3150001 4284102055
0.099458471 0.03535673 1.3150001 4284167848
0.10067619 0.035383619 1.3160001 4284101542
0.10181828 0.035383619 1.3160001 4283969956
0.10288213 0.03535673 1.3150001 4283969701
0.10402336 0.03535673 1.3150001 4283969445
0.10524455 0.035383619 1.3160001 4284101031
0.10646749 0.035410509 1.317 4284101031
0.10761044 0.035410509 1.317 4284232617
0.10891855 0.035464279 1.319 4284364459
0.11006324 0.035464279 1.319 4284429994
0.11120793 0.035464279 1.319 4284561322
0.11260817 0.035544943 1.322 4284955563
0.11384151 0.035571828 1.3230001 4285350059
0.11507659 0.035598718 1.3240001 4285481896
0.11640119 0.035652492 1.3260001 4285152665
0.11764061 0.035679381 1.327 4285611918
0.11879225 0.035679381 1.327 4286595720
0.12003428 0.035706263 1.3280001 4286196075
0.12118679 0.035706263 1.3280001 4286914144
0.12233929 0.035706263 1.3280001 4288684137
0.1233988 0.035679381 1.327 4289731948
0.12445657 0.035652492 1.3260001 4290058860
0.12560734 0.035652492 1.3260001 4290189677
0.1268537 0.035679381 1.327 4290189935
0.12800534 0.035679381 1.327 4289928049
0.12925431 0.035706263 1.3280001 4289798010
0.13060321 0.035760041 1.33 4289012099
0.1318565 0.035786927 1.3310001 4287701646
0.13311155 0.035813816 1.332 4286588825
0.13446912 0.03586759 1.3340001 4285804195
0.13572851 0.035894476 1.335 4285149865
0.13698962 0.035921365 1.3360001 4284887723
0.13845928 0.036002025 1.3390001 4284822445
0.13982987 0.0360558 1.3410001 4285019824
0.14109881 0.036082689 1.342 4285678007
0.14300552 0.036270898 1.3490001 4286533316
0.14439 0.036324672 1.3510001 4287059659
0.14588571 0.036405332 1.3540001 4287388368
0.14922115 0.03664732 1.363 4287454416
0.15073507 0.036727984 1.3660001 4287586001
0.15225419 0.036808643 1.3690001 4287783893
0.15456313 0.037077516 1.3790001 4287718612
0.15609874 0.037158176 1.3820001 4287324623
0.15763956 0.03723884 1.3850001 4286931143
0.16177684 0.037642147 1.4000001 4286604207
0.16322467 0.037695922 1.4020001 4289895372
0.16479327 0.037776586 1.4050001 4293845492
-0.035204265 0.037710991 1.3590001 4287658439
-0.033974782 0.037655495 1.3570001 4285420979
-0.03277294 0.037627745 1.3560001 4285157045
-0.031502936 0.037516747 1.3520001 4284762035
-0.030307172 0.037488997 1.3510001 4284761267
-0.02911314 0.037461251 1.35 4284300972
-0.027920846 0.037433501 1.3490001 4284103084
-0.026750118 0.037433501 1.3490001 4284168877
-0.025579389 0.037433501 1.3490001 4283839912
-0.024408661 0.037433501 1.3490001 4283576738
-0.023237932 0.037433501 1.3490001 4283774117
-0.022067204 0.037433501 1.3490001 4283774372
-0.020911966 0.037461251 1.35 4283511715
-0.019740369 0.037461251 1.35 4283511715
-0.018582527 0.037488997 1.3510001 4283643301
-0.01742295 0.037516747 1.3520001 4283709094
-0.016261637 0.037544496 1.353 4283774887
-0.015087438 0.037544496 1.353 4283709094
-0.013933803 0.037599996 1.355 4283708324
-0.012757868 0.037599996 1.355 4283642531
-0.011581932 0.037599996 1.355 4283708324
-0.010413677 0.037627745 1.3560001 4283708324
-0.0092368731 0.037627745 1.3560001 4283708067
-0.0080660135 0.037655495 1.3570001 4283708067
-0.0068883421 0.037655495 1.3570001 4283839653
-0.0057106707 0.037655495 1.3570001 4284168618
-0.0045329994 0.037655495 1.3570001 4284496813
-0.0033578009 0.037683241 1.358 4284496813
-0.0021808664 0.037710991 1.3590001 4284496813
-0.0010007225 0.037683241 1.358 4284694192
0.00017794764 0.037710991 1.3590001 4284891571
0.0013573547 0.037710991 1.3590001 4284825778
0.0025386284 0.03773874 1.36 4284694192
0.0037189033 0.03773874 1.36 4284628399
0.0049027805 0.03776649 1.3610001 4284562606
0.0060839229 0.03776649 1.3610001 4284562606
0.0072704037 0.03779424 1.3620001 4284628399
0.0084524145 0.03779424 1.3620001 4284562606
0.0096344249 0.03779424 1.3620001 4284431020
0.010816435 0.03779424 1.3620001 4284562606
0.011998446 0.03779424 1.3620001 4284628399
0.013170779 0.03776649 1.3610001 4284628399
0.014341377 0.03773874 1.36 4284628398
0.015521652 0.03773874 1.36 4284431019
0.016689647 0.037710991 1.3590001 4284233640
0.017855905 0.037683241 1.358 4284431019
0.019020427 0.037655495 1.3570001 4284694191
0.020183213 0.037627745 1.3560001 4284825777
0.021344265 0.037599996 1.355 4284694191
0.022520201 0.037599996 1.355 4284628398
0.023678647 0.037572246 1.3540001 4284759984
0.024835359 0.037544496 1.353 4284825777
0.025971113 0.037488997 1.3510001 4284628652
0.027143577 0.037488997 1.3510001 4284628652
0.028316041 0.037488997 1.3510001 4284562859
0.029444851 0.037433501 1.3490001 4284431273
0.030615579 0.037433501 1.3490001 4284431273
0.031762745 0.037405752 1.348 4284562859
0.032883745 0.037350252 1.3460001 4284431787
0.034051869 0.037350252 1.3460001 4284431787
0.035193831 0.037322503 1.345 4284365480
0.036334053 0.037294753 1.3440001 4284102308
0.037500441 0.037294753 1.3440001 4283971236
0.038666829 0.037294753 1.3440001 4284037029
0.039773945 0.037239257 1.342 4284102308
0.040908091 0.037211508 1.3410001 4284036515
0.042040505 0.037183762 1.34 4284102053
0.043171182 0.037156008 1.3390001 4284233640
0.044333231 0.037156008 1.3390001 4284497066
0.045495279 0.037156008 1.3390001 4284628652
0.046587642 0.037100513 1.337 4284562857
0.04771224 0.037072763 1.3360001 4284628650
0.048871689 0.037072763 1.3360001 4284693932
0.04995624 0.037017267 1.3340001 4284627111
0.051075634 0.036989518 1.3330001 4284757411
0.052193288 0.036961764 1.332 4285280154
0.053269163 0.036906268 1.33 4285736077
0.054423399 0.036906268 1.33 4286783106
0.055452276 0.036823023 1.327 4288553085
0.056603912 0.036823023 1.327 4289470069
0.057712022 0.036795273 1.3260001 4289731438
0.058774013 0.036739774 1.3240001 4289993579
0.059923045 0.036739774 1.3240001 4290189930
0.061025947 0.036712024 1.3230001 4290058087
0.062080126 0.036656529 1.3210001 4289860963
0.063226551 0.036656529 1.3210001 4289796710
0.064324245 0.036628779 1.3200001 4289601130
0.06542021 0.036601029 1.319 4288881263
0.066615373 0.036628779 1.3200001 4287964533
0.067760929 0.036628779 1.3200001 4286654073
0.068906493 0.036628779 1.3200001 4285213054
0.070105128 0.036656529 1.3210001 4284690828
0.071251556 0.036656529 1.3210001 4284956317
0.072452791 0.036684275 1.322 4285154985
0.073600084 0.036684275 1.322 4285155246
0.074747384 0.036684275 1.322 4285089198
0.075894676 0.036684275 1.322 4284760490
0.077041976 0.036684275 1.322 4284628648
0.078130126 0.036656529 1.3210001 4284562858
0.07921654 0.036628779 1.3200001 4284694445
0.080362104 0.036628779 1.3200001 4284431787
0.08150766 0.036628779 1.3200001 4284431787
0.082653224 0.036628779 1.3200001 4284497323
0.083798781 0.036628779 1.3200001 4284497066
0.084879994 0.036601029 1.319 4284431015
0.086024687 0.036601029 1.319 4284364967
0.087169379 0.036601029 1.319 4284167847
0.08824712 0.03657328 1.3180001 4284102055
0.089390948 0.03657328 1.3180001 4284299433
0.090534769 0.03657328 1.3180001 4284365226
0.091609038 0.03654553 1.317 4284299433
0.092751995 0.03654553 1.317 4284233640
0.093894951 0.03654553 1.317 4284167847
0.095037915 0.03654553 1.317 4284167847
0.096107833 0.03651778 1.3160001 4284102054
0.097249925 0.03651778 1.3160001 4284036261
0.09839201 0.03651778 1.3160001 4284036261
0.099534102 0.03651778 1.3160001 4284167848
0.1007527 0.03654553 1.317 4284036006
0.10189565 0.03654553 1.317 4283838370
0.10303862 0.03654553 1.317 4283706786
0.10418157 0.03654553 1.317 4283706786
0.1054045 0.03657328 1.3180001 4283837859
0.10654832 0.03657328 1.3180001 4283772323
0.10777386 0.036601029 1.319 4283969703
0.10900112 0.036628779 1.3200001 4284101545
0.11023013 0.036656529 1.3210001 4284298409
0.11137656 0.036656529 1.3210001 4284495530
0.11269335 0.036712024 1.3230001 4284955818
0.11392757 0.036739774 1.3240001 4285350569
0.11516352 0.03676752 1.325 4285350816
0.11648898 0.036823023 1.327 4285021581
0.11764061 0.036823023 1.327 4287652002
0.11879225 0.036823023 1.327 4290149045
0.11994389 0.036823023 1.327 4289090705
0.12109552 0.036823023 1.327 4287768683
0.12224716 0.036823023 1.327 4288748904
0.1233988 0.036823023 1.327 4289731435
0.12455043 0.036823023 1.327 4290058346
0.12570207 0.036823023 1.327 4290058091
0.1269493 0.036850769 1.3280001 4290058094
0.12819825 0.036878519 1.3290001 4289862259
0.12944897 0.036906268 1.33 4289732477
0.13089781 0.036989518 1.3330001 4288815492
0.13205464 0.036989518 1.3330001 4287242638
0.13331141 0.037017267 1.3340001 4286327195
0.13477153 0.037100513 1.337 4285739430
0.13593183 0.037100513 1.337 4285216170
0.13719469 0.037128258 1.3380001 4285085357
0.13866609 0.037211508 1.3410001 4284954287
0.13993415 0.037239257 1.342 4285019824
0.14120394 0.037267007 1.3430001 4285414581
0.14300552 0.037433501 1.3490001 4286204095
0.14449687 0.037516747 1.3520001 4286796487
0.14588571 0.037572246 1.3540001 4287191245
0.14933063 0.037849735 1.3640001 4287388623
0.15084542 0.037932981 1.3670001 4287454671
0.15225419 0.037988484 1.3690001 4287783892
0.15445103 0.038238224 1.378 4287718868
0.15598579 0.038321469 1.381 4287325135
0.15741193 0.038376972 1.383 4287062985
0.16177684 0.038848702 1.4000001 4286669998
0.16334109 0.038931951 1.4030001 4289829577
0.16491055 0.0390152 1.406 4293779954
-0.038970549 0.039111096 1.3670001 4294898943
-0.037701279 0.039025266 1.3640001 4292988670
-0.036437213 0.038939431 1.3610001 4288250839
-0.035100643 0.038767766 1.355 4285749689
-0.033899672 0.038739156 1.3540001 4285288887
-0.032700434 0.038710546 1.353 4285025205
-0.031479634 0.038653322 1.3510001 4284893366
-0.030307172 0.038653322 1.3510001 4284366510
-0.02911314 0.038624715 1.35 4284168877
-0.027941544 0.038624715 1.35 4283905705
-0.026750118 0.038596101 1.3490001 4283839912
-0.025579389 0.038596101 1.3490001 4283839912
-0.024408661 0.038596101 1.3490001 4283839911
-0.023255158 0.038624715 1.35 4283642531
-0.022083562 0.038624715 1.35 4283642531
-0.020927455 0.038653322 1.3510001 4283510945
-0.019769615 0.038681936 1.3520001 4283510945
-0.018610038 0.038710546 1.353 4283576738
-0.017448725 0.038739156 1.3540001 4283642531
-0.016285675 0.038767766 1.355 4283708324
-0.01512089 0.03879638 1.3560001 4283774117
-0.013964653 0.038853601 1.358 4283774117
-0.012786115 0.038853601 1.358 4283642531
-0.011607575 0.038853601 1.358 4283642274
-0.010436716 0.038882211 1.3590001 4283773860
-0.0092573082 0.038882211 1.3590001 4283905446
-0.0080779009 0.038882211 1.3590001 4283971239
-0.0069035706 0.038910825 1.36 4284168105
-0.0057232957 0.038910825 1.36 4284497070
-0.0045430209 0.038910825 1.36 4284759985
-0.003362746 0.038910825 1.36 4284694192
-0.002184076 0.038939431 1.3610001 4284694192
-0.0010029332 0.038939431 1.3610001 4284825778
0.00017834046 0.038968045 1.3620001 4284891571
0.0013613498 0.038996655 1.363 4284957364
0.0025442282 0.038996655 1.363 4284825778
0.0037298412 0.039025266 1.3640001 4284759985
0.0049135876 0.039025266 1.3640001 4284759985
0.0061018039 0.039053876 1.365 4284694192
0.0072864178 0.039053876 1.365 4284628399
0.008477238 0.03908249 1.3660001 4284562606
0.0096627204 0.03908249 1.3660001 4284496813
0.010840259 0.039053876 1.365 4284431020
0.012024874 0.039053876 1.365 4284628398
0.013199811 0.039025266 1.3640001 4284891570
0.014383557 0.039025266 1.3640001 4284825777
0.015555891 0.038996655 1.363 4284825777
0.016714208 0.038939431 1.3610001 4284431019
0.01789535 0.038939431 1.3610001 4284431019
0.019062476 0.038910825 1.36 4284694191
0.020212984 0.038853601 1.358 4284891570
0.021391522 0.038853601 1.358 4284825777
0.02255344 0.03882499 1.3570001 4284825777
0.023696138 0.038767766 1.355 4284825777
0.024872072 0.038767766 1.355 4284694191
0.025990337 0.038681936 1.3520001 4284694445
0.027163669 0.038681936 1.3520001 4284628652
0.028337 0.038681936 1.3520001 4284562859
0.029466679 0.038624715 1.35 4284497066
0.030638276 0.038624715 1.35 4284431787
0.031786308 0.038596101 1.3490001 4284563373
0.032908175 0.038538881 1.3470001 4284563373
0.034077168 0.038538881 1.3470001 4284497580
0.03524616 0.038538881 1.3470001 4284497066
0.036388118 0.03851027 1.3460001 4284168101
0.037528343 0.03848166 1.345 4284037029
0.038666829 0.038453046 1.3440001 4284037029
0.039833218 0.038453046 1.3440001 4284036514
0.0409691 0.03842444 1.3430001 4283970720
0.042103253 0.038395826 1.342 4283905445
0.043203425 0.038338605 1.34 4284102824
0.044366341 0.038338605 1.34 4284431530
0.045495279 0.038309995 1.3390001 4284562859
0.046587642 0.038252775 1.337 4284694443
0.047747955 0.038252775 1.337 4284694443
0.048871689 0.038224161 1.3360001 4284694445
0.04995624 0.03816694 1.3340001 4284562087
0.051075634 0.03813833 1.3330001 4284626083
0.052232474 0.03813833 1.3330001 4285083549
0.053309213 0.038081106 1.3310001 4285540498
0.054464322 0.038081106 1.3310001 4286587270
0.055577639 0.038052496 1.33 4288421502
0.056603912 0.037966665 1.327 4289469557
0.057755552 0.037966665 1.327 4289927792
0.058818404 0.037909441 1.325 4290124654
0.059923045 0.03788083 1.3240001 4290189677
0.061072078 0.03788083 1.3240001 4290189674
0.062127117 0.037823606 1.322 4290254697
0.063226551 0.037795 1.3210001 4290058086
0.064372987 0.037795 1.3210001 4290058858
0.065469809 0.037766386 1.3200001 4289534825
0.066615373 0.037766386 1.3200001 4289340017
0.067760929 0.037766386 1.3200001 4288686196
0.068906493 0.037766386 1.3200001 4286915691
0.07005205 0.037766386 1.3200001 4285013602
0.071251556 0.037795 1.3210001 4283770214
0.072397985 0.037795 1.3210001 4283576694
0.073544413 0.037795 1.3210001 4284432270
0.074747384 0.037823606 1.322 4285023904
0.075894676 0.037823606 1.322 4285023910
0.076983698 0.037795 1.3210001 4284892072
0.078070976 0.037766386 1.3200001 4284826282
0.07921654 0.037766386 1.3200001 4284760235
0.080362104 0.037766386 1.3200001 4284563369
0.08150766 0.037766386 1.3200001 4284497834
0.082653224 0.037766386 1.3200001 4284563115
0.083798781 0.037766386 1.3200001 4284628652
0.084944345 0.037766386 1.3200001 4284562602
0.086089902 0.037766386 1.3200001 4284430759
0.087169379 0.037737776 1.319 4284299430
0.088314071 0.037737776 1.319 4284233894
0.089390948 0.037709162 1.3180001 4284233896
0.090534769 0.037709162 1.3180001 4284233640
0.091678597 0.037709162 1.3180001 4284233640
0.092751995 0.037680555 1.317 4284167847
0.093894951 0.037680555 1.317 4284233640
0.095037915 0.037680555 1.317 4284365226
0.096180871 0.037680555 1.317 4284365226
0.097249925 0.037651941 1.3160001 4284167847
0.09839201 0.037651941 1.3160001 4284036261
0.099534102 0.037651941 1.3160001 4284036262
0.1007527 0.037680555 1.317 4283969956
0.10189565 0.037680555 1.317 4283706784
0.10303862 0.037680555 1.317 4283575199
0.10418157 0.037680555 1.317 4283640993
0.1054045 0.037709162 1.3180001 4283640737
0.10654832 0.037709162 1.3180001 4283575200
0.10777386 0.037737776 1.319 4283772323
0.10900112 0.037766386 1.3200001 4283969958
0.11023013 0.037795 1.3210001 4284298150
0.11137656 0.037795 1.3210001 4284626598
0.11269335 0.03785222 1.3230001 4285152423
0.11392757 0.03788083 1.3240001 4285415843
0.11516352 0.037909441 1.325 4285021587
0.11648898 0.037966665 1.327 4285284489
0.11755196 0.037938051 1.3260001 4289625017
0.11879225 0.037966665 1.327 4292187598
0.11994389 0.037966665 1.327 4290602661
0.12109552 0.037966665 1.327 4288490867
0.12224716 0.037966665 1.327 4289010794
0.1233988 0.037966665 1.327 4289993581
0.12455043 0.037966665 1.327 4290189676
0.12570207 0.037966665 1.327 4290123629
0.1269493 0.037995271 1.3280001 4289992815
0.12819825 0.038023885 1.3290001 4289796981
0.12944897 0.038052496 1.33 4289470848
0.13089781 0.03813833 1.3330001 4288356998
0.1321537 0.03816694 1.3340001 4286784398
0.13331141 0.03816694 1.3340001 4285935005
0.13477153 0.038252775 1.337 4285609639
0.13603352 0.038281381 1.3380001 4285348268
0.13729724 0.038309995 1.3390001 4285217455
0.13866609 0.038367216 1.3410001 4285020336
0.13993415 0.038395826 1.342 4285020081
0.14120394 0.03842444 1.3430001 4285217459
0.14300552 0.038596101 1.3490001 4285809594
0.14449687 0.038681936 1.3520001 4286467523
0.14706077 0.038739156 1.3540001 4287322831
0.14933063 0.039025266 1.3640001 4287520209
0.15084542 0.039111096 1.3670001 4287586257
0.15236542 0.039196935 1.3700001 4287783892
0.15433896 0.039397206 1.3770001 4287784660
0.15575989 0.03945443 1.3790001 4287390927
0.15718429 0.039511651 1.381 4287194826
0.16189238 0.04008387 1.401 4286538668
0.16345751 0.040169701 1.404 4289895882
0.16502784 0.040255535 1.4070001 4293780211
-0.038913533 0.040230267 1.365 4293910526
-0.037673637 0.040171325 1.363 4289040852
-0.036437213 0.040112376 1.3610001 4286211258
-0.035100643 0.03993554 1.355 4285618358
-0.033899672 0.039906066 1.3540001 4285157557
-0.032700434 0.039876595 1.353 4284959414
-0.031502936 0.039847124 1.3520001 4284630451
-0.030307172 0.03981765 1.3510001 4284300461
-0.02911314 0.039788179 1.35 4283971498
-0.027941544 0.039788179 1.35 4283971500
-0.026769947 0.039788179 1.35 4283905707
-0.025598351 0.039788179 1.35 4283905705
-0.024426755 0.039788179 1.35 4283905703
-0.023255158 0.039788179 1.35 4283576740
-0.02209992 0.03981765 1.3510001 4283510947
-0.020942947 0.039847124 1.3520001 4283510945
-0.019769615 0.039847124 1.3520001 4283510945
-0.018637545 0.03993554 1.355 4283510945
-0.017474497 0.039965015 1.3560001 4283510945
-0.016297694 0.039965015 1.3560001 4283576738
-0.015132042 0.039994489 1.3570001 4283708324
-0.013974936 0.040053431 1.3590001 4283839653
-0.012795529 0.040053431 1.3590001 4283773860
-0.011616122 0.040053431 1.3590001 4283642274
-0.010444395 0.040082905 1.36 4283905446
-0.0092641199 0.040082905 1.36 4284233898
-0.0080838455 0.040082905 1.36 4284299691
-0.0069086468 0.040112376 1.3610001 4284496813
-0.0057232957 0.040082905 1.36 4284759985
-0.0045430209 0.040082905 1.36 4284891571
-0.0033652186 0.040112376 1.3610001 4284891571
-0.0021856807 0.040141851 1.3620001 4284891571
-0.0010036702 0.040141851 1.3620001 4284957364
0.00017860233 0.040200796 1.3640001 4284957364
0.0013623486 0.040200796 1.3640001 4285023157
0.0025479614 0.040230267 1.365 4284957363
0.0037353102 0.040259741 1.3660001 4284825777
0.0049207923 0.040259741 1.3660001 4284825777
0.0061062742 0.040259741 1.3660001 4284759984
0.0072970944 0.040289212 1.3670001 4284628398
0.0084834443 0.040289212 1.3670001 4284694191
0.0096697938 0.040289212 1.3670001 4284694191
0.010856144 0.040289212 1.3670001 4284562605
0.012033684 0.040259741 1.3660001 4284759984
0.013209488 0.040230267 1.365 4285088949
0.014394103 0.040230267 1.365 4284957363
0.015567304 0.040200796 1.3640001 4285088949
0.016726488 0.040141851 1.3620001 4284496812
0.017908499 0.040141851 1.3620001 4284431019
0.019076493 0.040112376 1.3610001 4284694191
0.020227868 0.040053431 1.3590001 4284957363
0.021407275 0.040053431 1.3590001 4284957363
0.022570062 0.04002396 1.358 4284957363
0.023713624 0.039965015 1.3560001 4285023156
0.024890428 0.039965015 1.3560001 4284825777
0.026048008 0.03993554 1.355 4284694445
0.02718376 0.039876595 1.353 4284628652
0.028337 0.039847124 1.3520001 4284562859
0.029488504 0.03981765 1.3510001 4284628652
0.030638276 0.039788179 1.35 4284563373
0.031809874 0.039788179 1.35 4284629166
0.032932606 0.03972923 1.348 4284563373
0.034102466 0.03972923 1.348 4284497580
0.035219993 0.039670289 1.3460001 4284431273
0.036361087 0.039640814 1.345 4284168615
0.037528343 0.039640814 1.345 4284037029
0.0386956 0.039640814 1.345 4283905699
0.03986286 0.039640814 1.345 4283971490
0.0409691 0.039581869 1.3430001 4283905697
0.042134624 0.039581869 1.3430001 4283839652
0.043235663 0.039522924 1.3410001 4284102824
0.044366341 0.039493453 1.34 4284562859
0.045529258 0.039493453 1.34 4284694445
0.046622485 0.039434504 1.3380001 4284760236
0.047747955 0.039405033 1.337 4284694443
0.048871689 0.039375558 1.3360001 4284694190
0.04995624 0.039316617 1.3340001 4284693932
0.051113948 0.039316617 1.3340001 4284757670
0.052232474 0.039287142 1.3330001 4285215392
0.053349264 0.039257668 1.332 4286065815
0.05450524 0.039257668 1.332 4286849672
0.05561943 0.039228193 1.3310001 4288158333
0.05673188 0.039198723 1.33 4289205876
0.057886124 0.039198723 1.33 4289928049
0.058951575 0.039139777 1.3280001 4290190447
0.06010408 0.039139777 1.3280001 4290189932
0.061210461 0.039110307 1.327 4290189931
0.062268104 0.039051358 1.325 4290320489
0.063370146 0.039021887 1.3240001 4290057830
0.064519174 0.039021887 1.3240001 4290124135
0.065569006 0.038962942 1.322 4289599846
0.066716306 0.038962942 1.322 4289470058
0.067863598 0.038962942 1.322 4288882030
0.069010898 0.038962942 1.322 4287702893
0.070105128 0.038933471 1.3210001 4285208922
0.071251556 0.038933471 1.3210001 4283373911
0.072343171 0.038903996 1.3200001 4283246696
0.073488735 0.038903996 1.3200001 4284366215
0.074577756 0.038874522 1.319 4284563859
0.075722449 0.038874522 1.319 4284563357
0.076867141 0.038874522 1.319 4285023914
0.078011833 0.038874522 1.319 4284957357
0.07921654 0.038903996 1.3200001 4284957102
0.080362104 0.038903996 1.3200001 4284825770
0.08150766 0.038903996 1.3200001 4284694697
0.082715847 0.038933471 1.3210001 4284694699
0.083862275 0.038933471 1.3210001 4284760236
0.085073054 0.038962942 1.322 4284759724
0.086220346 0.038962942 1.322 4284562346
0.08730156 0.038933471 1.3210001 4284431017
0.088447988 0.038933471 1.3210001 4284431018
0.089594416 0.038933471 1.3210001 4284299432
0.09067215 0.038903996 1.3200001 4284167847
0.091817707 0.038903996 1.3200001 4284102054
0.092963271 0.038903996 1.3200001 4284036261
0.094108835 0.038903996 1.3200001 4284102054
0.095254391 0.038903996 1.3200001 4284365226
0.096326925 0.038874522 1.319 4284496812
0.097471617 0.038874522 1.319 4284431019
0.09854155 0.038845047 1.3180001 4284233640
0.099685371 0.038845047 1.3180001 4283970468
0.10090569 0.038874522 1.319 4283707297
0.10205039 0.038874522 1.319 4283378332
0.10319509 0.038874522 1.319 4283377820
0.10433978 0.038874522 1.319 4283509407
0.10548447 0.038874522 1.319 4283509407
0.10671 0.038903996 1.3200001 4283575199
0.10785557 0.038903996 1.3200001 4283772321
0.1090837 0.038933471 1.3210001 4283969699
0.11023013 0.038933471 1.3210001 4284363685
0.11137656 0.038933471 1.3210001 4284823975
0.11269335 0.038992416 1.3230001 4285349799
0.11392757 0.039021887 1.3240001 4285152667
0.11498968 0.038992416 1.3230001 4284297857
0.11631342 0.039051358 1.325 4285087103
0.11746332 0.039051358 1.325 4289756342
0.11861322 0.039051358 1.325 4291726018
0.1198535 0.039080832 1.3260001 4289088652
0.12100426 0.039080832 1.3260001 4287832424
0.12224716 0.039110307 1.327 4289010537
0.1233988 0.039110307 1.327 4289993580
0.12464429 0.039139777 1.3280001 4290255469
0.12579679 0.039139777 1.3280001 4290058605
0.12714049 0.039198723 1.33 4289927536
0.12839118 0.039228193 1.3310001 4289731702
0.12974095 0.039287142 1.3330001 4289208704
0.13119239 0.039375558 1.3360001 4287963782
0.13245089 0.039405033 1.337 4286523280
0.13361122 0.039405033 1.337 4285936545
0.13507393 0.039493453 1.34 4285479335
0.13623685 0.039493453 1.34 4285085864
0.13750231 0.039522924 1.3410001 4285020332
0.13897631 0.03961134 1.3440001 4285020335
0.14024697 0.039640814 1.345 4285020081
0.14141423 0.039640814 1.345 4285151666
0.14321753 0.03981765 1.3510001 4285546165
0.14588571 0.039906066 1.3540001 4286730438
0.147278 0.039965015 1.3560001 4287125452
0.14954959 0.040259741 1.3660001 4287454416
0.15117647 0.040377636 1.3700001 4287717843
0.15269907 0.040466052 1.373 4287915734
0.16223904 0.041379705 1.404 4286604461
0.16380678 0.041468121 1.4070001 4290225104
0.1653797 0.041556541 1.4100001 4293977846
-0.038856518 0.041345991 1.363 4291278319
-0.037618358 0.041285321 1.3610001 4286737345
-0.036410443 0.04125499 1.36 4285618107
-0.035100643 0.041103315 1.355 4285354425
-0.033899672 0.04107298 1.3540001 4284893619
-0.032724604 0.04107298 1.3540001 4284564144
-0.031502936 0.041012309 1.3520001 4284432302
-0.030329604 0.041012309 1.3520001 4284168875
-0.029134708 0.040981974 1.3510001 4283839910
-0.027962241 0.040981974 1.3510001 4283971751
-0.026769947 0.040951643 1.35 4284037544
-0.025598351 0.040951643 1.35 4283905956
-0.024426755 0.040951643 1.35 4283840165
-0.023272384 0.040981974 1.3510001 4283642531
-0.022116279 0.041012309 1.3520001 4283576740
-0.020958437 0.041042645 1.353 4283708324
-0.019784236 0.041042645 1.353 4283708324
-0.018651301 0.04113365 1.3560001 4283642531
-0.017487384 0.041163985 1.3570001 4283510945
-0.016309714 0.041163985 1.3570001 4283642531
-0.015143191 0.041194316 1.358 4283839910
-0.013985219 0.04125499 1.36 4283971239
-0.012804945 0.04125499 1.36 4283905446
-0.01162467 0.04125499 1.36 4283839653
-0.010452075 0.041285321 1.3610001 4284102825
-0.0092709325 0.041285321 1.3610001 4284562606
-0.0080838455 0.04125499 1.36 4284628399
-0.0069086468 0.041285321 1.3610001 4284628399
-0.0057275039 0.041285321 1.3610001 4284759985
-0.0045463615 0.041285321 1.3610001 4284957364
-0.0033701637 0.041345991 1.363 4284957364
-0.0021872853 0.041345991 1.363 4285023156
-0.001005144 0.041376323 1.3640001 4285023156
0.00017886423 0.041436996 1.3660001 4285023156
0.0013643461 0.041436996 1.3660001 4285154742
0.002549828 0.041436996 1.3660001 4285023156
0.0037380445 0.041467328 1.3670001 4284825777
0.0049279965 0.041497663 1.368 4284825777
0.0061152144 0.041497663 1.368 4284694191
0.0073024319 0.041497663 1.368 4284628398
0.0084896497 0.041497663 1.368 4284759984
