# .PCD v0.7 - Point Cloud Data file format
VERSION 0.7
FIELDS x y z rgba
SIZE 4 4 4 4
TYPE F F F U
COUNT 1 1 1 1
WIDTH 1085
HEIGHT 1
VIEWPOINT 0 0 0 1 0 0 0
POINTS 1085
DATA ascii
-0.0021070475 -0.0439074 1.3130001 4291540223
-0.00096756156 -0.0439074 1.3130001 4291671807
0.00017192439 -0.0439074 1.3130001 4292066559
0.0013104116 -0.043873962 1.312 4292263935
0.0024490296 -0.043873962 1.312 4292461311
0.0035876478 -0.043873962 1.312 4292263679
0.004726266 -0.043873962 1.312 4292460799
0.0058604139 -0.043840516 1.3110001 4292526591
0.0069981641 -0.043840516 1.3110001 4292066047
0.0081297085 -0.043807078 1.3100001 4292131839
0.0092595164 -0.04377364 1.309 4292065279
0.010363765 -0.04363988 1.3050001 4291012092
0.01147869 -0.043572996 1.3030001 4287261647
0.012590142 -0.043506112 1.3010001 4284958383
0.013677034 -0.043372352 1.2970001 4284366250
0.014791221 -0.043338913 1.296 4284235177
0.015658056 -0.042636659 1.2750001 4284300968
0.016725117 -0.042536341 1.2720001 4284104103
0.017730907 -0.042302255 1.2650001 4283775392
0.018798968 -0.042235374 1.263 4283380635
0.019879309 -0.042201936 1.2620001 4283249309
0.020908052 -0.042068172 1.258 4283183516
0.021999806 -0.042068172 1.258 4283183775
0.023073206 -0.04203473 1.2570001 4283183775
0.024144869 -0.042001292 1.256 4283315362
0.025234887 -0.042001292 1.256 4283512740
0.026324905 -0.042001292 1.256 4283380641
0.027436752 -0.04203473 1.2570001 4283183261
0.028504943 -0.042001292 1.256 4283446173
0.030782705 -0.042135052 1.2600001 4285748665
0.03190149 -0.042168494 1.261 4287590867
0.033022016 -0.042201936 1.2620001 4288182493
0.034198344 -0.042302255 1.2650001 4287458517
0.035324074 -0.042335697 1.266 4287260882
0.036451545 -0.042369138 1.2670001 4287392469
0.037610382 -0.042436019 1.2690001 4287457235
0.038711682 -0.042436019 1.2690001 4286799051
0.039812982 -0.042436019 1.2690001 4286798026
0.040882044 -0.042402577 1.268 4286798027
0.041949369 -0.042369138 1.2670001 4286864333
0.043048933 -0.042369138 1.2670001 4286338503
0.044078808 -0.042302255 1.2650001 4285548988
0.045176636 -0.042302255 1.2650001 4284431534
0.046274468 -0.042302255 1.2650001 4283905445
0.047334846 -0.042268816 1.2640001 4283380128
0.048470125 -0.042302255 1.2650001 4282656662
0.049567953 -0.042302255 1.2650001 4282130831
0.050705835 -0.042335697 1.266 4282064779
0.05184545 -0.042369138 1.2670001 4281933450
0.052945018 -0.042369138 1.2670001 4281736582
0.054087237 -0.042402577 1.268 4281605507
0.055187669 -0.042402577 1.268 4281474178
0.056288101 -0.042402577 1.268 4281342847
0.057433795 -0.042436019 1.2690001 4281342845
0.058581222 -0.042469457 1.2700001 4281474430
0.05968339 -0.042469457 1.2700001 4281606271
0.060833421 -0.042502899 1.271 4281540479
0.061985191 -0.042536341 1.2720001 4281540478
0.063089095 -0.042536341 1.2720001 4281606272
0.064243466 -0.042569779 1.273 4281737346
0.065399565 -0.042603221 1.274 4281671297
0.066505209 -0.042603221 1.274 4281802114
0.067663915 -0.042636659 1.2750001 4281999238
0.068824366 -0.042670101 1.276 4282393485
0.069931738 -0.042670101 1.276 4282525073
0.071039118 -0.042670101 1.276 4282590611
0.072089948 -0.042636659 1.2750001 4282787991
0.073139049 -0.042603221 1.274 4284299950
0.074186414 -0.042569779 1.273 4285681346
0.075232044 -0.042536341 1.2720001 4286272973
0.076155908 -0.042436019 1.2690001 4286010571
0.077196322 -0.042402577 1.268 4285154751
0.078296758 -0.042402577 1.268 4284102576
0.079334572 -0.042369138 1.2670001 4283378597
0.080370657 -0.042335697 1.266 4282786717
0.0815337 -0.042369138 1.2670001 4282524058
0.082633272 -0.042369138 1.2670001 4282392729
0.083798923 -0.042402577 1.268 4282129814
0.084899351 -0.042402577 1.268 4281998740
0.086067609 -0.042436019 1.2690001 4281998996
0.087237604 -0.042469457 1.2700001 4282065045
0.088339768 -0.042469457 1.2700001 4282262422
0.089582793 -0.042536341 1.2720001 4282328472
0.090757988 -0.042569779 1.273 4282131605
0.091934927 -0.042603221 1.274 4282065811
0.093186624 -0.042670101 1.276 4282000016
0.094367899 -0.042703543 1.2770001 4281934223
0.095550902 -0.042736981 1.2780001 4282131087
0.096886918 -0.042837303 1.281 4282328210
0.098151639 -0.042904187 1.2830001 4282525076
0.099187724 -0.042870745 1.2820001 4282524820
0.10061325 -0.043004509 1.286 4282721429
0.10188751 -0.043071385 1.2880001 4282787222
0.10308528 -0.043104827 1.289 4283115162
0.10444646 -0.043205149 1.2920001 4283312798
0.10556772 -0.043205149 1.2920001 4283378334
0.10668898 -0.043205149 1.2920001 4283049113
0.10781024 -0.043205149 1.2920001 4282654357
0.1089315 -0.043205149 1.2920001 4282522771
0.11005276 -0.043205149 1.2920001 4282588053
0.11108798 -0.043171708 1.291 4282917018
0.11220837 -0.043171708 1.291 4283245983
0.1131532 -0.043104827 1.289 4283114397
0.11427186 -0.043104827 1.289 4282851225
0.11539052 -0.043104827 1.289 4282654103
0.11650917 -0.043104827 1.289 4282785945
0.11753657 -0.043071385 1.2880001 4282785689
0.11865436 -0.043071385 1.2880001 4282720152
0.11986514 -0.043104827 1.289 4282720152
0.1209838 -0.043104827 1.289 4282523287
0.12219719 -0.043138269 1.2900001 4282457493
0.12331671 -0.043138269 1.2900001 4282391444
0.12472562 -0.043238591 1.2930001 4282457237
0.12594508 -0.04327203 1.294 4282719894
0.12726447 -0.043338913 1.296 4282851736
0.12888454 -0.043506112 1.3010001 4282917530
0.13021347 -0.043572996 1.3030001 4282918811
0.13154587 -0.04363988 1.3050001 4283248799
0.13452873 -0.043873962 1.312 4285355691
0.13597757 -0.043974284 1.3150001 4286343595
0.13743161 -0.044074606 1.3180001 4285357966
-0.014875566 -0.043459974 1.3340001 4288122303
-0.013697289 -0.043394819 1.332 4288318152
-0.012513068 -0.043297082 1.3290001 4287265209
-0.01130841 -0.043101612 1.3230001 4286145962
-0.010152566 -0.043069035 1.322 4286211501
-0.0089712115 -0.042906139 1.317 4286080939
-0.0078282533 -0.042906139 1.317 4285817512
-0.0066751437 -0.042840984 1.3150001 4285553317
-0.0055255052 -0.042775825 1.3130001 4284960928
-0.0043860194 -0.042775825 1.3130001 4284631451
-0.0032465335 -0.042775825 1.3130001 4284960163
-0.0021054428 -0.042743247 1.312 4284631713
-0.00096682465 -0.042743247 1.312 4284565921
0.00017166251 -0.042710666 1.3110001 4284631200
0.0013094128 -0.042710666 1.3110001 4285157543
0.002447163 -0.042710666 1.3110001 4285223337
0.0035849132 -0.042710666 1.3110001 4285223336
0.0047190613 -0.042678088 1.3100001 4285026209
0.0058559435 -0.042678088 1.3100001 4285091743
0.0069928262 -0.042678088 1.3100001 4285026208
0.0081235021 -0.04264551 1.309 4285486504
0.009252443 -0.042612933 1.3080001 4286144182
0.010363765 -0.042515196 1.3050001 4286604738
0.01147869 -0.042450037 1.3030001 4285880763
0.01259982 -0.042417459 1.302 4285156788
0.013677034 -0.042254563 1.2970001 4284235689
0.014791221 -0.042221986 1.296 4284169898
0.015645774 -0.041505255 1.274 4284169896
0.016725117 -0.041440099 1.2720001 4284235689
0.017744923 -0.041244626 1.266 4283577759
0.01881385 -0.041179467 1.2640001 4283314587
0.01989506 -0.041146889 1.263 4283380895
0.020924674 -0.041016575 1.2590001 4283117723
0.021999806 -0.040983994 1.258 4283249569
0.02309156 -0.040983994 1.258 4283446948
0.024164092 -0.040951416 1.2570001 4283512488
0.025254978 -0.040951416 1.2570001 4283512489
0.026324905 -0.040918838 1.256 4283643818
0.027414925 -0.040918838 1.256 4283775401
0.02852764 -0.040951416 1.2570001 4284038061
0.030782705 -0.041049153 1.2600001 4283708579
0.03190149 -0.04108173 1.261 4284892850
0.03299585 -0.04108173 1.261 4286273734
0.034171309 -0.041179467 1.2640001 4286734028
0.035296176 -0.041212045 1.2650001 4286996943
0.03642277 -0.041244626 1.266 4287128529
0.037580743 -0.041309781 1.268 4287061970
0.038650673 -0.041277204 1.2670001 4286338503
0.039781608 -0.041309781 1.268 4286272197
0.040817559 -0.041244626 1.266 4286403782
0.041916259 -0.041244626 1.266 4286404550
0.043014955 -0.041244626 1.266 4285615034
0.044043962 -0.041179467 1.2640001 4284562350
0.045140922 -0.041179467 1.2640001 4284168106
0.046237886 -0.041179467 1.2640001 4283708067
0.047334846 -0.041179467 1.2640001 4283313566
0.048431806 -0.041179467 1.2640001 4282721685
0.049567953 -0.041212045 1.2650001 4282130317
0.050705835 -0.041244626 1.266 4281801865
0.051804531 -0.041244626 1.266 4281604996
0.052945018 -0.041277204 1.2670001 4281473666
0.054087237 -0.041309781 1.268 4281342591
0.055187669 -0.041309781 1.268 4281211517
0.056288101 -0.041309781 1.268 4281145723
0.057433795 -0.041342363 1.2690001 4281145721
0.058535099 -0.041342363 1.2690001 4281343099
0.05968339 -0.04137494 1.2700001 4281408890
0.060833421 -0.041407518 1.271 4281408890
0.061936457 -0.041407518 1.271 4281408892
0.063089095 -0.041440099 1.2720001 4281540478
0.064243466 -0.041472677 1.273 4281737346
0.065348238 -0.041472677 1.273 4281605760
0.066505209 -0.041505255 1.274 4281736578
0.067663915 -0.041537832 1.2750001 4281999494
0.068716489 -0.041505255 1.274 4282261899
0.069876932 -0.041537832 1.2750001 4282392972
0.07098344 -0.041537832 1.2750001 4282392976
0.072089948 -0.041537832 1.2750001 4282656148
0.073081642 -0.041472677 1.273 4284037032
0.074128136 -0.041440099 1.2720001 4284760499
0.075172894 -0.041407518 1.271 4284891319
0.076155908 -0.041342363 1.2690001 4284628404
0.077196322 -0.041309781 1.268 4284430770
0.078235008 -0.041277204 1.2670001 4283904683
0.079271957 -0.041244626 1.266 4283247011
0.080370657 -0.041244626 1.266 4282721180
0.081469357 -0.041244626 1.266 4282524058
0.082633272 -0.041277204 1.2670001 4282195862
0.083732836 -0.041277204 1.2670001 4282064276
0.084899351 -0.041309781 1.268 4282064532
0.086067609 -0.041342363 1.2690001 4282130580
0.087237604 -0.04137494 1.2700001 4282196629
0.088339768 -0.04137494 1.2700001 4282328215
0.089653216 -0.041472677 1.273 4282459799
0.090757988 -0.041472677 1.273 4282263190
0.091934927 -0.041505255 1.274 4282197396
0.093259655 -0.041602992 1.2770001 4282131857
0.094441794 -0.041635569 1.2780001 4282066064
0.095625676 -0.041668151 1.279 4282131087
0.096962556 -0.041765887 1.2820001 4282328466
0.098151639 -0.041798465 1.2830001 4282656406
0.099342458 -0.041831043 1.284 4282656406
0.10076972 -0.041961357 1.2880001 4282984344
0.10196662 -0.041993935 1.289 4283115930
0.10316525 -0.042026512 1.2900001 4283378334
0.10444646 -0.042091671 1.2920001 4283575713
0.10556772 -0.042091671 1.2920001 4283312286
0.10668898 -0.042091671 1.2920001 4282917528
0.10781024 -0.042091671 1.2920001 4282719893
0.1089315 -0.042091671 1.2920001 4282588307
0.10996758 -0.04205909 1.291 4282719639
0.11091588 -0.041993935 1.289 4282982811
0.11203454 -0.041993935 1.289 4283048604
0.1131532 -0.041993935 1.289 4282719639
0.11427186 -0.041993935 1.289 4282456467
0.11539052 -0.041993935 1.289 4282390674
0.11650917 -0.041993935 1.289 4282456979
0.11762783 -0.041993935 1.289 4282456979
0.11874649 -0.041993935 1.289 4282325906
0.11995814 -0.042026512 1.2900001 4282457492
0.12107766 -0.042026512 1.2900001 4282326163
0.12219719 -0.042026512 1.2900001 4282325906
0.1234123 -0.04205909 1.291 4282391187
0.12472562 -0.042124249 1.2930001 4282456980
0.12594508 -0.042156827 1.294 4282720150
0.12726447 -0.042221986 1.296 4282917529
0.12888454 -0.042384878 1.3010001 4282918042
0.13011353 -0.042417459 1.302 4283115932
0.13144508 -0.042482615 1.304 4283511711
0.13452873 -0.042743247 1.312 4285947569
0.13587415 -0.042808402 1.314 4286475179
0.13732733 -0.042906139 1.317 4285292172
-0.014864416 -0.042278584 1.3330001 4289433305
-0.013676723 -0.042183433 1.33 4286932671
-0.012503652 -0.042120002 1.3280001 4284760998
-0.011299863 -0.041929699 1.322 4284431267
-0.010144887 -0.041897982 1.3210001 4284431782
-0.0089575863 -0.041707683 1.3150001 4284300713
-0.0078104213 -0.041675963 1.314 4284103591
-0.0066700676 -0.041675963 1.314 4284234409
-0.005521297 -0.041612532 1.312 4284037031
-0.0043826788 -0.041612532 1.312 4283708069
-0.0032440608 -0.041612532 1.312 4283708069
-0.0021038379 -0.041580811 1.3110001 4283313824
-0.00096608774 -0.041580811 1.3110001 4283116445
0.00017153157 -0.041549098 1.3100001 4283116445
0.001308414 -0.041549098 1.3100001 4283379617
0.0024452964 -0.041549098 1.3100001 4283642789
0.0035821788 -0.041549098 1.3100001 4283642789
0.004715459 -0.041517381 1.309 4283708067
0.0058514737 -0.041517381 1.309 4283773860
0.0069874879 -0.041517381 1.309 4283576482
0.0081172967 -0.041485664 1.3080001 4284037034
0.009252443 -0.041485664 1.3080001 4284629684
0.010363765 -0.041390512 1.3050001 4284827061
0.01147869 -0.041327078 1.3030001 4284761269
0.01259982 -0.041295364 1.302 4284958647
0.013677034 -0.041136779 1.2970001 4284563887
0.014791221 -0.041105062 1.296 4284366507
0.015645774 -0.040407289 1.274 4284038312
0.016725117 -0.040343858 1.2720001 4283643552
0.017758939 -0.040185273 1.2670001 4283446434
0.018828735 -0.040121835 1.2650001 4283314848
0.019910812 -0.040090121 1.2640001 4283446688
0.020941293 -0.039963253 1.2600001 4283380895
0.022017296 -0.039931539 1.2590001 4283315359
0.023109918 -0.039931539 1.2590001 4283446947
0.024144869 -0.039836388 1.256 4283184034
0.025234887 -0.039836388 1.256 4283118499
0.026324905 -0.039836388 1.256 4283446438
0.027436752 -0.039868101 1.2570001 4283512487
0.02852764 -0.039868101 1.2570001 4283840680
0.029642086 -0.039899819 1.258 4283840680
0.030782705 -0.039963253 1.2600001 4283642020
0.031876195 -0.039963253 1.2600001 4284299949
0.03299585 -0.03999497 1.261 4285221049
0.034144275 -0.040058404 1.263 4286010565
0.035268273 -0.040090121 1.2640001 4286339276
0.036394004 -0.040121835 1.2650001 4286602704
0.03752147 -0.040153556 1.266 4286799568
0.038620166 -0.040153556 1.266 4286536139
0.039718863 -0.040153556 1.266 4286404810
0.04078532 -0.040121835 1.2650001 4286338760
0.041883148 -0.040121835 1.2650001 4285746879
0.042947002 -0.040090121 1.2640001 4284891571
0.044009116 -0.040058404 1.263 4284102573
0.045105208 -0.040058404 1.263 4283708069
0.046201304 -0.040058404 1.263 4283313565
0.047297396 -0.040058404 1.263 4282919575
0.048431806 -0.040090121 1.2640001 4282459535
0.04952877 -0.040090121 1.2640001 4282130827
0.050705835 -0.040153556 1.266 4281736581
0.051804531 -0.040153556 1.266 4281408130
0.052903228 -0.040153556 1.266 4281276799
0.054044582 -0.040185273 1.2670001 4281211517
0.055187669 -0.040216986 1.268 4281014652
0.056288101 -0.040216986 1.268 4281014649
0.057433795 -0.040248707 1.2690001 4281145720
0.058535099 -0.040248707 1.2690001 4281211513
0.059636399 -0.040248707 1.2690001 4281211767
0.060833421 -0.040312137 1.271 4281211767
0.061936457 -0.040312137 1.271 4281146233
0.063089095 -0.040343858 1.2720001 4281277820
0.064243466 -0.040375572 1.273 4281540223
0.065348238 -0.040375572 1.273 4281474431
0.066400811 -0.040343858 1.2720001 4281670785
0.067610845 -0.040407289 1.274 4281802371
0.068716489 -0.040407289 1.274 4281867910
0.069822125 -0.040407289 1.274 4281999497
0.070927769 -0.040407289 1.274 4282064779
0.072033405 -0.040407289 1.274 4282393744
0.073024236 -0.040343858 1.2720001 4283840936
0.074069858 -0.040312137 1.271 4284301231
0.075172894 -0.040312137 1.271 4283905707
0.076095887 -0.040216986 1.268 4283576486
0.077196322 -0.040216986 1.268 4283642024
0.078235008 -0.040185273 1.2670001 4283509668
0.079271957 -0.040153556 1.266 4282984094
0.080370657 -0.040153556 1.266 4282721179
0.081469357 -0.040153556 1.266 4282458777
0.082633272 -0.040185273 1.2670001 4282064532
0.083732836 -0.040185273 1.2670001 4282064019
0.0848324 -0.040185273 1.2670001 4281998739
0.086067609 -0.040248707 1.2690001 4282196116
0.087237604 -0.040280424 1.2700001 4282130836
0.088339768 -0.040280424 1.2700001 4282262421
0.089653216 -0.040375572 1.273 4282459799
0.090829283 -0.040407289 1.274 4282328981
0.091934927 -0.040407289 1.274 4282263188
0.093259655 -0.04050244 1.2770001 4282328723
0.094441794 -0.040534157 1.2780001 4282262929
0.095625676 -0.040565874 1.279 4282130574
0.097038187 -0.040692743 1.2830001 4282262160
0.098228142 -0.040724456 1.284 4282393234
0.099419832 -0.040756177 1.2850001 4282656150
0.10076972 -0.040851325 1.2880001 4283181725
0.10196662 -0.040883042 1.289 4283444640
0.10316525 -0.040914759 1.2900001 4283509920
0.10444646 -0.040978193 1.2920001 4283575457
0.10556772 -0.040978193 1.2920001 4283246494
0.10668898 -0.040978193 1.2920001 4282983322
0.1077268 -0.040946476 1.291 4282851224
0.10884719 -0.040946476 1.291 4282719895
0.10988241 -0.040914759 1.2900001 4282982811
0.11091588 -0.040883042 1.289 4283114397
0.11203454 -0.040883042 1.289 4282851225
0.1131532 -0.040883042 1.289 4282324881
0.11427186 -0.040883042 1.289 4282127757
0.11539052 -0.040883042 1.289 4282193550
0.11650917 -0.040883042 1.289 4282194061
0.11762783 -0.040883042 1.289 4282259854
0.11883862 -0.040914759 1.2900001 4282128782
0.11995814 -0.040914759 1.2900001 4282194575
0.12107766 -0.040914759 1.2900001 4282260368
0.12229191 -0.040946476 1.291 4282260111
0.1234123 -0.040946476 1.291 4282325648
0.12472562 -0.04100991 1.2930001 4282457491
0.12594508 -0.041041628 1.294 4282785941
0.12716627 -0.041073345 1.2950001 4282917784
0.12878546 -0.041231927 1.3000001 4282918040
0.13011353 -0.041295364 1.302 4283181208
0.13134427 -0.041327078 1.3030001 4283708060
0.13442619 -0.041580811 1.3110001 4286670261
0.13587415 -0.041675963 1.314 4286737835
0.13722306 -0.041739397 1.3160001 4284897925
-0.011291316 -0.040759511 1.3210001 4284825516
-0.010129527 -0.040697802 1.319 4285154739
-0.0089643989 -0.040605236 1.3160001 4285024183
-0.007816365 -0.040574383 1.3150001 4284827575
-0.0066700676 -0.040543526 1.314 4285024185
-0.0055255052 -0.04051267 1.3130001 4285024185
-0.0043860194 -0.04051267 1.3130001 4284827577
-0.0032440608 -0.040481817 1.312 4284432563
-0.0021038379 -0.04045096 1.3110001 4284432048
-0.00096608774 -0.04045096 1.3110001 4284234669
0.00017153157 -0.040420104 1.3100001 4284103085
0.001308414 -0.040420104 1.3100001 4284300464
0.0024452964 -0.040420104 1.3100001 4284497840
0.0035794443 -0.040389251 1.309 4284497840
0.004715459 -0.040389251 1.309 4284366258
0.0058514737 -0.040389251 1.309 4284300465
0.00698215 -0.040358398 1.3080001 4284037293
0.0081172967 -0.040358398 1.3080001 4283774121
0.009252443 -0.040358398 1.3080001 4284300464
0.010371707 -0.040296685 1.3060001 4284432049
0.011505118 -0.040296685 1.3060001 4284038059
0.012628851 -0.040265832 1.3050001 4284103852
0.013708669 -0.040111557 1.3000001 4284433072
0.014814046 -0.040049843 1.2980001 4284038312
0.015903674 -0.039957281 1.2950001 4283709600
0.018903159 -0.039185904 1.2700001 4283380895
0.019973822 -0.039124195 1.268 4283512227
0.020991154 -0.038969919 1.263 4283380642
0.022087248 -0.038969919 1.263 4283446947
0.023146629 -0.03890821 1.261 4283381154
0.024221763 -0.038877353 1.2600001 4283315875
0.025315253 -0.038877353 1.2600001 4282987165
0.026387785 -0.0388465 1.2590001 4283117983
0.027480407 -0.0388465 1.2590001 4283381155
0.028595725 -0.038877353 1.2600001 4283643049
0.029689215 -0.038877353 1.2600001 4283577255
0.030807134 -0.03890821 1.261 4283905193
0.03190149 -0.03890821 1.261 4284036779
0.03299585 -0.03890821 1.261 4284364716
0.034117244 -0.038939066 1.2620001 4284693681
0.035240367 -0.038969919 1.263 4285022905
0.036336463 -0.038969919 1.263 4285615553
0.037432555 -0.038969919 1.263 4286273740
0.038498145 -0.038939066 1.2620001 4286734288
0.039593372 -0.038939066 1.2620001 4286733523
0.040656354 -0.03890821 1.261 4286207432
0.04175071 -0.03890821 1.261 4285022646
0.04284507 -0.03890821 1.261 4284430507
0.043939427 -0.03890821 1.261 4283970472
0.045033786 -0.03890821 1.261 4283510434
0.046128143 -0.03890821 1.261 4283050393
0.047259949 -0.038939066 1.2620001 4282525074
0.048393492 -0.038969919 1.263 4282459281
0.04952877 -0.039000772 1.2640001 4282196620
0.050665785 -0.039031629 1.2650001 4281736838
0.051804531 -0.039062485 1.266 4281342337
0.052903228 -0.039062485 1.266 4281211005
0.054044582 -0.039093338 1.2670001 4281145724
0.055144146 -0.039093338 1.2670001 4280948859
0.05624371 -0.039093338 1.2670001 4280949111
0.057388533 -0.039124195 1.268 4281145720
0.058488965 -0.039124195 1.268 4281145975
0.059589397 -0.039124195 1.268 4281080695
0.060737699 -0.039155051 1.2690001 4281146488
0.061887726 -0.039185904 1.2700001 4281080697
0.063039489 -0.039216757 1.271 4281146234
0.064193003 -0.039247617 1.2720001 4281277308
0.065245561 -0.039216757 1.271 4281277308
0.066348597 -0.039216757 1.271 4281342334
0.067504711 -0.039247617 1.2720001 4281408126
0.068662554 -0.03927847 1.273 4281604482
0.069767326 -0.03927847 1.273 4281736068
0.070816427 -0.039247617 1.2720001 4281933706
0.071920328 -0.039247617 1.2720001 4282328464
0.072909415 -0.039185904 1.2700001 4283643301
0.074011579 -0.039185904 1.2700001 4284103852
0.075054608 -0.039155051 1.2690001 4283576999
0.07603588 -0.039093338 1.2670001 4282787226
0.077135444 -0.039093338 1.2670001 4283050144
0.078173265 -0.039062485 1.266 4283247266
0.079209343 -0.039031629 1.2650001 4282984351
0.080307171 -0.039031629 1.2650001 4282721435
0.081404999 -0.039031629 1.2650001 4282392469
0.082568049 -0.039062485 1.266 4282064274
0.083732836 -0.039093338 1.2670001 4282130324
0.084899351 -0.039124195 1.268 4281999250
0.086135432 -0.039185904 1.2700001 4281999250
0.087306291 -0.039216757 1.271 4281999250
0.088478893 -0.039247617 1.2720001 4282196627
0.089723647 -0.039309323 1.274 4282328213
0.090971872 -0.039371036 1.276 4282262931
0.092007086 -0.039340179 1.2750001 4282262674
0.093332686 -0.039432742 1.2780001 4282196880
0.094515696 -0.039463602 1.279 4282131087
0.095700443 -0.039494455 1.2800001 4282064781
0.097038187 -0.039587021 1.2830001 4282130318
0.098228142 -0.039617874 1.284 4282261135
0.099419832 -0.03964873 1.2850001 4282524050
0.10076972 -0.039741293 1.2880001 4283049883
0.10196662 -0.039772149 1.289 4283313055
0.10316525 -0.039803006 1.2900001 4283509408
0.10436562 -0.039833859 1.291 4283443872
0.10556772 -0.039864715 1.2920001 4283246237
0.1066064 -0.039833859 1.291 4283114652
0.10764335 -0.039803006 1.2900001 4283048604
0.10876288 -0.039803006 1.2900001 4283048604
0.10979722 -0.039772149 1.289 4283509155
0.11091588 -0.039772149 1.289 4283311776
0.11203454 -0.039772149 1.289 4282522260
0.1131532 -0.039772149 1.289 4281930123
0.11427186 -0.039772149 1.289 4281864584
0.11539052 -0.039772149 1.289 4281996169
0.11650917 -0.039772149 1.289 4281996681
0.11771909 -0.039803006 1.2900001 4282194060
0.11883862 -0.039803006 1.2900001 4282260110
0.11995814 -0.039803006 1.2900001 4282194060
0.12117151 -0.039833859 1.291 4282128781
0.12229191 -0.039833859 1.291 4282062989
0.1234123 -0.039833859 1.291 4282194576
0.12472562 -0.039895572 1.2930001 4282325904
0.12594508 -0.039926425 1.294 4282523025
0.12716627 -0.039957281 1.2950001 4282654611
0.12878546 -0.040111557 1.3000001 4282851731
0.13001361 -0.04014241 1.3010001 4283115156
0.13134427 -0.040204119 1.3030001 4283772825
0.13442619 -0.04045096 1.3110001 4287130040
0.13587415 -0.040543526 1.314 4287000492
0.13722306 -0.040605236 1.3160001 4284503165
-0.011299863 -0.039651033 1.322 4285023669
-0.010144887 -0.03962104 1.3210001 4285089720
-0.0089916466 -0.039591048 1.3200001 4284958133
-0.0078282533 -0.039501067 1.317 4285023926
-0.0066852961 -0.039501067 1.317 4284958391
-0.005533922 -0.039441083 1.3150001 4285221052
-0.0043927003 -0.039441083 1.3150001 4285023163
-0.0032490061 -0.039411087 1.314 4284825528
-0.0021070475 -0.039381094 1.3130001 4284628918
-0.00096756156 -0.039381094 1.3130001 4284563635
0.00017192439 -0.039381094 1.3130001 4284497583
0.0013104116 -0.039351102 1.312 4284431788
0.0024490296 -0.039351102 1.312 4284234662
0.0035849132 -0.039321106 1.3110001 4284168867
0.0047226637 -0.039321106 1.3110001 4284103077
0.0058559435 -0.039291114 1.3100001 4284037286
0.0069928262 -0.039291114 1.3100001 4283971752
0.0081235021 -0.039261121 1.309 4283839910
0.0092595164 -0.039261121 1.309 4283971757
0.01038759 -0.039231129 1.3080001 4283840682
0.011513928 -0.039201133 1.307 4283709096
0.012638529 -0.039171141 1.3060001 4283709350
0.013719214 -0.039021175 1.3010001 4283972521
0.014825461 -0.038961191 1.299 4284104105
0.015928235 -0.038901202 1.2970001 4283578272
0.018918043 -0.03812138 1.271 4283381406
0.019989572 -0.038061395 1.2690001 4283512992
0.021007774 -0.037911426 1.2640001 4283447199
0.022087248 -0.037881434 1.263 4283118494
0.023183342 -0.037881434 1.263 4283052957
0.024240987 -0.037821446 1.261 4283052957
0.025335344 -0.037821446 1.261 4282855578
0.026429702 -0.037821446 1.261 4282920603
0.02752406 -0.037821446 1.261 4283117726
0.028618418 -0.037821446 1.261 4283183265
0.029712776 -0.037821446 1.261 4283249059
0.030831566 -0.037851442 1.2620001 4283446181
0.031926792 -0.037851442 1.2620001 4283380388
0.033022016 -0.037851442 1.2620001 4283576740
0.034144275 -0.037881434 1.263 4283708326
0.035240367 -0.037881434 1.263 4284037035
0.036336463 -0.037881434 1.263 4284497585
0.037432555 -0.037881434 1.263 4285155259
0.038528647 -0.037881434 1.263 4285813189
0.039593372 -0.037851442 1.2620001 4286010055
0.040656354 -0.037821446 1.261 4285352124
0.04175071 -0.037821446 1.261 4284233900
0.04284507 -0.037821446 1.261 4283970728
0.043939427 -0.037821446 1.261 4283576482
0.045033786 -0.037821446 1.261 4282919322
0.046128143 -0.037821446 1.261 4282459282
0.047297396 -0.037881434 1.263 4282262160
0.048393492 -0.037881434 1.263 4282196622
0.04952877 -0.037911426 1.2640001 4281933706
0.050665785 -0.037941419 1.2650001 4281671302
0.051804531 -0.037971415 1.266 4281473921
0.052903228 -0.037971415 1.266 4281211262
0.054044582 -0.038001407 1.2670001 4281277308
0.055144146 -0.038001407 1.2670001 4281146492
0.05624371 -0.038001407 1.2670001 4281146233
0.057388533 -0.038031399 1.268 4281145974
0.058488965 -0.038031399 1.268 4281145974
0.059589397 -0.038031399 1.268 4281145972
0.060737699 -0.038061395 1.2690001 4281145973
0.061790265 -0.038031399 1.268 4281014903
0.0629403 -0.038061395 1.2690001 4281080695
0.064092062 -0.038091388 1.2700001 4281211513
0.065245561 -0.03812138 1.271 4281211514
0.066348597 -0.03812138 1.271 4281211003
0.067504711 -0.038151376 1.2720001 4281145211
0.068608619 -0.038151376 1.2720001 4281407101
0.06971252 -0.038151376 1.2720001 4281604483
0.070816427 -0.038151376 1.2720001 4281998987
0.071920328 -0.038151376 1.2720001 4282591381
0.072909415 -0.038091388 1.2700001 4283906988
0.073953308 -0.038061395 1.2690001 4284104367
0.075054608 -0.038061395 1.2690001 4283379877
0.07603588 -0.038001407 1.2670001 4282326932
0.077135444 -0.038001407 1.2670001 4282852506
0.078173265 -0.037971415 1.266 4283116192
0.079271957 -0.037971415 1.266 4283181985
0.080370657 -0.037971415 1.266 4282985119
0.081469357 -0.037971415 1.266 4282393238
0.082633272 -0.038001407 1.2670001 4281933200
0.083798923 -0.038031399 1.268 4282130066
0.084899351 -0.038031399 1.268 4282064530
0.086203255 -0.03812138 1.271 4281998992
0.087374985 -0.038151376 1.2720001 4281933456
0.088478893 -0.038151376 1.2720001 4282065296
0.0898645 -0.038271345 1.276 4282196882
0.091043167 -0.038301338 1.2770001 4282196880
0.092151411 -0.038301338 1.2770001 4282131087
0.093551777 -0.03842131 1.281 4281999501
0.094737388 -0.038451307 1.2820001 4281933708
0.095849976 -0.038451307 1.2820001 4282130062
0.097189456 -0.038541287 1.2850001 4282195854
0.098381147 -0.038571279 1.286 4282326671
0.099574566 -0.038601272 1.2870001 4282458257
0.10084797 -0.038661256 1.289 4282852504
0.10204572 -0.038691249 1.2900001 4283049883
0.10316525 -0.038691249 1.2900001 4283049116
0.10436562 -0.038721241 1.291 4282983323
0.1054043 -0.038691249 1.2900001 4283048604
0.10652383 -0.038691249 1.2900001 4282983067
0.10764335 -0.038691249 1.2900001 4283114398
0.10867856 -0.038661256 1.289 4283509156
0.10979722 -0.038661256 1.289 4283903657
0.11091588 -0.038661256 1.289 4283443106
0.11203454 -0.038661256 1.289 4282588053
0.1131532 -0.038661256 1.289 4282127758
0.11427186 -0.038661256 1.289 4281864841
0.11539052 -0.038661256 1.289 4281799048
0.11650917 -0.038661256 1.289 4281667973
0.11771909 -0.038691249 1.2900001 4281931402
0.11883862 -0.038691249 1.2900001 4282062731
0.12005112 -0.038721241 1.291 4281996938
0.12126537 -0.038751237 1.2920001 4281931402
0.12238664 -0.038751237 1.2920001 4282062988
0.1235079 -0.038751237 1.2920001 4282259854
0.12482208 -0.038811222 1.294 4282259854
0.12594508 -0.038811222 1.294 4282391439
0.12716627 -0.038841218 1.2950001 4282457231
0.12878546 -0.038991183 1.3000001 4282720146
0.13001361 -0.039021175 1.3010001 4283049108
0.13124347 -0.039051171 1.302 4283443603
0.13432366 -0.039291114 1.3100001 4287459000
0.13577075 -0.039381094 1.3130001 4287132072
0.13722306 -0.039471075 1.3160001 4284108661
-0.01130841 -0.038540833 1.3230001 4284760240
-0.010152566 -0.038511701 1.322 4284497583
-0.00900527 -0.038511701 1.322 4284628914
-0.0078401407 -0.038424306 1.319 4284431536
-0.0066954484 -0.038424306 1.319 4284365997
-0.0055423388 -0.038366042 1.317 4284497840
-0.0043993811 -0.038366042 1.317 4284300463
-0.0032564239 -0.038366042 1.317 4283972268
-0.002110257 -0.038307782 1.3150001 4284300209
-0.00096903538 -0.038307782 1.3150001 4284234670
0.00017218628 -0.038307782 1.3150001 4284300203
0.0013114103 -0.038249519 1.3130001 4284103077
0.0024508962 -0.038249519 1.3130001 4283839904
0.0035903822 -0.038249519 1.3130001 4283708316
0.004726266 -0.038220387 1.312 4283642782
0.0058648838 -0.038220387 1.312 4283708320
0.007003502 -0.038220387 1.312 4283642786
0.0081359148 -0.038191255 1.3110001 4283510945
0.0092665907 -0.038162123 1.3100001 4283511463
0.010395532 -0.038132992 1.309 4283445924
0.011522736 -0.038103864 1.3080001 4283314338
0.012657884 -0.038103864 1.3080001 4283380384
0.013740305 -0.037958205 1.3030001 4283314589
0.014836873 -0.037870809 1.3000001 4283775139
0.015940515 -0.037812546 1.2980001 4283578272
0.018962694 -0.037113395 1.274 4283381406
0.020005327 -0.036996868 1.2700001 4283578785
0.021024393 -0.036851209 1.2650001 4283447199
0.022122223 -0.036851209 1.2650001 4283052957
0.023201697 -0.036822081 1.2640001 4282921371
0.024279434 -0.036792949 1.263 4282723992
0.025355438 -0.036763817 1.2620001 4282592406
0.026450662 -0.036763817 1.2620001 4282657431
0.027545888 -0.036763817 1.2620001 4282788761
0.028641114 -0.036763817 1.2620001 4282854555
0.02973634 -0.036763817 1.2620001 4282986141
0.030855995 -0.036792949 1.263 4283051679
0.031952087 -0.036792949 1.263 4283051679
0.033048183 -0.036792949 1.263 4283116703
0.034144275 -0.036792949 1.263 4283248289
0.035240367 -0.036792949 1.263 4283576740
0.036365233 -0.036822081 1.2640001 4283905705
0.037432555 -0.036792949 1.263 4284168364
0.038528647 -0.036792949 1.263 4284497329
0.039593372 -0.036763817 1.2620001 4284628915
0.040656354 -0.036734685 1.261 4284431279
0.04175071 -0.036734685 1.261 4283970985
0.04284507 -0.036734685 1.261 4283642020
0.043939427 -0.036734685 1.261 4283181980
0.045033786 -0.036734685 1.261 4282656406
0.046128143 -0.036734685 1.261 4282327696
0.047297396 -0.036792949 1.263 4282064781
0.048431806 -0.036822081 1.2640001 4281999499
0.04952877 -0.036822081 1.2640001 4281999753
0.050705835 -0.036880344 1.266 4281737095
0.051804531 -0.036880344 1.266 4281474177
0.052903228 -0.036880344 1.266 4281277310
0.054044582 -0.036909472 1.2670001 4281343101
0.055144146 -0.036909472 1.2670001 4281278078
0.05624371 -0.036909472 1.2670001 4281146490
0.057343274 -0.036909472 1.2670001 4281080695
0.058442842 -0.036909472 1.2670001 4281146488
0.059495412 -0.036880344 1.266 4281080949
0.060689833 -0.036938604 1.268 4281015156
0.061790265 -0.036938604 1.268 4281014902
0.062890694 -0.036938604 1.268 4281014902
0.064092062 -0.036996868 1.2700001 4281211513
0.065194234 -0.036996868 1.2700001 4281211513
0.066348597 -0.037025999 1.271 4281211002
0.067504711 -0.037055131 1.2720001 4281145211
0.068608619 -0.037055131 1.2720001 4281276028
0.06971252 -0.037055131 1.2720001 4281473153
0.070816427 -0.037055131 1.2720001 4281801609
0.071863785 -0.037025999 1.271 4282788504
0.072909415 -0.036996868 1.2700001 4284235953
0.073953308 -0.036967739 1.2690001 4284499125
0.075054608 -0.036967739 1.2690001 4283380390
0.07603588 -0.036909472 1.2670001 4282064273
0.077135444 -0.036909472 1.2670001 4282326418
0.078173265 -0.036880344 1.266 4282984605
0.079271957 -0.036880344 1.266 4283050655
0.080370657 -0.036880344 1.266 4282787740
0.081469357 -0.036880344 1.266 4282393495
0.082633272 -0.036909472 1.2670001 4281867151
0.083798923 -0.036938604 1.268 4282064017
0.084966309 -0.036967739 1.2690001 4281998736
0.086271085 -0.037055131 1.2720001 4282064784
0.087374985 -0.037055131 1.2720001 4282065039
0.088548444 -0.037084263 1.273 4282196881
0.089934923 -0.037200786 1.2770001 4282262673
0.091043167 -0.037200786 1.2770001 4282131087
0.09222357 -0.037229918 1.2780001 4282065294
0.093624808 -0.037346445 1.2820001 4282065294
0.094737388 -0.037346445 1.2820001 4281999501
0.095924735 -0.037375577 1.2830001 4282130575
0.097265087 -0.037462972 1.286 4282130575
0.098457642 -0.0374921 1.2870001 4282326671
0.099574566 -0.0374921 1.2870001 4282589843
0.1009262 -0.037579495 1.2900001 4283049883
0.10204572 -0.037579495 1.2900001 4283115676
0.10308528 -0.037550364 1.289 4282917531
0.10428478 -0.037579495 1.2900001 4282720152
0.1054043 -0.037579495 1.2900001 4282851226
0.10652383 -0.037579495 1.2900001 4282785433
0.10764335 -0.037579495 1.2900001 4283377313
0.10867856 -0.037550364 1.289 4284034987
0.10979722 -0.037550364 1.289 4284034987
0.11091588 -0.037550364 1.289 4283574436
0.11203454 -0.037550364 1.289 4283114397
0.1131532 -0.037550364 1.289 4282917017
0.11427186 -0.037550364 1.289 4282390928
0.11539052 -0.037550364 1.289 4281601669
0.11650917 -0.037550364 1.289 4281602180
0.11771909 -0.037579495 1.2900001 4281668230
0.11883862 -0.037579495 1.2900001 4281799816
0.12005112 -0.037608627 1.291 4281865609
0.12126537 -0.037637759 1.2920001 4281931402
0.12238664 -0.037637759 1.2920001 4281996939
0.1235079 -0.037637759 1.2920001 4282391182
0.12482208 -0.037696019 1.294 4282391439
0.12604241 -0.037725154 1.2950001 4282391696
0.12716627 -0.037725154 1.2950001 4282457489
0.12878546 -0.037870809 1.3000001 4282655122
0.13001361 -0.037899941 1.3010001 4282983572
0.13134427 -0.037958205 1.3030001 4283180688
0.13442619 -0.038191255 1.3110001 4287787962
0.13577075 -0.038249519 1.3130001 4287132324
0.13722306 -0.038336914 1.3160001 4283977072
-0.036376312 -0.036071967 1.276 4283450735
-0.035213657 -0.036015429 1.274 4284634761
-0.034081243 -0.035987157 1.273 4286345385
-0.032872856 -0.03587408 1.2690001 4287330747
-0.031746518 -0.035845809 1.268 4286935990
-0.030646086 -0.035845809 1.268 4285620647
-0.02949905 -0.035789274 1.266 4285029277
-0.028400354 -0.035789274 1.266 4284305807
-0.011316958 -0.037428904 1.3240001 4283642525
-0.010160246 -0.037400637 1.3230001 4284102822
-0.00900527 -0.037372369 1.322 4284036516
-0.0078579737 -0.037372369 1.322 4284036772
-0.0067106769 -0.037372369 1.322 4284035743
-0.0055633802 -0.037372369 1.322 4283707294
-0.0044194241 -0.037400637 1.3230001 4283773089
-0.0032712596 -0.037400637 1.3230001 4283576737
-0.0021230951 -0.037400637 1.3230001 4283708066
-0.00097493065 -0.037400637 1.3230001 4283642272
0.0001732338 -0.037400637 1.3230001 4283708064
0.0013203995 -0.037372369 1.322 4283510685
0.0024676961 -0.037372369 1.322 4283379611
0.0036122582 -0.037344098 1.3210001 4283182232
0.0047550844 -0.037315827 1.3200001 4283248025
0.0058961753 -0.037287559 1.319 4283182233
0.0070355302 -0.037259292 1.3180001 4282919833
0.0081607383 -0.037174482 1.3150001 4283116956
0.0092948861 -0.037146211 1.314 4282985626
0.010435239 -0.037146211 1.314 4282788247
0.011549165 -0.037061401 1.3110001 4282788247
0.012677238 -0.037033133 1.3100001 4282788247
0.013761395 -0.036891785 1.3050001 4282722452
0.014871112 -0.036835246 1.3030001 4283183003
0.015866831 -0.036524281 1.2920001 4283578272
0.016948646 -0.036439471 1.289 4283512479
0.018025255 -0.036354665 1.286 4283249307
0.019007348 -0.036100239 1.2770001 4283380893
0.020084087 -0.036043696 1.2750001 4283315613
0.021090874 -0.03587408 1.2690001 4283118491
0.022192175 -0.03587408 1.2690001 4283118748
0.02327512 -0.035845809 1.268 4282987162
0.024337104 -0.035789274 1.266 4282592406
0.025435802 -0.035789274 1.266 4282460820
0.026534498 -0.035789274 1.266 4282395029
0.027611369 -0.035761002 1.2650001 4282460822
0.028709199 -0.035761002 1.2650001 4282657432
0.029807029 -0.035761002 1.2650001 4282657432
0.030904857 -0.035761002 1.2650001 4282722971
0.031977389 -0.035732731 1.2640001 4282788764
0.033074349 -0.035732731 1.2640001 4282722201
0.034171309 -0.035732731 1.2640001 4282919580
0.035268273 -0.035732731 1.2640001 4283051166
0.036365233 -0.035732731 1.2640001 4283248545
0.037432555 -0.035704464 1.263 4283510947
0.038498145 -0.035676196 1.2620001 4283379104
0.039593372 -0.035676196 1.2620001 4283510691
0.040656354 -0.035647925 1.261 4283708326
0.04175071 -0.035647925 1.261 4283510947
0.04284507 -0.035647925 1.261 4283313311
0.043939427 -0.035647925 1.261 4282853785
0.045033786 -0.035647925 1.261 4282524820
0.046128143 -0.035647925 1.261 4282196367
0.047297396 -0.035704464 1.263 4282064781
0.048431806 -0.035732731 1.2640001 4281999499
0.04952877 -0.035732731 1.2640001 4282065291
0.050705835 -0.035789274 1.266 4281671302
0.051804531 -0.035789274 1.266 4281473923
0.052903228 -0.035789274 1.266 4281277055
0.054001924 -0.035789274 1.266 4281343103
0.05510062 -0.035789274 1.266 4281212031
0.05619932 -0.035789274 1.266 4281212285
0.057252754 -0.035761002 1.2650001 4281146490
0.058350585 -0.035761002 1.2650001 4281146490
0.059448414 -0.035761002 1.2650001 4281014902
0.060594112 -0.035789274 1.266 4280949109
0.061692808 -0.035789274 1.266 4280883574
0.063991129 -0.035845809 1.268 4281080699
0.0651429 -0.03587408 1.2690001 4281080699
0.066296399 -0.035902351 1.2700001 4281211004
0.06739857 -0.035902351 1.2700001 4281079418
0.068500735 -0.035902351 1.2700001 4281341823
0.069602907 -0.035902351 1.2700001 4281407616
0.0706494 -0.03587408 1.2690001 4281801609
0.071750708 -0.03587408 1.2690001 4282722454
0.072794594 -0.035845809 1.268 4284235438
0.073895022 -0.035845809 1.268 4284564403
0.074936315 -0.035817541 1.2670001 4283905964
0.075975873 -0.035789274 1.266 4282655640
0.077074565 -0.035789274 1.266 4281997197
0.078173265 -0.035789274 1.266 4282392211
0.079271957 -0.035789274 1.266 4282786969
0.080370657 -0.035789274 1.266 4282721177
0.0815337 -0.035817541 1.2670001 4282326930
0.082698487 -0.035845809 1.268 4282195344
0.083865009 -0.03587408 1.2690001 4282195088
0.085033268 -0.035902351 1.2700001 4282261907
0.086271085 -0.03595889 1.2720001 4282261905
0.087443672 -0.035987157 1.273 4282196368
0.088618003 -0.036015429 1.274 4282327953
0.089934923 -0.036100239 1.2770001 4282328210
0.091114461 -0.036128506 1.2780001 4282262415
0.092295736 -0.036156777 1.279 4282196622
0.093697838 -0.036269855 1.2830001 4282262159
0.094811291 -0.036269855 1.2830001 4282130574
0.095999502 -0.036298122 1.284 4282261391
0.097340725 -0.036382932 1.2870001 4282326928
0.098457642 -0.036382932 1.2870001 4282458257
0.099651933 -0.0364112 1.2880001 4282852759
0.10084797 -0.036439471 1.289 4283575458
0.10196662 -0.036439471 1.289 4283838630
0.10308528 -0.036439471 1.289 4283706278
0.10428478 -0.036467742 1.2900001 4283377314
0.1054043 -0.036467742 1.2900001 4283113886
0.10652383 -0.036467742 1.2900001 4283048093
0.10764335 -0.036467742 1.2900001 4283640231
0.10867856 -0.036439471 1.289 4284298160
0.10979722 -0.036439471 1.289 4284100782
0.11091588 -0.036439471 1.289 4283837609
0.11203454 -0.036439471 1.289 4283771815
0.1131532 -0.036439471 1.289 4283640484
0.11427186 -0.036439471 1.289 4283246238
0.11539052 -0.036439471 1.289 4282193549
0.11650917 -0.036439471 1.289 4281470082
0.11771909 -0.036467742 1.2900001 4281536132
0.11893073 -0.03649601 1.291 4281536644
0.12005112 -0.03649601 1.291 4281734023
0.12126537 -0.036524281 1.2920001 4281865609
0.12238664 -0.036524281 1.2920001 4281997195
0.1235079 -0.036524281 1.2920001 4282325903
0.12482208 -0.03658082 1.294 4282457489
0.12604241 -0.036609091 1.2950001 4282523539
0.12726447 -0.036637358 1.296 4282786711
0.12878546 -0.036750436 1.3000001 4282852758
0.13011353 -0.036806978 1.302 4283049622
0.13134427 -0.036835246 1.3030001 4283312530
0.13442619 -0.037061401 1.3110001 4287854012
0.13587415 -0.037146211 1.314 4287198118
0.13722306 -0.037202749 1.3160001 4283977328
-0.036347806 -0.03494487 1.2750001 4285555860
-0.035186015 -0.034890056 1.273 4287397815
-0.034054473 -0.034862649 1.2720001 4288581324
-0.032846954 -0.034753017 1.268 4288777939
-0.03172148 -0.03472561 1.2670001 4288185034
-0.030573577 -0.034670793 1.2650001 4287001020
-0.029475749 -0.034670793 1.2650001 4286015150
-0.028355487 -0.034643386 1.2640001 4285489315
-0.011299863 -0.036233034 1.322 4282787475
-0.010144887 -0.036205627 1.3210001 4282392206
-0.0089916466 -0.03617822 1.3200001 4282392207
-0.00785203 -0.036205627 1.3210001 4283379101
-0.0067106769 -0.036233034 1.322 4283510430
-0.0055633802 -0.036233034 1.322 4283247256
-0.0044227643 -0.036287848 1.3240001 4283313050
-0.0032737323 -0.036287848 1.3240001 4283379099
-0.0021246998 -0.036287848 1.3240001 4283313561
-0.00097566756 -0.036287848 1.3240001 4283181974
0.00017336474 -0.036287848 1.3240001 4283050645
0.001322397 -0.036287848 1.3240001 4282984852
0.0024695627 -0.036260441 1.3230001 4282984852
0.0036177272 -0.036260441 1.3230001 4282853267
0.0047586868 -0.036205627 1.3210001 4282722452
0.0059006456 -0.03617822 1.3200001 4282656659
0.0070462064 -0.03617822 1.3200001 4282590868
0.0081731491 -0.036095995 1.317 4282525075
0.0093090329 -0.036068588 1.3160001 4282459282
0.010443182 -0.036041182 1.3150001 4282525075
0.011549165 -0.035931546 1.3110001 4282590866
0.012677238 -0.035904143 1.3100001 4282393487
0.013750849 -0.035739694 1.304 4282459278
0.0148597 -0.03568488 1.302 4282590864
0.015854551 -0.035383392 1.291 4283380380
0.016948646 -0.035328578 1.289 4283446173
0.018011237 -0.03521895 1.2850001 4282986135
0.019007348 -0.034999687 1.2770001 4283052185
0.020084087 -0.03494487 1.2750001 4283118234
0.021107495 -0.034807831 1.2700001 4283118234
0.022192175 -0.034780424 1.2690001 4283250334
0.023293475 -0.034780424 1.2690001 4282789783
0.02435633 -0.03472561 1.2670001 4282723992
0.025455894 -0.03472561 1.2670001 4282592406
0.026534498 -0.034698203 1.266 4282460822
0.027611369 -0.034670793 1.2650001 4282395029
0.028709199 -0.034670793 1.2650001 4282328981
0.029807029 -0.034670793 1.2650001 4282328724
0.030904857 -0.034670793 1.2650001 4282459799
0.031977389 -0.034643386 1.2640001 4282459799
0.033074349 -0.034643386 1.2640001 4282525335
0.034144275 -0.034615979 1.263 4282656921
0.035268273 -0.034643386 1.2640001 4282722714
0.036336463 -0.034615979 1.263 4282919836
0.037432555 -0.034615979 1.263 4283051166
0.038498145 -0.034588572 1.2620001 4282985116
0.039561994 -0.034561161 1.261 4283050396
0.040656354 -0.034561161 1.261 4282984603
0.04175071 -0.034561161 1.261 4283050396
0.04284507 -0.034561161 1.261 4283050396
0.043939427 -0.034561161 1.261 4282853785
0.045033786 -0.034561161 1.261 4282524820
0.046128143 -0.034561161 1.261 4282262160
0.047297396 -0.034615979 1.263 4282262160
0.048393492 -0.034615979 1.263 4282196621
0.04952877 -0.034643386 1.2640001 4281999753
0.050665785 -0.034670793 1.2650001 4281670788
0.051763613 -0.034670793 1.2650001 4281474177
0.052861441 -0.034670793 1.2650001 4281277310
0.053959273 -0.034670793 1.2650001 4281145723
0.055057101 -0.034670793 1.2650001 4281080699
0.056110539 -0.034643386 1.2640001 4281146490
0.057207499 -0.034643386 1.2640001 4281146488
0.058304459 -0.034643386 1.2640001 4281080695
0.059401423 -0.034643386 1.2640001 4281014902
0.060546242 -0.034670793 1.2650001 4280883316
0.061644074 -0.034670793 1.2650001 4280752245
0.062841102 -0.03472561 1.2670001 4280818038
0.063940667 -0.03472561 1.2670001 4280949113
0.065091565 -0.034753017 1.268 4280949113
0.0662442 -0.034780424 1.2690001 4281079418
0.0673455 -0.034780424 1.2690001 4281079419
0.0684468 -0.034780424 1.2690001 4281211007
0.0695481 -0.034780424 1.2690001 4281276289
0.0706494 -0.034780424 1.2690001 4281407364
0.071750708 -0.034780424 1.2690001 4282393746
0.072794594 -0.034753017 1.268 4283643301
0.073836751 -0.03472561 1.2670001 4284235438
0.074936315 -0.03472561 1.2670001 4283774889
0.075975873 -0.034698203 1.266 4282919580
0.077074565 -0.034698203 1.266 4281931659
0.078173265 -0.034698203 1.266 4282195087
0.079271957 -0.034698203 1.266 4282326160
0.080370657 -0.034698203 1.266 4282523539
0.0815337 -0.03472561 1.2670001 4282392466
0.082698487 -0.034753017 1.268 4282326673
0.083865009 -0.034780424 1.2690001 4282129807
0.085033268 -0.034807831 1.2700001 4282196114
0.0863389 -0.034890056 1.273 4282196111
0.087512366 -0.034917463 1.274 4282130831
0.088687561 -0.03494487 1.2750001 4282328466
0.090005346 -0.035027094 1.2780001 4282525588
0.091185756 -0.035054501 1.279 4282394000
0.092367902 -0.035081908 1.2800001 4282328207
0.093770862 -0.03519154 1.284 4282262160
0.094959088 -0.03521895 1.2850001 4282196367
0.096074276 -0.03521895 1.2850001 4282195598
0.097416356 -0.035301171 1.2880001 4282327184
0.098457642 -0.035273764 1.2870001 4282655124
0.099574566 -0.035273764 1.2870001 4282984346
0.10076972 -0.035301171 1.2880001 4283772838
0.10188751 -0.035301171 1.2880001 4284299182
0.1030053 -0.035301171 1.2880001 4284364209
0.10412309 -0.035301171 1.2880001 4284101037
0.10524088 -0.035301171 1.2880001 4283706026
0.10635867 -0.035301171 1.2880001 4283706026
0.10747646 -0.035301171 1.2880001 4284034477
0.10859425 -0.035301171 1.2880001 4284297392
0.10971204 -0.035301171 1.2880001 4284166062
0.11074378 -0.035273764 1.2870001 4284034476
0.11186071 -0.035273764 1.2870001 4283903401
0.11306541 -0.035301171 1.2880001 4283969193
0.11409456 -0.035273764 1.2870001 4283772327
0.11521148 -0.035273764 1.2870001 4283114653
0.11641878 -0.035301171 1.2880001 4282062220
0.11762783 -0.035328578 1.289 4281404290
0.11874649 -0.035328578 1.289 4281405058
0.11995814 -0.035355985 1.2900001 4281602437
0.12117151 -0.035383392 1.291 4281734023
0.12238664 -0.035410803 1.2920001 4281997195
0.1235079 -0.035410803 1.2920001 4282260367
0.12482208 -0.035465617 1.294 4282457746
0.12594508 -0.035465617 1.294 4282655126
0.12716627 -0.035493027 1.2950001 4282984090
0.12878546 -0.035630062 1.3000001 4283247517
0.13001361 -0.035657469 1.3010001 4283312795
0.13134427 -0.035712287 1.3030001 4283575447
0.13442619 -0.035931546 1.3110001 4287722428
0.13587415 -0.036013771 1.314 4287395242
0.13722306 -0.036068588 1.3160001 4284240758
-0.036319297 -0.033819497 1.274 4286936501
-0.035186015 -0.033792954 1.273 4288448978
-0.034027703 -0.033739857 1.271 4289040350
-0.032821044 -0.033633675 1.2670001 4289170402
-0.031696446 -0.033607133 1.266 4288445656
-0.030549409 -0.033554036 1.2640001 4287590093
-0.029452449 -0.033554036 1.2640001 4286997958
-0.028333053 -0.033527493 1.263 4287063753
-0.00097640447 -0.035173342 1.325 4282853007
0.00017362661 -0.035199884 1.3260001 4282590094
0.0013253934 -0.035226431 1.327 4282655887
0.0024788959 -0.035252977 1.3280001 4282459278
0.0036313995 -0.035252977 1.3280001 4282590864
0.0047766985 -0.035199884 1.3260001 4282656659
0.0059229964 -0.035173342 1.325 4282656659
0.0070675584 -0.035146791 1.3240001 4282590866
0.0081979726 -0.035067152 1.3210001 4282261901
0.0093373284 -0.03504061 1.3200001 4282392717
0.010467006 -0.03498752 1.3180001 4282524303
0.011557975 -0.034828242 1.312 4282721680
0.012677238 -0.034775149 1.3100001 4282590094
0.013750849 -0.034615874 1.304 4282261129
0.014836873 -0.034509692 1.3000001 4281997957
0.015842268 -0.034244232 1.2900001 4283117208
0.016935498 -0.034191139 1.2880001 4283972517
0.018011237 -0.034111504 1.2850001 4283314843
0.019007348 -0.033899136 1.2770001 4282854036
0.020084087 -0.033846043 1.2750001 4282986135
0.021107495 -0.033713315 1.2700001 4283249307
0.022209663 -0.033713315 1.2700001 4283315613
0.023293475 -0.033686768 1.2690001 4282920855
0.024375552 -0.033660222 1.268 4282723990
0.025455894 -0.033633675 1.2670001 4282592404
0.02655546 -0.033633675 1.2670001 4282395027
0.027633196 -0.033607133 1.266 4282263441
0.028709199 -0.033580583 1.2650001 4282066064
0.029807029 -0.033580583 1.2650001 4282000015
0.030880425 -0.033554036 1.2640001 4282065553
0.031977389 -0.033554036 1.2640001 4282197139
0.033074349 -0.033554036 1.2640001 4282525846
