# .PCD v0.7 - Point Cloud Data file format
VERSION 0.7
FIELDS x y z rgba
SIZE 4 4 4 4
TYPE F F F U
COUNT 1 1 1 1
WIDTH 710
HEIGHT 1
VIEWPOINT 0 0 0 1 0 0 0
POINTS 710
DATA ascii
0.046163317 -0.35910594 1.697 4278190080
0.087927483 -0.35910594 1.697 4281020468
-0.097230501 -0.35279447 1.6890001 4281020984
-0.064708263 -0.35175011 1.6840001 4280955958
0.14624418 -0.34966132 1.674 4280692273
-0.4238916 -0.34714517 1.6840001 4278190080
-0.30416381 -0.34714517 1.6840001 4280165158
-0.16325602 -0.34137318 1.6560001 4280824629
-0.15550295 -0.34425917 1.6700001 4280890165
-0.082436837 -0.34425917 1.6700001 4280430641
-0.077543803 -0.34281617 1.6630001 4280561457
-0.069025062 -0.34570217 1.677 4280758836
-0.064631417 -0.34673288 1.682 4280758579
0.14217438 -0.3463206 1.6800001 4278190080
0.14694306 -0.34673288 1.682 4280888882
0.14983068 -0.34281617 1.6630001 4278190080
-0.321051 -0.340913 1.6760001 4279837215
-0.19249596 -0.34050617 1.674 4278190080
-0.18191703 -0.33786187 1.6610001 4280693043
-0.16414328 -0.33867547 1.6650001 4280955191
-0.16054881 -0.34070957 1.6750001 4281086263
-0.076331452 -0.33298007 1.6370001 4280496434
-0.072513476 -0.33603117 1.6520001 4280430641
-0.068819262 -0.34009936 1.6720001 4280561457
0.058774665 -0.33765844 1.6600001 4278190080
-0.54363722 -0.33231646 1.6560001 4278190080
-0.42137185 -0.33231646 1.6560001 4279706403
-0.30109328 -0.33452389 1.6670001 4280099365
-0.18147892 -0.33251712 1.6570001 4280495664
-0.17630713 -0.3313131 1.651 4280692786
-0.17314515 -0.33392185 1.664 4280560433
-0.072601266 -0.33191511 1.654 4280561457
0.058562227 -0.33191511 1.654 4278190080
-0.42938888 -0.32699636 1.6520001 4278654230
-0.42615741 -0.32798606 1.6570001 4279706918
-0.42137185 -0.32778811 1.6560001 4279706401
-0.30909359 -0.32877782 1.6610001 4279640349
-0.30345145 -0.3275902 1.6550001 4279837728
-0.294756 -0.32798606 1.6570001 4280165158
-0.18410164 -0.32462108 1.6400001 4280495664
-0.18136941 -0.32778811 1.6560001 4280495664
-0.17662749 -0.32739222 1.654 4280495407
-0.17252082 -0.32818401 1.6580001 4281021497
-0.081202753 -0.32561079 1.6450001 4280561459
-0.076657854 -0.32541284 1.6440001 4280562227
-0.072776839 -0.32818401 1.6580001 4280628022
0.05873926 -0.32838193 1.659 4278190080
0.14283705 -0.32363138 1.6350001 4278190080
-0.42938888 -0.32247895 1.6520001 4278190080
-0.31174737 -0.32228374 1.651 4278190080
-0.30593008 -0.32091731 1.6440001 4278190080
-0.30235133 -0.32189333 1.649 4279837217
-0.18533646 -0.32228374 1.651 4280429871
-0.18060274 -0.32189333 1.649 4280364078
-0.076890998 -0.32189333 1.649 4280627254
-0.072513476 -0.32247895 1.6520001 4280429875
0.035556626 -0.31935567 1.636 4278190080
0.040348373 -0.32189333 1.649 4280954677
-0.55150205 -0.3154594 1.6390001 4280167468
-0.53700757 -0.30968529 1.6090001 4280363818
-0.42393053 -0.31391963 1.631 4279641124
-0.41155744 -0.31468955 1.6350001 4278190080
-0.31511271 -0.31661424 1.6450001 4279772196
-0.30967033 -0.31565189 1.6400001 4278190080
-0.17513244 -0.31565189 1.6400001 4280495664
-0.076611228 -0.31622931 1.6430001 4278190080
-0.071723379 -0.31449708 1.6340001 4278190080
-0.067625627 -0.31622931 1.6430001 4280627252
0.04005475 -0.31507447 1.6370001 4278190080
0.044531144 -0.31507447 1.6370001 4280823089
0.048917726 -0.31449708 1.6340001 4280692273
0.053320568 -0.31411213 1.6320001 4280758836
0.057924915 -0.31488201 1.636 4280758836
0.14676739 -0.31353471 1.6290001 4278190080
-0.5426814 -0.30851099 1.626 4280297768
-0.52896655 -0.30319837 1.598 4280494377
-0.41130573 -0.31002888 1.6340001 4279837217
-0.31262246 -0.30964941 1.6320001 4279837734
-0.30570504 -0.30718285 1.6190001 4279640095
-0.16950327 -0.30908021 1.6290001 4280429871
0.039883472 -0.30926993 1.6300001 4278190080
0.044123098 -0.30775204 1.6220001 4280757812
0.048438728 -0.3069931 1.618 4280561457
0.052601788 -0.30547521 1.6100001 4280561457
0.057110567 -0.3060444 1.613 4280561457
0.14523575 -0.30585468 1.6120001 4278190080
0.15038644 -0.30737257 1.6200001 4280692272
-0.30419445 -0.30125967 1.6110001 4279705631
-0.30071959 -0.30219465 1.6160001 4279771424
-0.2979508 -0.30387768 1.6250001 4279967779
-0.17321026 -0.30331668 1.6220001 4278190080
-0.16877489 -0.30331668 1.6220001 4280495664
-0.15103339 -0.30331668 1.6220001 4281021238
-0.062249042 -0.30294266 1.6200001 4281153085
0.043987084 -0.30238166 1.6170001 4278190080
0.048199225 -0.30107263 1.6100001 4280692786
0.052405756 -0.29995063 1.6040001 4280429871
0.057039753 -0.30125967 1.6110001 4280561457
0.061788321 -0.30294266 1.6200001 4278190080
0.14640701 -0.30387768 1.6250001 4281087543
0.15085058 -0.30387768 1.6250001 4280758576
-0.29960307 -0.29667008 1.6100001 4279902240
-0.17676945 -0.29740715 1.6140001 4278190080
-0.17107451 -0.29519594 1.6020001 4280298285
-0.15546876 -0.29888129 1.6220001 4280758836
-0.084085986 -0.29740715 1.6140001 4280693815
0.043633446 -0.29556447 1.6040001 4278190080
0.047839977 -0.2944589 1.598 4280560946
0.052144378 -0.29409036 1.5960001 4280758838
0.14559615 -0.29777569 1.6160001 4280561199
0.1502936 -0.29832849 1.6190001 4280692273
-0.53867638 -0.29299366 1.6140001 4280494894
-0.18536648 -0.29263058 1.6120001 4280429614
-0.18062167 -0.29208601 1.6090001 4280429871
-0.16690192 -0.29117832 1.6040001 4280627250
-0.083929695 -0.29244906 1.6110001 4280890426
-0.079623125 -0.29281211 1.613 4280627000
0.043606244 -0.29099682 1.603 4281151804
0.047869917 -0.29027066 1.5990001 4280822839
0.052013692 -0.28899992 1.5920001 4280692023
0.056827314 -0.29135984 1.605 4280692021
-0.53200132 -0.2850042 1.5940001 4280691505
-0.31203359 -0.28714979 1.6060001 4279901987
-0.30764195 -0.28714979 1.6060001 4279836193
-0.21205574 -0.23005712 1.5190001 4279507482
-0.20338538 -0.22505918 1.4860001 4279375896
-0.19945604 -0.22521064 1.4870001 4279639068
-0.19565262 -0.22551355 1.4890001 4279375896
-0.19325358 -0.22748244 1.5020001 4280428330
-0.19166493 -0.2305115 1.5220001 4278784275
-0.21789697 -0.2233752 1.5020001 4280494375
-0.20809625 -0.21742646 1.462 4280165410
-0.20130636 -0.21445209 1.442 4280231203
-0.19708946 -0.21415465 1.4400001 4280296996
-0.19301763 -0.21400593 1.439 4280296994
-0.18921408 -0.21415465 1.4400001 4280296994
-0.18489039 -0.21370849 1.437 4280362789
-0.18171649 -0.2146008 1.4430001 4280625963
-0.17850976 -0.21549313 1.4490001 4279704607
-0.17659529 -0.21802133 1.4660001 4285428599
-0.18012096 -0.22753933 1.5300001 4294442751
-0.22565982 -0.21883002 1.4990001 4280034846
-0.21609196 -0.21342862 1.462 4280363041
-0.20933777 -0.2106549 1.4430001 4280033822
-0.20382617 -0.20904908 1.432 4280099615
-0.19907273 -0.20817319 1.4260001 4279902236
-0.19517332 -0.20817319 1.4260001 4280033822
-0.19140804 -0.20831916 1.427 4280099615
-0.18750589 -0.20831916 1.427 4279902490
-0.18347509 -0.20817319 1.4260001 4280034076
-0.17982754 -0.20846516 1.4280001 4280296996
-0.17641544 -0.20904908 1.432 4280296998
-0.17310192 -0.20977901 1.437 4280625709
-0.17058514 -0.21153082 1.4490001 4279375643
-0.17145249 -0.21766214 1.4910001 4294048252
-0.24463958 -0.21702297 1.5150001 4280296996
-0.23906811 -0.21573374 1.506 4279836443
-0.22964562 -0.21086326 1.4720001 4279968283
-0.22270821 -0.20814151 1.4530001 4280231455
-0.21647686 -0.20599276 1.4380001 4280165661
-0.21165781 -0.20513326 1.432 4280165662
-0.20730677 -0.20470352 1.429 4279902490
-0.20339915 -0.20470352 1.429 4279836697
-0.19921233 -0.20441702 1.427 4279836697
-0.19531018 -0.20441702 1.427 4279902490
-0.19167632 -0.20470352 1.429 4279836697
-0.18790008 -0.20484675 1.4300001 4279902490
-0.18398973 -0.20484675 1.4300001 4279902490
-0.18033126 -0.20513326 1.432 4279836445
-0.17666182 -0.20541976 1.434 4279902240
-0.17298147 -0.20570627 1.4360001 4280165412
-0.16929016 -0.20599276 1.4380001 4280691502
-0.16650784 -0.20742525 1.4480001 4278981655
-0.165916 -0.21172275 1.478 4294508543
-0.28080809 -0.21203712 1.5090001 4280889131
-0.24205594 -0.21063195 1.4990001 4279968031
-0.2303372 -0.20388722 1.4510001 4279770650
-0.2244973 -0.20220105 1.439 4280231455
-0.21902962 -0.2007959 1.429 4280099869
-0.21467037 -0.20037436 1.4260001 4279836696
-0.21047534 -0.20009333 1.424 4279836696
-0.20701662 -0.20051487 1.427 4279836696
-0.20311446 -0.20051487 1.427 4279968282
-0.19935194 -0.2006554 1.4280001 4279770903
-0.19517332 -0.20037436 1.4260001 4279770904
-0.19167632 -0.2007959 1.429 4279836697
-0.18790008 -0.20093641 1.4300001 4279770650
-0.18437573 -0.20135798 1.4330001 4279968031
-0.18058312 -0.20149848 1.434 4279902238
-0.17678502 -0.20163898 1.4350001 4280165410
-0.17274053 -0.20149848 1.434 4280165410
-0.16917244 -0.20192002 1.437 4280099617
-0.16570291 -0.20248209 1.4410001 4280494123
-0.16254827 -0.20346569 1.4480001 4280296744
-0.16132677 -0.20697856 1.473 4293586931
-0.30866656 -0.20722184 1.5040001 4280231203
-0.3029339 -0.20611958 1.4960001 4280033824
-0.29744473 -0.20515512 1.4890001 4280099617
-0.29416117 -0.20570625 1.493 4280231201
-0.28285742 -0.20639513 1.498 4280494627
-0.27783069 -0.20570625 1.493 4281086510
-0.27374804 -0.20570625 1.493 4280428580
-0.27020729 -0.20611958 1.4960001 4280231201
-0.26469335 -0.20501734 1.488 4279902236
-0.26114985 -0.20543069 1.4910001 4279902238
-0.25586581 -0.20446621 1.4840001 4279836447
-0.2536743 -0.20598179 1.4950001 4281612858
-0.23947227 -0.20432845 1.483 4279836447
-0.22843227 -0.1982661 1.439 4279968031
-0.22309323 -0.19702606 1.4300001 4279902236
-0.21872304 -0.19661273 1.427 4279770904
-0.21467037 -0.19647495 1.4260001 4279836697
-0.21091875 -0.19661273 1.427 4279705110
-0.20730677 -0.19688828 1.429 4279836696
-0.20368382 -0.19716385 1.4310001 4279639317
-0.19977073 -0.19716385 1.4310001 4279705111
-0.19599453 -0.19730163 1.432 4279770904
-0.19248112 -0.19771497 1.4350001 4279836445
-0.18881989 -0.19799054 1.437 4279836445
-0.18514772 -0.1982661 1.439 4279770652
-0.18108684 -0.1981283 1.4380001 4279770652
-0.17703141 -0.19799054 1.437 4279836443
-0.17298147 -0.19785276 1.4360001 4280231201
-0.16917244 -0.19799054 1.437 4280165410
-0.16547292 -0.1982661 1.439 4280494377
-0.16176248 -0.19854167 1.4410001 4280625709
-0.15869823 -0.19964391 1.4490001 4279112471
-0.15879388 -0.20487955 1.4870001 4293191921
-0.31801659 -0.20121847 1.4900001 4280296996
-0.31394219 -0.20121847 1.4900001 4280296994
-0.31028369 -0.20148857 1.4920001 4280231201
-0.30599856 -0.20135354 1.4910001 4280231201
-0.30030143 -0.20027317 1.483 4280099615
-0.29564688 -0.19986802 1.48 4280165408
-0.29199389 -0.20013811 1.4820001 4280099615
-0.28930137 -0.20108344 1.4890001 4280033822
-0.28191331 -0.20162363 1.493 4280231201
-0.27652803 -0.2006783 1.4860001 4281349682
-0.27191451 -0.20027317 1.483 4280296994
-0.26858172 -0.20081334 1.4870001 4278190080
-0.26504916 -0.20121847 1.4900001 4278190080
-0.25887293 -0.19959794 1.478 4280033565
-0.25603825 -0.20054324 1.485 4279770139
-0.25384399 -0.20202877 1.4960001 4279046931
-0.23785751 -0.19892269 1.473 4279046931
-0.22827354 -0.19419608 1.4380001 4280033824
-0.2226252 -0.19271058 1.427 4279902236
-0.21841651 -0.19244051 1.4250001 4279770650
-0.21467037 -0.19257554 1.4260001 4279573525
-0.21106657 -0.19284564 1.4280001 4279573525
-0.20759691 -0.19325078 1.4310001 4279574294
-0.20368382 -0.19325078 1.4310001 4279770903
-0.20018955 -0.19365591 1.434 4279639317
-0.19654199 -0.19392601 1.4360001 4279770391
-0.19328591 -0.19460124 1.4410001 4279704600
-0.18947688 -0.19473627 1.442 4279836186
-0.1855337 -0.19473627 1.442 4279639064
-0.18108684 -0.19419608 1.4380001 4279836443
-0.17690822 -0.19392601 1.4360001 4279902236
-0.17262009 -0.19352087 1.4330001 4280099615
-0.1690547 -0.19392601 1.4360001 4280296996
-0.16535793 -0.19419608 1.4380001 4280231205
-0.16165023 -0.19446617 1.4400001 4280494123
-0.15804109 -0.19487131 1.4430001 4279573024
-0.1559106 -0.1971671 1.46 4294047230
-0.33207056 -0.19582096 1.48 4278190080
-0.3293533 -0.19661482 1.4860001 4280296744
-0.32485202 -0.19635019 1.4840001 4280362791
-0.32144251 -0.19674712 1.4870001 4280165410
-0.31652257 -0.19621788 1.483 4280165408
-0.31415287 -0.19727638 1.4910001 4280033822
-0.30394626 -0.19595326 1.4810001 4280296737
-0.29746652 -0.19436552 1.4690001 4280165151
-0.2924507 -0.19370395 1.4640001 4280165151
-0.28884143 -0.19396858 1.4660001 4280099615
-0.28638697 -0.19502707 1.4740001 4280165408
-0.28408033 -0.19621788 1.483 4280231201
-0.28134683 -0.19714405 1.4900001 4280033822
-0.27596977 -0.19621788 1.483 4281941819
-0.27173117 -0.19608556 1.4820001 4280296994
-0.26785922 -0.19621788 1.483 4280428580
-0.25621063 -0.19661482 1.4860001 4280033826
-0.23737307 -0.19449784 1.47 4279112722
-0.22890851 -0.19079311 1.442 4279770652
-0.22340526 -0.18946999 1.432 4279770650
-0.21902962 -0.18907306 1.429 4279639318
-0.21527253 -0.18920536 1.4300001 4279705111
-0.21165781 -0.18946999 1.432 4279573525
-0.20817719 -0.18986693 1.4350001 4279574294
-0.20453784 -0.19013155 1.437 4279704597
-0.20116678 -0.1906608 1.4410001 4280687642
-0.1977738 -0.19119005 1.4450001 4282258717
-0.19435897 -0.19171929 1.4490001 4282588710
-0.19052808 -0.1918516 1.45 4280358937
-0.1863057 -0.19158697 1.4480001 4279770393
-0.18196833 -0.19119005 1.4450001 4279836186
-0.17752419 -0.1906608 1.4410001 4279770652
-0.17322238 -0.19026385 1.4380001 4280164897
-0.16940789 -0.19039617 1.439 4280362278
-0.16558792 -0.19052848 1.4400001 4280296744
-0.16187474 -0.19079311 1.442 4280494124
-0.15826015 -0.19119005 1.4450001 4279638302
-0.15526986 -0.19238086 1.4540001 4294113023
-0.32266298 -0.19099641 1.4740001 4280296998
-0.31884849 -0.19112599 1.475 4280165410
-0.31545541 -0.19151472 1.478 4280231201
-0.3077881 -0.19177388 1.48 4280099615
-0.30189395 -0.19060768 1.4710001 4280230690
-0.29645404 -0.18970063 1.4640001 4280165151
-0.29085264 -0.18866402 1.4560001 4280099358
-0.28746223 -0.18905276 1.4590001 4280165408
-0.28424975 -0.18957107 1.4630001 4280296994
-0.28063229 -0.18983023 1.465 4280296994
-0.27719271 -0.19021896 1.4680001 4280033824
-0.27448106 -0.19112599 1.475 4281481270
-0.27118111 -0.1916443 1.4790001 4280428069
-0.23559679 -0.18905276 1.4590001 4279902240
-0.22827354 -0.18633163 1.4380001 4279639066
-0.22356126 -0.18568376 1.4330001 4279639064
-0.21918288 -0.18529502 1.4300001 4279770904
-0.21527253 -0.18529502 1.4300001 4279705111
-0.21150999 -0.18542461 1.4310001 4279770904
-0.20832226 -0.1860725 1.4360001 4279573524
-0.20482251 -0.18646123 1.439 4279967255
-0.20172517 -0.18723868 1.4450001 4281211932
-0.19791068 -0.18736826 1.4460001 4283046950
-0.19409071 -0.18749784 1.447 4283112743
-0.18987107 -0.18723868 1.4450001 4281343518
-0.1859197 -0.18723868 1.4450001 4280426781
-0.18184242 -0.18710911 1.4440001 4279836443
-0.17789377 -0.18710911 1.4440001 4279639834
-0.17370424 -0.18684995 1.442 4279901725
-0.16976106 -0.18684995 1.442 4280296483
-0.1658179 -0.18684995 1.442 4280231205
-0.16198699 -0.18697952 1.4430001 4280691245
-0.15836966 -0.18736826 1.4460001 4280625197
-0.1550563 -0.18814573 1.452 4284572779
-0.15420739 -0.19203302 1.4820001 4293126128
-0.33225682 -0.18557048 1.4630001 4280560170
-0.3275831 -0.18518995 1.46 4280428584
-0.32669365 -0.18696573 1.4740001 4280494375
-0.32288191 -0.18709259 1.475 4280362789
-0.31733531 -0.18620469 1.4680001 4280231203
-0.31310761 -0.18607785 1.4670001 4280099615
-0.31099239 -0.18721943 1.4760001 4280099615
-0.30758014 -0.18759996 1.4790001 4280231201
-0.30230442 -0.18683891 1.473 4280099358
-0.29847899 -0.18696573 1.4740001 4280165151
-0.29404879 -0.18671207 1.4720001 4280033311
-0.29081172 -0.18721943 1.4760001 4280296483
-0.28716415 -0.18747312 1.478 4280165412
-0.28331411 -0.18759996 1.4790001 4280494377
-0.23527384 -0.18480943 1.457 4279573021
-0.22827354 -0.18239941 1.4380001 4279704859
-0.22371727 -0.18189205 1.434 4279639064
-0.2196427 -0.18176521 1.4330001 4279639318
-0.21557362 -0.18163836 1.432 4279770904
-0.21195342 -0.18189205 1.434 4279639318
-0.20861241 -0.18239941 1.4380001 4279966742
-0.2055342 -0.18316047 1.4440001 4281343005
-0.20228359 -0.18379469 1.4490001 4283439655
-0.19845815 -0.18392152 1.45 4283636520
-0.19422483 -0.18366784 1.4480001 4283768106
-0.19000247 -0.18341416 1.4460001 4283373862
-0.1859197 -0.18328731 1.4450001 4282392358
-0.18234612 -0.18366784 1.4480001 4280426013
-0.17863294 -0.18392152 1.45 4279835932
-0.17454745 -0.18379469 1.4490001 4279902238
-0.17023197 -0.18341416 1.4460001 4280099617
-0.16604789 -0.18316047 1.4440001 4280362276
-0.16209924 -0.18316047 1.4440001 4280493864
-0.15858871 -0.18366784 1.4480001 4280625197
-0.1549495 -0.18404835 1.4510001 4279375643
-0.1532709 -0.18683891 1.473 4293257968
-0.3320297 -0.18144579 1.462 4280625963
-0.32892933 -0.18194221 1.4660001 4280428584
-0.32047397 -0.18169399 1.4640001 4280296996
-0.31711915 -0.18206632 1.4670001 4280231201
-0.3128942 -0.18194221 1.4660001 4280099615
-0.2364042 -0.18169399 1.4640001 4279968033
-0.22795604 -0.17821898 1.4360001 4279704859
-0.22340526 -0.17772254 1.432 4279704857
-0.2196427 -0.17784666 1.4330001 4279639064
-0.21572416 -0.17784666 1.4330001 4279770904
-0.2118056 -0.17784666 1.4330001 4279770391
-0.20817719 -0.17809486 1.4350001 4280228375
-0.20496486 -0.17871541 1.4400001 4281931807
-0.20172517 -0.17933594 1.4450001 4283570727
-0.19791068 -0.17946006 1.4460001 4283636007
-0.19409071 -0.17958416 1.447 4283833899
-0.18973969 -0.17921184 1.4440001 4283506474
-0.1855337 -0.17896362 1.442 4281474079
-0.18159054 -0.17896362 1.442 4280623392
-0.17826337 -0.17958416 1.447 4279967772
-0.17442699 -0.17970826 1.4480001 4279901725
-0.17023197 -0.17946006 1.4460001 4279903008
-0.16604789 -0.17921184 1.4440001 4280494375
-0.16221151 -0.17933594 1.4450001 4280494377
-0.15847918 -0.17958416 1.447 4280428331
-0.1549495 -0.18008058 1.4510001 4284506984
-0.15275064 -0.18219043 1.4680001 4292994542
-0.35225976 -0.1775693 1.4630001 4280954928
-0.22859102 -0.1747777 1.4400001 4279705111
-0.22387329 -0.17417085 1.4350001 4279705111
-0.22010252 -0.17429221 1.4360001 4279639318
-0.21617576 -0.17429221 1.4360001 4279705111
-0.21239683 -0.17441359 1.437 4279836184
-0.20861241 -0.17453496 1.4380001 4280424983
-0.20524952 -0.17502046 1.442 4282390560
-0.20158558 -0.17526321 1.4440001 4283373862
-0.1981844 -0.17574871 1.4480001 4283636520
-0.19449311 -0.17599145 1.45 4283767593
-0.19052808 -0.17599145 1.45 4283244072
-0.18617705 -0.17562732 1.447 4281999395
-0.18234612 -0.17574871 1.4480001 4280098329
-0.17875615 -0.17611282 1.4510001 4279770650
-0.17466791 -0.17599145 1.45 4280099104
-0.17023197 -0.17550595 1.4460001 4280034594
-0.16627787 -0.17550595 1.4460001 4280231203
-0.16254827 -0.17574871 1.4480001 4280560170
-0.15869823 -0.17587008 1.4490001 4280625197
-0.15516308 -0.17635556 1.4530001 4284178019
-0.22859102 -0.17084001 1.4400001 4279836445
-0.22356126 -0.17000954 1.4330001 4279705111
-0.2196427 -0.17000954 1.4330001 4279705111
-0.21617576 -0.17036545 1.4360001 4279836697
-0.21239683 -0.1704841 1.437 4279770904
-0.20875748 -0.17072138 1.439 4279836184
-0.20496486 -0.17084001 1.4400001 4281275930
-0.20130636 -0.1710773 1.442 4283177509
-0.1977738 -0.17143321 1.4450001 4283636520
-0.19435897 -0.17190777 1.4490001 4283899179
-0.19039667 -0.17190777 1.4490001 4283047720
-0.18617705 -0.1716705 1.447 4281868837
-0.18209428 -0.17155185 1.4460001 4280557086
-0.17850976 -0.17190777 1.4490001 4279967004
-0.17454745 -0.17190777 1.4490001 4280164897
-0.17046742 -0.17178914 1.4480001 4280035107
-0.16639286 -0.1716705 1.447 4280362791
-0.16254827 -0.17178914 1.4480001 4280230694
-0.15858871 -0.17178914 1.4480001 4280559917
-0.15516308 -0.17238232 1.4530001 4286086531
-0.22970223 -0.16771366 1.447 4279902240
-0.22387329 -0.16632281 1.4350001 4279836443
-0.21979599 -0.1662069 1.434 4279902490
-0.21647686 -0.16667052 1.4380001 4279770904
-0.21284024 -0.16690232 1.4400001 4279836697
-0.20904763 -0.16701822 1.4410001 4280032793
-0.20539187 -0.16725004 1.4430001 4280292885
-0.20158558 -0.16736595 1.4440001 4282324767
-0.19804755 -0.16771366 1.447 4282391330
-0.19449311 -0.16806136 1.45 4282851882
-0.19079086 -0.16829318 1.452 4280950815
-0.18682036 -0.16829318 1.452 4280295454
-0.18297578 -0.16840908 1.4530001 4279901979
-0.17875615 -0.16817728 1.4510001 4279968031
-0.17490883 -0.16829318 1.452 4279903008
-0.17058514 -0.16794546 1.4490001 4280034594
-0.16662285 -0.16794546 1.4490001 4280231205
-0.16243602 -0.16771366 1.447 4280428330
-0.15880775 -0.16806136 1.45 4280691505
-0.22371727 -0.16228561 1.434 4279902240
-0.21948944 -0.16205926 1.432 4279836445
-0.21617576 -0.16251194 1.4360001 4279902490
-0.21269242 -0.16285147 1.439 4279770904
-0.20875748 -0.16285147 1.439 4279770904
-0.20482251 -0.16285147 1.439 4279901977
-0.20116678 -0.1630778 1.4410001 4280032536
-0.1977738 -0.16353047 1.4450001 4280098329
-0.19409071 -0.16375682 1.447 4281017891
-0.22025581 -0.15869562 1.437 4279770652
-0.21677794 -0.15902694 1.4400001 4279770650
-0.21313585 -0.1592478 1.442 4279902236
-0.20904763 -0.15913737 1.4410001 4279968029
-0.2051072 -0.15913737 1.4410001 4279968283
-0.20116678 -0.15913737 1.4410001 4280099869
-0.27047974 -0.14821249 1.4120001 4280362791
-0.26529685 -0.14747773 1.4050001 4280362791
-0.26145485 -0.14747773 1.4050001 4280494377
-0.25926307 -0.14842242 1.414 4279244056
-0.25792512 -0.14989194 1.4280001 4279309849
-0.27839899 -0.1444536 1.4130001 4280297768
-0.2685121 -0.14128441 1.3820001 4280428584
-0.26262587 -0.14015986 1.3710001 4280362789
-0.25887686 -0.14015986 1.3710001 4280362787
-0.25605828 -0.14067101 1.376 4280231201
-0.25339571 -0.14128441 1.3820001 4280099617
-0.25106159 -0.14210226 1.3900001 4280231203
-0.24850582 -0.14281788 1.3970001 4280230951
-0.24696265 -0.1441469 1.4100001 4279441436
-0.28006551 -0.13949525 1.4020001 4280230951
-0.26992685 -0.13631135 1.3700001 4280362789
-0.26423764 -0.13531637 1.36 4280231201
-0.25994405 -0.13501789 1.3570001 4280231201
-0.25698861 -0.13541587 1.3610001 4280165408
-0.25456956 -0.13611235 1.368 4280165662
-0.25174552 -0.13660984 1.373 4280099869
-0.24871352 -0.13700782 1.3770001 4280033822
-0.24512598 -0.13710733 1.378 4280033822
-0.24240874 -0.13770431 1.3840001 4280230690
-0.24017592 -0.13859978 1.393 4280296487
-0.23908167 -0.14019175 1.409 4279638302
-0.27327362 -0.13237154 1.368 4280165412
-0.26618335 -0.13072658 1.3510001 4280362787
-0.26210043 -0.13053305 1.3490001 4280165662
-0.25860316 -0.13062982 1.35 4280231455
-0.25604451 -0.13121039 1.3560001 4279968283
-0.2536391 -0.13188773 1.363 4279968282
-0.25101209 -0.1324683 1.3690001 4279770904
-0.24799104 -0.13285536 1.373 4279836697
-0.24423656 -0.13285536 1.373 4279836697
-0.24100754 -0.13314565 1.376 4279967002
-0.23776209 -0.13343593 1.3790001 4280099104
-0.2348396 -0.13391975 1.3840001 4280296487
-0.23272453 -0.13488737 1.3940001 4280427818
-0.28146932 -0.13069935 1.3900001 4280231205
-0.27087647 -0.1275024 1.3560001 4280099617
-0.26539522 -0.12665613 1.3470001 4280231455
-0.26151755 -0.12656212 1.3460001 4280099869
-0.25802848 -0.12665613 1.3470001 4280099869
-0.25566685 -0.12731434 1.3540001 4279968029
-0.2536391 -0.1281606 1.363 4280034076
-0.25137883 -0.12891282 1.3710001 4279967770
-0.24853291 -0.12938297 1.376 4279835414
-0.24459232 -0.12928893 1.3750001 4279967000
-0.24118268 -0.12947698 1.3770001 4279704600
-0.23758967 -0.12957102 1.378 4279967772
-0.2341609 -0.12975907 1.3800001 4280033311
-0.23088811 -0.13004115 1.383 4280296485
-0.22874841 -0.13098145 1.393 4280362280
-0.28650168 -0.12744616 1.396 4278190080
-0.27762192 -0.12516381 1.3710001 4280164899
-0.26887885 -0.12288146 1.3460001 4280231201
-0.26381904 -0.1222424 1.3390001 4280231455
-0.26015753 -0.1222424 1.3390001 4280165662
-0.25726223 -0.12260757 1.3430001 4280099615
-0.25510037 -0.12333792 1.3510001 4279968029
-0.25308084 -0.12415957 1.36 4279968029
-0.25137883 -0.12516381 1.3710001 4280231455
-0.24853291 -0.12562028 1.376 4279967770
-0.24512598 -0.12580286 1.378 4279507219
-0.24153298 -0.12589416 1.3790001 4279900696
-0.23810692 -0.12607674 1.381 4279901209
-0.23382151 -0.12580286 1.378 4280098590
-0.23038727 -0.12598546 1.3800001 4280033311
-0.22694206 -0.12616804 1.3820001 4280099106
-0.22477777 -0.12708098 1.3920001 4280230951
-0.28990313 -0.12345165 1.3940001 4278190080
-0.28301278 -0.12212327 1.3790001 4278190080
-0.27559695 -0.1205292 1.3610001 4280493348
-0.26847935 -0.11902369 1.3440001 4279836186
-0.26381904 -0.11858089 1.3390001 4279902490
-0.25996321 -0.11849233 1.3380001 4280099869
-0.25707069 -0.11884657 1.342 4280165408
-0.25434509 -0.11928937 1.3470001 4280165151
-0.25252259 -0.12017496 1.3570001 4280361760
-0.2506454 -0.12106056 1.3670001 4281213987
-0.24835227 -0.12176903 1.3750001 4281933349
-0.24565963 -0.12230038 1.381 4281080091
-0.24223359 -0.12247751 1.383 4280753697
-0.23896901 -0.12274318 1.386 4280162841
-0.2348396 -0.12256607 1.3840001 4279835932
-0.23055421 -0.12230038 1.381 4280229663
-0.22677785 -0.12230038 1.381 4280034594
-0.22364742 -0.12265462 1.3850001 4280165412
-0.22097133 -0.12327454 1.3920001 4280493611
-0.33227509 -0.11843821 1.3800001 4283705658
-0.32754931 -0.11809491 1.376 4284429124
-0.32519847 -0.11860985 1.3820001 4280953134
-0.28362846 -0.11860985 1.3820001 4278190080
-0.27559695 -0.11680753 1.3610001 4280361251
-0.26847935 -0.11534851 1.3440001 4280032797
-0.26322794 -0.11466192 1.3360001 4279968283
-0.25957465 -0.11466192 1.3360001 4280099869
-0.25611287 -0.11474774 1.337 4280165662
-0.25321215 -0.11509104 1.3410001 4280296735
-0.25047562 -0.11552016 1.3460001 4280230172
-0.24826181 -0.11620677 1.3540001 4281671971
-0.24672669 -0.11723666 1.3660001 4284621620
-0.24530387 -0.11835238 1.3790001 4285802814
-0.24170814 -0.11843821 1.3800001 4284490036
-0.23879659 -0.11886732 1.3850001 4282130728
-0.23466994 -0.11869568 1.383 4280555805
-0.23072116 -0.11860985 1.3820001 4279901211
-0.22644943 -0.11835238 1.3790001 4280033824
-0.22284003 -0.11843821 1.3800001 4280100389
-0.21954264 -0.11869568 1.383 4280296744
-0.33083043 -0.11416604 1.3740001 4285742161
-0.32564494 -0.11366749 1.368 4283837244
-0.32331601 -0.11416604 1.3740001 4281150767
-0.27640694 -0.11341822 1.365 4280623910
-0.26927838 -0.11200569 1.348 4280230176
-0.26381904 -0.11125787 1.3390001 4279836443
-0.25996321 -0.11117478 1.3380001 4279836443
-0.25611287 -0.1110917 1.337 4279836443
-0.2530233 -0.11134097 1.34 4280231455
-0.24973126 -0.11150714 1.342 4280165408
-0.24716167 -0.11200569 1.348 4280558369
-0.24510114 -0.1127535 1.3570001 4283835954
-0.2437029 -0.11383368 1.3700001 4285604408
-0.24083237 -0.11424913 1.3750001 4286325308
-0.23758967 -0.1144984 1.378 4285997370
-0.23466994 -0.11491385 1.383 4283176486
-0.23088811 -0.11491385 1.383 4280817691
-0.22677785 -0.11474767 1.381 4280033311
-0.22267854 -0.11458149 1.3790001 4280165412
-0.21922514 -0.11474767 1.381 4280362280
-0.33058965 -0.11032847 1.373 4286004565
-0.32540688 -0.10984634 1.3670001 4282850351
-0.32213944 -0.11000704 1.3690001 4280952105
-0.27741942 -0.1100874 1.3700001 4280822059
-0.27007741 -0.10864099 1.3520001 4280230690
-0.26421309 -0.10775708 1.3410001 4279967002
-0.2597689 -0.10743566 1.337 4279705627
-0.25572976 -0.10727494 1.335 4280099615
-0.25245684 -0.10743566 1.337 4280296994
-0.2489869 -0.10751601 1.3380001 4280165408
-0.24606155 -0.10783743 1.342 4280362787
-0.24365616 -0.10839993 1.3490001 4280491806
-0.24210194 -0.1093642 1.3610001 4283966002
-0.23960634 -0.10992669 1.368 4284552749
-0.2367276 -0.11032847 1.373 4286851652
-0.23382151 -0.11073025 1.378 4285538874
-0.23022032 -0.1108106 1.3790001 4282326567
-0.2259568 -0.11056954 1.376 4280295969
-0.22170967 -0.11032847 1.373 4280296996
-0.21811394 -0.11040882 1.3740001 4280166180
-0.21513677 -0.1108106 1.3790001 4280165158
-0.32588297 -0.1062635 1.3690001 4284492866
-0.32096288 -0.10587539 1.3640001 4283904831
-0.271276 -0.10540967 1.358 4280952873
-0.26500118 -0.10440059 1.345 4280032282
-0.26035181 -0.10401248 1.34 4279836443
-0.25611287 -0.10377962 1.337 4279639834
-0.25245684 -0.10377962 1.337 4280033565
-0.2488008 -0.10377962 1.337 4280165408
-0.24551149 -0.10393486 1.3390001 4280362530
-0.24257244 -0.10424534 1.3430001 4280230944
-0.23978944 -0.10463345 1.348 4280296737
-0.23767968 -0.10533205 1.3570001 4280755748
-0.23534827 -0.10595302 1.365 4282853422
-0.23280342 -0.10649636 1.3720001 4285412419
-0.22921863 -0.10657398 1.373 4282790709
-0.22546415 -0.10657398 1.373 4280298018
-0.22170967 -0.10657398 1.373 4280166178
-0.21811394 -0.1066516 1.3740001 4280165408
-0.32049227 -0.10199575 1.3620001 4285084742
-0.31793076 -0.10237019 1.3670001 4283511613
-0.27247456 -0.10214552 1.3640001 4282790459
-0.26598632 -0.10109711 1.35 4280690727
-0.2607404 -0.10049801 1.342 4280033824
-0.25611287 -0.10012358 1.337 4279901725
-0.25207919 -0.099973805 1.335 4279771420
-0.24824253 -0.099898912 1.3340001 4280033822
-0.24496143 -0.10004869 1.3360001 4279968799
-0.24166934 -0.10019846 1.3380001 4280296737
-0.23836634 -0.10034824 1.34 4280297248
-0.235753 -0.10079756 1.3460001 4280034846
-0.23327927 -0.10132176 1.353 4280559137
-0.23059757 -0.10177108 1.3590001 4280493087
-0.22721526 -0.10192086 1.3610001 4280427551
-0.22382201 -0.10207064 1.363 4280231455
-0.22041784 -0.10222041 1.365 4280296994
-0.32096288 -0.098415643 1.3640001 4283377722
-0.26697144 -0.097766273 1.355 4281545525
-0.26132327 -0.097044758 1.345 4280494375
-0.25687912 -0.096756153 1.3410001 4280296483
-0.25245684 -0.09646754 1.337 4280099104
-0.24861473 -0.096395388 1.3360001 4279836443
-0.24514475 -0.09646754 1.337 4280165408
-0.24130811 -0.096395388 1.3360001 4280165408
-0.23783268 -0.09646754 1.337 4280296994
-0.2347021 -0.096683994 1.34 4280297248
-0.23207235 -0.097116917 1.3460001 4280428834
-0.2294098 -0.097549818 1.3520001 4280363041
-0.22654749 -0.097910583 1.3570001 4280296994
-0.22332938 -0.098127037 1.36 4280362787
-0.26697144 -0.094061017 1.355 4281673007
-0.26112896 -0.093297422 1.3440001 4280888622
-0.25668755 -0.093019754 1.34 4280493862
-0.25264567 -0.092880912 1.3380001 4280164897
-0.2488008 -0.092811503 1.337 4279836445
-0.24532813 -0.092880912 1.3380001 4279902238
-0.24130811 -0.092742085 1.3360001 4280033824
-0.23783268 -0.092811503 1.337 4280099615
-0.2343518 -0.092880912 1.3380001 4280494373
-0.2313827 -0.09315858 1.342 4280296994
-0.22805235 -0.093297422 1.3440001 4280362787
-0.22521189 -0.093644515 1.3490001 4280296994
-0.22234412 -0.093991607 1.3540001 4280362789
-0.26210043 -0.089955658 1.3490001 4280886055
-0.25783691 -0.089755617 1.3460001 4281217071
-0.25358978 -0.089555554 1.3430001 4280231201
-0.24991733 -0.089555554 1.3430001 4280099617
-0.24606155 -0.089488879 1.342 4279902238
-0.24166934 -0.089222148 1.3380001 4280033824
-0.23818846 -0.089288823 1.3390001 4279836443
-0.2347021 -0.089355513 1.34 4280099615
-0.2315551 -0.089555554 1.3430001 4280231201
-0.22805235 -0.089622244 1.3440001 4280362787
-0.22504497 -0.089888975 1.348 4280296996
-0.2221799 -0.090222396 1.353 4280494375
-0.2506617 -0.086138912 1.3470001 4280559141
-0.24661161 -0.086011015 1.345 4280296996
-0.24203058 -0.085691266 1.34 4280034594
-0.23836634 -0.085691266 1.34 4280164897
-0.23487726 -0.085755214 1.3410001 4280033311
-0.2315551 -0.085883111 1.3430001 4279968031
-0.22771299 -0.085819162 1.342 4280033824
-0.22454412 -0.086011015 1.345 4280099617
