# .PCD v0.7 - Point Cloud Data file format
VERSION 0.7
FIELDS x y z rgba
SIZE 4 4 4 4
TYPE F F F U
COUNT 1 1 1 1
WIDTH 1087
HEIGHT 1
VIEWPOINT 0 0 0 1 0 0 0
POINTS 1087
DATA ascii
-0.18553635 -0.26454747 1.5760001 4280101161
-0.18191671 -0.26555464 1.582 4280232235
-0.17927459 -0.26807255 1.5970001 4280495407
-0.17830278 -0.27327621 1.628 4280231722
-0.17449173 -0.27428338 1.6340001 4293916412
-0.1703357 -0.27478695 1.6370001 4293192689
-0.16606194 -0.27512264 1.6390001 4293126896
-0.16177724 -0.2754584 1.641 4293126898
-0.15700237 -0.2749548 1.6380001 4293192691
-0.152337 -0.27461907 1.636 4293126898
-0.14777297 -0.27445123 1.6350001 4293192691
-0.14338969 -0.27461907 1.636 4293126898
-0.13908586 -0.2749548 1.6380001 4293192691
-0.13460673 -0.2749548 1.6380001 4293192691
-0.13012761 -0.2749548 1.6380001 4293192691
-0.12564848 -0.2749548 1.6380001 4293192691
-0.12109538 -0.27478695 1.6370001 4293126898
-0.11654774 -0.27461907 1.636 4293192691
-0.1122796 -0.27512264 1.6390001 4293061618
-0.10786351 -0.27529052 1.6400001 4293061618
-0.10325284 -0.2749548 1.6380001 4293193204
-0.09871342 -0.27478695 1.6370001 4292995825
-0.094294593 -0.2749548 1.6380001 4293061618
-0.089760631 -0.27478695 1.6370001 4293126898
-0.085232139 -0.27461907 1.636 4293258484
-0.080412939 -0.27344409 1.6290001 4293653242
-0.07572528 -0.27260476 1.6240001 4278718231
-0.070669912 -0.2702547 1.6100001 4279310368
-0.065979235 -0.26907972 1.603 4279835944
-0.061672665 -0.26941541 1.605 4279704358
-0.05731947 -0.26958328 1.6060001 4282072906
-0.053092625 -0.27042258 1.6110001 4287731105
-0.048777997 -0.27092618 1.6140001 4292007650
-0.044419471 -0.2712619 1.6160001 4293981439
-0.040074762 -0.27176547 1.6190001 4293849854
-0.035713647 -0.27226904 1.6220001 4294047231
-0.031278271 -0.27226904 1.6220001 4293849853
-0.026942192 -0.27327621 1.628 4293126130
-0.022476597 -0.27310833 1.6270001 4293191923
-0.018005388 -0.27277261 1.6250001 4293323509
-0.013586847 -0.27327621 1.628 4293126130
-0.0091518983 -0.27377978 1.631 4292929519
-0.0046890364 -0.27361193 1.6300001 4293126128
-0.00023150136 -0.27327621 1.628 4292994542
0.0042228727 -0.27344409 1.6290001 4293060335
0.0086880429 -0.27377978 1.631 4292929519
0.013164151 -0.2741155 1.6330001 4292929519
0.017618809 -0.27394766 1.6320001 4293061105
0.022067998 -0.27377978 1.631 4293126898
-0.33349943 -0.26832905 1.6250001 4278190080
-0.3272334 -0.26684293 1.6160001 4278190080
-0.31841969 -0.26321015 1.5940001 4279376925
-0.30933222 -0.25924715 1.5700001 4279508763
-0.30523336 -0.25941226 1.5710001 4279639834
-0.30400234 -0.26205429 1.5870001 4279574041
-0.30192855 -0.26403579 1.5990001 4279639834
-0.29662564 -0.26321015 1.5940001 4279639836
-0.29336697 -0.2642009 1.6 4279704608
-0.29332662 -0.26816392 1.6240001 4293323761
-0.28941944 -0.26865929 1.6270001 4293192175
-0.28479522 -0.26849416 1.626 4293126128
-0.28069374 -0.26882443 1.628 4293191923
-0.27658135 -0.26915467 1.6300001 4293257714
-0.27212408 -0.26915467 1.6300001 4293060335
-0.2673384 -0.26882443 1.628 4293061105
-0.26304811 -0.26898956 1.6290001 4293126898
-0.25891107 -0.2693198 1.631 4293061616
-0.2544511 -0.2693198 1.631 4292995823
-0.24983785 -0.26915467 1.6300001 4292929771
-0.24523005 -0.26898956 1.6290001 4293127409
-0.24107113 -0.2693198 1.631 4292996077
-0.23661114 -0.2693198 1.631 4293193456
-0.2322935 -0.26948494 1.6320001 4293061870
-0.22797039 -0.26965004 1.6330001 4292996077
-0.22309433 -0.26915467 1.6300001 4293851386
-0.2183688 -0.26882443 1.628 4294377471
-0.21312863 -0.26783368 1.6220001 4293259249
-0.20740663 -0.26618242 1.6120001 4280100649
-0.19859105 -0.26040304 1.577 4280100648
-0.19304678 -0.25875178 1.567 4280034855
-0.18180174 -0.26106352 1.5810001 4280232747
-0.17815201 -0.26205429 1.5870001 4280495664
-0.17578375 -0.26502654 1.605 4279508512
-0.17321026 -0.26783368 1.6220001 4294508543
-0.16929515 -0.26865929 1.6270001 4293126896
-0.1653527 -0.26948494 1.6320001 4293126896
-0.16088998 -0.26948494 1.6320001 4293061105
-0.15652311 -0.26965004 1.6330001 4293258484
-0.15187143 -0.2693198 1.631 4293192691
-0.14741145 -0.2693198 1.631 4293192691
-0.14295146 -0.2693198 1.631 4293126898
-0.13849148 -0.2693198 1.631 4293324277
-0.13386713 -0.26898956 1.6290001 4293192691
-0.12957151 -0.2693198 1.631 4293126898
-0.12511152 -0.2693198 1.631 4293192691
-0.12079947 -0.26965004 1.6330001 4293192691
-0.11626279 -0.26948494 1.6320001 4293192691
-0.11186857 -0.26965004 1.6330001 4293061618
-0.10733735 -0.26948494 1.6320001 4293061618
-0.10274855 -0.26915467 1.6300001 4293061618
-0.0982913 -0.26915467 1.6300001 4292995825
-0.093949191 -0.26948494 1.6320001 4293061618
-0.089431636 -0.2693198 1.631 4292995825
-0.084815361 -0.26882443 1.628 4292995825
-0.080116756 -0.26799878 1.623 4293126898
-0.075585388 -0.26766855 1.6210001 4293389300
-0.070889384 -0.2666778 1.6150001 4294047230
-0.066431992 -0.26651266 1.6140001 4294244607
-0.062095344 -0.26684293 1.6160001 4293981439
-0.057819135 -0.26750341 1.6200001 4293126130
-0.053389229 -0.26750341 1.6200001 4293191923
-0.048959326 -0.26750341 1.6200001 4293126130
-0.044529423 -0.26750341 1.6200001 4293191924
-0.040173776 -0.26799878 1.623 4293126130
-0.035757683 -0.26816392 1.6240001 4293191921
-0.031336121 -0.26832905 1.6250001 4293061105
-0.026875995 -0.26816392 1.6240001 4292995825
-0.02246278 -0.26849416 1.626 4293127411
-0.018005388 -0.26832905 1.6250001 4293061618
-0.013570155 -0.26849416 1.626 4292995312
-0.0091294535 -0.26865929 1.6270001 4292995312
-0.0046746531 -0.26832905 1.6250001 4293061105
-0.00023121695 -0.26849416 1.626 4292995312
0.0042150957 -0.26849416 1.626 4292930032
0.0086667351 -0.26865929 1.6270001 4292995825
0.013107722 -0.26849416 1.626 4292930032
0.01754324 -0.26832905 1.6250001 4292995825
0.021973286 -0.26816392 1.6240001 4292929519
-0.31642208 -0.25722742 1.5840001 4279771170
-0.30795306 -0.2538172 1.5630001 4279837215
-0.30270752 -0.25300527 1.5580001 4279508250
-0.30208677 -0.2560907 1.577 4279508248
-0.29777446 -0.2560907 1.577 4279574295
-0.29290387 -0.25560352 1.5740001 4279770652
-0.29006657 -0.25690266 1.582 4279902240
-0.29115918 -0.26177439 1.6120001 4279967780
-0.28817424 -0.2630735 1.6200001 4293850103
-0.28339404 -0.26274872 1.618 4293257966
-0.27896959 -0.26274872 1.618 4293258736
-0.27488452 -0.2630735 1.6200001 4292930030
-0.27062157 -0.26323593 1.6210001 4292930030
-0.26569629 -0.26274872 1.618 4293061616
-0.2614333 -0.26291114 1.6190001 4293127409
-0.25764114 -0.26356068 1.623 4293785593
-0.25335905 -0.26372308 1.6240001 4294114558
-0.2487649 -0.26356068 1.623 4293917179
-0.24402572 -0.26323593 1.6210001 4294377471
-0.23959309 -0.26323593 1.6210001 4293917179
-0.23516044 -0.26323593 1.6210001 4291548888
-0.23101248 -0.26356068 1.623 4287140757
-0.22671397 -0.26372308 1.6240001 4282008903
-0.22172564 -0.2630735 1.6200001 4279245340
-0.21635683 -0.26193675 1.613 4278850581
-0.21063207 -0.26031289 1.603 4279442719
-0.204576 -0.25820178 1.59 4280166442
-0.19796142 -0.25527874 1.572 4279969062
-0.19366276 -0.25527874 1.572 4280100648
-0.19056872 -0.25690266 1.582 4280166442
-0.1865959 -0.25738984 1.585 4280429613
-0.1823767 -0.25755221 1.5860001 4280166442
-0.17669268 -0.25560352 1.5740001 4280363308
-0.1735933 -0.25738984 1.585 4280494640
-0.17192881 -0.26144961 1.6100001 4290232006
-0.16835868 -0.26274872 1.618 4293192691
-0.1642382 -0.26323593 1.6210001 4293126898
-0.15980557 -0.26323593 1.6210001 4293324277
-0.15546876 -0.26339829 1.6220001 4293192691
-0.15094028 -0.26323593 1.6210001 4293061105
-0.14632687 -0.26291114 1.6190001 4293192691
-0.142075 -0.26323593 1.6210001 4293126898
-0.13764235 -0.26323593 1.6210001 4293258484
-0.1332919 -0.26339829 1.6220001 4293126898
-0.12885652 -0.26339829 1.6220001 4293126898
-0.12449785 -0.26356068 1.623 4293192691
-0.12013372 -0.26372308 1.6240001 4293061105
-0.11555039 -0.26339829 1.6220001 4293192691
-0.11118352 -0.26356068 1.623 4293126898
-0.10661387 -0.26323593 1.6210001 4293126898
-0.10211819 -0.2630735 1.6200001 4293192691
-0.097688287 -0.2630735 1.6200001 4293061105
-0.093373522 -0.26339829 1.6220001 4293192691
-0.088883311 -0.26323593 1.6210001 4293126898
-0.084346473 -0.26291114 1.6190001 4293126898
-0.079771213 -0.26242396 1.6160001 4293192691
-0.075305618 -0.26226154 1.6150001 4293192691
-0.070801593 -0.26193675 1.613 4293257714
-0.066390827 -0.26193675 1.613 4293323507
-0.062095344 -0.26242396 1.6160001 4293257714
-0.057712067 -0.26258633 1.6170001 4293257714
-0.053257409 -0.26242396 1.6160001 4293126898
-0.048808217 -0.26226154 1.6150001 4292995312
-0.044419471 -0.26242396 1.6160001 4292995312
-0.040025257 -0.26258633 1.6170001 4293126898
-0.03566961 -0.2630735 1.6200001 4293061105
-0.031239703 -0.2630735 1.6200001 4293126898
-0.02676015 -0.26258633 1.6170001 4293061618
-0.022352263 -0.26274872 1.618 4292995825
-0.017905666 -0.26242396 1.6160001 4293061107
-0.013486698 -0.26242396 1.6160001 4293061107
-0.0090733413 -0.26258633 1.6170001 4293126898
-0.0046458859 -0.26226154 1.6150001 4293061105
-0.00022979495 -0.26242396 1.6160001 4293126898
0.0041969498 -0.26291114 1.6190001 4293192691
0.0086401012 -0.26339829 1.6220001 4293126898
0.013051292 -0.26291114 1.6190001 4292930032
0.017478462 -0.26291114 1.6190001 4292930032
0.021905635 -0.26291114 1.6190001 4292995312
0.026381599 -0.26339829 1.6220001 4292995312
-0.30093744 -0.25082043 1.5710001 4279442455
-0.29626387 -0.25050113 1.5690001 4278190080
-0.29178733 -0.25034148 1.5680001 4278190080
-0.28749964 -0.25034148 1.5680001 4279902240
-0.28736618 -0.25401357 1.5910001 4279507482
-0.28621751 -0.25688738 1.6090001 4293323758
-0.2825183 -0.25752601 1.613 4294311423
-0.27827993 -0.25768566 1.6140001 4294443007
-0.27386642 -0.25768566 1.6140001 4294048764
-0.26961988 -0.25784531 1.6150001 4290890700
-0.26471102 -0.25736636 1.6120001 4286416776
-0.26062593 -0.25768566 1.6140001 4281548094
-0.25652993 -0.25800499 1.6160001 4279245340
-0.252891 -0.25880328 1.6210001 4278521617
-0.24769197 -0.25800499 1.6160001 4279047961
-0.24282141 -0.25752601 1.613 4278850582
-0.23781942 -0.25688738 1.6090001 4278916632
-0.2332745 -0.25672773 1.608 4280100906
-0.22973144 -0.25768566 1.6140001 4280035113
-0.22545755 -0.25784531 1.6150001 4280100906
-0.21912517 -0.25561014 1.6010001 4280232235
-0.21313763 -0.25369424 1.5890001 4280232235
-0.2070843 -0.25161871 1.5760001 4280165929
-0.20251739 -0.25129941 1.5740001 4280100136
-0.19733176 -0.25018182 1.567 4280231468
-0.19477153 -0.252417 1.5810001 4280165929
-0.19117101 -0.25337496 1.5870001 4280231722
-0.18683134 -0.25337496 1.5870001 4280560687
-0.18168674 -0.25225735 1.58 4280428333
-0.17747848 -0.252417 1.5810001 4280559665
-0.17315522 -0.252417 1.5810001 4280559665
-0.17064735 -0.25513116 1.598 4278717461
-0.16731814 -0.25672773 1.608 4294047230
-0.16332632 -0.25736636 1.6120001 4293389300
-0.15911546 -0.25768566 1.6140001 4293258484
-0.15498951 -0.25816464 1.6170001 4293258484
-0.15056781 -0.25816464 1.6170001 4293061618
-0.14587496 -0.25768566 1.6140001 4293061618
-0.14172441 -0.25816464 1.6170001 4293126898
-0.1373027 -0.25816464 1.6170001 4293192691
-0.132881 -0.25816464 1.6170001 4293192691
-0.1284593 -0.25816464 1.6170001 4293126898
-0.12411431 -0.2583243 1.618 4293192691
-0.11976384 -0.25848395 1.6190001 4293192691
-0.11512296 -0.25800499 1.6160001 4293126898
-0.11063549 -0.25784531 1.6150001 4293126898
-0.10615347 -0.25768566 1.6140001 4293192691
-0.10186605 -0.25800499 1.6160001 4293258484
-0.097386785 -0.25784531 1.6150001 4293126898
-0.092912979 -0.25768566 1.6140001 4293126898
-0.088334985 -0.25720671 1.6110001 4293192691
-0.083929695 -0.25720671 1.6110001 4293192691
-0.079524398 -0.25720671 1.6110001 4293192691
-0.075119101 -0.25720671 1.6110001 4293126898
-0.070757702 -0.25736636 1.6120001 4293061105
-0.066390827 -0.25752601 1.613 4293192691
-0.062056918 -0.25784531 1.6150001 4293061105
-0.057604995 -0.25768566 1.6140001 4293126898
-0.053125586 -0.25736636 1.6120001 4293126898
-0.048687331 -0.25720671 1.6110001 4293126898
-0.044282038 -0.25720671 1.6110001 4293126898
-0.039901495 -0.25736636 1.6120001 4293061105
-0.0355375 -0.25768566 1.6140001 4293126898
-0.031124003 -0.25768566 1.6140001 4293126898
-0.026644304 -0.25704703 1.6100001 4293061105
-0.022269374 -0.25736636 1.6120001 4293061105
-0.017850265 -0.25720671 1.6110001 4293192691
-0.013461661 -0.25752601 1.613 4293061105
-0.009039674 -0.25720671 1.6110001 4293126898
-0.0046315026 -0.25704703 1.6100001 4293126898
-0.00022894176 -0.25704703 1.6100001 4293192691
0.0041839881 -0.25768566 1.6140001 4293126898
0.0086028138 -0.25784531 1.6150001 4293126898
0.012986801 -0.25720671 1.6110001 4292929519
0.017370505 -0.25688738 1.6090001 4293061105
0.021783862 -0.25704703 1.6100001 4293061105
0.02625148 -0.25768566 1.6140001 4293061105
0.030645981 -0.25752601 1.613 4293257714
-0.28375378 -0.24652451 1.5710001 4279705377
-0.28408289 -0.25060448 1.5970001 4279442205
-0.28111705 -0.25185987 1.605 4278850322
-0.27690059 -0.25201678 1.6060001 4278587407
-0.27284834 -0.25233063 1.608 4279047958
-0.26845124 -0.25233063 1.608 4279969060
-0.26339731 -0.25170293 1.6040001 4279903267
-0.25820374 -0.25091833 1.5990001 4279837474
-0.25383127 -0.25091833 1.5990001 4279771683
-0.24836674 -0.24981987 1.5920001 4279836963
-0.24447322 -0.25029066 1.595 4279901987
-0.24071383 -0.25091833 1.5990001 4279968550
-0.23382865 -0.24825068 1.582 4279968550
-0.22993787 -0.24872144 1.585 4280165929
-0.22588834 -0.24903528 1.5870001 4280230952
-0.22126947 -0.24872144 1.585 4280230952
-0.21625094 -0.24793683 1.58 4280296747
-0.21045496 -0.24621068 1.5690001 4280296747
-0.20616451 -0.24621068 1.5690001 4280296747
-0.20200272 -0.2463676 1.5700001 4280428333
-0.19796142 -0.24668145 1.572 4280494126
-0.19415553 -0.24730912 1.5760001 4279046680
-0.19068918 -0.24840759 1.5830001 4279375645
-0.18636045 -0.24840759 1.5830001 4279244059
-0.18214671 -0.2485645 1.5840001 4278849301
-0.17781524 -0.2485645 1.5840001 4281809732
-0.17337427 -0.24840759 1.5830001 4285428347
-0.16979305 -0.24950604 1.59 4290428615
-0.16638166 -0.25091833 1.5990001 4292599784
-0.16231313 -0.25138909 1.6020001 4293389300
-0.1582282 -0.25185987 1.605 4293061105
-0.15383932 -0.25185987 1.605 4293192689
-0.14963666 -0.25217372 1.6070001 4292995312
-0.14506154 -0.25185987 1.605 4293258484
-0.14093558 -0.25233063 1.608 4293062131
-0.13645358 -0.25217372 1.6070001 4293193204
-0.13197705 -0.25201678 1.6060001 4293258484
-0.12758543 -0.25201678 1.6060001 4293192691
-0.12327051 -0.25217372 1.6070001 4293192691
-0.11895013 -0.25233063 1.608 4293192691
-0.11441056 -0.25201678 1.6060001 4293192691
-0.11001894 -0.25201678 1.6060001 4293126898
-0.10569309 -0.25217372 1.6070001 4293192691
-0.10136176 -0.25233063 1.608 4293126898
-0.096904367 -0.25217372 1.6070001 4293192691
-0.092222184 -0.25138909 1.6020001 4293258484
-0.087676995 -0.25091833 1.5990001 4293126898
-0.083460808 -0.25138909 1.6020001 4293126898
-0.079178847 -0.25170293 1.6040001 4293258484
-0.074792698 -0.25170293 1.6040001 4293192691
-0.07045044 -0.25185987 1.605 4293192691
-0.066061549 -0.25185987 1.605 4293126898
-0.061634235 -0.25170293 1.6040001 4293126898
-0.057176702 -0.25138909 1.6020001 4293192691
-0.052828975 -0.25154603 1.603 4293126898
-0.048445556 -0.25154603 1.603 4293061105
-0.044117112 -0.25185987 1.605 4293061105
-0.039752979 -0.25201678 1.6060001 4293192691
-0.03540539 -0.25233063 1.608 4293061105
-0.030911881 -0.25154603 1.603 4293061105
-0.026511911 -0.25138909 1.6020001 4293061105
-0.022158857 -0.25170293 1.6040001 4293192691
-0.017761623 -0.25154603 1.603 4293192691
-0.013386549 -0.25170293 1.6040001 4293061105
-0.008989173 -0.25138909 1.6020001 4293126898
-0.0046027354 -0.25107524 1.6 4292995312
-0.00022751976 -0.25107524 1.6 4293061105
0.0041554729 -0.25154603 1.603 4292995312
0.0085495459 -0.25185987 1.605 4293126898
0.012906189 -0.25123218 1.6010001 4293061105
0.017273342 -0.25107524 1.6 4293061105
0.021675618 -0.25138909 1.6020001 4293257714
0.026072567 -0.25154603 1.603 4293126128
0.03041799 -0.25123218 1.6010001 4293257714
0.03479594 -0.25123218 1.6010001 4293191921
-0.26427758 -0.24407886 1.5830001 4280034342
-0.2591278 -0.24330792 1.5780001 4279967779
-0.25432828 -0.24284536 1.575 4280033572
-0.24843399 -0.24130347 1.5650001 4279967780
-0.2444665 -0.24161185 1.567 4279901987
-0.24002826 -0.24145766 1.5660001 4279967780
-0.23815465 -0.24392468 1.582 4280165159
-0.23412427 -0.24423304 1.5840001 4280165159
-0.22863223 -0.24299954 1.5760001 4280296745
-0.22346862 -0.24207442 1.5700001 4278586127
-0.22015266 -0.24315374 1.577 4278586127
-0.21570347 -0.24299954 1.5760001 4278849301
-0.21179628 -0.2434621 1.5790001 4278520336
-0.20774131 -0.24377048 1.5810001 4282862674
-0.20393269 -0.24438724 1.585 4288981169
-0.19934663 -0.24407886 1.5830001 4293915644
-0.1950179 -0.24407886 1.5830001 4294507775
-0.19056872 -0.24392468 1.582 4294047230
-0.18671362 -0.24454142 1.5860001 4294178815
-0.18260667 -0.2448498 1.5880001 4294244607
-0.17848879 -0.24515818 1.59 4293126128
-0.17414092 -0.24515818 1.59 4293257714
-0.16968626 -0.24500397 1.5890001 4293191921
-0.16565329 -0.24546653 1.5920001 4293257714
-0.16129994 -0.24546653 1.5920001 4293323507
-0.15743953 -0.24623747 1.5970001 4293323507
-0.15307252 -0.24623747 1.5970001 4293192691
-0.14898485 -0.24670003 1.6 4293258484
-0.14451925 -0.24654585 1.5990001 4293258997
-0.14023441 -0.24670003 1.6 4293127409
-0.13568938 -0.24639167 1.598 4293193204
-0.1310731 -0.24592912 1.595 4293192691
-0.126791 -0.24608329 1.5960001 4293258484
-0.12258013 -0.24639167 1.598 4293192691
-0.11843231 -0.24685423 1.6010001 4293192691
-0.11405436 -0.24685423 1.6010001 4293126898
-0.10960791 -0.24670003 1.6 4293192691
-0.10529846 -0.24685423 1.6010001 4293192691
-0.10092051 -0.24685423 1.6010001 4293192691
-0.09654256 -0.24685423 1.6010001 4293192691
-0.091876782 -0.24608329 1.5960001 4293192691
-0.087348007 -0.24562074 1.5930001 4293192691
-0.083200321 -0.24623747 1.5970001 4293126898
-0.078932032 -0.24654585 1.5990001 4293192691
-0.074606188 -0.24670003 1.6 4293192691
-0.070143178 -0.24639167 1.598 4293192691
-0.065773435 -0.24639167 1.598 4293061105
-0.061288413 -0.24592912 1.595 4293192691
-0.056926869 -0.24592912 1.595 4293192691
-0.052664194 -0.24639167 1.598 4293192691
-0.04835489 -0.24670003 1.6 4293061105
-0.043952189 -0.24654585 1.5990001 4293126898
-0.039604459 -0.24670003 1.6 4293126898
-0.035251264 -0.24685423 1.6010001 4293126898
-0.030776894 -0.24608329 1.5960001 4293126898
-0.026379516 -0.24577491 1.5940001 4293126898
-0.022075968 -0.24639167 1.598 4293126898
-0.01769514 -0.24623747 1.5970001 4293192691
-0.013344822 -0.24654585 1.5990001 4293126898
-0.0089498945 -0.24592912 1.595 4293126898
-0.0045854752 -0.24577491 1.5940001 4293126898
-0.00022666655 -0.24577491 1.5940001 4293126898
0.0041373265 -0.24608329 1.5960001 4293192691
0.0085175848 -0.24654585 1.5990001 4293126898
0.012865881 -0.24608329 1.5960001 4293061105
0.017230159 -0.24608329 1.5960001 4293126898
0.021594437 -0.24608329 1.5960001 4293191921
0.025991242 -0.24639167 1.598 4293323507
0.030398989 -0.24670003 1.6 4293257714
0.03475247 -0.24654585 1.5990001 4293191921
-0.24859275 -0.23717542 1.5660001 4278651409
-0.24399847 -0.23687252 1.5640001 4278454543
-0.23987497 -0.23702396 1.5650001 4280494640
-0.23634817 -0.23778124 1.5700001 4286414981
-0.2323506 -0.23808415 1.572 4291546837
-0.22819702 -0.23823559 1.5730001 4293849592
-0.22361097 -0.23793268 1.5710001 4294639103
-0.22001305 -0.23868994 1.5760001 4294244351
-0.21611407 -0.23914431 1.5790001 4294244351
-0.21219867 -0.23959868 1.582 4294112766
-0.20800409 -0.23975013 1.5830001 4293060337
-0.20367536 -0.23975013 1.5830001 4293323509
-0.19947258 -0.23990157 1.5840001 4293257714
-0.19514111 -0.23990157 1.5840001 4293257714
-0.19068918 -0.23975013 1.5830001 4293389300
-0.18624271 -0.23959868 1.582 4293126382
-0.18214671 -0.23990157 1.5840001 4293257968
-0.17803976 -0.24020448 1.5860001 4293258482
-0.17370284 -0.24020448 1.5860001 4293126896
-0.16915232 -0.23990157 1.5840001 4293061103
-0.16513301 -0.24035595 1.5870001 4293192691
-0.16079335 -0.24035595 1.5870001 4293258484
-0.15665086 -0.24065883 1.5890001 4293126898
-0.15192232 -0.24005304 1.585 4293258484
-0.14796059 -0.24065883 1.5890001 4293126896
-0.14370583 -0.2408103 1.59 4293258482
-0.13953325 -0.2411132 1.5920001 4293192691
-0.13501008 -0.2408103 1.59 4293258484
-0.13041568 -0.24035595 1.5870001 4293258484
-0.12599657 -0.24020448 1.5860001 4293258484
-0.12165964 -0.24020448 1.5860001 4293192691
-0.11769257 -0.24096175 1.5910001 4293192691
-0.11327073 -0.2408103 1.59 4293192691
-0.10892286 -0.2408103 1.59 4293192691
-0.10450923 -0.24065883 1.5890001 4293258484
-0.10029015 -0.24096175 1.5910001 4293192691
-0.095879249 -0.2408103 1.59 4293126898
-0.091531381 -0.2408103 1.59 4293192691
-0.08707384 -0.24050739 1.5880001 4293126898
-0.082835637 -0.2408103 1.59 4293126898
-0.078487769 -0.2408103 1.59 4293126898
-0.074233152 -0.2411132 1.5920001 4293126898
-0.069748133 -0.24065883 1.5890001 4293192691
-0.065279514 -0.24020448 1.5860001 4293126898
-0.060865734 -0.23990157 1.5840001 4293192691
-0.056605648 -0.24020448 1.5860001 4293192691
-0.052367587 -0.24065883 1.5890001 4293192691
-0.048052676 -0.2408103 1.59 4293192691
-0.043704804 -0.2408103 1.59 4293126898
-0.039406437 -0.2411132 1.5920001 4293126898
-0.035075117 -0.24126466 1.5930001 4293061105
-0.03060334 -0.24035595 1.5870001 4293061105
-0.026247121 -0.24020448 1.5860001 4293126898
-0.021924006 -0.24035595 1.5870001 4293126898
-0.017584339 -0.24035595 1.5870001 4293126898
-0.013261363 -0.24065883 1.5890001 4293126898
-0.0089106159 -0.24050739 1.5880001 4293192691
-0.0045653381 -0.24035595 1.5870001 4293126898
-0.00022581336 -0.24050739 1.5880001 4293061618
0.0041165883 -0.24050739 1.5880001 4293061105
0.0084643168 -0.24065883 1.5890001 4293192691
0.012801391 -0.24050739 1.5880001 4293061105
0.017122202 -0.24020448 1.5860001 4293191921
0.021499725 -0.24065883 1.5890001 4293126382
0.025861124 -0.2408103 1.59 4293257968
0.030265994 -0.24126466 1.5930001 4293257968
0.034535132 -0.24065883 1.5890001 4293257968
0.038782395 -0.24005304 1.585 4293192175
-0.2322028 -0.23363677 1.5710001 4293323250
-0.22805196 -0.2337855 1.572 4293191921
-0.22403798 -0.23408294 1.5740001 4293323507
-0.22071108 -0.23512396 1.5810001 4293257714
-0.21666156 -0.2354214 1.5830001 4293257714
-0.21246697 -0.2355701 1.5840001 4293257714
-0.20800409 -0.2354214 1.5830001 4293323507
-0.20341805 -0.23512396 1.5810001 4293257714
-0.19934663 -0.2354214 1.5830001 4293257714
-0.1950179 -0.2354214 1.5830001 4293257714
-0.19056872 -0.23527269 1.582 4293257714
-0.18600728 -0.23497525 1.58 4293323507
-0.18157175 -0.23482652 1.5790001 4293257714
-0.17747848 -0.23512396 1.5810001 4293192691
-0.17326473 -0.23527269 1.582 4293258484
-0.16883196 -0.23512396 1.5810001 4293192691
-0.16471681 -0.2354214 1.5830001 4293126898
-0.16038808 -0.2354214 1.5830001 4293258484
-0.15605934 -0.2354214 1.5830001 4293258484
-0.15144306 -0.23497525 1.58 4293192691
-0.14740188 -0.2354214 1.5830001 4293192691
-0.14325392 -0.23571885 1.585 4293192689
-0.13909501 -0.23601629 1.5870001 4293192691
-0.13458551 -0.23571885 1.585 4293258484
-0.13000479 -0.23527269 1.582 4293323507
-0.12551992 -0.23497525 1.58 4293323507
-0.12112267 -0.23482652 1.5790001 4293192691
-0.11702681 -0.23527269 1.582 4293258484
-0.11270081 -0.23527269 1.582 4293126898
-0.10837482 -0.23527269 1.582 4293192691
-0.10398305 -0.23512396 1.5810001 4293192691
-0.10003801 -0.23601629 1.5870001 4293192691
-0.095638044 -0.23586755 1.5860001 4293126898
-0.091301113 -0.23586755 1.5860001 4293192691
-0.086744852 -0.23527269 1.582 4293192691
-0.08257515 -0.23571885 1.585 4293126898
-0.078240953 -0.23571885 1.585 4293126898
-0.073953383 -0.23586755 1.5860001 4293126898
-0.069528662 -0.2355701 1.5840001 4293126898
-0.065032557 -0.23497525 1.58 4293192691
-0.060635179 -0.23467781 1.5780001 4293061618
-0.056355815 -0.23482652 1.5790001 4293127411
-0.052070983 -0.23497525 1.58 4293127411
-0.047810901 -0.23527269 1.582 4293126898
-0.043457415 -0.23512396 1.5810001 4293192691
-0.039183665 -0.2354214 1.5830001 4293192691
-0.034854934 -0.2354214 1.5830001 4293061105
-0.030526206 -0.2354214 1.5830001 4293192691
-0.02613128 -0.23482652 1.5790001 4293126898
-0.021799672 -0.23467781 1.5780001 4293126898
-0.017462457 -0.23438036 1.5760001 4293258484
-0.013177907 -0.23482652 1.5790001 4293258484
-0.0088713374 -0.23512396 1.5810001 4293192691
-0.0045509543 -0.23527269 1.582 4293192691
-0.00022496015 -0.23527269 1.582 4293126898
0.0040958496 -0.23497525 1.58 4292995310
0.0084323557 -0.2354214 1.5830001 4293258484
0.012753023 -0.23527269 1.582 4293061105
0.017057426 -0.23497525 1.58 4293061105
0.021377951 -0.23497525 1.58 4293126382
0.025763536 -0.2355701 1.5840001 4293192175
0.030151997 -0.23601629 1.5870001 4293126382
0.034382995 -0.23527269 1.582 4293257966
0.038562179 -0.23438036 1.5760001 4293126380
0.042926174 -0.23467781 1.5780001 4293982459
-0.21611407 -0.23050873 1.5790001 4293192691
-0.21152802 -0.23021677 1.577 4293192691
-0.2070843 -0.23007077 1.5760001 4293258486
-0.20264606 -0.2299248 1.575 4293126900
-0.19859105 -0.23021677 1.577 4293192691
-0.19440193 -0.23036274 1.5780001 4293192691
-0.18984595 -0.23007077 1.5760001 4293126898
-0.18530092 -0.22977883 1.5740001 4293192691
-0.18065181 -0.22934085 1.5710001 4293192691
-0.17646816 -0.22948685 1.572 4293192691
-0.17227904 -0.22963282 1.5730001 4293126898
-0.16808444 -0.22977883 1.5740001 4293192691
-0.16398843 -0.23007077 1.5760001 4293126898
-0.15957752 -0.2299248 1.575 4293192691
-0.15517208 -0.22977883 1.5740001 4293192691
-0.15048456 -0.22919488 1.5700001 4293258484
-0.14656384 -0.22977883 1.5740001 4293192691
-0.14262125 -0.23036274 1.5780001 4293324277
-0.13839383 -0.23050873 1.5790001 4293192691
-0.13399114 -0.23036274 1.5780001 4293258484
-0.12934737 -0.22977883 1.5740001 4293192691
-0.12480493 -0.22934085 1.5710001 4293192691
-0.12035559 -0.22904891 1.5690001 4293258484
-0.11628707 -0.22948685 1.572 4293258484
-0.11205967 -0.22963282 1.5730001 4293258484
-0.10782678 -0.22977883 1.5740001 4293192691
-0.1034569 -0.22963282 1.5730001 4293258484
-0.09947069 -0.23036274 1.5780001 4293126898
-0.095095329 -0.23021677 1.577 4293258484
-0.090840571 -0.23036274 1.5780001 4293061618
-0.086306192 -0.22977883 1.5740001 4293193204
-0.082054168 -0.2299248 1.575 4293192691
-0.077697955 -0.22977883 1.5740001 4293258484
-0.073440462 -0.2299248 1.575 4293192691
-0.069089718 -0.22977883 1.5740001 4293192691
-0.064662121 -0.22934085 1.5710001 4293126898
-0.060327776 -0.22919488 1.5700001 4293258484
-0.056034595 -0.22919488 1.5700001 4293126898
-0.051774375 -0.22934085 1.5710001 4293061618
-0.047538903 -0.22963282 1.5730001 4292995825
-0.043237519 -0.22963282 1.5730001 4293126898
-0.03898564 -0.2299248 1.575 4293192691
-0.034656771 -0.22977883 1.5740001 4293192691
-0.030275514 -0.22919488 1.5700001 4293192691
-0.025932688 -0.22875693 1.567 4292995310
-0.02162008 -0.22846496 1.5650001 4293061103
-0.017340573 -0.22846496 1.5650001 4293126896
-0.013069412 -0.22861093 1.5660001 4293126896
-0.0088040028 -0.22904891 1.5690001 4293192689
-0.0045221876 -0.22948685 1.572 4293061103
-0.00022368036 -0.22963282 1.5730001 4293061103
0.004072519 -0.22934085 1.5710001 4293126896
0.0083684335 -0.22934085 1.5710001 4292995310
0.012672409 -0.22948685 1.572 4293851132
0.016938671 -0.22904891 1.5690001 4293851132
0.021242648 -0.22919488 1.5700001 4293916925
0.025552092 -0.22934085 1.5710001 4293653753
0.029905004 -0.22977883 1.5740001 4290034625
0.034165658 -0.22948685 1.572 4285626748
0.038341962 -0.22875693 1.567 4282995028
0.04270855 -0.22919488 1.5700001 4280100136
0.047031667 -0.22934085 1.5710001 4279376413
-0.20200272 -0.22490169 1.5700001 4293192691
-0.19770955 -0.22490169 1.5700001 4293192691
-0.19341636 -0.22490169 1.5700001 4293126898
-0.18936412 -0.2251882 1.572 4293258484
-0.18506546 -0.2251882 1.572 4293258484
-0.18030684 -0.22461519 1.5680001 4293192691
-0.17613138 -0.22475846 1.5690001 4293258484
-0.1716219 -0.22447196 1.567 4293126898
-0.16755049 -0.22475846 1.5690001 4293192691
-0.16326004 -0.22475846 1.5690001 4293192691
-0.15886828 -0.22461519 1.5680001 4293324277
-0.15458058 -0.22461519 1.5680001 4293192691
-0.15029286 -0.22461519 1.5680001 4293192691
-0.14609827 -0.22475846 1.5690001 4293258484
-0.14198859 -0.22504494 1.5710001 4293258484
-0.13751738 -0.22475846 1.5690001 4293258484
-0.13314202 -0.22461519 1.5680001 4293258484
-0.12860778 -0.22418545 1.5650001 4293258484
-0.12432826 -0.22418545 1.5650001 4293324277
-0.12012547 -0.22432868 1.5660001 4293192691
-0.11591721 -0.22447196 1.567 4293258484
-0.11170346 -0.22461519 1.5680001 4293192691
-0.10748425 -0.22475846 1.5690001 4293258484
-0.10325959 -0.22490169 1.5700001 4293126898
-0.098966405 -0.22490169 1.5700001 4293258484
-0.094612919 -0.22475846 1.5690001 4293258484
-0.090322472 -0.22475846 1.5690001 4293258484
-0.085977197 -0.22461519 1.5680001 4293258484
-0.081793681 -0.22490169 1.5700001 4293126898
-0.0775005 -0.22490169 1.5700001 4293258484
-0.073347203 -0.22533144 1.5730001 4293192691
-0.068826348 -0.22461519 1.5680001 4293324275
-0.064415157 -0.22418545 1.5650001 4293258484
-0.060020372 -0.2237557 1.562 4293192691
-0.055820454 -0.22404221 1.5640001 4293126898
-0.051642545 -0.22447196 1.567 4293192691
-0.047418017 -0.22475846 1.5690001 4293061618
-0.043100081 -0.22461519 1.5680001 4292995825
-0.038837124 -0.22475846 1.5690001 4292995825
-0.034480624 -0.22432868 1.5660001 4293061618
-0.030121244 -0.2237557 1.562 4293126898
-0.025800295 -0.22332595 1.559 4293192689
-0.021523379 -0.22318269 1.5580001 4293784826
-0.017251931 -0.22303945 1.557 4294114045
-0.013019337 -0.2234692 1.5600001 4294114045
-0.008759113 -0.22361246 1.5610001 4293785593
-0.0044962969 -0.22389895 1.5630001 4293588214
-0.00022211616 -0.2237557 1.562 4291482838
0.0040517803 -0.22389895 1.5630001 4287074707
0.0083311461 -0.22404221 1.5640001 4282798162
0.012607919 -0.22404221 1.5640001 4279903270
0.016884692 -0.22404221 1.5640001 4279903270
0.021134404 -0.2237557 1.562 4280166442
0.025389444 -0.22361246 1.5610001 4279903270
0.029696012 -0.22389895 1.5630001 4280890165
0.033948317 -0.2237557 1.562 4280692786
0.038146216 -0.22332595 1.559 4280626993
0.042463724 -0.22361246 1.5610001 4280561199
0.046522733 -0.22260971 1.554 4280298027
0.050576124 -0.22175021 1.5480001 4280429611
-0.1843591 -0.22004645 1.5660001 4293127411
-0.1796169 -0.2194844 1.562 4293258484
-0.17500882 -0.21906285 1.559 4293192691
-0.17052668 -0.21878183 1.557 4293258484
-0.16648261 -0.21906285 1.559 4293192691
-0.16221951 -0.21906285 1.559 4293126898
-0.15815905 -0.21934389 1.5610001 4293192691
-0.15398906 -0.2194844 1.562 4293258484
-0.14952607 -0.21920337 1.5600001 4293192691
-0.14526023 -0.21920337 1.5600001 4293258484
-0.14090401 -0.21906285 1.559 4293258484
-0.13664091 -0.21906285 1.559 4293192691
-0.1322929 -0.21892233 1.5580001 4293192691
-0.127786 -0.21850079 1.5550001 4293258484
-0.12353384 -0.21850079 1.5550001 4293126898
-0.11943509 -0.21878183 1.557 4293258484
-0.11532541 -0.21906285 1.559 4293258484
-0.1110623 -0.21906285 1.559 4293127411
-0.10686772 -0.21920337 1.5600001 4293324277
-0.1025361 -0.21906285 1.559 4293258484
-0.09820997 -0.21892233 1.5580001 4293258484
-0.094009906 -0.21906285 1.559 4293258484
-0.089861937 -0.21934389 1.5610001 4293258484
-0.085538536 -0.21920337 1.5600001 4293192691
-0.081324801 -0.21934389 1.5610001 4293126898
-0.077006862 -0.21920337 1.5600001 4293192689
-0.072834283 -0.2194844 1.562 4293192689
-0.068431295 -0.21906285 1.559 4293192691
-0.064085878 -0.21878183 1.557 4293258484
-0.059789822 -0.21864131 1.5560001 4293324277
-0.055606309 -0.21892233 1.5580001 4293126898
-0.051378895 -0.21906285 1.559 4293126898
-0.047115795 -0.21906285 1.559 4292995825
-0.042852696 -0.21906285 1.559 4293851134
-0.038688608 -0.21962491 1.5630001 4293982719
-0.034282457 -0.21878183 1.557 4293127411
-0.029966975 -0.21836028 1.554 4288850864
-0.0256679 -0.21793874 1.5510001 4284508526
-0.021426676 -0.21793874 1.5510001 4280692786
-0.017185451 -0.21793874 1.5510001 4279705891
-0.012927534 -0.2176577 1.549 4280034856
-0.0086861672 -0.2175172 1.5480001 4279903527
-0.0044416394 -0.21695513 1.544 4279969320
-0.00021955656 -0.21695513 1.544 4280034856
0.0040128957 -0.2175172 1.5480001 4280758579
0.0082352627 -0.21723616 1.5460001 4280626993
0.01243057 -0.21667409 1.5420001 4280495407
0.016582409 -0.21583101 1.536 4280561200
0.020890858 -0.21695513 1.544 4280429871
0.025112942 -0.21695513 1.544 4280495664
0.029373026 -0.21723616 1.5460001 4280561457
0.033513639 -0.21667409 1.5420001 4280561457
0.037607912 -0.21597151 1.5370001 4278190080
0.041702043 -0.21540947 1.5330001 4278190080
0.045804236 -0.21498792 1.5300001 4278190080
0.049824674 -0.21428534 1.5250001 4280429100
0.053923987 -0.21400431 1.5230001 4280363308
-0.16976 -0.21355972 1.5500001 4293258484
-0.1657351 -0.21383528 1.552 4293192691
-0.16149114 -0.21383528 1.552 4293192691
-0.15744983 -0.21411085 1.554 4293258484
-0.15320039 -0.21411085 1.554 4293192691
-0.14904681 -0.21424863 1.5550001 4293258484
-0.14470154 -0.21411085 1.554 4293258484
-0.14036173 -0.21397308 1.5530001 4293324277
-0.13602738 -0.21383528 1.552 4293258484
-0.13169852 -0.21369751 1.5510001 4293192691
-0.12745729 -0.21369751 1.5510001 4293192691
-0.12321607 -0.21369751 1.5510001 4293061618
-0.11897484 -0.21369751 1.5510001 4293193204
-0.11480759 -0.21383528 1.552 4293258484
-0.11063487 -0.21397308 1.5530001 4293258484
-0.10638817 -0.21397308 1.5530001 4293324277
-0.10220726 -0.21411085 1.554 4293126898
-0.097831756 -0.21383528 1.552 4293258484
-0.093828999 -0.21438642 1.5560001 4293192691
-0.089574099 -0.21438642 1.5560001 4293258484
-0.085319206 -0.21438642 1.5560001 4293192691
-0.08096011 -0.21411085 1.554 4293258484
-0.076611958 -0.21383528 1.552 4293258484
-0.072414629 -0.21397308 1.5530001 4293192691
-0.068036251 -0.21355972 1.5500001 4293192691
-0.063838921 -0.21369751 1.5510001 4293126898
-0.059636123 -0.21383528 1.552 4293192691
-0.055427857 -0.21397308 1.5530001 4293192691
-0.051247071 -0.21424863 1.5550001 4293126898
-0.04699491 -0.21424863 1.5550001 4292929521
-0.042770233 -0.21438642 1.5560001 4278981918
-0.038564846 -0.21466196 1.5580001 4280363571
-0.034062278 -0.21314639 1.5470001 4278190080
-0.029735571 -0.21245748 1.5420001 4281022012
-0.025601704 -0.21314639 1.5470001 4280758838
-0.02138523 -0.21328418 1.5480001 4280890422
-0.017118968 -0.21287082 1.5450001 4280890422
-0.012835732 -0.21190637 1.5380001 4280627250
-0.0086019989 -0.21121746 1.5330001 4280299055
-0.0044042422 -0.2109419 1.531 4280430641
-0.00021742357 -0.21066633 1.529 4280561457
0.0039610495 -0.21052855 1.5280001 4280429360
0.0081500337 -0.21080412 1.5300001 4280494894
0.012317711 -0.21052855 1.5280001 4280560687
0.01650684 -0.21066633 1.529 4280429101
0.020755555 -0.21135524 1.534 4280429614
0.024999088 -0.21176857 1.5370001 4280364078
0.029107032 -0.21107967 1.5320001 4280298285
0.045534793 -0.20956409 1.521 4280364333
0.049628645 -0.20928852 1.5190001 4280429613
0.054065615 -0.21039079 1.5270001 4280165929
-0.15211596 -0.20837592 1.5430001 4293192691
-0.14789662 -0.20837592 1.5430001 4293192691
-0.1438635 -0.208646 1.5450001 4293258484
-0.13981943 -0.2089161 1.5470001 4293192691
-0.1355015 -0.20878106 1.5460001 4293192691
-0.13118905 -0.208646 1.5450001 4293258484
-0.12679987 -0.20837592 1.5430001 4293258484
-0.12265996 -0.20851097 1.544 4293061618
-0.11843788 -0.20851097 1.544 4293192691
-0.11428978 -0.208646 1.5450001 4293126898
-0.1101362 -0.20878106 1.5460001 4293126898
-0.10590864 -0.20878106 1.5460001 4293258997
-0.10168109 -0.20878106 1.5460001 4293324277
-0.097390503 -0.208646 1.5450001 4293258484
-0.093467191 -0.20932123 1.5500001 4293127411
-0.089228705 -0.20932123 1.5500001 4293193204
-0.084935382 -0.2091862 1.549 4293258484
-0.080387034 -0.20837592 1.5430001 4293389300
-0.07606896 -0.20810583 1.5410001 4293455093
-0.07180845 -0.20797078 1.5400001 4293258484
-0.067641199 -0.20810583 1.5410001 4293192691
-0.063591965 -0.208646 1.5450001 4293192691
-0.059405569 -0.20878106 1.5460001 4293126898
-0.055178016 -0.20878106 1.5460001 4293258484
-0.050884552 -0.20851097 1.544 4293192693
-0.046692695 -0.208646 1.5450001 4292995059
-0.042467874 -0.208646 1.5450001 4290231753
-0.038218305 -0.20851097 1.544 4280889915
-0.033621911 -0.20621519 1.5270001 4280758329
-0.029330611 -0.20540489 1.521 4280758840
-0.025320364 -0.20662032 1.5300001 4280758838
-0.021247083 -0.20770068 1.5380001 4280693043
-0.016963847 -0.20675536 1.531 4280429871
-0.012693853 -0.20540489 1.521 4280495664
-0.0085178306 -0.20499976 1.5180001 4280561457
-0.0043582148 -0.20459463 1.5150001 4280495666
-0.00021671256 -0.20581004 1.524 4280758325
0.0039610495 -0.20635022 1.5280001 4280757812
0.0081447074 -0.20648527 1.529 4280560433
0.012301588 -0.20608012 1.526 4280692021
0.016431266 -0.20553996 1.5220001 4279441954
0.02056613 -0.20526986 1.5200001 4280494640
0.024673792 -0.20486473 1.5170001 4280429360
0.028879039 -0.20526986 1.5200001 4280560946
0.032796424 -0.20378436 1.5090001 4280232492
0.037069608 -0.20459463 1.5150001 4280232492
0.041157983 -0.20432453 1.5130001 4280364078
0.045325235 -0.20445959 1.5140001 4280298285
0.049595967 -0.20499976 1.5180001 4280495407
0.054171834 -0.20662032 1.5300001 4280034089
0.058470055 -0.20702545 1.5330001 4294639615
-0.13497563 -0.20375964 1.5400001 4293192691
-0.13067958 -0.20362732 1.539 4293192691
-0.12638898 -0.20349501 1.5380001 4293258484
-0.12226275 -0.20362732 1.539 4293192691
-0.11813104 -0.20375964 1.5400001 4293324277
-0.11406785 -0.20402426 1.5420001 4293192691
-0.10999371 -0.20428887 1.544 4293192691
-0.10570312 -0.20415658 1.5430001 4293193204
-0.10141801 -0.20402426 1.5420001 4293258484
-0.097012289 -0.20362732 1.539 4293258484
-0.092984781 -0.20402426 1.5420001 4293193204
-0.088768169 -0.20402426 1.5420001 4293127411
-0.084606379 -0.20415658 1.5430001 4293192691
-0.080230743 -0.20375964 1.5400001 4293193204
-0.075871512 -0.20336269 1.5370001 4293324277
-0.071575306 -0.20309809 1.5350001 4293258484
-0.067421727 -0.20323038 1.536 4293192691
-0.063345 -0.20362732 1.539 4293258484
-0.059136592 -0.20362732 1.539 4293192691
-0.054892488 -0.20349501 1.5380001 4293258484
-0.050752725 -0.20375964 1.5400001 4293061105
-0.046602029 -0.20402426 1.5420001 4293258486
-0.042385414 -0.20402426 1.5420001 4293982207
-0.037921272 -0.20270114 1.5320001 4279507749
-0.033511817 -0.20137803 1.5220001 4280889913
-0.029137773 -0.19992259 1.511 4280692534
-0.025055576 -0.20031954 1.5140001 4280693045
-0.021026047 -0.20137803 1.5220001 4280495664
-0.016886285 -0.20164265 1.524 4280429871
-0.012735583 -0.20190726 1.526 4280429871
-0.0085066082 -0.20058414 1.516 4280429871
-0.0043438314 -0.19979028 1.5100001 4280364080
-0.00021514836 -0.20018722 1.5130001 4279903016
0.0039403113 -0.2011134 1.5200001 4285758082
0.008134054 -0.2020396 1.5270001 4289376697
0.012309649 -0.2020396 1.5270001 4293586681
0.01647445 -0.20190726 1.526 4294639359
0.020512009 -0.20058414 1.516 4282073674
0.024592467 -0.20005491 1.5120001 4280626228
0.02861305 -0.19926105 1.506 4280363056
0.032687753 -0.19899642 1.5040001 4280363821
0.036727052 -0.19859949 1.501 4280364078
0.040913157 -0.19899642 1.5040001 4280298285
0.045145612 -0.19952565 1.508 4280298285
0.049530622 -0.20058414 1.516 4280298285
0.05410102 -0.20217189 1.5280001 4280561200
0.058393773 -0.20256883 1.531 4286613389
-0.1216272 -0.19838229 1.531 4293324277
-0.11759409 -0.19864145 1.5330001 4293192691
-0.11347605 -0.19877101 1.534 4293258484
-0.10935257 -0.19890061 1.5350001 4293324277
-0.10508658 -0.19877101 1.534 4293258997
-0.10069453 -0.19838229 1.531 4293390070
-0.096571036 -0.19851187 1.5320001 4293324277
-0.092381768 -0.19851187 1.5320001 4293193204
-0.088250063 -0.19864145 1.5330001 4293127411
-0.084058061 -0.19864145 1.5330001 4293258997
-0.079866059 -0.19864145 1.5330001 4293258997
-0.075624697 -0.19851187 1.5320001 4293127411
-0.071435422 -0.19851187 1.5320001 4293258484
-0.067246154 -0.19851187 1.5320001 4293258484
-0.063056886 -0.19851187 1.5320001 4293258484
-0.058829192 -0.19838229 1.531 4293258484
-0.054606963 -0.19825272 1.5300001 4293258484
-0.050489079 -0.19851187 1.5320001 4293455863
-0.046299811 -0.19851187 1.5320001 4293390070
-0.042055562 -0.19825272 1.5300001 4293323507
-0.037772756 -0.1977344 1.526 4294244607
-0.033291634 -0.19592033 1.5120001 4279573540
-0.02890637 -0.19423583 1.4990001 4280824118
-0.024906633 -0.1950133 1.5050001 4280495666
-0.0208879 -0.19592033 1.5120001 4280693045
-0.016775481 -0.19617949 1.5140001 4280430643
-0.01266047 -0.19656822 1.5170001 4280429871
-0.0084897745 -0.19604991 1.5130001 4280299055
-0.0043236944 -0.19475414 1.503 4280167469
-0.00021457957 -0.19553161 1.5090001 4279574564
0.0039325343 -0.19656822 1.5170001 4294508543
0.0081127463 -0.19734567 1.5230001 4293127413
0.012293528 -0.19760484 1.5250001 4293126900
0.016442062 -0.19734567 1.5230001 4293257714
0.020525539 -0.19656822 1.5170001 4294705151
0.024494879 -0.19514288 1.506 4278849047
0.028708044 -0.19579075 1.511 4280559665
0.032622553 -0.19449499 1.501 4280494640
0.036678113 -0.19423583 1.4990001 4280363567
0.040722739 -0.19397669 1.4970001 4280298285
0.044876173 -0.19423583 1.4990001 4280364080
0.049367268 -0.19579075 1.511 4280298287
0.053994801 -0.19760484 1.5250001 4280824118
0.058203068 -0.1977344 1.526 4279573538
0.062457681 -0.19799356 1.5280001 4294245375
-0.10453855 -0.19356154 1.526 4293258997
-0.10029992 -0.19343472 1.5250001 4293324277
-0.096255854 -0.19368841 1.5270001 4293258484
-0.092080258 -0.19368841 1.5270001 4293258484
-0.087904662 -0.19368841 1.5270001 4293258484
-0.083729066 -0.19368841 1.5270001 4293258484
-0.079657666 -0.19394207 1.529 4293258484
-0.075427234 -0.19381523 1.5280001 4293324277
-0.071202278 -0.19368841 1.5270001 4293258484
-0.066982791 -0.19356154 1.526 4293324277
-0.062768765 -0.19343472 1.5250001 4293192691
-0.058637064 -0.19356154 1.526 4293324277
-0.05442851 -0.19343472 1.5250001 4293258484
-0.050423164 -0.19406892 1.5300001 4293258484
-0.046239365 -0.19406892 1.5300001 4293323507
-0.041780692 -0.19280049 1.5200001 4293257714
-0.037599485 -0.19267364 1.5190001 4294047231
-0.033159524 -0.19102471 1.506 4282600018
-0.028887084 -0.19000995 1.498 4280824118
-0.024757691 -0.18975629 1.4960001 4280693045
-0.020791195 -0.19089785 1.5050001 4280364850
-0.016709 -0.19127838 1.508 4280430643
-0.012610397 -0.1916589 1.511 4280561457
-0.0084729409 -0.19153208 1.5100001 4280429871
-0.0043380782 -0.19127838 1.508 4280429873
-0.00021472177 -0.19153208 1.5100001 4280561459
0.0039299419 -0.19229312 1.516 4279574566
0.0081074191 -0.19305418 1.5220001 4294049023
0.012293528 -0.19343472 1.5250001 4293324790
0.016452858 -0.19330786 1.524 4293192691
0.020498477 -0.19216628 1.5150001 4293455093
0.024559936 -0.19153208 1.5100001 4294639359
0.02861305 -0.19102471 1.506 4279243805
0.032644283 -0.19051734 1.5020001 4280757044
0.036506835 -0.1892489 1.4920001 4280691251
0.040559519 -0.18912207 1.4910001 4280626228
0.044846237 -0.19000995 1.498 4280428849
0.049236577 -0.19115154 1.5070001 4280494642
0.053817768 -0.19280049 1.5200001 4280559665
0.058088645 -0.19318102 1.5230001 4279441184
0.062294181 -0.19330786 1.524 4278256910
0.066417962 -0.19318102 1.5230001 4291547866
-0.08755926 -0.18876815 1.521 4293192691
-0.083235577 -0.18839583 1.5180001 4293258484
-0.079188786 -0.18864404 1.5200001 4293324277
-0.075081699 -0.18876815 1.521 4293390070
-0.070922509 -0.18876815 1.521 4293324277
-0.06671942 -0.18864404 1.5200001 4293324275
-0.062480647 -0.18839583 1.5180001 4293258482
-0.058291234 -0.18827172 1.5170001 4293324275
-0.054142982 -0.18827172 1.5170001 4293324277
-0.05012656 -0.18876815 1.521 4293324275
-0.04599759 -0.18889226 1.5220001 4293324275
-0.041643254 -0.18802351 1.5150001 4293455347
-0.037426215 -0.18765119 1.5120001 4293323507
-0.033159524 -0.18690655 1.506 4294442751
-0.028983504 -0.1865342 1.503 4279442467
-0.024774238 -0.18578956 1.4970001 4280758838
-0.020694492 -0.18591365 1.498 4280693045
-0.016598199 -0.18591365 1.498 4280561459
-0.012543632 -0.1865342 1.503 4280429871
-0.0084392736 -0.18665832 1.5040001 4280495664
-0.0043438314 -0.18740296 1.5100001 4280429873
-0.00021443737 -0.18715474 1.508 4280561459
0.0039195726 -0.18765119 1.5120001 4279509287
0.0080754589 -0.1881476 1.516 4294377471
0.012237098 -0.18839583 1.5180001 4293127411
0.016366493 -0.1881476 1.516 4293192691
0.020444356 -0.18752706 1.511 4293389554
0.024478612 -0.18678242 1.5050001 4294113277
0.028594051 -0.18678242 1.5050001 4280165161
0.032622553 -0.186286 1.501 4278717461
0.036727052 -0.186286 1.501 4279112219
0.040749941 -0.18591365 1.498 4278783254
0.04493605 -0.186286 1.501 4281151802
0.049040549 -0.186286 1.501 4287599516
0.053215861 -0.1865342 1.503 4291086545
0.057516534 -0.18715474 1.508 4293981437
0.061926302 -0.18802351 1.5150001 4293849851
0.066199914 -0.18839583 1.5180001 4293389300
-0.074884236 -0.18412347 1.5170001 4293455093
-0.070735991 -0.18412347 1.5170001 4293520886
-0.066543847 -0.18400209 1.516 4293390070
-0.062357169 -0.18388072 1.5150001 4293324277
-0.05809911 -0.18351661 1.5120001 4293324277
-0.053964529 -0.18351661 1.5120001 4293390070
-0.049961779 -0.18400209 1.516 4293258997
-0.045876704 -0.18424484 1.5180001 4293258482
-0.04158828 -0.18363796 1.5130001 4293390068
-0.037376709 -0.18327385 1.5100001 4293192691
-0.033115491 -0.18254562 1.5040001 4293258484
-0.02902207 -0.18266699 1.5050001 4285363326
-0.024691494 -0.18108913 1.4920001 4279508260
-0.020570159 -0.18072501 1.4890001 4280758840
-0.016564958 -0.18145324 1.4950001 4280495666
-0.012535285 -0.18230286 1.5020001 4280167469
-0.008450496 -0.18278837 1.506 4280299055
-0.0043380782 -0.1830311 1.508 4280364848
-0.00021372637 -0.18242423 1.503 4280299057
0.0039040188 -0.18278837 1.506 4280430643
0.0080434978 -0.18327385 1.5100001 4279311392
0.01218873 -0.18351661 1.5120001 4294114815
0.016334105 -0.18363796 1.5130001 4293324529
0.020444356 -0.18339522 1.511 4293455345
0.024527406 -0.1830311 1.508 4293586933
0.02857505 -0.18254562 1.5040001 4294310655
0.032644283 -0.18230286 1.5020001 4290362822
0.036824923 -0.18266699 1.5050001 4294244607
0.040858749 -0.18230286 1.5020001 4294705151
0.045055795 -0.18266699 1.5050001 4294507775
0.049040549 -0.18218149 1.501 4294376191
0.053145047 -0.18218149 1.501 4293981439
0.057363968 -0.18254562 1.5040001 4293257716
0.061681051 -0.18315248 1.5090001 4293257714
0.065894648 -0.18339522 1.511 4293257714
0.069980145 -0.18327385 1.5100001 4293257714
-0.05775328 -0.17831427 1.503 4293324277
-0.053714696 -0.17855154 1.5050001 4293324277
-0.049698122 -0.17890747 1.508 4293258997
-0.045604706 -0.1790261 1.5090001 4293324277
-0.041395869 -0.17867018 1.506 4293390070
-0.037252944 -0.17855154 1.5050001 4293258484
-0.033005398 -0.17783971 1.4990001 4293192691
-0.028829234 -0.17736517 1.4950001 4294047999
-0.024592198 -0.17629741 1.4860001 4281087292
-0.020459643 -0.17570421 1.4810001 4280758840
-0.016476316 -0.17641604 1.4870001 4280627254
-0.012485211 -0.1774838 1.4960001 4280495666
-0.0083663277 -0.17689061 1.4910001 4280364078
-0.0042719138 -0.17617877 1.485 4280299055
-0.00021130897 -0.17629741 1.4860001 4280233262
0.0038755033 -0.17736517 1.4950001 4280299057
0.0079849027 -0.17783971 1.4990001 4280561459
0.012124239 -0.17843291 1.5040001 4280495666
0.016247738 -0.17855154 1.5050001 4294311167
0.020376705 -0.17867018 1.506 4293324275
0.024462348 -0.17843291 1.5040001 4293455347
0.028556051 -0.17831427 1.503 4293323761
0.032622553 -0.17807698 1.501 4293257714
0.036751516 -0.17819563 1.5020001 4293389300
0.040749941 -0.17772107 1.498 4293323509
0.04490611 -0.17795835 1.5000001 4293389300
0.048942532 -0.17772107 1.498 4293389300
0.053003419 -0.17760244 1.4970001 4293455093
0.057173263 -0.17783971 1.4990001 4293389300
0.061394919 -0.17819563 1.5020001 4293323507
0.065632984 -0.17855154 1.5050001 4293389300
0.069655731 -0.17831427 1.503 4293520886
0.07381478 -0.17843291 1.5040001 4293389300
-0.045332715 -0.17385659 1.5000001 4293324277
