# .PCD v0.7 - Point Cloud Data file format
VERSION 0.7
FIELDS x y z rgba
SIZE 4 4 4 4
TYPE F F F U
COUNT 1 1 1 1
WIDTH 716
HEIGHT 1
VIEWPOINT 0 0 0 1 0 0 0
POINTS 716
DATA ascii
0.16838232 -0.29564959 1.5810001 4280891192
-0.096616767 -0.20239951 1.4690001 4282074438
-0.091780305 -0.20060836 1.4560001 4281810753
-0.087919459 -0.20088392 1.4580001 4279901986
-0.083759844 -0.20047058 1.455 4280296744
-0.079890803 -0.20074615 1.457 4280494123
-0.075958714 -0.20088392 1.4580001 4281152307
-0.072366707 -0.20198616 1.4660001 4281547065
-0.068171404 -0.20143506 1.462 4281810237
-0.063559026 -0.19950612 1.4480001 4281349432
-0.060052216 -0.20102172 1.4590001 4280296745
-0.056139417 -0.20129725 1.4610001 4279507999
-0.052108604 -0.20115949 1.46 4279441952
-0.099469177 -0.19608673 1.452 4281548092
-0.094117485 -0.19325078 1.4310001 4281745471
-0.089511015 -0.19176528 1.4200001 4281152823
-0.086170718 -0.19298068 1.429 4282008132
-0.083011478 -0.19473627 1.442 4282073155
-0.079506971 -0.19581664 1.45 4282336327
-0.075020954 -0.19446617 1.4400001 4282270788
-0.070836447 -0.19379094 1.4350001 4282270788
-0.067238823 -0.19473627 1.442 4282139202
-0.063646816 -0.19581664 1.45 4282204995
-0.059969898 -0.19676197 1.457 4282534476
-0.056024138 -0.196897 1.4580001 4288455846
-0.052144296 -0.19730215 1.4610001 4279113241
-0.047819614 -0.19595167 1.4510001 4279705378
-0.11145741 -0.19224854 1.4530001 4281350454
-0.10659648 -0.1906608 1.4410001 4281219127
-0.1020149 -0.18946999 1.432 4281482301
-0.097002991 -0.18735301 1.416 4281613374
-0.092604771 -0.18629453 1.4080001 4281481788
-0.087935112 -0.18457447 1.3950001 4281744960
-0.085205898 -0.18695608 1.4130001 4282008132
-0.082838774 -0.19039617 1.439 4281744960
-0.079287641 -0.19132237 1.4460001 4281876546
-0.074916758 -0.19026385 1.4380001 4281811007
-0.070589624 -0.18920536 1.4300001 4281876800
-0.067005679 -0.19013155 1.437 4281811007
-0.063471243 -0.19132237 1.4460001 4281876546
-0.059764098 -0.19211623 1.452 4281876546
-0.055832013 -0.19224854 1.4530001 4282403403
-0.043791398 -0.19171929 1.4490001 4279771684
-0.039691657 -0.19105774 1.4440001 4289574074
-0.11352403 -0.18516545 1.429 4281415477
-0.10884932 -0.18386967 1.419 4281349684
-0.10363752 -0.18153729 1.401 4281349684
-0.09937904 -0.18075983 1.3950001 4281678651
-0.094879352 -0.17946406 1.3850001 4281679167
-0.091026276 -0.17933449 1.3840001 4281284409
-0.087115645 -0.17907533 1.3820001 4281350202
-0.085205898 -0.18309222 1.4130001 4281547581
-0.082435809 -0.18555418 1.432 4281876546
-0.079232812 -0.18723868 1.4450001 4281811007
-0.075281441 -0.18723868 1.4450001 4281811007
-0.070984535 -0.18633163 1.4380001 4281679421
-0.067145564 -0.18659079 1.4400001 4281613628
-0.063515134 -0.18749784 1.447 4281679167
-0.059517138 -0.18736826 1.4460001 4281482301
-0.055639885 -0.1876274 1.4480001 4280692785
-0.039306838 -0.18529502 1.4300001 4279705124
-0.11628115 -0.17948204 1.4150001 4282530626
-0.11153795 -0.17808677 1.404 4284702306
-0.10693161 -0.17681834 1.3940001 4285822068
-0.10223202 -0.17529623 1.3820001 4285033579
-0.098310441 -0.17504255 1.3800001 4282073409
-0.093988784 -0.17402782 1.3720001 4281283639
-0.090237036 -0.17402782 1.3720001 4281613628
-0.087872073 -0.17681834 1.3940001 4281153077
-0.084783792 -0.17834045 1.406 4281350456
-0.08186014 -0.18036993 1.4220001 4281482042
-0.079068311 -0.18290679 1.442 4281876800
-0.071132623 -0.18277995 1.4410001 4281941823
-0.066819169 -0.18176521 1.4330001 4281547835
-0.06281282 -0.18151152 1.4310001 4281350202
-0.058858581 -0.18138467 1.4300001 4280955958
-0.054986656 -0.18151152 1.4310001 4280758579
-0.05125203 -0.18214573 1.4360001 4280363821
-0.047523007 -0.18290679 1.442 4280495407
-0.039361808 -0.18163836 1.432 4278190080
-0.12401981 -0.1756127 1.4150001 4282531654
-0.11896171 -0.1738752 1.401 4284634463
-0.11414453 -0.1723859 1.3890001 4284964197
-0.10907521 -0.17040017 1.373 4288978594
-0.10478377 -0.16953142 1.3660001 4283979351
-0.10067856 -0.16891088 1.3610001 4282204480
-0.097241856 -0.16940731 1.365 4281941823
-0.093509249 -0.16940731 1.365 4281481272
-0.09043435 -0.1706484 1.3750001 4281679421
-0.088187255 -0.17362697 1.399 4281087284
-0.084783792 -0.17449573 1.406 4281284663
-0.081169337 -0.17499217 1.4100001 4281349686
-0.078465156 -0.17759843 1.4310001 4281283893
-0.066632651 -0.17735022 1.429 4281481272
-0.062593348 -0.1769779 1.4260001 4280823088
-0.058693938 -0.1769779 1.4260001 4280494894
-0.054948233 -0.17747433 1.4300001 4280232235
-0.050859429 -0.17685379 1.4250001 4280100649
-0.046896838 -0.17660557 1.4230001 4280363821
-0.043035854 -0.17672968 1.424 4280100649
-0.038647141 -0.17449573 1.406 4280034343
-0.12816028 -0.1721075 1.4180001 4281218617
-0.12226688 -0.1693159 1.3950001 4281217846
-0.11794277 -0.16858767 1.3890001 4278190080
-0.11324058 -0.16725256 1.378 4283454547
-0.10843968 -0.1656747 1.365 4285888374
-0.10432352 -0.16506784 1.36 4282993482
-0.10053062 -0.16494647 1.3590001 4282138687
-0.097170614 -0.16555333 1.3640001 4281284663
-0.093851767 -0.16628158 1.3700001 4281350456
-0.091486678 -0.16883041 1.391 4281087284
-0.087935112 -0.1693159 1.3950001 4281153077
-0.08454258 -0.17016552 1.4020001 4281547835
-0.081111774 -0.17101514 1.409 4281547065
-0.077807166 -0.17222887 1.419 4280954928
-0.074083194 -0.172593 1.4220001 4280560170
-0.070490897 -0.17332123 1.4280001 4280428584
-0.066026472 -0.17186475 1.416 4280494377
-0.062198304 -0.17198612 1.4170001 4280362537
-0.058570459 -0.17271435 1.4230001 4280100135
-0.054986656 -0.17368536 1.4310001 4280100135
-0.050930809 -0.17319986 1.427 4280034342
-0.046863884 -0.172593 1.4220001 4280100135
-0.042854521 -0.1721075 1.4180001 4280297514
-0.039141912 -0.17283574 1.424 4280494894
-0.034975689 -0.17150064 1.4130001 4280231722
-0.13287586 -0.16929771 1.427 4281020470
-0.12707572 -0.1668063 1.406 4281020467
-0.12270512 -0.16609447 1.4000001 4278190080
-0.11819751 -0.16514535 1.3920001 4280823342
-0.1131584 -0.16336577 1.3770001 4281151792
-0.10812189 -0.16146754 1.3610001 4281020206
-0.10393997 -0.16075571 1.355 4284770407
-0.10016075 -0.16063708 1.3540001 4282138689
-0.096814416 -0.16123027 1.3590001 4281218100
-0.093920276 -0.16265394 1.3710001 4280824112
-0.091552444 -0.16514535 1.3920001 4280758319
-0.08869154 -0.16692494 1.4070001 4280560940
-0.085145593 -0.16751812 1.4120001 4280692526
-0.081342034 -0.16763677 1.4130001 4280626733
-0.077587835 -0.16787404 1.4150001 4280297768
-0.073822707 -0.16811132 1.4170001 4280034596
-0.070095994 -0.16846724 1.4200001 4280034596
-0.065979846 -0.16787404 1.4150001 4279968803
-0.06237388 -0.16858588 1.4210001 4280100389
-0.05861162 -0.1689418 1.424 4280100135
-0.054794528 -0.16917908 1.4260001 4280034342
-0.050788045 -0.16882315 1.4230001 4280100135
-0.046797972 -0.16846724 1.4200001 4280034342
-0.042612746 -0.16728085 1.4100001 4280034342
-0.038784578 -0.16739948 1.411 4280560687
-0.034728162 -0.16645038 1.4030001 4280034343
-0.13185158 -0.16412061 1.416 4280955444
-0.12680458 -0.16261385 1.4030001 4280758065
-0.12244218 -0.16191845 1.3970001 4278190080
-0.11785786 -0.16087531 1.388 4280691756
-0.11258316 -0.15878902 1.3700001 4280625963
-0.10836022 -0.15809359 1.3640001 4281020721
-0.10424682 -0.15751407 1.3590001 4280888881
-0.10053062 -0.15751407 1.3590001 4281612604
-0.096671939 -0.15728226 1.3570001 4280428584
-0.094605334 -0.16006397 1.381 4280297768
-0.092210144 -0.16249795 1.4020001 4280231975
-0.089447975 -0.16446833 1.419 4280231975
-0.081457168 -0.16400471 1.4150001 4279968803
-0.077587835 -0.16400471 1.4150001 4279968803
-0.073874801 -0.16435243 1.4180001 4279968803
-0.069947906 -0.16423653 1.4170001 4279903010
-0.065979846 -0.16400471 1.4150001 4279968803
-0.062329989 -0.16458423 1.4200001 4280034596
-0.058241181 -0.16400471 1.4150001 4280034596
-0.054333426 -0.16388881 1.414 4279968803
-0.050502516 -0.16400471 1.4150001 4279968803
-0.046797972 -0.16458423 1.4200001 4279968803
-0.042552304 -0.16319339 1.4080001 4280166182
-0.038674626 -0.16307747 1.4070001 4280165928
-0.034455881 -0.16133891 1.3920001 4278190080
-0.031111825 -0.16377291 1.4130001 4279968550
-0.13175848 -0.16013537 1.4150001 4281087030
-0.12553924 -0.15719296 1.3890001 4280758319
-0.12086454 -0.15606126 1.3790001 4280823342
-0.11632944 -0.15504274 1.3700001 4280757547
-0.11118615 -0.15311885 1.353 4280691754
-0.10748636 -0.15311885 1.353 4281086514
-0.10363314 -0.1528925 1.3510001 4280823342
-0.10001279 -0.15300567 1.3520001 4281612604
-0.096529454 -0.15334518 1.355 4279902756
-0.09522187 -0.15730613 1.3900001 4279968803
-0.092736319 -0.15956953 1.4100001 4278190080
-0.089132801 -0.16002221 1.414 4279968803
-0.085266203 -0.16002221 1.414 4279903010
-0.081169337 -0.15956953 1.4100001 4279903010
-0.076820187 -0.15855101 1.401 4278190080
-0.072780743 -0.15809833 1.3970001 4279903010
-0.069108725 -0.15843783 1.4000001 4279968803
-0.065187156 -0.15821148 1.3980001 4279903010
-0.061978828 -0.15979587 1.4120001 4279903010
-0.057747263 -0.15877734 1.4030001 4279968803
-0.053718623 -0.15821148 1.3980001 4280034596
-0.050216991 -0.15923002 1.4070001 4280034596
-0.046204753 -0.15866417 1.4020001 4280099619
-0.042280309 -0.15832466 1.399 4280296998
-0.038592163 -0.15889052 1.404 4280165158
-0.034035083 -0.15560859 1.3750001 4280165928
-0.030473296 -0.15662712 1.3840001 4278190080
-0.12544885 -0.1532843 1.388 4280626733
-0.12086454 -0.15229037 1.3790001 4280625961
-0.11624453 -0.15118602 1.3690001 4280560168
-0.11159703 -0.14997123 1.358 4280626733
-0.10716859 -0.14897732 1.3490001 4280758319
-0.10317289 -0.14853558 1.345 4280692526
-0.099790879 -0.14897732 1.3490001 4281482042
-0.096315734 -0.14930862 1.3520001 4279771424
-0.094399817 -0.15217994 1.378 4279903010
-0.091881298 -0.15427822 1.3970001 4279771424
-0.083457157 -0.15284257 1.3840001 4279837217
-0.079730168 -0.15295298 1.3850001 4279837217
-0.075942867 -0.15295298 1.3850001 4279837217
-0.072676547 -0.15405734 1.3950001 4279903010
-0.068121456 -0.15240082 1.3800001 4279968033
-0.064580977 -0.15295298 1.3850001 4279903010
-0.06167157 -0.15516169 1.4050001 4279968803
-0.057459142 -0.15416779 1.396 4279968803
-0.053718623 -0.15438865 1.3980001 4280099619
-0.049967159 -0.15460952 1.4000001 4280034596
-0.045710411 -0.15317386 1.3870001 4280034596
-0.042008314 -0.15350516 1.3900001 4280362791
-0.03845473 -0.15449908 1.399 4280165412
-0.034480631 -0.15383647 1.393 4280100135
-0.030209078 -0.15151733 1.3720001 4279902757
-0.12526809 -0.1492734 1.386 4280889133
-0.12086454 -0.14851949 1.3790001 4280823340
-0.11658417 -0.14787328 1.373 4280757547
-0.1120901 -0.14690398 1.3640001 4280758317
-0.10764524 -0.14593467 1.355 4280692524
-0.10309619 -0.14474995 1.3440001 4280626733
-0.098903187 -0.14399606 1.337 4281284663
-0.095389619 -0.14421146 1.3390001 4279903010
-0.094947852 -0.1492734 1.386 4279968803
-0.091749758 -0.1502427 1.3950001 4279968803
-0.088187255 -0.15067351 1.399 4279705631
-0.083879262 -0.14981189 1.391 4279837217
-0.079730168 -0.14916569 1.3850001 4279903010
-0.076600857 -0.15045811 1.3970001 4279968033
-0.072989136 -0.1508889 1.401 4279902240
-0.068220183 -0.14884259 1.3820001 4280033826
-0.064720869 -0.14948881 1.388 4280099619
-0.060793683 -0.14916569 1.3850001 4279968803
-0.057541467 -0.1505658 1.3980001 4279968803
-0.053526495 -0.1500273 1.393 4280165412
-0.049324725 -0.14884259 1.3820001 4280034596
-0.04554563 -0.14884259 1.3820001 4280100389
-0.041857202 -0.14916569 1.3850001 4280034596
-0.03823483 -0.14981189 1.391 4280100389
-0.034208354 -0.14884259 1.3820001 4279968549
-0.030209078 -0.14776558 1.3720001 4278190080
-0.12581038 -0.14611317 1.3920001 4280757549
-0.12086454 -0.1447486 1.3790001 4280889133
-0.11641435 -0.14390887 1.3710001 4280824110
-0.11233663 -0.143489 1.3670001 4280692524
-0.10780413 -0.14243934 1.3570001 4280824110
-0.10317289 -0.14117974 1.345 4280758317
-0.09875524 -0.14013007 1.335 4281218870
-0.095104665 -0.14013007 1.335 4279771424
-0.094468318 -0.1447486 1.3790001 4279771424
-0.087809041 -0.14621814 1.393 4279771170
-0.083698362 -0.1456933 1.388 4279836447
-0.068763182 -0.14621814 1.393 4278190080
-0.065000638 -0.1463231 1.3940001 4280033826
-0.061100941 -0.14611317 1.3920001 4279903010
-0.057006389 -0.1453784 1.3850001 4279903010
-0.053449642 -0.14600819 1.391 4279903267
-0.049324725 -0.1450635 1.3820001 4280034596
-0.045446761 -0.1447486 1.3790001 4279968803
-0.041917648 -0.14558834 1.3870001 4280165412
-0.038372267 -0.14653303 1.396 4280165412
-0.034554891 -0.14653303 1.396 4280231205
-0.030098986 -0.143489 1.3670001 4278190080
-0.026823722 -0.14600819 1.391 4280297515
-0.1207769 -0.14087547 1.378 4278190080
-0.1160747 -0.13975093 1.3670001 4280758319
-0.11159703 -0.13883084 1.358 4280824110
-0.10716859 -0.13791075 1.3490001 4280758317
-0.10248253 -0.13658175 1.3360001 4280692524
-0.098459348 -0.13607058 1.3310001 4281021491
-0.095104665 -0.13647951 1.335 4279705377
-0.094262801 -0.14067101 1.376 4279836963
-0.090565883 -0.14077325 1.3770001 4279902756
-0.087367788 -0.14169334 1.386 4279771170
-0.08357776 -0.14169334 1.386 4279771170
-0.060793683 -0.1415911 1.3850001 4280033826
-0.05643015 -0.14015986 1.3710001 4280033824
-0.05329594 -0.14179556 1.3870001 4279903008
-0.049431797 -0.1415911 1.3850001 4280034596
-0.04554563 -0.14128441 1.3820001 4279968803
-0.042038534 -0.14220449 1.391 4279968803
-0.034381621 -0.14200002 1.3890001 4280231205
-0.029966876 -0.13913754 1.3610001 4280297514
-0.026650168 -0.14128441 1.3820001 4280429101
-0.116754 -0.13680884 1.3750001 4280758065
-0.11176139 -0.13531637 1.36 4280889903
-0.10708914 -0.1341224 1.348 4280824110
-0.10248253 -0.13292843 1.3360001 4280495145
-0.098681271 -0.13272944 1.3340001 4281021491
-0.095460869 -0.13332643 1.34 4279837217
-0.093509249 -0.13581386 1.365 4279771170
-0.090500116 -0.13690834 1.376 4279836963
-0.085980996 -0.13571435 1.3640001 4279836963
-0.082793839 -0.13660984 1.373 4279836963
-0.079672597 -0.13770431 1.3840001 4279837217
-0.068368278 -0.13780381 1.3850001 4279968033
-0.060574207 -0.13730632 1.3800001 4280033824
-0.056100871 -0.13561487 1.363 4280099617
-0.053103816 -0.13750531 1.3820001 4280033824
-0.049217649 -0.13720682 1.3790001 4279968801
-0.045347892 -0.13690834 1.376 4280034596
-0.041736316 -0.13740581 1.381 4280100389
-0.038014933 -0.13760482 1.383 4280231205
-0.034233104 -0.13760482 1.383 4280428584
-0.030319167 -0.13700782 1.3770001 4280428330
-0.11200792 -0.13188773 1.363 4280889135
-0.10748636 -0.1309201 1.353 4280823342
-0.10324961 -0.13024276 1.3460001 4280626733
-0.099051133 -0.12956542 1.3390001 4281153077
-0.095389619 -0.12956542 1.3390001 4279705631
-0.093098223 -0.13150068 1.3590001 4278190080
-0.090565883 -0.1332424 1.3770001 4279903010
-0.085980996 -0.13198449 1.3640001 4279968803
-0.081768721 -0.13121039 1.3560001 4279903010
-0.078406125 -0.13179097 1.3620001 4279837217
-0.075394541 -0.13304889 1.3750001 4280033826
-0.067973368 -0.1332424 1.3770001 4280033826
-0.063695028 -0.13217802 1.3660001 4280165410
-0.059564639 -0.13130715 1.3570001 4280231201
-0.055853911 -0.13130715 1.3570001 4280231203
-0.052143179 -0.13130715 1.3570001 4280494377
-0.048396762 -0.13121039 1.3560001 4280231975
-0.044589896 -0.1309201 1.353 4280429354
-0.040950548 -0.13111362 1.355 4280560940
-0.037327752 -0.13140392 1.358 4280823088
-0.033837061 -0.13227478 1.3670001 4281086514
-0.030054949 -0.13208126 1.365 4280757295
-0.11250099 -0.12872475 1.3690001 4280823342
-0.10796302 -0.12778448 1.3590001 4280823342
-0.10355644 -0.12693822 1.35 4280889135
-0.099347033 -0.12628002 1.3430001 4281218100
-0.095318384 -0.12580988 1.3380001 4280099619
-0.093098223 -0.12778448 1.3590001 4279968033
-0.085539751 -0.12759642 1.3570001 4279968803
-0.081346609 -0.1268442 1.3490001 4279968803
-0.077830456 -0.12712628 1.3520001 4279968803
-0.075394541 -0.12928893 1.3750001 4280034596
-0.063788287 -0.12863073 1.368 4280560170
-0.059740219 -0.12797253 1.3610001 4280625961
-0.055483468 -0.12675017 1.348 4280691756
-0.051874205 -0.12693822 1.35 4280495147
-0.048218306 -0.12703225 1.3510001 4280824110
-0.044425115 -0.12675017 1.348 4280824112
-0.040859882 -0.12712628 1.3520001 4280758319
-0.037080362 -0.1268442 1.3490001 4280758065
-0.033663791 -0.1278785 1.36 4281020721
-0.029944858 -0.1278785 1.36 4281152054
-0.10851911 -0.12470734 1.3660001 4280955957
-0.10386327 -0.12361182 1.3540001 4280889651
-0.099347033 -0.12260757 1.3430001 4280824112
-0.095888309 -0.12288146 1.3460001 4280296998
-0.092892706 -0.1237944 1.3560001 4280296998
-0.089645103 -0.12443346 1.363 4280231205
-0.085476719 -0.1237944 1.3560001 4280362791
-0.081406914 -0.12324664 1.35 4280297514
-0.078003153 -0.1237031 1.355 4280495147
-0.075120382 -0.12507251 1.3700001 4280495147
-0.063834921 -0.12498122 1.3690001 4280758319
-0.05916959 -0.12306405 1.348 4280692526
-0.05540115 -0.12288146 1.3460001 4280626733
-0.051835779 -0.12315534 1.3490001 4280758319
-0.048610903 -0.12434217 1.3620001 4280889905
-0.044886503 -0.12434217 1.3620001 4280955444
-0.040799439 -0.12324664 1.35 4281021491
-0.036887955 -0.12251628 1.342 4281020467
-0.033342004 -0.12297275 1.3470001 4281152307
-0.029790729 -0.12352052 1.353 4281481018
-0.10393997 -0.11999784 1.355 4280955444
-0.099568956 -0.11920082 1.3460001 4281152307
-0.095959544 -0.11928937 1.3470001 4280625963
-0.092618681 -0.11973216 1.3520001 4280494377
-0.089579329 -0.12061776 1.3620001 4280691756
-0.085728854 -0.12044064 1.36 4280560940
-0.078175858 -0.12026352 1.358 4280758319
-0.070905223 -0.1205292 1.3610001 4280692273
-0.059389066 -0.11982073 1.353 4281021237
-0.055524632 -0.11946649 1.3490001 4280889651
-0.05210476 -0.1200864 1.3560001 4281021237
-0.048539523 -0.12044064 1.36 4281153077
-0.041101657 -0.12044064 1.36 4281152307
-0.037052877 -0.11937793 1.348 4281086514
-0.033540029 -0.11999784 1.355 4281218100
-0.029636601 -0.11920082 1.3460001 4281349686
-0.026225924 -0.12044064 1.36 4281415225
-0.099642925 -0.11560598 1.3470001 4281283639
-0.095817059 -0.11543434 1.345 4280823088
-0.092276156 -0.11560598 1.3470001 4280757295
-0.089316249 -0.11655006 1.358 4280626733
-0.085665822 -0.11663587 1.3590001 4280824112
-0.081829019 -0.11646423 1.3570001 4280824112
-0.07336574 -0.11483356 1.3380001 4280692526
-0.069915362 -0.11517686 1.342 4280823858
-0.066640556 -0.11586346 1.35 4280955444
-0.062482681 -0.11500521 1.34 4281087030
-0.058291703 -0.11397532 1.3280001 4281021750
-0.054866076 -0.11440444 1.3330001 4281152823
-0.051220972 -0.11440444 1.3330001 4281153077
-0.047754325 -0.11483356 1.3380001 4281087284
-0.044194419 -0.11509104 1.3410001 4281087284
-0.040527441 -0.11509104 1.3410001 4281153077
-0.037107851 -0.11586346 1.35 4281087284
-0.033193488 -0.11509104 1.3410001 4281283893
-0.029394401 -0.11457609 1.335 4281218100
-0.025955951 -0.11552016 1.3460001 4281087030
-0.10001279 -0.11233805 1.3520001 4280692273
-0.095460869 -0.11134097 1.34 4281021237
-0.09193363 -0.11150714 1.342 4278190080
-0.088790089 -0.11217187 1.35 4280823342
-0.084783323 -0.11175642 1.345 4281020721
-0.081105404 -0.11175642 1.345 4280889135
-0.077139653 -0.11134097 1.34 4280824112
-0.073859237 -0.1119226 1.3470001 4280889651
-0.069654875 -0.1110917 1.337 4281021237
-0.066295013 -0.11159024 1.3430001 4280955444
-0.062249534 -0.11092552 1.335 4281021237
-0.058335602 -0.11042698 1.3290001 4281153336
-0.054372158 -0.10976225 1.3210001 4281350202
-0.051374678 -0.1110917 1.337 4281350456
-0.047682945 -0.11100861 1.3360001 4281218870
-0.043963727 -0.11084242 1.3340001 4281218870
-0.04013456 -0.11034389 1.3280001 4281218870
-0.036475644 -0.11026079 1.327 4281218870
-0.03269843 -0.10976225 1.3210001 4281349686
-0.02941642 -0.11100861 1.3360001 4281349432
-0.025917385 -0.11167333 1.3440001 4281283639
-0.022258751 -0.11175642 1.345 4281284409
-0.095817059 -0.10807851 1.345 4280889651
-0.091522612 -0.1073553 1.3360001 4280626733
-0.087869301 -0.1073553 1.3360001 4280691756
-0.083333492 -0.10623032 1.322 4278190080
-0.079658173 -0.10614996 1.3210001 4281152307
-0.076563984 -0.10687316 1.33 4281020721
-0.073310912 -0.10743566 1.337 4281021237
-0.070019558 -0.10799815 1.3440001 4281087030
-0.065505199 -0.1066321 1.327 4281152823
-0.062296163 -0.1073553 1.3360001 4281218616
-0.05846728 -0.10703388 1.332 4281152823
-0.054948393 -0.10727494 1.335 4281218870
-0.051336247 -0.1073553 1.3360001 4281284663
-0.047790017 -0.10759637 1.3390001 4281481270
-0.043798946 -0.10679282 1.3290001 4281481270
-0.0397719 -0.10574819 1.3160001 4281415475
-0.036310717 -0.10614996 1.3210001 4281283891
-0.032871701 -0.10671246 1.3280001 4281349686
-0.029482475 -0.10759637 1.3390001 4281349686
-0.025878819 -0.10783743 1.342 4281218870
-0.022142908 -0.10751601 1.3380001 4281482042
-0.092002138 -0.10424534 1.3430001 4280889905
-0.087606214 -0.10339151 1.332 4281547065
-0.083459564 -0.10277054 1.3240001 4281086514
-0.079839073 -0.10277054 1.3240001 4281152307
-0.075239941 -0.10145099 1.307 4280889651
-0.073146418 -0.10354675 1.3340001 4281087030
-0.069185995 -0.10308103 1.3280001 4281087030
-0.065307744 -0.10269292 1.3230001 4281087543
-0.061969765 -0.10315865 1.3290001 4281152823
-0.058511175 -0.10346914 1.3330001 4281087030
-0.054907236 -0.10354675 1.3340001 4281283893
-0.051105697 -0.10323627 1.33 4281547065
-0.047147583 -0.10253768 1.3210001 4281218098
-0.043370511 -0.10214958 1.3160001 4281481268
-0.039681233 -0.10191671 1.3130001 4281283889
-0.036503132 -0.10308103 1.3280001 4281415477
-0.025878819 -0.10416772 1.342 4281350456
-0.022159457 -0.10393486 1.3390001 4281219129
-0.084152959 -0.099973805 1.335 4278190080
-0.079718471 -0.099000275 1.322 4281021237
-0.075815611 -0.098625839 1.317 4281021237
-0.07292708 -0.099599369 1.33 4281021237
-0.068612911 -0.098625839 1.317 4280889651
-0.064863473 -0.098401181 1.314 4280955444
-0.06150347 -0.098775618 1.319 4281218616
-0.057677183 -0.098401181 1.314 4281415225
-0.054330997 -0.098850511 1.3200001 4281283893
-0.050529316 -0.098476075 1.3150001 4281744444
-0.046862058 -0.098326296 1.3130001 4283784025
-0.043139819 -0.098026745 1.309 4282599751
-0.039560344 -0.098026745 1.309 4284968299
-0.036173284 -0.09855096 1.3160001 4281218100
-0.025647409 -0.099599369 1.33 4281350715
-0.021977415 -0.099449597 1.3280001 4281153336
-0.018235467 -0.098850511 1.3200001 4281284920
-0.014648075 -0.099000275 1.322 4281219127
-0.01109982 -0.099599369 1.33 4281218870
-0.080019973 -0.095746018 1.327 4281547581
-0.075470209 -0.09459158 1.3110001 4281087030
-0.071830437 -0.094519429 1.3100001 4280889651
-0.068352424 -0.094663724 1.312 4281087030
-0.064764746 -0.094663724 1.312 4281152823
-0.061037183 -0.094447277 1.309 4281021237
-0.057589393 -0.094663724 1.312 4281283639
-0.054125197 -0.094880193 1.3150001 4281481018
-0.05049089 -0.094808035 1.314 4281941823
-0.046826363 -0.094663724 1.312 4285099887
-0.04304095 -0.094230823 1.3060001 4282336579
-0.039590567 -0.094519429 1.3100001 4284047197
-0.036118306 -0.094808035 1.314 4284573543
-0.032648928 -0.095168799 1.319 4281547835
-0.028954037 -0.094880193 1.3150001 4281350456
-0.025396721 -0.095024489 1.317 4281350456
-0.021745725 -0.094808035 1.314 4281284920
-0.018097321 -0.094519429 1.3100001 4281219127
-0.014603755 -0.095096648 1.3180001 4281219127
-0.011058091 -0.095601708 1.325 4281219127
-0.080019973 -0.092117324 1.327 4278190080
-0.075412646 -0.09093722 1.3100001 4281415995
-0.071830437 -0.09093722 1.3100001 4281152823
-0.068248227 -0.09093722 1.3100001 4281021237
-0.064567298 -0.090798378 1.3080001 4281283639
-0.061177071 -0.091076054 1.312 4281283640
-0.057589393 -0.091076054 1.312 4281217847
-0.054042879 -0.091145471 1.3130001 4281481018
-0.050183486 -0.090659551 1.3060001 4281612858
-0.046505146 -0.0904513 1.3030001 4281482042
-0.042975038 -0.09052071 1.304 4285034094
-0.039469678 -0.090659551 1.3060001 4286810503
-0.035925899 -0.090728968 1.307 4282994511
-0.032302387 -0.090590134 1.3050001 4282533960
-0.02877789 -0.090728968 1.307 4281810237
-0.02503033 -0.090104207 1.2980001 4281482042
-0.021447839 -0.089965373 1.296 4281416249
-0.017931543 -0.090104207 1.2980001 4281416249
-0.014537273 -0.091076054 1.312 4281350456
-0.010982979 -0.091353729 1.3160001 4281218870
-0.007423643 -0.091839649 1.3230001 4281481018
-0.0038145168 -0.0920479 1.3260001 4281415225
-0.074203745 -0.085954666 1.289 4281613374
-0.070733786 -0.086021349 1.2900001 4281349432
-0.068196133 -0.087288328 1.309 4281152053
-0.06451793 -0.087154962 1.307 4281217846
-0.060384378 -0.086354762 1.2950001 4281217846
-0.056930982 -0.086488128 1.2970001 4281349433
-0.053878237 -0.087288328 1.309 4281481018
-0.049991362 -0.086754866 1.3010001 4281284663
-0.046362385 -0.086621501 1.299 4281416249
-0.042777296 -0.086554818 1.2980001 4284178785
-0.039227903 -0.086554818 1.2980001 4282731337
-0.035733487 -0.086688183 1.3000001 4286613124
-0.032203376 -0.086754866 1.3010001 4283652439
-0.028733851 -0.087021597 1.3050001 4281152307
-0.025088182 -0.086754866 1.3010001 4281284661
-0.021547135 -0.086821549 1.302 4281416249
-0.017986802 -0.086821549 1.302 4281350456
-0.014426471 -0.086821549 1.302 4281284663
-0.01088283 -0.086954914 1.304 4281087284
-0.0073282523 -0.087088279 1.3060001 4281218870
-0.0037569827 -0.087088279 1.3060001 4281349432
-0.07466428 -0.082941473 1.2970001 4281942593
-0.071720771 -0.083644912 1.3080001 4281482042
-0.067727245 -0.083133318 1.3000001 4281021491
-0.063530661 -0.082301989 1.2870001 4281415479
-0.059964724 -0.082238033 1.286 4281283893
-0.056667615 -0.082557783 1.291 4281283639
-0.053507797 -0.083133318 1.3000001 4281349432
-0.049837664 -0.082941473 1.2970001 4281350456
-0.046291005 -0.082941473 1.2970001 4281284663
-0.042777296 -0.083005421 1.2980001 4281481272
-0.039107021 -0.082749628 1.294 4284770922
-0.035568565 -0.082749628 1.294 4285626229
-0.031955849 -0.082557783 1.291 4284244576
-0.028469633 -0.082685679 1.2930001 4284441955
-0.02481821 -0.082301989 1.2870001 4281482040
-0.021464387 -0.082941473 1.2970001 4281350454
-0.017876284 -0.082749628 1.294 4281284663
-0.01441539 -0.083197266 1.3010001 4281415995
-0.010874485 -0.083325163 1.3030001 4281021237
-0.0073001962 -0.083197266 1.3010001 4281021237
-0.0037195855 -0.082685679 1.2930001 4281217846
-0.00018514421 -0.083261214 1.302 4281283639
-0.071720771 -0.080068171 1.3080001 4282074179
-0.067883544 -0.079762094 1.3030001 4281350456
-0.064123027 -0.079517238 1.299 4278190080
-0.059824836 -0.078537814 1.2830001 4280955698
-0.056228671 -0.078415386 1.281 4281152307
-0.05321968 -0.079149954 1.2930001 4281152307
-0.049683958 -0.079149954 1.2930001 4281087284
-0.046291005 -0.07939481 1.2970001 4281087284
-0.042579561 -0.07908874 1.2920001 4281283891
-0.038804799 -0.078599028 1.284 4280889133
-0.035431124 -0.078905098 1.289 4284837483
-0.031881589 -0.078843884 1.2880001 4284969067
-0.028403576 -0.078966312 1.2900001 4283390035
-0.024779642 -0.078660242 1.2850001 4284311137
-0.021232698 -0.078537814 1.2830001 4281350454
-0.017779581 -0.07878267 1.2870001 4281350456
-0.014371069 -0.07939481 1.2970001 4281415995
-0.01088283 -0.079823315 1.304 4281481018
-0.0072609177 -0.079211168 1.294 4281349432
-0.0036994484 -0.078721456 1.286 4281284410
-0.000185713 -0.079945743 1.3060001 4281349433
-0.067935638 -0.076257512 1.304 4281876546
-0.063777484 -0.075555757 1.2920001 4281218870
-0.059545059 -0.074678555 1.2770001 4280889905
-0.055701938 -0.074210726 1.2690001 4281020721
-0.052849241 -0.07508792 1.284 4281020721
-0.049607109 -0.075497277 1.291 4281020721
-0.046041165 -0.075438797 1.2900001 4280889905
-0.042184085 -0.074854001 1.2800001 4281086514
-0.038804799 -0.07508792 1.284 4281021491
-0.035266202 -0.07502944 1.2830001 4281350456
-0.031683568 -0.074854001 1.2800001 4283850586
-0.028293487 -0.075146399 1.2850001 4280429350
-0.02462537 -0.074678555 1.2770001 4283982172
-0.021216149 -0.074970961 1.2820001 4281350452
-0.017682878 -0.074854001 1.2800001 4281218870
-0.014315668 -0.075555757 1.2920001 4281152823
-0.010791028 -0.075614236 1.2930001 4281283639
-0.0072272504 -0.075321838 1.2880001 4281217846
-0.003713832 -0.075497277 1.291 4281021238
-0.067675151 -0.072412983 1.299 4282468683
-0.063728116 -0.071967028 1.291 4281481018
-0.059638318 -0.071298078 1.279 4281546811
-0.056053091 -0.071186587 1.2770001 4281020467
-0.052972719 -0.071744047 1.2870001 4280954674
-0.049414985 -0.071688294 1.286 4281217846
-0.045791332 -0.071521066 1.2830001 4281087284
-0.042348865 -0.071632557 1.2850001 4280889905
-0.038835023 -0.071632557 1.2850001 4280890162
-0.035348665 -0.071688294 1.286 4280890162
-0.031832088 -0.071688294 1.286 4281285174
-0.028359542 -0.071799785 1.2880001 4283258451
-0.024914628 -0.072022766 1.2920001 4281612854
-0.021216149 -0.071465313 1.2820001 4281415477
-0.017738137 -0.071576804 1.284 4281283891
-0.014282427 -0.071855538 1.289 4281020721
-0.010774336 -0.071967028 1.291 4281020467
-0.0072048055 -0.071576804 1.284 4281086260
-0.0037080788 -0.071855538 1.289 4281021237
-0.063629389 -0.06833075 1.289 4282073925
-0.059638318 -0.067800641 1.279 4281350202
-0.05609699 -0.06774763 1.2780001 4281087030
-0.052478805 -0.067588598 1.2750001 4281020467
-0.048800178 -0.067323551 1.2700001 4281217846
-0.045220278 -0.067164518 1.2670001 4280889905
-0.042019304 -0.067588598 1.2750001 4281021491
-0.038714133 -0.06790667 1.281 4281153075
-0.035238713 -0.067959674 1.2820001 4281087795
-0.031658817 -0.067800641 1.279 4281219381
-0.028205413 -0.06790667 1.281 4281284661
-0.02462537 -0.067694619 1.2770001 4281153075
-0.021100305 -0.067588598 1.2750001 4281021489
-0.017627619 -0.067641616 1.276 4281152305
-0.014215947 -0.068012692 1.2830001 4281020721
-0.010740953 -0.068224728 1.2870001 4281283893
-0.0072048055 -0.068065695 1.284 4281020721
-0.0037023253 -0.068224728 1.2870001 4281218870
-0.060011346 -0.064705417 1.2870001 4281876546
-0.056272563 -0.064454034 1.2820001 4281350202
-0.052561123 -0.064202651 1.2770001 4281612604
-0.048761752 -0.063800447 1.2690001 4281547065
-0.04532735 -0.063850723 1.2700001 4281218100
-0.042019304 -0.064102098 1.2750001 4281283893
-0.038623471 -0.064252928 1.2780001 4281218870
-0.035018817 -0.064051829 1.274 4281284663
-0.031535048 -0.064051829 1.274 4281350454
-0.028095322 -0.064152375 1.276 4281350454
-0.024567518 -0.064051829 1.274 4281283891
-0.021050656 -0.063951276 1.2720001 4281283891
-0.017655248 -0.064252928 1.2780001 4281283891
-0.014249187 -0.06465514 1.286 4281547065
-0.007244084 -0.064906523 1.291 4281349686
-0.056316458 -0.060995936 1.2830001 4281679421
-0.052519966 -0.060663145 1.276 4281152307
-0.048877027 -0.060472976 1.2720001 4281481272
-0.045612879 -0.060758226 1.2780001 4281810237
-0.042217042 -0.060900852 1.281 4281612856
-0.038623471 -0.060758226 1.2780001 4281349684
-0.034991328 -0.060520515 1.273 4281218870
-0.031485546 -0.060472976 1.2720001 4281284663
-0.027985232 -0.060425434 1.271 4281416249
-0.024413249 -0.060187727 1.266 4281284663
-0.021001007 -0.06033035 1.2690001 4281678651
-0.017655248 -0.060758226 1.2780001 4281612858
-0.056184776 -0.057353139 1.2800001 4281152307
-0.052766923 -0.057442751 1.2820001 4281415479
-0.049299706 -0.057487562 1.2830001 4281283891
-0.038683914 -0.057353139 1.2800001 4281020721
-0.035128769 -0.057263523 1.2780001 4280954928
-0.031584557 -0.057173908 1.276 4280954674
-0.028051285 -0.057084296 1.274 4280823088
-0.0244711 -0.056860257 1.2690001 4281086003
-0.021067206 -0.057039484 1.273 4280889133
-0.038563024 -0.053684674 1.276 4280889135
-0.035046306 -0.053642601 1.2750001 4280889135
-0.031535048 -0.053600531 1.274 4280954928
-0.027941193 -0.053390164 1.2690001 4281020719
-0.024413249 -0.053263951 1.266 4280954926
-0.02096791 -0.053306021 1.2670001 4280757547
-0.045363039 -0.049998749 1.271 4281547065
-0.041788608 -0.049880736 1.268 4281415479
-0.038260806 -0.049802061 1.266 4281020721
-0.034881379 -0.049920071 1.2690001 4280691756
-0.031361781 -0.049841397 1.2670001 4280823340
-0.027875138 -0.049802061 1.266 4280560168
-0.0244711 -0.049920071 1.2690001 4280625961
-0.045255966 -0.046413377 1.268 4281283893
-0.041689739 -0.046303567 1.2650001 4281152307
-0.038200364 -0.046266966 1.2640001 4281218100
-0.034743942 -0.046266966 1.2640001 4281415479
-0.031337027 -0.046340171 1.266 4281481272
-0.027919177 -0.046413377 1.268 4281283891
