# .PCD v0.7 - Point Cloud Data file format
VERSION 0.7
FIELDS x y z rgba
SIZE 4 4 4 4
TYPE F F F U
COUNT 1 1 1 1
WIDTH 672
HEIGHT 1
VIEWPOINT 0 0 0 1 0 0 0
POINTS 672
DATA ascii
-0.10823566 -0.15968271 1.411 4278190080
-0.1028238 -0.15730613 1.3900001 4281415995
-0.097954251 -0.15560859 1.3750001 4281021237
-0.094262801 -0.15572177 1.376 4281350456
-0.091026276 -0.15662712 1.3840001 4281021748
-0.087746009 -0.15753248 1.3920001 4281087284
-0.083818965 -0.15730613 1.3900001 4281744444
-0.080651239 -0.15855101 1.401 4281612858
-0.07703951 -0.15900369 1.4050001 4281941823
-0.07335382 -0.1593432 1.4080001 4282138948
-0.06935554 -0.15900369 1.4050001 4282270534
-0.065793328 -0.15968271 1.411 4282336328
-0.11947119 -0.15538256 1.4070001 4281941823
-0.11570591 -0.15549301 1.4080001 4282073409
-0.11169683 -0.15527213 1.406 4282008132
-0.1076987 -0.15505126 1.404 4278190080
-0.10193612 -0.15217994 1.378 4281284409
-0.096173264 -0.14908776 1.35 4280823858
-0.092413172 -0.14897732 1.3490001 4281021491
-0.089118935 -0.14963992 1.355 4280955698
-0.085413679 -0.14963992 1.355 4281152307
-0.082251124 -0.15063384 1.3640001 4281218100
-0.079269633 -0.15206951 1.3770001 4281218098
-0.075888038 -0.15284257 1.3840001 4281283893
-0.072468154 -0.15361561 1.391 4281283893
-0.068911269 -0.15416779 1.396 4281415479
-0.065373667 -0.15483038 1.4020001 4282270534
-0.12323099 -0.1514274 1.406 4281942593
-0.11896171 -0.1508889 1.401 4281942593
-0.11513067 -0.1508889 1.401 4281745214
-0.11137906 -0.15099661 1.4020001 4281810753
-0.10754528 -0.15099661 1.4020001 4278190080
-0.10237996 -0.149058 1.3840001 4278190080
-0.096030779 -0.14518076 1.348 4281087030
-0.091591112 -0.14399606 1.337 4281021237
-0.087803528 -0.14378065 1.335 4280824112
-0.084152959 -0.14378065 1.335 4280758319
-0.080924496 -0.14453456 1.342 4280824110
-0.078290991 -0.14647317 1.36 4281086512
-0.074901052 -0.14711937 1.3660001 4281086512
-0.071374103 -0.14755018 1.3700001 4281086514
-0.068072096 -0.14851949 1.3790001 4281218100
-0.064534351 -0.149058 1.3840001 4281217846
-0.061232626 -0.1502427 1.3950001 4281875777
-0.13772263 -0.14663801 1.3970001 4281811005
-0.10723845 -0.14674295 1.3980001 4278190080
-0.10260188 -0.14558834 1.3870001 4278190080
-0.096885659 -0.14275424 1.36 4278190080
-0.091659613 -0.14044498 1.3380001 4280955698
-0.087211594 -0.13918538 1.3260001 4280889905
-0.083585635 -0.13918538 1.3260001 4280824112
-0.080140583 -0.13950029 1.3290001 4280824110
-0.077254787 -0.14086483 1.342 4280824108
-0.074188232 -0.14201948 1.353 4280889133
-0.070853122 -0.14275424 1.36 4280955698
-0.067529097 -0.14359397 1.368 4280955698
-0.064161316 -0.14443371 1.376 4281021237
-0.060662001 -0.1450635 1.3820001 4281283639
-0.057088707 -0.14558834 1.3870001 4281941569
-0.15234593 -0.14220449 1.391 4279375896
-0.13644101 -0.14148888 1.3840001 4281416249
-0.13361496 -0.14251119 1.3940001 4281482040
-0.098381691 -0.14118217 1.381 4278190080
-0.092481673 -0.13801299 1.35 4280889905
-0.087080054 -0.13535497 1.3240001 4280955698
-0.083585635 -0.13555942 1.3260001 4280889905
-0.079959676 -0.13555942 1.3260001 4280824110
-0.076909386 -0.13658175 1.3360001 4280824110
-0.07336574 -0.13678621 1.3380001 4280758319
-0.069967456 -0.13729736 1.3430001 4280626733
-0.066739284 -0.13821745 1.3520001 4281087284
-0.063415259 -0.1390353 1.36 4281087284
-0.059915796 -0.13954647 1.365 4281153077
-0.056347832 -0.13995539 1.3690001 4281152053
-0.13594809 -0.13720682 1.3790001 4280758317
-0.13150626 -0.13651034 1.3720001 4281153075
-0.12812696 -0.13690834 1.376 4281087282
-0.12445466 -0.13700782 1.3770001 4281021489
-0.12139042 -0.13780381 1.3850001 4281284663
-0.11018741 -0.1380028 1.3870001 4281283639
-0.10624123 -0.13780381 1.3850001 4281218100
-0.099022835 -0.1383013 1.3900001 4278190080
-0.093098223 -0.13521688 1.3590001 4281349686
-0.087606214 -0.13253045 1.332 4280955698
-0.083396524 -0.13163497 1.3230001 4280889905
-0.079658173 -0.13143598 1.3210001 4280758317
-0.07644885 -0.13213246 1.3280001 4280626731
-0.073036745 -0.13253045 1.332 4280758317
-0.069706969 -0.13312742 1.3380001 4280691754
-0.066443101 -0.13392341 1.3460001 4280955696
-0.063228741 -0.13491838 1.3560001 4280758317
-0.059696324 -0.13531637 1.36 4281152307
-0.056306668 -0.13611235 1.368 4281152053
-0.15125071 -0.13362946 1.381 4279968029
-0.14715397 -0.13333917 1.378 4279968029
-0.14338583 -0.13333917 1.378 4279968029
-0.13961767 -0.13333917 1.378 4280165410
-0.13456792 -0.13208126 1.365 4280165410
-0.13064361 -0.13188773 1.363 4280428584
-0.12691647 -0.13188773 1.363 4280691754
-0.12246628 -0.13111362 1.355 4280625959
-0.1192869 -0.1316942 1.3610001 4280823340
-0.11632944 -0.13256507 1.3700001 4280625961
-0.11365147 -0.13382299 1.383 4281020721
-0.10899577 -0.13275859 1.3720001 4280954928
-0.10524403 -0.13275859 1.3720001 4281086514
-0.093851767 -0.13256507 1.3700001 4281020721
-0.08714582 -0.12821074 1.325 4281086512
-0.08308135 -0.12753341 1.3180001 4280823340
-0.07941696 -0.12743664 1.317 4280889133
-0.076161012 -0.12801722 1.3230001 4280823340
-0.072598092 -0.12811399 1.3240001 4280757545
-0.069342285 -0.12879132 1.3310001 4280625959
-0.066492468 -0.13033952 1.3470001 4281152305
-0.062855706 -0.13043629 1.348 4280889133
-0.059432957 -0.13101687 1.3540001 4281086512
-0.15026499 -0.12900685 1.3720001 4279770650
-0.1469404 -0.12938297 1.376 4279770650
-0.14307366 -0.12928893 1.3750001 4279902238
-0.13911107 -0.12910087 1.373 4279902238
-0.13427216 -0.12806657 1.3620001 4279902238
-0.13073945 -0.12825462 1.3640001 4280099617
-0.12728892 -0.12853672 1.3670001 4280165408
-0.12300856 -0.12797253 1.3610001 4280296996
-0.11902396 -0.12769045 1.358 4280362789
-0.11615963 -0.12863073 1.368 4280494373
-0.11274752 -0.12900685 1.3720001 4280428582
-0.10867801 -0.12863073 1.368 4280757547
-0.10486048 -0.12853672 1.3670001 4280691754
-0.10193612 -0.12957102 1.378 4280889133
-0.093646258 -0.12853672 1.3670001 4278190080
-0.08727736 -0.12477557 1.327 4281152305
-0.0828292 -0.1235532 1.314 4280691754
-0.07941696 -0.12383529 1.317 4280823340
-0.076103449 -0.12430543 1.322 4280691754
-0.072707757 -0.12468154 1.3260001 4280823338
-0.069550671 -0.1255278 1.335 4280625959
-0.06639374 -0.12646808 1.345 4280691754
-0.062669195 -0.12637405 1.3440001 4280954926
-0.059301272 -0.12703225 1.3510001 4280954926
-0.14993642 -0.12498122 1.3690001 4279704857
-0.14555216 -0.12443346 1.363 4279704857
-0.14234529 -0.12488992 1.368 4279836443
-0.13900976 -0.12525509 1.3720001 4279770650
-0.13506083 -0.12507251 1.3700001 4280033824
-0.13112286 -0.12488992 1.368 4279968031
-0.12794073 -0.12543769 1.3740001 4279902236
-0.12418352 -0.12543769 1.3740001 4280099617
-0.12025101 -0.12525509 1.3720001 4279902238
-0.11624453 -0.12498122 1.3690001 4279902236
-0.11282969 -0.12534639 1.373 4280033824
-0.10516731 -0.12516381 1.3710001 4280099617
-0.10156625 -0.12534639 1.373 4279968031
-0.093577757 -0.12470734 1.3660001 4278190080
-0.087935075 -0.12205982 1.337 4281086510
-0.082892239 -0.12005135 1.3150001 4280823338
-0.07941696 -0.12023394 1.317 4280823338
-0.076103449 -0.12069041 1.322 4280625959
-0.072817422 -0.12123817 1.3280001 4280691752
-0.069446482 -0.12169465 1.3330001 4280691752
-0.065998837 -0.12205982 1.337 4280494375
-0.062296163 -0.12196852 1.3360001 4281020721
-0.060179163 -0.12516381 1.3710001 4280823342
-0.1492793 -0.12070632 1.363 4279704857
-0.14533858 -0.1205292 1.3610001 4279639064
-0.14213718 -0.120972 1.3660001 4279770650
-0.13407499 -0.12044064 1.36 4279704861
-0.11548032 -0.12044064 1.36 4279902236
-0.10486048 -0.12106056 1.3670001 4279902238
-0.10104843 -0.120972 1.3660001 4279836445
-0.097384334 -0.12106056 1.3670001 4278190080
-0.088066608 -0.11858089 1.3390001 4281020717
-0.083144382 -0.11680971 1.319 4280757545
-0.07923606 -0.11636692 1.314 4280691752
-0.076161012 -0.11716395 1.3230001 4280494373
-0.072652921 -0.11734106 1.325 4280691754
-0.069185995 -0.11760674 1.3280001 4280757547
-0.065603927 -0.11769531 1.3290001 4280494375
-0.062109645 -0.11796098 1.332 4280823340
-0.15684855 -0.11706501 1.3640001 4279704857
-0.14480464 -0.1163784 1.3560001 4279704857
-0.13006851 -0.11646423 1.3570001 4279770652
-0.12273742 -0.11655006 1.358 4279770652
-0.11849808 -0.1160351 1.3520001 4279770650
-0.1153105 -0.11655006 1.358 4279902236
-0.11200792 -0.11697919 1.363 4279704857
-0.10804246 -0.1167217 1.36 4279902236
-0.10393997 -0.11629258 1.355 4279770652
-0.10001279 -0.1160351 1.3520001 4279836445
-0.097099379 -0.11697919 1.363 4279770652
-0.093235224 -0.11680753 1.3610001 4278190080
-0.088592775 -0.11560598 1.3470001 4278190080
-0.082892239 -0.11285959 1.3150001 4280889133
-0.079055153 -0.1125163 1.3110001 4281020717
-0.075700477 -0.11285959 1.3150001 4280560168
-0.072762586 -0.11388949 1.327 4280428582
-0.069185995 -0.11397532 1.3280001 4280560168
-0.065702654 -0.11423279 1.3310001 4280494375
-0.063088857 -0.11612093 1.353 4280560168
-0.1561586 -0.1128366 1.358 4279639064
-0.12920585 -0.11200569 1.348 4279704859
-0.12486792 -0.11142406 1.3410001 4279836445
-0.12201438 -0.11217187 1.35 4279704859
-0.11867338 -0.11250424 1.3540001 4279836443
-0.11505575 -0.11258732 1.355 4279836443
-0.1113505 -0.11258732 1.355 4279770650
-0.10401669 -0.11267041 1.3560001 4279836443
-0.10023472 -0.11258732 1.355 4279704857
-0.095888309 -0.11183952 1.3460001 4279704857
-0.09275569 -0.11250424 1.3540001 4279770650
-0.088000841 -0.11117478 1.3380001 4280823340
-0.083144382 -0.10959607 1.319 4280823340
-0.078693345 -0.10843281 1.3050001 4281020719
-0.075297512 -0.10868207 1.3080001 4280494375
-0.072214261 -0.10942989 1.317 4280362789
-0.069029696 -0.11009461 1.325 4280296996
-0.065554559 -0.11034389 1.3280001 4280165410
-0.13328631 -0.10864099 1.3520001 4279770652
-0.1279598 -0.10727494 1.335 4279704859
-0.12375054 -0.10679282 1.3290001 4279704859
-0.12074905 -0.1073553 1.3360001 4279836443
-0.11858574 -0.10872135 1.353 4279836443
-0.11085744 -0.10839993 1.3490001 4279836443
-0.099347033 -0.10791779 1.3430001 4279770650
-0.09503343 -0.10719459 1.3340001 4279704859
-0.090974562 -0.10671246 1.3280001 4279639066
-0.086948514 -0.10623032 1.322 4280691754
-0.082450993 -0.10510533 1.3080001 4280757547
-0.078512445 -0.10462321 1.302 4280691754
-0.075182378 -0.10494463 1.3060001 4280494375
-0.072049767 -0.10558748 1.314 4280362789
-0.068977602 -0.10639104 1.3240001 4280165410
-0.14026421 -0.10463345 1.348 4279639064
-0.13566622 -0.10393486 1.3390001 4279639064
-0.13121603 -0.10331389 1.3310001 4279704857
-0.12805566 -0.103702 1.3360001 4279704857
-0.12486792 -0.10409011 1.3410001 4279704859
-0.12174324 -0.10455583 1.3470001 4279770652
-0.11805985 -0.10455583 1.3470001 4279770650
-0.11446138 -0.10463345 1.348 4279704857
-0.11020002 -0.10409011 1.3410001 4279770650
-0.10708914 -0.10463345 1.348 4279770650
-0.09912511 -0.10401248 1.34 4279836443
-0.094321035 -0.10277054 1.3240001 4279770650
-0.090495035 -0.10253768 1.3210001 4279902236
-0.08648812 -0.10207196 1.3150001 4280757545
-0.082577065 -0.10168385 1.3100001 4280691754
-0.07893455 -0.10160622 1.309 4280494375
-0.076045886 -0.10253768 1.3210001 4280296996
-0.072323926 -0.10238244 1.319 4280099617
-0.070175849 -0.10455583 1.3470001 4280428582
-0.15810618 -0.1005729 1.3430001 4279770652
-0.14708884 -0.1005729 1.3430001 4279704857
-0.14256209 -0.099973805 1.335 4279770650
-0.13859935 -0.099749148 1.332 4279705111
-0.13455172 -0.099449597 1.3280001 4279836697
-0.13151179 -0.099898912 1.3340001 4279836443
-0.10995349 -0.10019846 1.3380001 4279902236
-0.10629471 -0.10019846 1.3380001 4279902236
-0.098533317 -0.099749148 1.332 4279836443
-0.093964837 -0.098775618 1.319 4279836443
-0.090084001 -0.098476075 1.3150001 4279770650
-0.086290807 -0.098251402 1.312 4280757545
-0.082577065 -0.098101638 1.3100001 4280494373
-0.079296358 -0.098476075 1.3150001 4280560168
-0.07639128 -0.099374712 1.327 4280099619
-0.072543256 -0.099075168 1.3230001 4280889135
-0.1550453 -0.095024489 1.317 4279836445
-0.15293884 -0.095962472 1.33 4279704859
-0.15019999 -0.096539684 1.3380001 4278190080
-0.1464317 -0.09646754 1.337 4279902238
-0.14096026 -0.095240958 1.3200001 4279704857
-0.13693449 -0.094952345 1.3160001 4279705111
-0.13455172 -0.095818169 1.3280001 4279705111
-0.13151179 -0.096251078 1.3340001 4279836443
-0.1279598 -0.096323237 1.335 4279770650
-0.12430923 -0.096323237 1.335 4279770650
-0.10209898 -0.096034624 1.3310001 4279968029
-0.097645625 -0.095240958 1.3200001 4279770652
-0.093751118 -0.094952345 1.3160001 4279836443
-0.089672968 -0.094447277 1.309 4279902236
-0.085633107 -0.09394221 1.302 4280494373
-0.082640097 -0.09459158 1.3110001 4280691752
-0.079115458 -0.094663724 1.312 4280428582
-0.076218583 -0.095529564 1.3240001 4281086512
-0.15997171 -0.092186742 1.3280001 4279836445
-0.15528075 -0.091561981 1.319 4280033824
-0.1520189 -0.091770232 1.322 4279902238
-0.14918968 -0.092256166 1.3290001 4279968031
-0.14435077 -0.091492563 1.3180001 4280033822
-0.13914487 -0.0904513 1.3030001 4279968029
-0.13568586 -0.09052071 1.304 4279836443
-0.13353853 -0.091492563 1.3180001 4279836443
-0.13141321 -0.092533834 1.3330001 4278190080
-0.12767226 -0.09246441 1.332 4280033822
-0.12402988 -0.09246441 1.332 4279836443
-0.12002599 -0.092186742 1.3280001 4279902236
-0.11665751 -0.092394993 1.3310001 4279968029
-0.10937824 -0.092394993 1.3310001 4280099615
-0.10550028 -0.092186742 1.3280001 4280165408
-0.10156202 -0.091909073 1.3240001 4280165408
-0.09771961 -0.091700815 1.3210001 4280231201
-0.093537398 -0.091145471 1.3130001 4278190080
-0.090221018 -0.091423139 1.317 4280033824
-0.08583042 -0.090590134 1.3050001 4280625961
-0.081631519 -0.089895949 1.2950001 4280691754
-0.078572743 -0.0904513 1.3030001 4280954926
-0.07575804 -0.091353729 1.3160001 4281283893
-0.15912849 -0.088088527 1.3210001 4280428584
-0.15610483 -0.088421941 1.3260001 4280296996
-0.14885291 -0.088421941 1.3260001 4280428582
-0.14456981 -0.088021845 1.3200001 4280231973
-0.1397856 -0.087288328 1.309 4280296994
-0.13495748 -0.086488128 1.2970001 4280428580
-0.13232268 -0.087088279 1.3060001 4280428582
-0.13052595 -0.088288575 1.3240001 4280428582
-0.12337808 -0.088355266 1.325 4280494375
-0.11821838 -0.087221645 1.3080001 4280428582
-0.11543046 -0.087821797 1.317 4280494373
-0.11225367 -0.08815521 1.322 4280428580
-0.10830993 -0.087888479 1.3180001 4280428580
-0.10179215 -0.088488631 1.327 4280362787
-0.098163448 -0.088488631 1.327 4280362789
-0.094178557 -0.08815521 1.322 4280428582
-0.090906061 -0.088488631 1.327 4280494375
-0.085567333 -0.086754866 1.3010001 4280625963
-0.081757598 -0.086488128 1.2970001 4280560170
-0.078753643 -0.087088279 1.3060001 4281283893
-0.1521339 -0.084604137 1.3230001 4280429354
-0.14489838 -0.084604137 1.3230001 4278190080
-0.14031954 -0.084028602 1.314 4280823340
-0.13547775 -0.083261214 1.302 4280625961
-0.13212006 -0.083389118 1.304 4280889133
-0.11885104 -0.08409255 1.3150001 4280625961
-0.11411576 -0.083261214 1.302 4280823338
-0.11182911 -0.084220447 1.317 4280691752
-0.10781687 -0.083900705 1.312 4280625961
-0.09742371 -0.084220447 1.317 4280691754
-0.093252443 -0.083708853 1.309 4280757547
-0.089261942 -0.083325163 1.3030001 4280625963
-0.085501559 -0.083133318 1.3000001 4280757549
-0.082261883 -0.083453059 1.3050001 4280889135
-0.15492757 -0.080557883 1.3160001 4280954926
-0.15144396 -0.080619097 1.317 4280692524
-0.14773034 -0.080557883 1.3160001 4280758317
-0.13610207 -0.080068171 1.3080001 4280889133
-0.13333587 -0.080557883 1.3160001 4280954926
-0.12963869 -0.080496669 1.3150001 4280954926
-0.11885104 -0.080496669 1.3150001 4280757547
-0.11385282 -0.079517238 1.299 4280691754
-0.10945157 -0.078905098 1.289 4280691754
-0.10724163 -0.079884522 1.3050001 4280757547
-0.10071822 -0.080374241 1.3130001 4280757547
-0.096388072 -0.079762094 1.3030001 4280757547
-0.091685176 -0.07878267 1.2870001 4280757547
-0.088165857 -0.07878267 1.2870001 4280757549
-0.085041173 -0.079149954 1.2930001 4281020467
-0.082703128 -0.080313027 1.312 4281612604
-0.15768296 -0.07654991 1.309 4281020721
-0.15398577 -0.07649143 1.3080001 4281086512
-0.15040903 -0.07649143 1.3080001 4278190080
-0.13201873 -0.076199032 1.3030001 4281020719
-0.12924434 -0.076666869 1.3110001 4281020719
-0.1143787 -0.076315992 1.3050001 4280691754
-0.11004595 -0.075789675 1.296 4280823340
-0.10625549 -0.075614236 1.2930001 4280823340
-0.10399086 -0.07654991 1.309 4280823340
-0.099644303 -0.075965114 1.299 4280954926
-0.095574364 -0.075555757 1.2920001 4280889133
-0.091542698 -0.075146399 1.2850001 4281020719
-0.087823339 -0.074970961 1.2820001 4280954928
-0.085698873 -0.076199032 1.3030001 4281217846
-0.15732157 -0.072803199 1.3060001 4281086514
-0.1430365 -0.072803199 1.3060001 4281020719
-0.13957201 -0.072858945 1.307 4280889133
-0.13568586 -0.072691716 1.304 4281020719
-0.13222137 -0.072747454 1.3050001 4281086514
-0.12825851 -0.072524473 1.3010001 4281152307
-0.12170199 -0.072858945 1.307 4280889135
-0.11464164 -0.07291469 1.3080001 4280824110
-0.10936666 -0.071799785 1.2880001 4281086512
-0.10600896 -0.071911275 1.2900001 4280889133
-0.10224312 -0.071744047 1.2870001 4280889133
-0.099721014 -0.072468735 1.3000001 4278190080
-0.09601821 -0.072357245 1.2980001 4281086514
-0.091471456 -0.071576804 1.284 4281349686
-0.088028848 -0.071632557 1.2850001 4281481272
-0.085698873 -0.072635964 1.3030001 4281481018
-0.14270793 -0.069072902 1.3030001 4281086512
-0.13764983 -0.06833075 1.289 4281152305
-0.13547775 -0.069019891 1.302 4278190080
-0.13191742 -0.069019891 1.302 4281152307
-0.12756841 -0.068595804 1.294 4281152307
-0.12345485 -0.068277739 1.2880001 4280889135
-0.12002592 -0.06833075 1.289 4281020721
-0.11749533 -0.06891387 1.3000001 4281020721
-0.11411576 -0.069019891 1.302 4281086512
-0.10885719 -0.067959674 1.2820001 4281020719
-0.10395452 -0.067058496 1.2650001 4280954926
-0.10168701 -0.067853652 1.2800001 4281020719
-0.099644303 -0.068860859 1.299 4281152305
-0.095574364 -0.068489783 1.2920001 4281020721
-0.091613941 -0.068171717 1.286 4281218100
-0.088645399 -0.068595804 1.294 4282336581
-0.16003048 -0.065308727 1.299 4281283891
-0.15647836 -0.065308727 1.299 4281349684
-0.14172223 -0.065057345 1.294 4281218098
-0.13839735 -0.065157898 1.296 4281152305
-0.13433315 -0.064906523 1.291 4281086512
-0.12668115 -0.064604864 1.2850001 4281152307
-0.1229756 -0.06450431 1.2830001 4281415479
-0.11956034 -0.064554587 1.284 4281152053
-0.11568771 -0.064353481 1.2800001 4281086512
-0.11245047 -0.06450431 1.2830001 4280889131
-0.10860246 -0.064303204 1.279 4280954924
-0.10403671 -0.063649617 1.266 4280954926
-0.10144868 -0.064202651 1.2770001 4281020719
-0.097880013 -0.064152375 1.276 4281020719
-0.094760641 -0.064403757 1.281 4281283893
-0.091400221 -0.06450431 1.2830001 4281941823
-0.08850839 -0.064956792 1.2920001 4281678651
-0.15575559 -0.06147135 1.2930001 4281283891
-0.14139366 -0.06137627 1.291 4281415477
-0.13658196 -0.060805764 1.279 4282928716
-0.13339669 -0.060948394 1.2820001 4283586646
-0.12897916 -0.060520515 1.273 4284244576
-0.1250052 -0.060282812 1.268 4281547063
-0.12134615 -0.060187727 1.266 4281152307
-0.1187223 -0.060615599 1.2750001 4281086512
-0.11550694 -0.060758226 1.2780001 4281086510
-0.1117493 -0.060615599 1.2750001 4281020717
-0.10783824 -0.060377896 1.2700001 4281020717
-0.10411888 -0.060235269 1.2670001 4281020717
-0.10009816 -0.059902474 1.2600001 4281020719
-0.096882805 -0.060045101 1.263 4281152305
-0.094316795 -0.060615599 1.2750001 4281612858
-0.091328986 -0.060948394 1.2820001 4281941823
-0.15527375 -0.057756402 1.289 4281415479
-0.15174897 -0.057756402 1.289 4281284663
-0.14787921 -0.057621978 1.286 4281350454
-0.14458714 -0.057711594 1.2880001 4281350454
-0.13996987 -0.057263523 1.2780001 4281744440
-0.13583444 -0.05699468 1.2720001 4283389265
-0.13204399 -0.056860257 1.2690001 4280691752
-0.12816861 -0.056681029 1.2650001 4281678649
-0.12451229 -0.056591418 1.263 4282204993
-0.12096275 -0.056546606 1.2620001 4281086512
-0.11834984 -0.056949873 1.271 4281152303
-0.11315703 -0.056098536 1.2520001 4281152303
-0.11078519 -0.056636225 1.2640001 4281086510
-0.10775334 -0.056860257 1.2690001 4281086512
-0.10420106 -0.056815453 1.268 4280889133
-0.099542059 -0.056143347 1.253 4281020719
-0.096806087 -0.056546606 1.2620001 4281283893
-0.093577057 -0.056681029 1.2650001 4281678397
-0.091542698 -0.057577174 1.2850001 4281481018
-0.14998308 -0.053600531 1.274 4281153077
-0.14592436 -0.053390164 1.2690001 4281087282
-0.14279103 -0.053516384 1.2720001 4281218098
-0.13898417 -0.053390164 1.2690001 4283915609
-0.13487335 -0.053137731 1.263 4284705125
-0.1313156 -0.053095654 1.2620001 4287336845
-0.12756069 -0.052969441 1.2590001 4284441953
-0.12411794 -0.052969441 1.2590001 4281152305
-0.12000425 -0.052674931 1.2520001 4281349684
-0.1163013 -0.052548714 1.2490001 4281152303
-0.11252437 -0.05238042 1.245 4281020717
-0.11043461 -0.053011511 1.2600001 4280889131
-0.10741368 -0.053221874 1.2650001 4278190080
-0.10362582 -0.053053584 1.261 4281086512
-0.099780381 -0.052843221 1.256 4281283893
-0.096959509 -0.053179804 1.2640001 4281349686
-0.09439078 -0.053684674 1.276 4281546811
-0.15068944 -0.050352793 1.2800001 4281218870
-0.14569438 -0.049841397 1.2670001 4281284661
-0.14222975 -0.049841397 1.2670001 4281284661
-0.13931274 -0.050038088 1.2720001 4284178781
-0.13508692 -0.049762722 1.2650001 4281547061
-0.13141966 -0.049684044 1.263 4284376160
-0.12735806 -0.049448017 1.2570001 4282862921
-0.12323069 -0.049172647 1.25 4281415477
-0.1212503 -0.049762722 1.2650001 4281218098
-0.11639442 -0.049172647 1.25 4280954926
-0.11216285 -0.048818603 1.2410001 4281086510
-0.10964578 -0.04921199 1.251 4280954924
-0.10698912 -0.049566027 1.2600001 4280889133
-0.10370799 -0.049644705 1.2620001 4280889133
-0.10089259 -0.049959414 1.2700001 4281152305
-0.16056029 -0.046669599 1.2750001 4281349686
-0.1415562 -0.046157151 1.261 4283323726
-0.13766989 -0.046010736 1.2570001 4283389519
-0.13412583 -0.045974132 1.256 4285560688
-0.12975481 -0.045644697 1.2470001 4284705379
-0.1265475 -0.04571791 1.2490001 4280823338
-0.12392078 -0.046010736 1.2570001 4278190080
-0.1220171 -0.046596393 1.273 4281218100
-0.11751179 -0.046193752 1.2620001 4281020719
-0.11342818 -0.045937531 1.2550001 4281020719
-0.11008401 -0.045974132 1.256 4280889133
-0.10605509 -0.04571791 1.2490001 4280823340
-0.10337929 -0.046047337 1.258 4281152305
-0.15993065 -0.043013755 1.2700001 4281086514
-0.15286455 -0.042979885 1.2690001 4281283893
-0.14488943 -0.042675067 1.2600001 4280954924
-0.13897429 -0.041929945 1.238 4283652437
-0.13635562 -0.04216703 1.245 4286481790
-0.13337831 -0.042302504 1.2490001 4284047195
-0.13006696 -0.042336375 1.25 4284112988
-0.12664883 -0.042336375 1.25 4281415475
-0.12303352 -0.042268638 1.248 4281218098
-0.12019596 -0.042471848 1.2540001 4281218100
-0.11704622 -0.042573459 1.2570001 4280954926
-0.11442237 -0.042878281 1.266 4280889133
-0.11069755 -0.042776674 1.263 4281086512
-0.10647965 -0.042471848 1.2540001 4280823340
-0.10395452 -0.042844411 1.2650001 4281349684
-0.14550948 -0.038482353 1.2360001 4281086512
-0.14120969 -0.038233276 1.228 4282994509
-0.1381885 -0.038326681 1.2310001 4284112988
-0.1352604 -0.038451217 1.235 4283520851
-0.13241722 -0.038606893 1.24 4284902504
-0.12933858 -0.038700297 1.243 4281020717
-0.12593959 -0.038700297 1.243 4281218096
-0.12194909 -0.038513485 1.2370001 4281086512
-0.11866235 -0.038544621 1.238 4281086512
-0.11564949 -0.038669161 1.2420001 4281086512
-0.11225323 -0.038669161 1.2420001 4280823340
-0.10876932 -0.038638026 1.2410001 4280889133
-0.10563053 -0.03873143 1.2440001 4281086512
-0.1029684 -0.039011639 1.253 4281415477
-0.10025704 -0.039291851 1.2620001 4281547061
-0.097036213 -0.039385255 1.2650001 4281349686
-0.15522587 -0.035784103 1.2600001 4278190080
-0.15009394 -0.035386499 1.2460001 4281153077
-0.14586265 -0.035187699 1.2390001 4281283893
-0.14201464 -0.0350741 1.235 4283125582
-0.13874978 -0.035102498 1.2360001 4283718230
-0.13558897 -0.035159297 1.238 4283520851
-0.1326308 -0.0352729 1.2420001 4282665542
-0.12944265 -0.0353297 1.2440001 4281415475
-0.12573695 -0.035244502 1.2410001 4281283889
-0.12175192 -0.0350741 1.235 4281086512
-0.11827895 -0.035045698 1.2340001 4281020719
-0.11434587 -0.0348753 1.228 4281020719
-0.11107828 -0.034903698 1.2290001 4280889133
-0.10762992 -0.0348753 1.228 4280954926
-0.10512106 -0.035159297 1.238 4281349682
-0.10280404 -0.0355285 1.251 4281612854
-0.16201456 -0.031645648 1.233 4281153077
-0.1590289 -0.031722642 1.2360001 4281153077
-0.15552312 -0.031696979 1.235 4278190080
-0.15325475 -0.031927969 1.2440001 4281021491
-0.14900981 -0.03174831 1.2370001 4280955698
-0.14598039 -0.031825308 1.24 4281876030
-0.14201464 -0.031696979 1.235 4285231473
-0.13863751 -0.031696979 1.235 4285034092
-0.13536991 -0.031722642 1.2360001 4283915611
-0.13273758 -0.031902306 1.243 4281547833
-0.12965074 -0.0319793 1.2460001 4281284661
-0.12553431 -0.031799641 1.2390001 4281021489
-0.12165334 -0.031671312 1.2340001 4281086512
-0.1183748 -0.031696979 1.235 4281086512
-0.11499768 -0.031696979 1.235 4281020719
-0.11171094 -0.031722642 1.2360001 4280889133
-0.10789286 -0.031594317 1.2310001 4281283891
-0.10512106 -0.031773973 1.238 4281349684
-0.10263968 -0.032056298 1.2490001 4281284661
-0.16793473 -0.028709687 1.2520001 4281350456
-0.16280295 -0.028411582 1.2390001 4281284663
-0.15787092 -0.028136412 1.2270001 4281218870
-0.15413788 -0.028067617 1.2240001 4281416249
-0.15189961 -0.028273998 1.233 4281152307
-0.14828704 -0.028228136 1.2310001 4281415479
-0.14527403 -0.028296929 1.2340001 4281218100
-0.14178465 -0.028273998 1.233 4280954928
-0.13931106 -0.028457448 1.2410001 4280889133
-0.13679372 -0.028640894 1.2490001 4281349684
-0.13337831 -0.028640894 1.2490001 4281087282
-0.12871426 -0.028365722 1.2370001 4281153075
-0.12452112 -0.028182274 1.2290001 4281153075
-0.1205689 -0.028044686 1.223 4281153075
-0.1174163 -0.02809055 1.225 4281086514
-0.11490457 -0.028296929 1.2340001 4280954926
-0.11198208 -0.028411582 1.2390001 4281283891
-0.10868168 -0.028434517 1.24 4281283893
-0.10597018 -0.028617963 1.248 4281481270
-0.16293435 -0.025043724 1.24 4281087284
-0.15761359 -0.024740776 1.225 4281283893
-0.15388604 -0.024680184 1.222 4281481272
-0.15128364 -0.024801364 1.228 4281678397
-0.14816657 -0.024841757 1.23 4281283893
-0.14480312 -0.024841757 1.23 4281283893
-0.14097971 -0.024760973 1.2260001 4281086512
-0.13740268 -0.024720578 1.2240001 4281086512
-0.13405564 -0.024720578 1.2240001 4281218098
-0.12996109 -0.024579203 1.217 4280955696
-0.12673725 -0.024599399 1.2180001 4280955698
-0.12340662 -0.024599399 1.2180001 4280955698
-0.12047032 -0.024680184 1.222 4280955696
-0.1172246 -0.024700381 1.223 4280889903
-0.11499768 -0.024942739 1.235 4281547063
-0.11198208 -0.025023526 1.2390001 4281020719
-0.10885697 -0.025084117 1.2420001 4281218098
-0.10563053 -0.025124511 1.2440001 4280625961
-0.15890023 -0.02156562 1.235 4281218870
-0.15438975 -0.021408463 1.2260001 4281153077
-0.15128364 -0.021443387 1.228 4281481272
-0.14792566 -0.021443387 1.228 4281349686
-0.1446854 -0.02146085 1.2290001 4281481270
-0.14086473 -0.021391001 1.225 4281218098
-0.13751495 -0.021391001 1.225 4281152305
-0.13405564 -0.021373538 1.2240001 4281152307
-0.13049504 -0.021338614 1.222 4281020721
-0.12715346 -0.021338614 1.222 4280955444
-0.12411585 -0.021391001 1.225 4281087284
-0.12116041 -0.02146085 1.2290001 4281218868
-0.11808725 -0.021513235 1.2320001 4280889903
-0.11518392 -0.021600544 1.2370001 4280692524
-0.11180133 -0.021600544 1.2370001 4281021489
-0.10841874 -0.021600544 1.2370001 4280889135
-0.1053758 -0.021670394 1.2410001 4281349686
-0.15890023 -0.018188501 1.235 4280955698
-0.15426382 -0.018041225 1.225 4281284663
-0.15054446 -0.017997043 1.222 4281218870
-0.14756428 -0.018041225 1.225 4281482042
-0.14444995 -0.018070681 1.2270001 4281416247
-0.14132468 -0.018100137 1.2290001 4281678649
-0.13796398 -0.018100137 1.2290001 4281547063
-0.13471279 -0.018114863 1.23 4281415479
-0.13102897 -0.018070681 1.2270001 4281480759
-0.12756968 -0.018055953 1.2260001 4281152307
-0.12411585 -0.018041225 1.225 4280889135
-0.12145617 -0.018144319 1.2320001 4280429352
-0.11847065 -0.018203229 1.2360001 4280824110
-0.11527703 -0.018232685 1.238 4281020719
-0.11134942 -0.018144319 1.2320001 4280823340
-0.1079805 -0.018144319 1.2320001 4282533960
-0.15877157 -0.014799388 1.2340001 4280955444
-0.15438975 -0.014703444 1.2260001 4280889651
-0.15054446 -0.014655473 1.222 4280824112
-0.14768472 -0.014703444 1.2260001 4280626733
-0.1446854 -0.014739424 1.2290001 4280758319
-0.14120969 -0.014727431 1.228 4280692526
-0.13773945 -0.014715437 1.2270001 4280823342
-0.13460326 -0.014739424 1.2290001 4280823342
-0.13124254 -0.014739424 1.2290001 4280757549
-0.12736157 -0.014679458 1.2240001 4280823342
-0.12381189 -0.014655473 1.222 4280625963
-0.1205689 -0.014667465 1.223 4280757547
-0.1179914 -0.01476341 1.2310001 4280494377
-0.11471833 -0.014775403 1.2320001 4281415479
-0.11098789 -0.014727431 1.228 4282204995
-0.15812825 -0.011378712 1.2290001 4280889651
-0.15388604 -0.011313902 1.222 4280889651
-0.15017487 -0.011286126 1.2190001 4280955444
-0.14792566 -0.011369453 1.228 4280823858
-0.14444995 -0.011360194 1.2270001 4280758319
-0.1410947 -0.011360194 1.2270001 4280824112
-0.13706592 -0.011304644 1.2210001 4280823342
-0.13405564 -0.011332419 1.2240001 4280823342
-0.13049504 -0.011313902 1.222 4280757547
-0.12725751 -0.01132316 1.223 4280625963
-0.12350793 -0.011286126 1.2190001 4280362789
-0.12037174 -0.011304644 1.2210001 4280691754
-0.11751215 -0.011350935 1.2260001 4281810237
-0.13661689 -0.0079397103 1.217 4280889133
-0.13361755 -0.007959283 1.22 4281020206
-0.13028145 -0.007959283 1.22 4280954926
-0.12725751 -0.0079788547 1.223 4281152305
-0.12411585 -0.0079919025 1.225 4281612856
-0.12086466 -0.0079984264 1.2260001 4281547063
-0.1368414 -0.0046193916 1.2190001 4281547833
