# .PCD v0.7 - Point Cloud Data file format
VERSION 0.7
FIELDS x y z rgba
SIZE 4 4 4 4
TYPE F F F U
COUNT 1 1 1 1
WIDTH 1136
HEIGHT 1
VIEWPOINT 0 0 0 1 0 0 0
POINTS 1136
DATA ascii
-0.08019077 0.27466044 1.102 4280166439
-0.078206994 0.27441123 1.1010001 4279969060
-0.076295987 0.27441123 1.1010001 4280034853
-0.072671458 0.27515894 1.1040001 4279969062
-0.070691153 0.2749097 1.103 4279771683
-0.06858962 0.27416199 1.1 4279771681
-0.066559114 0.27366349 1.098 4279903267
-0.064594433 0.27341428 1.097 4279771936
-0.062861815 0.27416199 1.1 4279837474
-0.061063372 0.27466044 1.102 4280034853
-0.059096955 0.27441123 1.1010001 4280100648
-0.057237893 0.27466044 1.102 4280034855
-0.05532515 0.27466044 1.102 4280100649
-0.053412411 0.27466044 1.102 4280166442
-0.051546406 0.2749097 1.103 4280166699
-0.045553822 0.27341428 1.097 4280100907
-0.043609973 0.27316502 1.0960001 4280166699
-0.041707646 0.27316502 1.0960001 4280232492
-0.039732683 0.27266657 1.0940001 4279179547
-0.037833828 0.27266657 1.0940001 4278916375
-0.035902131 0.27241731 1.0930001 4278981657
-0.033973902 0.27216807 1.092 4278521106
-0.032019768 0.2716696 1.09 4280231468
-0.030017292 0.27067265 1.0860001 4284902771
-0.028080516 0.27017418 1.0840001 4288850351
-0.026247356 0.27067265 1.0860001 4292074207
-0.024227789 0.26917723 1.08 4293653236
-0.022332538 0.26892799 1.079 4294179582
-0.020421796 0.26842952 1.077 4294311167
-0.018500771 0.26768178 1.074 4294047998
-0.016590159 0.26693407 1.0710001 4293784828
-0.014703718 0.26643559 1.069 4293719034
-0.012836237 0.26618636 1.0680001 4293586936
-0.010992794 0.26643559 1.069 4293586935
-0.0091458801 0.26668483 1.0700001 4293652470
-0.0072954944 0.26693407 1.0710001 4293652470
-0.0054619429 0.26818028 1.0760001 4293586677
-0.003614374 0.2696757 1.082 4293652726
-0.0017411626 0.27042341 1.085 4293521140
0.00014246287 0.27117112 1.0880001 4293586933
0.0020271693 0.27067265 1.0860001 4293652726
0.0039085355 0.27042341 1.085 4293586933
0.0075618206 0.26643559 1.069 4293652726
0.009408473 0.26618636 1.0680001 4293586933
0.011220018 0.26518938 1.064 4293652726
0.013103644 0.26593709 1.067 4293652726
0.014969651 0.26618636 1.0680001 4293586933
0.016823376 0.26618636 1.0680001 4293652726
0.018642126 0.26568788 1.0660001 4293586933
0.02049238 0.26568788 1.0660001 4293586933
0.022321675 0.26543865 1.0650001 4293586933
0.024170194 0.26543865 1.0650001 4293455347
0.026018713 0.26543865 1.0650001 4293521140
0.027919566 0.26593709 1.067 4293455347
0.029771555 0.26593709 1.067 4293521139
0.031653184 0.26618636 1.0680001 4293521140
0.033538282 0.26643559 1.069 4293521140
0.035493072 0.2671833 1.072 4293718519
0.037806723 0.27042341 1.085 4293521140
0.039726537 0.27067265 1.0860001 4293257968
0.041649822 0.27092189 1.087 4293455347
0.043536525 0.27092189 1.087 4293521140
0.045381442 0.27067265 1.0860001 4293521139
0.047135841 0.26992494 1.0830001 4293586419
0.048879825 0.26917723 1.08 4293652212
0.050754379 0.26917723 1.08 4293652468
0.052677665 0.26942644 1.0810001 4293652211
0.054604419 0.2696757 1.082 4293652211
0.05658685 0.27017418 1.0840001 4293520625
0.058468349 0.27017418 1.0840001 4293718003
0.060182825 0.26942644 1.0810001 4293652211
0.061886888 0.26867872 1.0780001 4293651954
0.063639678 0.26818028 1.0760001 4293520368
0.065507293 0.26818028 1.0760001 4293783281
0.067750596 0.2696757 1.082 4293848817
0.069950387 0.27092189 1.087 4294046195
0.071903177 0.27117112 1.0880001 4293914866
0.073520325 0.27017418 1.0840001 4293191143
0.07491491 0.26842952 1.077 4292138198
0.076855548 0.26867872 1.0780001 4291019717
0.080971539 0.26992494 1.0830001 4287993236
0.083080806 0.27067265 1.0860001 4286808962
0.085435204 0.27216807 1.092 4286479995
0.087490529 0.27266657 1.0940001 4286545788
0.089307681 0.27241731 1.0930001 4286874753
0.091121346 0.27216807 1.092 4286940800
0.092931554 0.27191883 1.0910001 4286743422
0.094825201 0.27191883 1.0910001 4286611836
0.096807495 0.27216807 1.092 4286348920
0.098793268 0.27241731 1.0930001 4286085748
0.10286908 0.27316502 1.0960001 4285033059
0.10496259 0.27366349 1.098 4284309079
0.10696572 0.27391273 1.0990001 4283124803
0.10897232 0.27416199 1.1 4282598459
0.11299593 0.27466044 1.102 4282467384
-0.19643565 0.27329743 1.0890001 4280230952
-0.19418819 0.27279547 1.087 4280625454
-0.19212458 0.27254453 1.0860001 4294178554
-0.19023961 0.27254453 1.0860001 4294046971
-0.18766089 0.2715407 1.082 4293783799
-0.17831732 0.26878011 1.0710001 4293850105
-0.17662315 0.26903105 1.072 4293850105
-0.17508852 0.26953298 1.074 4293850105
-0.17322439 0.26953298 1.074 4293850105
-0.17104113 0.26903105 1.072 4293915898
-0.16902265 0.26878011 1.0710001 4293850105
-0.16700764 0.26852912 1.0700001 4293784312
-0.15742685 0.26802722 1.0680001 4293784312
-0.15557313 0.26802722 1.0680001 4293784312
-0.15386333 0.26827818 1.069 4293784312
-0.14685245 0.26903105 1.072 4293850105
-0.14499177 0.26903105 1.072 4293850105
-0.14326464 0.26928204 1.0730001 4293850105
-0.14127044 0.26903105 1.072 4293784312
-0.13927972 0.26878011 1.0710001 4293784312
-0.1374208 0.26878011 1.0710001 4293784312
-0.1354353 0.26852912 1.0700001 4293784312
-0.12254933 0.26878011 1.0710001 4293718519
-0.1206904 0.26878011 1.0710001 4293718519
-0.11894242 0.26903105 1.072 4293784312
-0.11697254 0.26878011 1.0710001 4293784312
-0.11500613 0.26852912 1.0700001 4293718519
-0.11325467 0.26878011 1.0710001 4293784312
-0.11139574 0.26878011 1.0710001 4293850105
-0.10912771 0.26777625 1.067 4293718519
-0.10717518 0.26752529 1.0660001 4293718519
-0.10542373 0.26777625 1.067 4293784312
-0.098597154 0.27455223 1.0940001 4279969063
-0.096963473 0.27530512 1.097 4280100649
-0.094972759 0.27505413 1.0960001 4280166954
-0.093155347 0.27530512 1.097 4279837989
-0.091334477 0.27555606 1.098 4279903782
-0.089428678 0.27555606 1.098 4279903267
-0.087682299 0.27605799 1.1 4279903267
-0.086006954 0.27681088 1.103 4279903267
-0.084092483 0.27681088 1.103 4279903267
-0.082178004 0.27681088 1.103 4280100646
-0.08019077 0.27655992 1.102 4279969060
-0.07813596 0.27605799 1.1 4279903267
-0.076226689 0.27605799 1.1 4280034855
-0.074520104 0.27681088 1.103 4279903269
-0.072539806 0.27655992 1.102 4279969062
-0.070498884 0.27605799 1.1 4279903269
-0.068402559 0.27530512 1.097 4279837476
-0.066437878 0.27505413 1.0960001 4280232234
-0.064476669 0.27480319 1.095 4280166439
-0.06269037 0.27530512 1.097 4280035368
-0.060841724 0.27555606 1.098 4280101161
-0.058882251 0.27530512 1.097 4280101161
-0.056978188 0.27530512 1.097 4280232235
-0.055074129 0.27530512 1.097 4280298028
-0.0531216 0.27505413 1.0960001 4280298028
-0.051172543 0.27480319 1.095 4280231981
-0.049181957 0.27430126 1.0930001 4279442465
-0.047198314 0.27379936 1.0910001 4279113503
-0.045263145 0.27354836 1.09 4278915868
-0.043331441 0.27329743 1.0890001 4278718745
-0.041403212 0.27304646 1.0880001 4279705638
-0.039442133 0.27254453 1.0860001 4284311147
-0.037522584 0.27229357 1.085 4288390569
-0.035573658 0.27179164 1.0830001 4291876827
-0.033662785 0.2715407 1.082 4293258220
-0.031726006 0.27103877 1.08 4294047994
-0.027640138 0.26777625 1.067 4294376703
-0.025812317 0.26802722 1.0680001 4294179069
-0.023958592 0.26802722 1.0680001 4293718520
-0.022125565 0.26827818 1.069 4293718265
-0.02025114 0.26802722 1.0680001 4293586935
-0.018380187 0.26777625 1.067 4293652728
-0.016481727 0.26702335 1.064 4293652985
-0.014621189 0.26677239 1.0630001 4293587192
-0.012776141 0.26677239 1.0630001 4293587190
-0.010951662 0.26727432 1.0650001 4293652726
-0.0091287848 0.26802722 1.0680001 4293586933
-0.0072818715 0.26827818 1.069 4293586933
-0.0054467143 0.26928204 1.0730001 4293652726
-0.0035976716 0.27028587 1.077 4293718519
-0.0017315341 0.27078781 1.079 4293652726
0.00014154629 0.27128971 1.0810001 4293586933
0.0020122363 0.27053684 1.0780001 4293652726
0.0038797166 0.27028587 1.077 4293652726
0.0057170358 0.26878011 1.0710001 4293652726
0.0075335256 0.26727432 1.0650001 4293652726
0.0093732355 0.26702335 1.064 4293586933
0.014913584 0.26702335 1.064 4293586933
0.016760368 0.26702335 1.064 4293586933
0.018624637 0.26727432 1.0650001 4293586933
0.020453934 0.26702335 1.064 4293652726
0.022279758 0.26677239 1.0630001 4293586933
0.024124805 0.26677239 1.0630001 4293521140
0.025969852 0.26677239 1.0630001 4293521140
0.027814901 0.26677239 1.0630001 4293521140
0.029687848 0.26702335 1.064 4293521140
0.031593908 0.26752529 1.0660001 4293521140
0.033506911 0.26802722 1.0680001 4293586933
0.035459962 0.26878011 1.0710001 4293586933
0.037423428 0.26953298 1.074 4293455347
0.039324149 0.26978394 1.075 4293389554
0.041190028 0.26978394 1.075 4293520883
0.043336265 0.2715407 1.082 4293520882
0.045214292 0.2715407 1.082 4293454832
0.046961747 0.27078781 1.079 4293652211
0.048744045 0.27028587 1.077 4293586418
0.05066039 0.27053684 1.0780001 4293652211
0.052628934 0.27103877 1.08 4293652211
0.054604419 0.2715407 1.082 4293586161
0.056639049 0.27229357 1.085 4293915125
0.058522284 0.27229357 1.085 4293849333
0.060294166 0.27179164 1.0830001 4294046454
0.061886888 0.27053684 1.0780001 4293980916
0.063580535 0.26978394 1.075 4293388264
0.065446414 0.26978394 1.075 4292269783
0.067625374 0.27103877 1.08 4291282629
0.069886029 0.27254453 1.0860001 4289243046
0.07183709 0.27279547 1.087 4288387993
0.073655963 0.27254453 1.0860001 4287072133
0.075262703 0.2715407 1.082 4286677117
0.077069432 0.27128971 1.0810001 4286677374
0.078945726 0.27128971 1.0810001 4286743167
0.081046313 0.2720426 1.0840001 4287006596
0.083157316 0.27279547 1.087 4286743422
0.085435204 0.2740503 1.092 4286809214
0.087410562 0.27430126 1.0930001 4286677628
0.089307681 0.27430126 1.0930001 4286546042
0.0912048 0.27430126 1.0930001 4286348662
0.093187094 0.27455223 1.0940001 4285625196
0.094999038 0.27430126 1.0930001 4284572765
0.096984804 0.27455223 1.0940001 4283520334
0.098974042 0.27480319 1.095 4282796611
0.10087463 0.27480319 1.095 4281941300
0.10286908 0.27505413 1.0960001 4282204471
0.10496259 0.27555606 1.098 4282467387
0.10696572 0.27580702 1.0990001 4283190851
0.10897232 0.27605799 1.1 4285099105
0.11299593 0.27655992 1.102 4288257680
-0.19850795 0.27542713 1.09 4280362538
-0.1960749 0.27466908 1.087 4280428075
-0.19383089 0.27416375 1.085 4279309337
-0.19177076 0.27391103 1.0840001 4292796900
-0.18988927 0.27391103 1.0840001 4294112763
-0.18748745 0.27315298 1.0810001 4293849592
-0.18389411 0.27062613 1.0710001 4293784056
-0.18186523 0.27037343 1.0700001 4293652726
-0.17476247 0.27087882 1.072 4293784312
-0.17290181 0.27087882 1.072 4293850105
-0.17088158 0.27062613 1.0710001 4293784312
-0.16870701 0.27012074 1.069 4293850105
-0.16669548 0.26986808 1.0680001 4293850105
-0.14286408 0.27037343 1.0700001 4293784312
-0.13320358 0.26961538 1.067 4293850105
-0.13147469 0.26986808 1.0680001 4293784312
-0.1294996 0.26961538 1.067 4293718519
-0.12752797 0.26936269 1.0660001 4293784312
-0.12579562 0.26961538 1.067 4293850105
-0.12382746 0.26936269 1.0660001 4293784312
-0.1219772 0.26936269 1.0660001 4293784312
-0.12023965 0.26961538 1.067 4293718519
-0.11293743 0.26986808 1.0680001 4293784312
-0.1110837 0.26986808 1.0680001 4293784312
-0.10902543 0.26936269 1.0660001 4293784312
-0.09832678 0.27567986 1.0910001 4278982168
-0.096698307 0.27643791 1.0940001 4280232235
-0.094712794 0.27618521 1.0930001 4280100649
-0.092900597 0.27643791 1.0940001 4279903782
-0.091084927 0.27669057 1.095 4279903780
-0.089184336 0.27669057 1.095 4279903267
-0.087602593 0.27770132 1.0990001 4280100646
-0.085928984 0.27845937 1.102 4280100648
-0.084016249 0.27845937 1.102 4279837476
-0.082029 0.27820671 1.1010001 4280034855
-0.080045231 0.27795401 1.1 4279903269
-0.0779939 0.27744862 1.098 4279837476
-0.076157399 0.27770132 1.0990001 4280034855
-0.074317425 0.27795401 1.1 4279903270
-0.072276503 0.27744862 1.098 4279969063
-0.070242532 0.27694327 1.0960001 4279969063
-0.068215497 0.27643791 1.0940001 4279903270
-0.066013552 0.27517447 1.0890001 4280232235
-0.064123377 0.27517447 1.0890001 4280298028
-0.062233198 0.27517447 1.0890001 4280166698
-0.060343023 0.27517447 1.0890001 4280232492
-0.058452848 0.27517447 1.0890001 4280232492
-0.056614611 0.27542713 1.09 4279245340
-0.0547227 0.27542713 1.09 4278982168
-0.052782319 0.27517447 1.0890001 4278587156
-0.050798681 0.27466908 1.087 4278389007
-0.046852224 0.27365837 1.0830001 4285363324
-0.044972461 0.27365837 1.0830001 4290429642
-0.043052912 0.27340567 1.082 4292863720
-0.041136831 0.27315298 1.0810001 4293785080
-0.035212334 0.27087882 1.072 4294113790
-0.033102773 0.26885733 1.064 4293653239
-0.031314746 0.26936269 1.0660001 4293850361
-0.020137368 0.26835197 1.062 4293652726
-0.018294057 0.26835197 1.062 4293718519
-0.016419766 0.26784658 1.0600001 4293652726
-0.01459368 0.26809925 1.0610001 4293586933
-0.012788161 0.26885733 1.064 4293652726
-0.010982511 0.26986808 1.0680001 4293652726
-0.0091544269 0.27062613 1.0710001 4293652726
-0.0072954944 0.27062613 1.0710001 4293652726
-0.005436562 0.27062613 1.0710001 4293652726
-0.0035809693 0.27087882 1.072 4293718519
-0.0017219055 0.27113152 1.0730001 4293652726
0.00014010594 0.27037343 1.0700001 4293652726
0.0019954366 0.27012074 1.069 4293652726
0.0038472957 0.26986808 1.0680001 4293652726
0.0056903455 0.26936269 1.0660001 4293652726
0.018607151 0.26885733 1.064 4293521140
0.020453934 0.26885733 1.064 4293586933
0.0222588 0.26835197 1.062 4293521139
0.024079414 0.26809925 1.0610001 4293586932
0.025920991 0.26809925 1.0610001 4293586932
0.027788734 0.26835197 1.062 4293586931
0.029659946 0.26860464 1.0630001 4293586931
0.031564269 0.26911002 1.0650001 4293586932
0.033475537 0.26961538 1.067 4293652725
0.035360638 0.26986808 1.0680001 4293652725
0.03728405 0.27037343 1.0700001 4293389297
0.039141249 0.27037343 1.0700001 4293454833
0.040960129 0.27012074 1.069 4293586161
0.042855643 0.27037343 1.0700001 4293586161
0.044796415 0.27087882 1.072 4293586418
0.046831176 0.27188957 1.0760001 4293783540
0.048744045 0.27214226 1.077 4293849076
0.050613392 0.27214226 1.077 4294046454
0.052677665 0.27315298 1.0810001 4294309626
0.054755818 0.27416375 1.085 4294111990
0.056691252 0.27441642 1.0860001 4293585902
0.058630161 0.27466908 1.087 4292401627
0.060461186 0.27441642 1.0860001 4290756544
0.062116522 0.27340567 1.082 4288848802
0.063757971 0.27239493 1.0780001 4287335305
0.065568171 0.27214226 1.077 4286282616
0.067625374 0.27290031 1.08 4286677117
0.069821678 0.27416375 1.085 4286677116
0.07183709 0.27466908 1.087 4286545785
0.073927261 0.27542713 1.09 4286940544
0.075819172 0.27542713 1.09 4286611323
0.077568494 0.2749218 1.0880001 4286808701
0.079456933 0.2749218 1.0880001 4287006593
0.081420138 0.27517447 1.0890001 4286743420
0.083463319 0.27567986 1.0910001 4286217076
0.085591681 0.27643791 1.0940001 4285296231
0.087650478 0.27694327 1.0960001 4284243798
0.089552797 0.27694327 1.0960001 4283651661
0.091538571 0.27719596 1.097 4282598972
0.093612991 0.27770132 1.0990001 4282006835
0.095520526 0.27770132 1.0990001 4282138422
0.097428054 0.27770132 1.0990001 4282468157
0.099335589 0.27770132 1.0990001 4283784017
0.10124312 0.27770132 1.0990001 4285363049
0.10315065 0.27770132 1.0990001 4286349944
0.10515378 0.27795401 1.1 4288126355
0.10706306 0.27795401 1.1 4288783771
0.10907138 0.27820671 1.1010001 4289113248
0.11098239 0.27820671 1.1010001 4289244834
0.11299593 0.27845937 1.102 4288718488
-0.19814372 0.27679712 1.0880001 4280296745
-0.19571413 0.27603391 1.085 4280493354
-0.19347361 0.27552506 1.0830001 4279111958
-0.19141693 0.27527067 1.082 4290757318
-0.18936373 0.27501625 1.0810001 4294244092
-0.18696713 0.27425301 1.0780001 4293849592
-0.18286391 0.2709457 1.0650001 4293784056
-0.18169525 0.27196333 1.069 4293718263
-0.1742734 0.27196333 1.069 4293784312
-0.17257924 0.27221775 1.0700001 4293850105
-0.17072204 0.27221775 1.0700001 4293850105
-0.16854921 0.27170894 1.0680001 4293850105
-0.1665394 0.27145451 1.067 4293850105
-0.14431553 0.27145451 1.067 4293850105
-0.1329539 0.2709457 1.0650001 4293718519
-0.13110538 0.2709457 1.0650001 4293784312
-0.12925686 0.2709457 1.0650001 4293718519
-0.12728871 0.27069128 1.064 4293784312
-0.12544192 0.27069128 1.064 4293784312
-0.12359515 0.27069128 1.064 4293784312
-0.12174837 0.27069128 1.064 4293718519
-0.11978889 0.27043688 1.0630001 4293784312
-0.11262019 0.2709457 1.0650001 4293784312
-0.11056365 0.27043688 1.0630001 4293784312
-0.09832678 0.27756035 1.0910001 4278982168
-0.096609913 0.27806914 1.0930001 4280034856
-0.094712794 0.27806914 1.0930001 4280298028
-0.092900597 0.27832359 1.0940001 4280100648
-0.091084927 0.27857798 1.095 4280100648
-0.089265786 0.27883238 1.0960001 4279969062
-0.087522879 0.27934122 1.098 4280034855
-0.085773028 0.27985004 1.1 4280034856
-0.083863765 0.27985004 1.1 4280034856
-0.081879996 0.27959561 1.0990001 4279969063
-0.079826921 0.2790868 1.097 4279903270
-0.077851832 0.27883238 1.0960001 4280100649
-0.075949505 0.27883238 1.0960001 4280166442
-0.074047185 0.27883238 1.0960001 4280034856
-0.072013199 0.27832359 1.0940001 4280034856
-0.069986172 0.27781475 1.092 4280100649
-0.068090789 0.27781475 1.092 4279837477
-0.065710455 0.27577949 1.0840001 4279047961
-0.063770078 0.27552506 1.0830001 4279179547
-0.061947461 0.27577949 1.0840001 4278916632
-0.060121376 0.27603391 1.085 4278455824
-0.058238145 0.27603391 1.085 4278784789
-0.056458794 0.27654269 1.087 4282863955
-0.054521881 0.2762883 1.0860001 4287271830
-0.052443039 0.27527067 1.082 4291153106
-0.046635915 0.27425301 1.0780001 4294245375
-0.044764832 0.27425301 1.0780001 4294376447
-0.042853963 0.27399862 1.077 4293916155
-0.041022666 0.27425301 1.0780001 4293652982
-0.034818169 0.26967365 1.0600001 4293586933
-0.03300944 0.26992807 1.0610001 4293652726
-0.020080484 0.26941925 1.059 4293718519
-0.01824238 0.26941925 1.059 4293718519
-0.016404275 0.26941925 1.059 4293718519
-0.01459368 0.26992807 1.0610001 4293586933
-0.012776141 0.27043688 1.0630001 4293586933
-0.010992794 0.27196333 1.069 4293586933
-0.0091629755 0.27272657 1.072 4293652726
-0.0073023066 0.27272657 1.072 4293586933
-0.005436562 0.27247217 1.0710001 4293586933
-0.0035742885 0.27221775 1.0700001 4293652726
-0.0017203008 0.27272657 1.072 4293652726
0.0001393203 0.27069128 1.064 4293652726
0.0019842368 0.27043688 1.0630001 4293652726
0.0038292841 0.27043688 1.0630001 4293652726
0.0056689931 0.27018249 1.062 4293652726
0.018572176 0.27018249 1.062 4293521139
0.020434711 0.27043688 1.0630001 4293521138
0.0222588 0.27018249 1.062 4293586931
0.02405672 0.26967365 1.0600001 4293586931
0.02589656 0.26967365 1.0600001 4293586675
0.027736399 0.26967365 1.0600001 4293520625
0.029604143 0.26992807 1.0610001 4293520882
0.031504992 0.27043688 1.0630001 4293652468
0.033381414 0.27069128 1.064 4293652211
0.035294414 0.27120012 1.0660001 4293718004
0.037179515 0.27145451 1.067 4293520368
0.039068088 0.27170894 1.0680001 4293849075
0.040883496 0.27145451 1.067 4293717490
0.042735487 0.27145451 1.067 4293783282
0.044712842 0.27221775 1.0700001 4293980404
0.046744131 0.27323538 1.074 4293783026
0.048789307 0.27425301 1.0780001 4292598752
0.050707381 0.27450743 1.079 4291874771
0.052726392 0.27527067 1.082 4289703857
0.054755818 0.27603391 1.085 4288059032
0.056691252 0.2762883 1.0860001 4286216825
0.058684096 0.27679712 1.0880001 4285821811
0.060628206 0.27705154 1.0890001 4285624686
0.062403567 0.27654269 1.087 4285888114
0.064112842 0.27577949 1.0840001 4285953906
0.065933451 0.27552506 1.0830001 4286545530
0.067875832 0.27577949 1.0840001 4286940286
0.069950387 0.27654269 1.087 4287006079
0.071969263 0.27705154 1.0890001 4287072129
0.074130736 0.27806914 1.0930001 4286808957
0.076166965 0.27857798 1.095 4285756526
0.077996261 0.27832359 1.0940001 4285033059
0.079822086 0.27806914 1.0930001 4284111699
0.081719205 0.27806914 1.0930001 4283191110
0.083692826 0.27832359 1.0940001 4282598973
0.085748151 0.27883238 1.0960001 4282730559
0.087890394 0.27959561 1.0990001 4282335801
0.089797929 0.27959561 1.0990001 4283388489
0.09178891 0.27985004 1.1 4285757035
0.093783356 0.28010443 1.1010001 4286546551
0.095694356 0.28010443 1.1010001 4287138690
0.097516716 0.27985004 1.1 4288191891
0.099425979 0.27985004 1.1 4288981408
0.10133525 0.27985004 1.1 4289113250
0.10324451 0.27985004 1.1 4288521112
0.10515378 0.27985004 1.1 4288849819
0.10716038 0.28010443 1.1010001 4289178273
0.10907138 0.28010443 1.1010001 4289112478
0.11108319 0.28035882 1.102 4289310370
0.11299593 0.28035882 1.102 4288981660
-0.20187068 0.28123379 1.098 4280165670
-0.19850795 0.2791847 1.09 4280296744
-0.19625528 0.27867246 1.0880001 4280493866
-0.19365226 0.27764791 1.0840001 4279572764
-0.19053239 0.27585497 1.077 4287796890
-0.1881375 0.27508658 1.074 4294507519
-0.18436554 0.27226913 1.0630001 4293783801
-0.18200538 0.27150074 1.0600001 4293784056
-0.17008382 0.27303752 1.0660001 4293850105
-0.16839139 0.27329364 1.067 4293718519
-0.16607116 0.27252525 1.064 4293784312
-0.13073607 0.27201301 1.062 4293718519
-0.12877139 0.27175686 1.0610001 4293784312
-0.12681018 0.27150074 1.0600001 4293850105
-0.12508824 0.27175686 1.0610001 4293850105
-0.10171974 0.27329364 1.067 4293850105
-0.10024214 0.27431819 1.0710001 4293718776
-0.099026233 0.27611113 1.0780001 4294377215
-0.096344747 0.2791847 1.09 4280034856
-0.094626144 0.27969697 1.092 4280298028
-0.092985518 0.28046536 1.095 4280166442
-0.091168113 0.28072152 1.0960001 4280100649
-0.089184336 0.28046536 1.095 4280034856
-0.087283745 0.28046536 1.095 4280034602
-0.085383154 0.28046536 1.095 4279968809
-0.083330087 0.27995309 1.0930001 4280166188
-0.081283957 0.27944085 1.0910001 4280034602
-0.07939031 0.27944085 1.0910001 4279903016
-0.077283569 0.27867246 1.0880001 4280034602
-0.075325832 0.27841631 1.087 4280034602
-0.073304005 0.27790406 1.085 4278916120
-0.067030765 0.2753427 1.075 4278718228
-0.065225512 0.27559885 1.0760001 4282337100
-0.063416779 0.27585497 1.077 4286416266
-0.061490286 0.27559885 1.0760001 4290232260
-0.059678081 0.27585497 1.077 4292929770
-0.05791609 0.27636728 1.079 4294114043
-0.056095209 0.2766234 1.08 4294442751
-0.054170452 0.27636728 1.079 4294376959
-0.049630355 0.27201301 1.062 4293784568
-0.047832042 0.27226913 1.0630001 4293784312
-0.04611678 0.27303752 1.0660001 4293718518
-0.044308048 0.27329364 1.067 4293718517
-0.042456061 0.27329364 1.067 4293652725
-0.040489905 0.27252525 1.064 4293718518
-0.038534168 0.27175686 1.0610001 4293718519
-0.036658011 0.27150074 1.0600001 4293718519
-0.019985674 0.26996392 1.054 4293718519
-0.018156249 0.26996392 1.054 4293718519
-0.016326822 0.26996392 1.054 4293718519
-0.01456617 0.27124462 1.059 4293652726
-0.012776141 0.27226913 1.0630001 4293586933
-0.011003077 0.27406204 1.0700001 4293586933
-0.0091800699 0.27508658 1.074 4293652726
-0.0073091188 0.27483046 1.0730001 4293652726
-0.0054264097 0.27380592 1.069 4293586933
0.00013814184 0.27022004 1.0550001 4293652726
0.0019711703 0.27047619 1.056 4293652726
0.0038040676 0.27047619 1.056 4293652726
0.02037704 0.27150074 1.0600001 4293586675
0.022216879 0.27150074 1.0600001 4293586674
0.024034025 0.27124462 1.059 4293652211
0.02587213 0.27124462 1.059 4293586161
0.027684066 0.27098846 1.0580001 4293520368
0.029548338 0.27124462 1.059 4293651954
0.031475358 0.27201301 1.062 4293783540
0.033381414 0.27252525 1.064 4293651954
0.035360638 0.2735498 1.0680001 4293849332
0.03728405 0.27406204 1.0700001 4293717232
0.039141249 0.27406204 1.0700001 4292796129
0.040960129 0.27380592 1.069 4291480013
0.042815588 0.27380592 1.069 4290229945
0.044754624 0.27431819 1.0710001 4288716961
0.046874698 0.27585497 1.077 4287269259
0.048970342 0.27713567 1.082 4286545536
0.050848369 0.27713567 1.082 4286677121
0.052726392 0.27713567 1.082 4286677376
0.054755818 0.27790406 1.085 4286347898
0.056639049 0.27790406 1.085 4286677117
0.058630161 0.27841631 1.087 4286742909
0.060628206 0.27892858 1.0890001 4286808702
0.062518381 0.27892858 1.0890001 4286677372
0.06423112 0.27816018 1.0860001 4286479737
0.066055216 0.27790406 1.085 4286348150
0.068001062 0.27816018 1.0860001 4285362024
0.070014738 0.27867246 1.0880001 4284440664
0.071969263 0.27892858 1.0890001 4283651148
0.074130736 0.27995309 1.0930001 4282664253
0.076097406 0.28020924 1.0940001 4282401595
0.077996261 0.28020924 1.0940001 4282598973
0.079895116 0.28020924 1.0940001 4282598973
0.08186873 0.28046536 1.095 4283651661
0.083769321 0.28046536 1.095 4285493865
0.085748151 0.28072152 1.0960001 4288257172
0.087810419 0.28123379 1.098 4288651929
0.089716218 0.28123379 1.098 4289178273
0.091705456 0.28148991 1.0990001 4291152061
0.093612991 0.28148991 1.0990001 4290823096
0.095520526 0.28148991 1.0990001 4290033582
0.097428054 0.28148991 1.0990001 4289244066
0.099335589 0.28148991 1.0990001 4289309859
0.10124312 0.28148991 1.0990001 4289046687
0.1030568 0.28123379 1.098 4288717720
0.10505819 0.28148991 1.0990001 4288849049
0.10696572 0.28148991 1.0990001 4288980892
0.10897232 0.28174606 1.1 4289178271
0.11098239 0.28200218 1.1010001 4289244318
0.11279086 0.28174606 1.1 4289046939
-0.20359088 0.2828685 1.097 4280100389
-0.20095143 0.28183705 1.0930001 4280231718
-0.19850795 0.2810635 1.09 4280362536
-0.19625528 0.2805478 1.0880001 4280428074
-0.19329496 0.27900064 1.082 4280033060
-0.19017857 0.27719563 1.075 4285099122
-0.18796234 0.27667993 1.0730001 4294639103
-0.18401867 0.27358565 1.0610001 4293915386
-0.18166198 0.27281207 1.0580001 4293915386
-0.16992427 0.27461708 1.0650001 4293850105
-0.16807576 0.27461708 1.0650001 4293850105
-0.16591507 0.27410138 1.0630001 4293784312
-0.12645128 0.27255422 1.057 4293784312
-0.12473455 0.27281207 1.0580001 4293784312
-0.10289226 0.2733278 1.0600001 4293718519
-0.10152908 0.27461708 1.0650001 4293718519
-0.099961348 0.27539065 1.0680001 4293653240
-0.095726021 0.27925849 1.0830001 4278981913
-0.093846262 0.27925849 1.0830001 4280297773
-0.092645839 0.28132135 1.0910001 4280298028
-0.086486638 0.27977422 1.085 4280166188
-0.084603399 0.27977422 1.085 4280034602
-0.082720168 0.27977422 1.085 4279179293
-0.080836937 0.27977422 1.085 4278981401
-0.078808166 0.27925849 1.0830001 4278784022
-0.068448007 0.27539065 1.0680001 4291416278
-0.066033095 0.27306995 1.059 4293323756
-0.06425561 0.2733278 1.0600001 4294244862
-0.062356889 0.27306995 1.059 4294508031
-0.061261695 0.27642208 1.072 4294244862
-0.059290208 0.27590635 1.0700001 4293784311
-0.057433009 0.27590635 1.0700001 4293718775
-0.040223524 0.27255422 1.057 4293652726
-0.038352575 0.27229637 1.056 4293718519
-0.016264863 0.27074924 1.0500001 4293718519
-0.014469888 0.27126494 1.052 4293718519
-0.012643933 0.27126494 1.052 4293586933
-0.0091116903 0.27487493 1.0660001 4293586933
-0.0072750594 0.27539065 1.0680001 4293586933
0.02405672 0.2733278 1.0600001 4293849332
0.02587213 0.27306995 1.059 4293783539
0.027710235 0.27306995 1.059 4293849331
0.029576238 0.2733278 1.0600001 4293585902
0.031534631 0.2743592 1.064 4292993765
0.033506911 0.27539065 1.0680001 4291941076
0.035526183 0.27667993 1.0730001 4290098872
0.037458275 0.27719563 1.075 4288848547
0.039324149 0.27719563 1.075 4287269514
0.041190028 0.27719563 1.075 4287071877
0.043055903 0.27719563 1.075 4286874242
0.045005351 0.27771136 1.077 4286742656
0.047092315 0.27900064 1.082 4287203462
0.049106121 0.27977422 1.085 4287006083
0.050989352 0.27977422 1.085 4287203718
0.052872583 0.27977422 1.085 4287137668
0.054705355 0.27951634 1.0840001 4287006338
0.05658685 0.27951634 1.0840001 4286808702
0.058630161 0.28028992 1.087 4286150772
0.060628206 0.28080565 1.0890001 4285362025
0.062633201 0.28132135 1.0910001 4284572252
0.064526848 0.28132135 1.0910001 4283519564
0.066420496 0.28132135 1.0910001 4282401594
0.068314143 0.28132135 1.0910001 4282270265
0.07027214 0.2815792 1.092 4283191110
0.072167523 0.2815792 1.092 4284046676
0.074130736 0.28183705 1.0930001 4283980626
0.076166965 0.28235278 1.095 4286809725
0.078067556 0.28235278 1.095 4287928206
0.08004117 0.28261063 1.0960001 4288454552
0.081943497 0.28261063 1.0960001 4289178275
0.083845824 0.28261063 1.0960001 4289507240
0.085748151 0.28261063 1.0960001 4290033584
0.087730452 0.2828685 1.097 4289441445
0.089634515 0.2828685 1.097 4288783515
0.091538571 0.2828685 1.097 4290494131
0.093357451 0.28261063 1.0960001 4290625717
0.095259778 0.28261063 1.0960001 4289901994
0.097162098 0.28261063 1.0960001 4289441443
0.099064425 0.28261063 1.0960001 4289309857
0.10105888 0.2828685 1.097 4289243807
0.10296294 0.2828685 1.097 4288914842
0.104867 0.2828685 1.097 4288717463
0.10686839 0.28312635 1.098 4288849306
0.10877419 0.28312635 1.098 4289244064
0.11067998 0.28312635 1.098 4289112478
0.11258578 0.28312635 1.098 4288389009
0.1143873 0.2828685 1.097 4288717461
-0.20530763 0.28449973 1.0960001 4279968804
-0.20340531 0.28449973 1.0960001 4280034597
-0.20113528 0.28398061 1.0940001 4280231721
-0.19850795 0.28294227 1.09 4280297258
-0.19625528 0.28242311 1.0880001 4280559917
-0.19311632 0.28060603 1.0810001 4279835938
-0.18982475 0.27852944 1.0730001 4282270023
-0.18761198 0.27801025 1.0710001 4294573311
-0.18367179 0.27489528 1.059 4293981180
-0.18149027 0.27437612 1.057 4293849593
-0.16928606 0.27541444 1.0610001 4293784312
-0.1676023 0.27567405 1.062 4293850105
-0.16544682 0.27515486 1.0600001 4293850105
-0.12633166 0.27411655 1.056 4293652726
-0.12461665 0.27437612 1.057 4293718519
-0.10279519 0.27489528 1.059 4293718519
-0.10143375 0.27619317 1.064 4293718519
-0.099774159 0.27671236 1.0660001 4293718519
-0.095549241 0.28060603 1.0810001 4278850328
-0.092221253 0.28190395 1.0860001 4279771430
-0.08600837 0.2800869 1.079 4278718743
-0.084213518 0.28034648 1.08 4279047196
-0.082415208 0.28060603 1.0810001 4282797397
-0.080538921 0.28060603 1.0810001 4286284426
-0.078589857 0.28034648 1.08 4290363592
-0.068127565 0.27593359 1.0630001 4294244607
-0.065908395 0.27437612 1.057 4293849849
-0.064073756 0.27437612 1.057 4293849850
-0.062239125 0.27437612 1.057 4293586679
-0.061090257 0.27749109 1.069 4293586677
-0.059123974 0.27697191 1.067 4293521140
-0.057218306 0.27671236 1.0660001 4293586933
-0.042018369 0.27411655 1.056 4293652726
-0.040223524 0.27437612 1.057 4293652726
-0.038352575 0.27411655 1.056 4293652726
-0.016249372 0.27229947 1.049 4293652726
-0.014456133 0.27281865 1.051 4293652726
-0.012643933 0.2730782 1.052 4293586933
-0.0090774996 0.27567405 1.062 4293586933
-0.0072478116 0.27619317 1.064 4293586933
0.02405672 0.27515486 1.0600001 4292532955
0.02587213 0.27489528 1.059 4291217095
0.027710235 0.27489528 1.059 4289769649
0.029576238 0.27515486 1.0600001 4288322457
0.031564269 0.27645278 1.0650001 4287335305
0.033506911 0.27723151 1.0680001 4287006597
0.035526183 0.27852944 1.0730001 4286743168
0.037458275 0.27904856 1.075 4286808960
0.039360728 0.27930817 1.0760001 4287137925
0.041228339 0.27930817 1.0760001 4287269510
0.043136004 0.27956772 1.077 4287203716
0.045047142 0.2798273 1.0780001 4287072386
0.047092315 0.28086564 1.082 4287138180
0.049106121 0.28164437 1.085 4286546299
0.050989352 0.28164437 1.085 4286217078
0.052921318 0.28190395 1.0860001 4285164390
0.054856747 0.28216353 1.087 4283914578
0.056743454 0.28216353 1.087 4282401083
0.058684096 0.28242311 1.0880001 4282072118
0.060683884 0.28294227 1.09 4282467389
0.062690608 0.28346142 1.092 4283256905
0.064645141 0.283721 1.0930001 4283914835
0.066603139 0.28398061 1.0940001 4284901728
0.068439379 0.283721 1.0930001 4285955186
0.07027214 0.28346142 1.092 4288521113
0.072233617 0.283721 1.0930001 4289771180
0.074198551 0.28398061 1.0940001 4289376422
0.076166965 0.28424019 1.095 4289704617
0.078067556 0.28424019 1.095 4289901996
0.079968147 0.28424019 1.095 4289836205
0.08186873 0.28424019 1.095 4289704619
0.083769321 0.28424019 1.095 4289770412
0.085748151 0.28449973 1.0960001 4289901996
0.087650478 0.28449973 1.0960001 4289901483
0.089552797 0.28449973 1.0960001 4289309600
0.091371685 0.28424019 1.095 4290691253
0.093187094 0.28398061 1.0940001 4291086011
0.095085949 0.28398061 1.0940001 4290362288
0.096984804 0.28398061 1.0940001 4289704358
0.098883659 0.28398061 1.0940001 4289375137
0.10087463 0.28424019 1.095 4289112221
0.10286908 0.28449973 1.0960001 4288914842
0.104867 0.28475934 1.097 4288783256
0.10667372 0.28449973 1.0960001 4288848795
0.10857605 0.28449973 1.0960001 4289111967
0.11057919 0.28475934 1.097 4289309600
0.11248325 0.28475934 1.097 4288585877
0.11428303 0.28449973 1.0960001 4288651670
-0.2081583 0.28508237 1.0910001 4279903268
-0.20664278 0.28560495 1.0930001 4279969062
-0.20474567 0.28560495 1.0930001 4280034855
-0.20303413 0.28586626 1.0940001 4280100391
-0.20095143 0.28560495 1.0930001 4280363307
-0.19832583 0.28455976 1.0890001 4280494637
-0.1960749 0.28403714 1.087 4280625710
-0.18964782 0.28011757 1.072 4280033061
-0.18498437 0.27593672 1.056 4293849589
-0.18315147 0.27593672 1.056 4294244349
-0.18114688 0.27567542 1.0550001 4293915386
-0.12621202 0.27567542 1.0550001 4293784312
-0.12449875 0.27593672 1.056 4293718519
-0.12278201 0.27619803 1.057 4293784312
-0.12094738 0.27619803 1.057 4293718519
-0.11911274 0.27619803 1.057 4293784312
-0.10260105 0.27619803 1.057 4293784312
-0.10114775 0.27724323 1.0610001 4293718519
-0.099493369 0.27776584 1.0630001 4293718519
-0.097740181 0.27802715 1.064 4293784312
-0.090522885 0.27854976 1.0660001 4279837224
-0.08892218 0.27933368 1.069 4285494910
-0.087066717 0.27933368 1.069 4289310904
-0.085131541 0.27907237 1.0680001 4292205791
-0.083355792 0.27933368 1.069 4293521139
-0.081729054 0.28011757 1.072 4294442239
-0.079868384 0.28011757 1.072 4294507775
-0.077934943 0.27985629 1.0710001 4294310399
-0.060175903 0.27515283 1.0530001 4293652726
-0.058403626 0.27541411 1.054 4293652726
-0.056627873 0.27567542 1.0550001 4293586933
-0.041978579 0.27567542 1.0550001 4293718519
-0.038425211 0.27645931 1.0580001 4293718519
-0.036485095 0.27567542 1.0550001 4293718519
-0.016202901 0.27332368 1.046 4293586931
-0.014428625 0.27410758 1.049 4293586931
-0.012619896 0.27436891 1.0500001 4293652724
-0.010838545 0.27541411 1.054 4293586932
-0.0090347622 0.27619803 1.057 4293652469
-0.0072001293 0.27619803 1.057 4293652468
-0.005350267 0.27541411 1.054 4293652724
0.024124805 0.27776584 1.0630001 4287072132
0.025969852 0.27776584 1.0630001 4286874753
0.027814901 0.27776584 1.0630001 4286808960
0.029687848 0.27802715 1.064 4286546043
0.031831007 0.28064018 1.074 4286875008
0.033726525 0.28090149 1.075 4286940801
0.035658617 0.28142411 1.077 4287138180
0.037597653 0.28194672 1.079 4287072387
0.039470471 0.28194672 1.079 4286809214
0.041419927 0.2824693 1.0810001 4286414456
0.043336265 0.28273064 1.082 4285756526
0.045256078 0.28299192 1.0830001 4284835424
0.047222886 0.28351453 1.085 4283717456
0.04915138 0.28377584 1.0860001 4282862147
0.051083341 0.28403714 1.087 4282664768
0.053018779 0.28429845 1.0880001 4282599489
0.054957684 0.28455976 1.0890001 4283125319
0.056847859 0.28455976 1.0890001 4283520075
0.058791973 0.28482103 1.09 4285691244
0.060683884 0.28482103 1.09 4287205253
0.062633201 0.28508237 1.0910001 4288717978
0.064467706 0.28482103 1.09 4289638824
0.066359617 0.28482103 1.09 4289704617
0.068314143 0.28508237 1.0910001 4289442215
0.07020779 0.28508237 1.0910001 4289244836
0.072101437 0.28508237 1.0910001 4289573801
0.074062906 0.28534365 1.092 4289771180
0.076097406 0.28586626 1.0940001 4289704617
0.077996261 0.28586626 1.0940001 4289441445
0.079895116 0.28586626 1.0940001 4290033582
0.081793971 0.28586626 1.0940001 4289901996
0.083692826 0.28586626 1.0940001 4289967789
0.085669912 0.28612757 1.095 4290165168
0.087490529 0.28586626 1.0940001 4290296241
0.089389384 0.28586626 1.0940001 4289243807
0.0912048 0.28560495 1.0930001 4290230700
0.093016729 0.28534365 1.092 4290954425
0.094912112 0.28534365 1.092 4290756533
0.096807495 0.28534365 1.092 4289967017
0.098793268 0.28560495 1.0930001 4289506466
0.10078251 0.28586626 1.0940001 4289309087
0.10268136 0.28586626 1.0940001 4289111708
0.10458022 0.28586626 1.0940001 4288848536
0.1065764 0.28612757 1.095 4288848795
0.10847699 0.28612757 1.095 4288980381
0.11037758 0.28612757 1.095 4288980635
0.11227817 0.28612757 1.095 4288849049
0.11407449 0.28586626 1.0940001 4289243807
-0.20966688 0.2864368 1.0890001 4280166182
-0.2079675 0.28669983 1.09 4280035110
-0.20607559 0.28669983 1.09 4279903524
-0.20418368 0.28669983 1.09 4280034855
-0.20247737 0.28696287 1.0910001 4279969063
-0.20039986 0.28669983 1.09 4280297772
-0.1979616 0.28591073 1.087 4280560431
-0.19571413 0.28538471 1.085 4280428333
-0.18929401 0.28143927 1.0700001 4279243546
-0.18463401 0.27723083 1.054 4291941592
-0.18263115 0.27696782 1.0530001 4294244348
-0.18080346 0.27696782 1.0530001 4293915385
-0.12220122 0.27670479 1.052 4293784312
-0.12060411 0.27723083 1.054 4293718519
-0.11911274 0.27801993 1.057 4293718519
-0.10057575 0.27749386 1.0550001 4293784056
-0.098557398 0.27696782 1.0530001 4293652470
-0.097280875 0.27854598 1.059 4293652726
-0.095352642 0.27828294 1.0580001 4293718264
-0.093427889 0.27801993 1.057 4288784303
-0.091333292 0.27723083 1.054 4292403170
-0.090013377 0.27880901 1.0600001 4293521653
-0.088256717 0.27907202 1.0610001 4294442751
-0.086415142 0.27907202 1.0610001 4294245375
-0.084493853 0.27880901 1.0600001 4293915642
-0.082654014 0.27880901 1.0600001 4293784056
-0.080509216 0.2777569 1.056 4293521141
-0.078825325 0.27828294 1.0580001 4293652470
-0.041898999 0.27696782 1.0530001 4293718519
-0.038461529 0.27854598 1.059 4293586933
-0.036519676 0.2777569 1.056 4293652726
-0.0071796933 0.27723083 1.054 4293783540
-0.0053451909 0.27696782 1.0530001 4293718003
0.024192888 0.28038716 1.0660001 4287269253
0.026043143 0.28038716 1.0660001 4287335046
0.027893398 0.28038716 1.0660001 4287400838
0.02979946 0.28091323 1.0680001 4287203716
0.03186065 0.28275442 1.075 4286546298
0.03378927 0.28328046 1.077 4285953905
0.035724834 0.28380653 1.079 4285295975
0.037667345 0.28433257 1.0810001 4284309593
0.039580215 0.28459561 1.082 4283191112
0.041534875 0.28512165 1.0840001 4282862147
0.043496475 0.28564772 1.0860001 4283256648
0.045423228 0.28591073 1.087 4283190599
0.047309931 0.28591073 1.087 4283783249
0.049241897 0.28617379 1.0880001 4285230695
0.051130336 0.28617379 1.0880001 4287073413
0.053067509 0.2864368 1.0890001 4288126101
0.055008147 0.28669983 1.09 4289112996
0.056900062 0.28669983 1.09 4288850077
0.058791973 0.28669983 1.09 4288849308
0.060683884 0.28669983 1.09 4289310629
0.062575795 0.28669983 1.09 4289179043
0.064408556 0.2864368 1.0890001 4289178273
0.066298731 0.2864368 1.0890001 4289441445
0.068126298 0.28617379 1.0880001 4289901996
0.070079088 0.2864368 1.0890001 4289508008
0.071969263 0.2864368 1.0890001 4289836201
0.073927261 0.28669983 1.09 4289770408
0.075958289 0.28722587 1.092 4289638824
0.077853672 0.28722587 1.092 4289375652
0.079749055 0.28722587 1.092 4289770410
0.081644438 0.28722587 1.092 4289836203
0.083539821 0.28722587 1.092 4289967789
0.085513443 0.28748891 1.0930001 4290296241
0.087410562 0.28748891 1.0930001 4290493874
0.089307681 0.28748891 1.0930001 4289770151
0.091121346 0.28722587 1.092 4289572770
0.092846379 0.28669983 1.09 4290954423
0.09473829 0.28669983 1.09 4290756531
0.096718848 0.28696287 1.0910001 4290098603
0.098612495 0.28696287 1.0910001 4289638052
0.10059826 0.28722587 1.092 4289243294
0.10249364 0.28722587 1.092 4288914329
0.10448463 0.28748891 1.0930001 4288848536
0.10638174 0.28748891 1.0930001 4288848795
0.10817979 0.28722587 1.092 4288848795
0.11007518 0.28722587 1.092 4288980635
0.11197056 0.28722587 1.092 4289046428
0.11386595 0.28722587 1.092 4289375393
-0.21136279 0.2880491 1.0880001 4280100389
-0.20947435 0.2880491 1.0880001 4280100389
-0.20758592 0.2880491 1.0880001 4280035109
-0.20550843 0.28778434 1.087 4280035110
-0.20343438 0.2875196 1.0860001 4280232234
-0.20154941 0.2875196 1.0860001 4280035112
-0.19966444 0.2875196 1.0860001 4280035113
-0.19759737 0.28725487 1.085 4280231723
-0.19535336 0.28672534 1.0830001 4280494126
-0.19204444 0.28460735 1.075 4280362540
-0.18734799 0.28037134 1.059 4279309852
-0.13680886 0.27851805 1.052 4293784312
-0.12355558 0.27745906 1.0480001 4293652726
-0.12185273 0.27772379 1.049 4293652726
-0.12014641 0.27798858 1.0500001 4293718519
-0.10019442 0.27825332 1.051 4293652726
-0.098276608 0.27798858 1.0500001 4293652726
-0.096913427 0.27931231 1.0550001 4293521140
-0.094902016 0.27878281 1.0530001 4293652726
-0.092985936 0.27851805 1.052 4293784313
-0.090986677 0.27798858 1.0500001 4293784825
-0.089588784 0.27931231 1.0550001 4293719033
-0.087840803 0.27957708 1.056 4293652984
-0.086007908 0.27957708 1.056 4293652727
-0.084095299 0.27931231 1.0550001 4293652470
-0.082342111 0.27957708 1.056 4293652726
-0.080128022 0.27825332 1.051 4293652726
-0.078452803 0.27878281 1.0530001 4293652726
-0.041859206 0.27851805 1.052 4293652726
-0.040223524 0.27984181 1.057 4293521140
-0.038425211 0.28010657 1.0580001 4293521140
-0.036450509 0.27904758 1.054 4293652726
-0.0016866009 0.27825332 1.051 4293125349
0.0093027595 0.27957708 1.056 4287269767
0.011156748 0.28010657 1.0580001 4287203972
0.013066801 0.28169507 1.064 4287269252
0.014969651 0.28275409 1.0680001 4287269253
0.016823376 0.28275409 1.0680001 4287335046
0.018694589 0.28301883 1.069 4287466117
0.020588499 0.28354836 1.0710001 4287466374
0.022468392 0.28381309 1.072 4287071616
0.024329061 0.28381309 1.072 4286545529
0.026214158 0.28407785 1.0730001 4286085235
0.028102729 0.28434259 1.074 4284506459
0.030022673 0.28487211 1.0760001 4283585356
0.031979199 0.28566635 1.079 4282467387
0.033883389 0.28593111 1.08 4282401594
0.035824161 0.28646061 1.082 4282664766
0.037737034 0.28672534 1.0830001 4283257159
0.039653379 0.28699011 1.0840001 4283915089
0.041573189 0.28725487 1.085 4286414967
0.043496475 0.2875196 1.0860001 4288257428
0.045381442 0.2875196 1.0860001 4290494389
0.047309931 0.28778434 1.087 4290758075
0.049196638 0.28778434 1.087 4290100145
0.051083341 0.28778434 1.087 4290297524
0.053018779 0.2880491 1.0880001 4290494903
0.054907218 0.2880491 1.0880001 4289902764
0.056795657 0.2880491 1.0880001 4289639592
0.058684096 0.2880491 1.0880001 4288915869
0.060572535 0.2880491 1.0880001 4288981662
0.062460978 0.2880491 1.0880001 4289376163
0.064349413 0.2880491 1.0880001 4289309857
0.066176981 0.28778434 1.087 4289573029
0.068063684 0.28778434 1.087 4289704615
0.070014738 0.2880491 1.0880001 4289573029
0.071903177 0.2880491 1.0880001 4289638822
0.073859438 0.28831387 1.0890001 4289836201
0.075749613 0.28831387 1.0890001 4289967787
0.077639788 0.28831387 1.0890001 4289967787
0.079529963 0.28831387 1.0890001 4289441443
0.081420138 0.28831387 1.0890001 4289704615
0.083310314 0.28831387 1.0890001 4289704615
0.085435204 0.2891081 1.092 4289901994
0.087330587 0.2891081 1.092 4290428338
0.089307681 0.28937286 1.0930001 4290428081
0.091037907 0.28884336 1.0910001 4289441184
0.092761189 0.28831387 1.0890001 4290296493
0.094564453 0.2880491 1.0880001 4290822837
0.096541539 0.28831387 1.0890001 4290362286
0.098522112 0.2885786 1.09 4289835944
0.10041402 0.2885786 1.09 4289375393
0.10249364 0.2891081 1.092 4288914842
0.10438903 0.2891081 1.092 4288783256
0.10618708 0.28884336 1.0910001 4288717209
0.10808073 0.28884336 1.0910001 4288914588
0.10977277 0.28831387 1.0890001 4289177760
0.11166295 0.28831387 1.0890001 4289046428
0.11355312 0.28831387 1.0890001 4289178014
-0.21266322 0.28912503 1.085 4279968545
-0.21077999 0.28912503 1.085 4280034596
-0.20908928 0.28939149 1.0860001 4279903010
-0.20739512 0.28965795 1.087 4280034853
-0.20494124 0.28885853 1.0840001 4280166440
-0.20268509 0.28832561 1.082 4280298027
-0.20062149 0.28805912 1.0810001 4280232234
-0.19892904 0.28832561 1.082 4280034856
-0.19705102 0.28832561 1.082 4280100393
-0.1949926 0.28805912 1.0810001 4280231723
-0.19097255 0.28486142 1.069 4280297004
-0.17283367 0.27953193 1.049 4293784312
-0.16221787 0.28006488 1.051 4293718519
-0.15993582 0.27926543 1.0480001 4293455347
-0.090640061 0.27873248 1.046 4293718519
-0.08890944 0.27899897 1.0470001 4293718519
-0.087175339 0.27926543 1.0480001 4293652726
-0.041700047 0.27926543 1.0480001 4293652726
-0.039995197 0.28006488 1.051 4293521140
-0.038170978 0.28006488 1.051 4293521140
-0.0016930199 0.28113076 1.0550001 4287532940
0.0056102751 0.28006488 1.051 4287335558
0.0074344943 0.28006488 1.051 4287335815
0.015011701 0.28539437 1.0710001 4286940543
0.016933642 0.28646025 1.075 4286611322
0.018817006 0.28672674 1.0760001 4285492841
0.020703841 0.28699321 1.077 4283848015
0.022594148 0.2872597 1.0780001 4283124547
0.024465231 0.2872597 1.0780001 4282137909
0.026360745 0.28752619 1.079 4282269751
0.028233562 0.28752619 1.079 4282204215
0.030134283 0.28779265 1.08 4282664766
0.032038476 0.28805912 1.0810001 4284506970
0.033946138 0.28832561 1.082 4286151793
0.035857271 0.28859207 1.0830001 4287665802
0.037771881 0.28885853 1.0840001 4288586904
0.039689954 0.28912503 1.085 4289376420
0.041573189 0.28912503 1.085 4290889659
0.04345642 0.28912503 1.085 4290889659
0.045339655 0.28912503 1.085 4291087040
0.047222886 0.28912503 1.085 4291152833
0.049106121 0.28912503 1.085 4289573799
0.050989352 0.28912503 1.085 4290165936
0.052921318 0.28939149 1.0860001 4290297522
0.054755818 0.28912503 1.085 4290100143
0.056639049 0.28912503 1.085 4289704869
0.058576219 0.28939149 1.0860001 4289178525
0.060461186 0.28939149 1.0860001 4288849306
0.062346157 0.28939149 1.0860001 4289178271
0.06423112 0.28939149 1.0860001 4289836201
0.066116095 0.28939149 1.0860001 4289836201
0.068001062 0.28939149 1.0860001 4289901994
0.069886029 0.28939149 1.0860001 4289836201
0.071770996 0.28939149 1.0860001 4290099373
0.073723793 0.28965795 1.087 4290494131
0.075680055 0.28992444 1.0880001 4290494131
0.077568494 0.28992444 1.0880001 4290559924
0.079456933 0.28992444 1.0880001 4290099373
0.081270613 0.28965795 1.087 4289770408
0.083157316 0.28965795 1.087 4289836201
0.084965773 0.28939149 1.0860001 4289441443
0.086930722 0.28965795 1.087 4289441443
0.088817425 0.28965795 1.087 4290230959
0.090620682 0.28939149 1.0860001 4289506977
0.092505649 0.28939149 1.0860001 4289375391
0.094303705 0.28912503 1.085 4290362286
0.096364245 0.28965795 1.087 4290362288
0.098250948 0.28965795 1.087 4289770151
0.10022977 0.28992444 1.0880001 4289836201
0.10221207 0.29019091 1.0890001 4289244064
0.10419784 0.29045737 1.09 4288717720
0.10599242 0.29019091 1.0890001 4288586136
0.1078826 0.29019091 1.0890001 4288849308
0.10957117 0.28965795 1.087 4289507238
0.11135533 0.28939149 1.0860001 4289178014
0.1132403 0.28939149 1.0860001 4289243807
-0.21603073 0.29045877 1.0830001 4279968802
-0.21415098 0.29045877 1.0830001 4279903008
-0.21207522 0.29019058 1.082 4279968544
-0.21039145 0.29045877 1.0830001 4280034594
-0.20870423 0.29072696 1.0840001 4280035107
-0.20701353 0.29099518 1.085 4280100388
-0.20475216 0.29045877 1.0830001 4280100390
-0.20249777 0.28992239 1.0810001 4280100648
-0.20043588 0.2896542 1.08 4280100648
-0.19856133 0.2896542 1.08 4280034855
-0.19650465 0.289386 1.079 4280100649
-0.19445147 0.28911778 1.0780001 4280034344
-0.19097255 0.286704 1.069 4280494383
-0.1726689 0.28107184 1.0480001 4293784312
-0.16252656 0.28241283 1.0530001 4293718519
-0.16008843 0.28134003 1.049 4293652726
-0.041620467 0.28053543 1.046 4293586933
-0.039881036 0.28107184 1.0480001 4293521139
-0.038025707 0.28080365 1.0470001 4293389553
0.00013853465 0.28375381 1.0580001 4287467143
0.0056209508 0.28241283 1.0530001 4287270532
0.0074486411 0.28241283 1.0530001 4286875774
0.015053749 0.28804499 1.074 4282861632
0.016980899 0.28911778 1.0780001 4282401081
0.018869469 0.289386 1.079 4281940530
0.020761512 0.2896542 1.08 4282269495
0.022657024 0.28992239 1.0810001 4283387976
0.024533315 0.28992239 1.0810001 4284703836
0.026409604 0.28992239 1.0810001 4286020209
0.028285895 0.28992239 1.0810001 4287533448
0.030190086 0.29019058 1.082 4288586136
0.032097749 0.29045877 1.0830001 4289967787
0.033977512 0.29045877 1.0830001 4289507493
0.035890386 0.29072696 1.0840001 4289047455
0.037771881 0.29072696 1.0840001 4288784283
0.039726537 0.29126337 1.0860001 4289113248
0.041611508 0.29126337 1.0860001 4290429108
0.04345642 0.29099518 1.085 4290560694
0.045339655 0.29099518 1.085 4290363315
0.047222886 0.29099518 1.085 4290626487
