# .PCD v0.7 - Point Cloud Data file format
VERSION 0.7
FIELDS x y z rgba
SIZE 4 4 4 4
TYPE F F F U
COUNT 1 1 1 1
WIDTH 1079
HEIGHT 1
VIEWPOINT 0 0 0 1 0 0 0
POINTS 1079
DATA ascii
-0.26667902 -0.068694621 1.5690001 4280231204
-0.26277804 -0.068388142 1.562 4280428583
-0.25956741 -0.068256795 1.559 4280560168
-0.2566967 -0.068213008 1.5580001 4280560168
-0.25415552 -0.068256795 1.559 4280362790
-0.25161085 -0.068300582 1.5600001 4280823342
-0.24858406 -0.068213008 1.5580001 4281086514
-0.24524856 -0.068037882 1.554 4281086514
-0.24239521 -0.067994103 1.5530001 4280362791
-0.24031706 -0.068169229 1.557 4279639068
-0.23929329 -0.068650834 1.5680001 4279901727
-0.23777871 -0.069001094 1.5760001 4279770655
-0.21647376 -0.06584876 1.5040001 4280100389
-0.21329449 -0.065673634 1.5000001 4280165410
-0.20998864 -0.065454721 1.4950001 4280231203
-0.20725505 -0.065410942 1.4940001 4280165408
-0.20452492 -0.065367155 1.493 4279902236
-0.20206878 -0.065410942 1.4940001 4280099869
-0.19947565 -0.065410942 1.4940001 4280231455
-0.19714607 -0.065498501 1.4960001 4280099869
-0.19454946 -0.065498501 1.4960001 4280231455
-0.19208118 -0.065542288 1.4970001 4280033563
-0.18960941 -0.065586068 1.498 4279901977
-0.18713416 -0.065629847 1.4990001 4279770904
-0.18453236 -0.065629847 1.4990001 4279836697
-0.18229465 -0.065761201 1.5020001 4279836697
-0.1799269 -0.06584876 1.5040001 4279770904
-0.17731641 -0.06584876 1.5040001 4279902490
-0.17493825 -0.065936327 1.506 4279836697
-0.17220984 -0.065892547 1.5050001 4279836697
-0.16959763 -0.065892547 1.5050001 4279902491
-0.1667635 -0.065804973 1.503 4279902491
-0.1639363 -0.065717414 1.501 4279902236
-0.16143849 -0.065761201 1.5020001 4280033825
-0.15893723 -0.065804973 1.503 4279968032
-0.15643248 -0.06584876 1.5040001 4280165412
-0.15392426 -0.065892547 1.5050001 4280362791
-0.15161365 -0.066023894 1.508 4280625708
-0.14919384 -0.066111453 1.5100001 4280362793
-0.29353744 -0.065906093 1.567 4289903293
-0.29063204 -0.065864041 1.5660001 4285758334
-0.28717852 -0.0656958 1.562 4282600270
-0.28337464 -0.065443449 1.5560001 4279836963
-0.28031313 -0.065359332 1.554 4280100135
-0.27761588 -0.065359332 1.554 4280429100
-0.2752724 -0.065443449 1.5560001 4280692270
-0.27257165 -0.065443449 1.5560001 4280625961
-0.27212563 -0.065990217 1.5690001 4281415477
-0.26991743 -0.066116385 1.572 4281349682
-0.26633906 -0.065906093 1.567 4281283889
-0.26244161 -0.065611683 1.5600001 4281283889
-0.25906792 -0.065443449 1.5560001 4281086510
-0.25620243 -0.065401383 1.5550001 4280889131
-0.25366643 -0.065443449 1.5560001 4280625959
-0.25128826 -0.065527566 1.5580001 4281020717
-0.24794583 -0.065359332 1.554 4281218098
-0.24477512 -0.065233156 1.5510001 4281283891
-0.24223913 -0.065275207 1.552 4280954927
-0.24031706 -0.065485507 1.557 4280231203
-0.23944591 -0.065990217 1.5690001 4280362789
-0.21632983 -0.063214332 1.503 4284836715
-0.21315229 -0.063046098 1.4990001 4279968031
-0.20984818 -0.062835805 1.4940001 4279968031
-0.20711631 -0.062793747 1.493 4279770650
-0.20452492 -0.062793747 1.493 4279968029
-0.20206878 -0.062835805 1.4940001 4280165662
-0.19934212 -0.062793747 1.493 4280099869
-0.19701429 -0.062877864 1.4950001 4279836696
-0.19467951 -0.062961981 1.4970001 4279902489
-0.19208118 -0.062961981 1.4970001 4279836696
-0.18960941 -0.063004039 1.498 4279902489
-0.18725902 -0.063088156 1.5000001 4279902489
-0.18477857 -0.063130215 1.501 4279968282
-0.18241602 -0.063214332 1.503 4279836696
-0.18016617 -0.063340507 1.506 4279836696
-0.17767009 -0.063382566 1.5070001 4279770904
-0.1750544 -0.063382566 1.5070001 4279836697
-0.17232428 -0.063340507 1.506 4279704857
-0.16959763 -0.063298449 1.5050001 4279902237
-0.16654159 -0.063130215 1.501 4279968031
-0.16382709 -0.063088156 1.5000001 4279836445
-0.16133101 -0.063130215 1.501 4279968031
-0.15883148 -0.063172273 1.5020001 4280099617
-0.15632848 -0.063214332 1.503 4280099617
-0.15382199 -0.06325639 1.5040001 4280231204
-0.15141259 -0.063340507 1.506 4280231204
-0.14899622 -0.063424632 1.508 4280625964
-0.14715534 -0.0637611 1.516 4280625710
-0.29977167 -0.062801786 1.557 4285889920
-0.29725999 -0.062842116 1.5580001 4281087030
-0.29512292 -0.062963121 1.5610001 4280494894
-0.2922262 -0.062922791 1.5600001 4280626478
-0.28914732 -0.062842116 1.5580001 4280758321
-0.28515613 -0.062559776 1.5510001 4281481787
-0.28137138 -0.062317763 1.5450001 4281350456
-0.27814856 -0.062196758 1.5420001 4281284151
-0.2754721 -0.062196758 1.5420001 4281020721
-0.2733264 -0.062317763 1.5450001 4281086513
-0.27099511 -0.06239843 1.5470001 4280625961
-0.26699847 -0.062721111 1.5550001 4280428580
-0.26480937 -0.062842116 1.5580001 4280165408
-0.26176867 -0.062761448 1.5560001 4280165408
-0.25840196 -0.062600106 1.552 4280099615
-0.25554338 -0.062559776 1.5510001 4280165408
-0.25301436 -0.062600106 1.552 4280691752
-0.24062574 -0.062882453 1.559 4279770650
-0.21647376 -0.06066402 1.5040001 4292600289
-0.21343668 -0.060543016 1.501 4278454794
-0.2101291 -0.06034134 1.4960001 4279770654
-0.20739377 -0.060301002 1.4950001 4279902238
-0.20466191 -0.060260672 1.4940001 4280033822
-0.20220403 -0.060301002 1.4950001 4279968029
-0.19974267 -0.06034134 1.4960001 4279902490
-0.19740963 -0.060422011 1.498 4279836697
-0.19506966 -0.060502686 1.5000001 4279770903
-0.19246611 -0.060502686 1.5000001 4279705110
-0.19011571 -0.060583353 1.5020001 4279770903
-0.1878832 -0.060704358 1.5050001 4279836696
-0.18539409 -0.060744688 1.506 4279705110
-0.18314423 -0.060865693 1.5090001 4279770903
-0.18088396 -0.060986701 1.5120001 4279770904
-0.17825958 -0.060986701 1.5120001 4279770904
-0.1756352 -0.060986701 1.5120001 4279836443
-0.17278197 -0.06090603 1.5100001 4279836445
-0.17004839 -0.060865693 1.5090001 4279836445
-0.16709636 -0.060744688 1.506 4279770652
-0.16404551 -0.060583353 1.5020001 4279770652
-0.16143849 -0.060583353 1.5020001 4279902238
-0.15893723 -0.060623683 1.503 4279902238
-0.15643248 -0.06066402 1.5040001 4280296995
-0.15392426 -0.060704358 1.5050001 4280099617
-0.15151311 -0.060785025 1.5070001 4280165410
-0.14899622 -0.060825363 1.508 4280362790
-0.14705828 -0.061107706 1.5150001 4280560171
-0.29900154 -0.059963614 1.5530001 4280823858
-0.29687837 -0.060079448 1.5560001 4281218616
-0.29474482 -0.060195282 1.559 4281482043
-0.29166421 -0.060118061 1.557 4281416248
-0.28803378 -0.059924997 1.552 4281152819
-0.28350145 -0.059538886 1.5420001 4281020976
-0.27955019 -0.059268605 1.5350001 4280560168
-0.27634475 -0.059152771 1.5320001 4280362790
-0.273507 -0.059114162 1.531 4280231203
-0.27138039 -0.059229996 1.534 4280099617
-0.26906818 -0.059307218 1.536 4280099616
-0.26744276 -0.059538886 1.5420001 4280099615
-0.26528144 -0.05965472 1.5450001 4280165408
-0.26225984 -0.059577502 1.5430001 4280099615
-0.26075926 -0.059847776 1.5500001 4280099615
-0.25790244 -0.059809163 1.549 4280034076
-0.25521386 -0.059809163 1.549 4280231455
-0.25268829 -0.059847776 1.5500001 4281613108
-0.21676163 -0.058148872 1.506 4292008152
-0.21372108 -0.058033034 1.503 4278191108
-0.21026956 -0.057801373 1.4970001 4279507482
-0.20739377 -0.057724144 1.4950001 4279902238
-0.20493588 -0.057762761 1.4960001 4279902238
-0.20247453 -0.057801373 1.4970001 4279902236
-0.1998762 -0.057801373 1.4970001 4279770650
-0.1976732 -0.057917207 1.5000001 4279836697
-0.19532974 -0.057994429 1.5020001 4279705111
-0.19285104 -0.058033034 1.503 4279705111
-0.19062202 -0.058148872 1.506 4279836697
-0.18850741 -0.058303319 1.5100001 4279836696
-0.1860096 -0.058341932 1.511 4279705110
-0.18362969 -0.058419153 1.5130001 4279770903
-0.18112321 -0.058457769 1.5140001 4279705110
-0.17849536 -0.058457769 1.5140001 4279639318
-0.17575136 -0.058419153 1.5130001 4279770392
-0.17301083 -0.05838054 1.5120001 4279770393
-0.17027375 -0.058341932 1.511 4279835931
-0.16731825 -0.058226097 1.508 4279704858
-0.16437317 -0.058110263 1.5050001 4279770651
-0.16176094 -0.058110263 1.5050001 4279836443
-0.15914872 -0.058110263 1.5050001 4279968029
-0.15664051 -0.058148872 1.506 4280099615
-0.15412882 -0.058187485 1.5070001 4280165409
-0.15161365 -0.058226097 1.508 4280296996
-0.14909503 -0.058264706 1.5090001 4280494375
-0.1469612 -0.058457769 1.5140001 4280362792
-0.30341259 -0.057102345 1.5480001 4281152823
-0.30092001 -0.057139229 1.549 4281284409
-0.2986165 -0.057213008 1.5510001 4280955444
-0.29649678 -0.057323672 1.554 4280560941
-0.29417762 -0.057397448 1.5560001 4280363046
-0.29072759 -0.057249893 1.552 4280560168
-0.28710586 -0.057065457 1.5470001 4280231201
-0.28294989 -0.056770355 1.539 4280296994
-0.27900383 -0.056512136 1.5320001 4280231201
-0.27598399 -0.056438364 1.5300001 4280165408
-0.27297109 -0.056364588 1.5280001 4280165408
-0.27084965 -0.056475248 1.531 4280099615
-0.26854265 -0.056549028 1.5330001 4280165408
-0.26657557 -0.056696583 1.5370001 4280099615
-0.26425123 -0.056770355 1.539 4280099615
-0.26141 -0.056733463 1.5380001 4280099615
-0.25991815 -0.056991681 1.5450001 4280033822
-0.25740299 -0.057028573 1.5460001 4279968028
-0.25488433 -0.057065457 1.5470001 4280099615
-0.25285134 -0.057213008 1.5510001 4281152303
-0.21661769 -0.055516168 1.5050001 4294310907
-0.21343668 -0.055368617 1.501 4287797400
-0.21026956 -0.055221066 1.4970001 4279046931
-0.20753248 -0.055184178 1.4960001 4280033824
-0.20493588 -0.055184178 1.4960001 4279968031
-0.20247453 -0.055221066 1.4970001 4279836443
-0.1998762 -0.055221066 1.4970001 4279770650
-0.1976732 -0.055331729 1.5000001 4279639318
-0.1954598 -0.055442393 1.503 4279573525
-0.19297935 -0.055479281 1.5040001 4279573525
-0.19087516 -0.055626828 1.508 4279639318
-0.18863223 -0.055737495 1.511 4279640087
-0.1860096 -0.055737495 1.511 4279770903
-0.18362969 -0.055811271 1.5130001 4279705110
-0.18100359 -0.055811271 1.5130001 4279836183
-0.17837748 -0.055811271 1.5130001 4279901207
-0.1756352 -0.055774383 1.5120001 4279835415
-0.1728964 -0.055737495 1.511 4279967002
-0.17016107 -0.055700608 1.5100001 4279901466
-0.16742922 -0.05566372 1.5090001 4279704601
-0.16459161 -0.055589944 1.5070001 4279770651
-0.16186844 -0.055553056 1.506 4279836443
-0.15925448 -0.055553056 1.506 4279902237
-0.15674451 -0.055589944 1.5070001 4280033823
-0.15412882 -0.055589944 1.5070001 4280099616
-0.15171421 -0.05566372 1.5090001 4280296997
-0.14919384 -0.055700608 1.5100001 4280296741
-0.1469612 -0.055848159 1.5140001 4280494122
-0.30511075 -0.054258313 1.5430001 4280889138
-0.30223659 -0.05422315 1.5420001 4280625709
-0.29956013 -0.05422315 1.5420001 4280362537
-0.2974613 -0.054328643 1.5450001 4280230951
-0.29535201 -0.054434136 1.5480001 4280296999
-0.29285422 -0.054469299 1.549 4280296996
-0.28941634 -0.054328643 1.5450001 4280296996
-0.28636348 -0.054258313 1.5430001 4280033822
-0.28276604 -0.054082494 1.5380001 4280099615
-0.27955019 -0.053977001 1.5350001 4280165408
-0.27652511 -0.053906672 1.5330001 4280296737
-0.2738643 -0.053906672 1.5330001 4280165151
-0.2715573 -0.053977001 1.5350001 4280230944
-0.26924333 -0.054047327 1.5370001 4280230944
-0.26674899 -0.054082494 1.5380001 4280099615
-0.26442292 -0.05415282 1.5400001 4280099615
-0.26191992 -0.054187987 1.5410001 4280099615
-0.25941342 -0.05422315 1.5420001 4280033822
-0.21632983 -0.052851748 1.503 4294244857
-0.21343668 -0.052781418 1.501 4292600289
-0.21055047 -0.052711092 1.4990001 4279244308
-0.20767123 -0.052640762 1.4970001 4279968031
-0.20507288 -0.052640762 1.4970001 4279836443
-0.20260979 -0.052675925 1.498 4279639064
-0.20027675 -0.052746255 1.5000001 4279639318
-0.19780499 -0.052781418 1.501 4279705111
-0.19571988 -0.052922077 1.5050001 4279573525
-0.19336428 -0.052992404 1.5070001 4279507732
-0.19125488 -0.053133059 1.511 4279639318
-0.18900676 -0.053238552 1.5140001 4279639317
-0.18637891 -0.053238552 1.5140001 4279704597
-0.18375106 -0.053238552 1.5140001 4279901719
-0.18100359 -0.053203389 1.5130001 4280819741
-0.17825958 -0.053168226 1.5120001 4280949018
-0.17540288 -0.053097896 1.5100001 4281343777
-0.17278197 -0.053097896 1.5100001 4280819744
-0.17027375 -0.053133059 1.511 4280032282
-0.16776207 -0.053168226 1.5120001 4279770393
-0.16513771 -0.053168226 1.5120001 4279770650
-0.16229835 -0.053097896 1.5100001 4279704858
-0.15957171 -0.053062733 1.5090001 4279770652
-0.15695255 -0.053062733 1.5090001 4279968288
-0.15423109 -0.053027567 1.508 4280165667
-0.15181474 -0.053097896 1.5100001 4280231462
-0.14929263 -0.053133059 1.511 4280362536
-0.1469612 -0.053238552 1.5140001 4280428330
-0.14500068 -0.053484701 1.521 4280559660
-0.14301586 -0.053730853 1.5280001 4280230439
-0.30491301 -0.051565278 1.5420001 4280494123
-0.30204058 -0.05153184 1.5410001 4280494379
-0.29878306 -0.051431518 1.5380001 4280362537
-0.29649863 -0.051498398 1.5400001 4280296999
-0.29420725 -0.051565278 1.5420001 4280296998
-0.29247609 -0.051732481 1.5470001 4280165411
-0.2899783 -0.051765922 1.5480001 4280231201
-0.28710586 -0.051732481 1.5470001 4280165408
-0.28442073 -0.051732481 1.5470001 4280033822
-0.28137138 -0.0516656 1.5450001 4280099615
-0.27832893 -0.05159872 1.5430001 4280296737
-0.27421093 -0.051832803 1.5500001 4280165151
-0.27169579 -0.051866245 1.5510001 4280165151
-0.2161859 -0.050227661 1.5020001 4281678651
-0.21343668 -0.050194219 1.501 4280625963
-0.21055047 -0.050127339 1.4990001 4279770652
-0.20794865 -0.050127339 1.4990001 4279770652
-0.20534685 -0.050127339 1.4990001 4279639064
-0.20274504 -0.050127339 1.4990001 4279770650
-0.20027675 -0.050160777 1.5000001 4279639318
-0.19793676 -0.050227661 1.5020001 4279705111
-0.19571988 -0.050327983 1.5050001 4279705111
-0.19336428 -0.050394859 1.5070001 4279639318
-0.19125488 -0.050528623 1.511 4279573525
-0.18900676 -0.050628945 1.5140001 4279574037
-0.18637891 -0.050628945 1.5140001 4279770389
-0.18375106 -0.050628945 1.5140001 4280426266
-0.18088396 -0.050562065 1.5120001 4281605664
-0.17814168 -0.050528623 1.511 4282718498
-0.17528673 -0.050461743 1.5090001 4282850341
-0.17278197 -0.050495181 1.5100001 4282064419
-0.17016107 -0.050495181 1.5100001 4280491033
-0.16776207 -0.050562065 1.5120001 4280032793
-0.16535613 -0.050628945 1.5140001 4279967514
-0.16272828 -0.050628945 1.5140001 4279639577
-0.15967745 -0.050495181 1.5100001 4279771164
-0.15705656 -0.050495181 1.5100001 4279902238
-0.15433337 -0.050461743 1.5090001 4280230690
-0.15191527 -0.050528623 1.511 4280362790
-0.14939144 -0.050562065 1.5120001 4280231463
-0.1469612 -0.050628945 1.5140001 4280296744
-0.14519136 -0.050929908 1.5230001 4280493867
-0.14320306 -0.051163994 1.5300001 4280362025
-0.31091291 -0.048590243 1.5320001 4280494378
-0.30905867 -0.048717108 1.536 4280494377
-0.30719054 -0.048843976 1.5400001 4280560170
-0.30372658 -0.048717108 1.536 4280494377
-0.30106056 -0.048717108 1.536 4280428584
-0.29820028 -0.048685394 1.5350001 4280362791
-0.29611355 -0.048780546 1.5380001 4280296998
-0.29420725 -0.04890741 1.5420001 4280231203
-0.2161859 -0.047638737 1.5020001 4279967779
-0.21329449 -0.047575302 1.5000001 4279770654
-0.21055047 -0.047543585 1.4990001 4279902240
-0.20794865 -0.047543585 1.4990001 4279639066
-0.20534685 -0.047543585 1.4990001 4279639064
-0.20274504 -0.047543585 1.4990001 4279639064
-0.20027675 -0.047575302 1.5000001 4279770904
-0.19780499 -0.047607016 1.501 4279705111
-0.19558984 -0.047702167 1.5040001 4279770904
-0.19323598 -0.047765605 1.506 4279770904
-0.19112831 -0.04789247 1.5100001 4279573525
-0.18888192 -0.047987621 1.5130001 4279704853
-0.18613271 -0.047955904 1.5120001 4280163608
-0.18350834 -0.047955904 1.5120001 4280949530
-0.18076432 -0.047924187 1.511 4282326307
-0.17802379 -0.04789247 1.5100001 4283243302
-0.17528673 -0.047860753 1.5090001 4283309095
-0.17255312 -0.047829036 1.508 4282719269
-0.16993569 -0.047829036 1.508 4281670687
-0.16765112 -0.047924187 1.511 4281016095
-0.16524692 -0.047987621 1.5130001 4280229659
-0.1626208 -0.047987621 1.5130001 4279704601
-0.15967745 -0.04789247 1.5100001 4279770651
-0.15705656 -0.04789247 1.5100001 4279901725
-0.15433337 -0.047860753 1.5090001 4280033568
-0.15191527 -0.047924187 1.511 4280165410
-0.14939144 -0.047955904 1.5120001 4280231204
-0.14686413 -0.047987621 1.5130001 4280362535
-0.14500068 -0.048241355 1.521 4280625451
-0.14301586 -0.048463374 1.5280001 4280625453
-0.31192765 -0.046099573 1.5370001 4280625963
-0.30986351 -0.046189554 1.5400001 4280625963
-0.30699107 -0.046159562 1.539 4280560170
-0.30352888 -0.046039589 1.5350001 4280428584
-0.30125657 -0.046099573 1.5370001 4280428584
-0.29936588 -0.04621955 1.5410001 4280428584
-0.21632983 -0.045079805 1.503 4280428330
-0.21343668 -0.045019817 1.501 4279770400
-0.21069095 -0.044989824 1.5000001 4279902240
-0.20822611 -0.045019817 1.501 4279639066
-0.20562083 -0.045019817 1.501 4279639064
-0.20301555 -0.045019817 1.501 4279639064
-0.20041026 -0.045019817 1.501 4279573525
-0.19793676 -0.045049813 1.5020001 4279770391
-0.19558984 -0.045109797 1.5040001 4279836184
-0.19310765 -0.045139793 1.5050001 4279770648
-0.19087516 -0.04522977 1.508 4279704598
-0.18863223 -0.045319751 1.511 4280163864
-0.1860096 -0.045319751 1.511 4281081373
-0.18362969 -0.045379739 1.5130001 4282588709
-0.18100359 -0.045379739 1.5130001 4283440168
-0.17837748 -0.045379739 1.5130001 4283570984
-0.17551903 -0.045319751 1.511 4283570727
-0.17278197 -0.045289759 1.5100001 4283440168
-0.17016107 -0.045289759 1.5100001 4282784548
-0.16776207 -0.045349747 1.5120001 4282065189
-0.16535613 -0.045409732 1.5140001 4280622877
-0.16251333 -0.045349747 1.5120001 4279901723
-0.1597832 -0.045319751 1.511 4279901211
-0.15705656 -0.045289759 1.5100001 4279967518
-0.15453792 -0.045319751 1.511 4279902751
-0.15191527 -0.045319751 1.511 4280165153
-0.14939144 -0.045349747 1.5120001 4280428069
-0.1469612 -0.045409732 1.5140001 4280428071
-0.14509602 -0.045649678 1.5220001 4280559658
-0.14301586 -0.045829639 1.5280001 4280625196
-0.31233355 -0.043506864 1.539 4280625962
-0.30986351 -0.043535132 1.5400001 4280560170
-0.30412206 -0.043478597 1.5380001 4280560170
-0.21661769 -0.042545699 1.5050001 4292994793
-0.21372108 -0.04248916 1.503 4280165158
-0.2108314 -0.042432617 1.501 4279836447
-0.20822611 -0.042432617 1.501 4279704859
-0.20575781 -0.042460892 1.5020001 4279573273
-0.20315079 -0.042460892 1.5020001 4279770650
-0.20067731 -0.04248916 1.503 4279639319
-0.19806854 -0.04248916 1.503 4279770904
-0.19571988 -0.042545699 1.5050001 4279770904
-0.19336428 -0.042602237 1.5070001 4279770391
-0.19074859 -0.042602237 1.5070001 4279704341
-0.18850741 -0.042687047 1.5100001 4280162581
-0.1860096 -0.042715315 1.511 4281604637
-0.18362969 -0.042771854 1.5130001 4282980644
-0.18124285 -0.042828396 1.5150001 4283570727
-0.17861328 -0.042828396 1.5150001 4283636263
-0.17575136 -0.042771854 1.5130001 4283767336
-0.17301083 -0.042743586 1.5120001 4283702313
-0.17038645 -0.042743586 1.5120001 4283308839
-0.16798398 -0.042800125 1.5140001 4282458150
-0.16546535 -0.042828396 1.5150001 4280950815
-0.1626208 -0.042771854 1.5130001 4280295454
-0.15988895 -0.042743586 1.5120001 4279966747
-0.15705656 -0.042687047 1.5100001 4279901725
-0.15453792 -0.042715315 1.511 4279837215
-0.15201582 -0.042743586 1.5120001 4280165667
-0.14939144 -0.042743586 1.5120001 4280428582
-0.14705828 -0.042828396 1.5150001 4280428583
-0.14519136 -0.043054551 1.5230001 4280494122
-0.14320306 -0.043252438 1.5300001 4280559916
-0.21647376 -0.039925057 1.5040001 4291613141
-0.21357888 -0.039871968 1.5020001 4279770654
-0.21069095 -0.039818875 1.5000001 4279968033
-0.2080874 -0.039818875 1.5000001 4279704859
-0.20562083 -0.039845418 1.501 4279639066
-0.20301555 -0.039845418 1.501 4279639064
-0.20054378 -0.039871968 1.5020001 4279639064
-0.19806854 -0.039898511 1.503 4279836697
-0.19558984 -0.039925057 1.5040001 4279639318
-0.19323598 -0.03997815 1.506 4279770391
-0.19074859 -0.040004697 1.5070001 4279900951
-0.18838257 -0.04005779 1.5090001 4280620823
-0.1858865 -0.040084332 1.5100001 4282062623
-0.18362969 -0.040163971 1.5130001 4283242276
-0.18112321 -0.040190518 1.5140001 4283636007
-0.17849536 -0.040190518 1.5140001 4283701800
-0.17575136 -0.040163971 1.5130001 4283833386
-0.17301083 -0.040137425 1.5120001 4283702570
-0.17038645 -0.040137425 1.5120001 4283375401
-0.16787302 -0.040163971 1.5130001 4282064162
-0.16535613 -0.040190518 1.5140001 4280622620
-0.16251333 -0.040137425 1.5120001 4280493345
-0.1597832 -0.040110879 1.511 4280032796
-0.15716055 -0.040110879 1.511 4279901725
-0.15453792 -0.040110879 1.511 4279836958
-0.15201582 -0.040137425 1.5120001 4280099873
-0.14939144 -0.040137425 1.5120001 4280297253
-0.14705828 -0.040217064 1.5150001 4280363047
-0.14519136 -0.040429432 1.5230001 4280559915
-0.14320306 -0.040615253 1.5300001 4280493867
-0.21690555 -0.037407156 1.5070001 4287666331
-0.21386327 -0.037332688 1.5040001 4279376412
-0.21069095 -0.037233397 1.5000001 4279574044
-0.20794865 -0.037208579 1.4990001 4279770650
-0.20562083 -0.037258219 1.501 4279704856
-0.20328607 -0.037307866 1.503 4279639320
-0.20081082 -0.037332688 1.5040001 4279704856
-0.19820033 -0.037332688 1.5040001 4279705111
-0.19584994 -0.037382334 1.506 4279770904
-0.19336428 -0.037407156 1.5070001 4279836184
-0.19074859 -0.037407156 1.5070001 4280032536
-0.18838257 -0.037456799 1.5090001 4281145627
-0.1858865 -0.037481621 1.5100001 4282456096
-0.18362969 -0.037556089 1.5130001 4283242789
-0.18124285 -0.037605733 1.5150001 4283636520
-0.17861328 -0.037605733 1.5150001 4283702056
-0.17598368 -0.037605733 1.5150001 4283767849
-0.1733541 -0.037605733 1.5150001 4283636777
-0.17072453 -0.037605733 1.5150001 4283113000
-0.16809493 -0.037605733 1.5150001 4281736993
-0.16546535 -0.037605733 1.5150001 4280229402
-0.1626208 -0.037556089 1.5130001 4280099100
-0.15988895 -0.037531268 1.5120001 4279836187
-0.15726458 -0.037531268 1.5120001 4280033054
-0.1546402 -0.037531268 1.5120001 4280033824
-0.15201582 -0.037531268 1.5120001 4280165410
-0.14949025 -0.037556089 1.5130001 4280296483
-0.14715534 -0.037630554 1.516 4280362790
-0.14547735 -0.037878778 1.526 4280494378
-0.21748129 -0.034902006 1.511 4288850348
-0.21414767 -0.034786515 1.506 4279573791
-0.21055047 -0.034624826 1.4990001 4279574043
-0.20794865 -0.034624826 1.4990001 4279836441
-0.20562083 -0.03467102 1.501 4279705112
-0.20328607 -0.034717221 1.503 4279770904
-0.20094433 -0.034763418 1.5050001 4279836697
-0.1983321 -0.034763418 1.5050001 4279705111
-0.19584994 -0.034786515 1.506 4279770648
-0.19336428 -0.034809612 1.5070001 4279705111
-0.19074859 -0.034809612 1.5070001 4279900950
-0.18838257 -0.034855813 1.5090001 4280686615
-0.18613271 -0.034925107 1.5120001 4282193951
-0.18362969 -0.034948204 1.5130001 4283243558
-0.18124285 -0.034994405 1.5150001 4283571241
-0.17873116 -0.035017502 1.516 4283570727
-0.17609984 -0.035017502 1.516 4283702057
-0.17346853 -0.035017502 1.516 4283702569
-0.17083721 -0.035017502 1.516 4283178536
-0.16809493 -0.034994405 1.5150001 4282130725
-0.16546535 -0.034994405 1.5150001 4280491291
-0.16283578 -0.034994405 1.5150001 4280032282
-0.15999469 -0.034948204 1.5130001 4279835674
-0.15736859 -0.034948204 1.5130001 4280033568
-0.1546402 -0.034925107 1.5120001 4280165153
-0.15211636 -0.034948204 1.5130001 4280296739
-0.14958905 -0.034971304 1.5140001 4280362533
-0.14744654 -0.035086799 1.5190001 4280428585
-0.21762522 -0.03231895 1.5120001 4292271071
-0.21414767 -0.032190699 1.506 4280033572
-0.21055047 -0.032041073 1.4990001 4279573276
-0.20794865 -0.032041073 1.4990001 4279836446
-0.20548385 -0.032062449 1.5000001 4279836444
-0.20328607 -0.032126572 1.503 4279770904
-0.20081082 -0.032147948 1.5040001 4279705111
-0.1983321 -0.032169323 1.5050001 4279770904
-0.19571988 -0.032169323 1.5050001 4279836697
-0.19323598 -0.032190699 1.506 4279770904
-0.19062202 -0.032190699 1.506 4279836184
-0.18825772 -0.032233447 1.508 4280097559
-0.1860096 -0.03229757 1.511 4281145114
-0.18350834 -0.03231895 1.5120001 4282521889
-0.18112321 -0.032361697 1.5140001 4283177509
-0.17849536 -0.032361697 1.5140001 4283505448
-0.17598368 -0.032383073 1.5150001 4283703083
-0.17323968 -0.032361697 1.5140001 4283506218
-0.17061183 -0.032361697 1.5140001 4282982441
-0.16798398 -0.032361697 1.5140001 4282196519
-0.16535613 -0.032361697 1.5140001 4280885023
-0.1626208 -0.032340322 1.5130001 4279966746
-0.15988895 -0.03231895 1.5120001 4279901725
-0.15726458 -0.03231895 1.5120001 4280099617
-0.1546402 -0.03231895 1.5120001 4280034594
-0.15211636 -0.032340322 1.5130001 4280100387
-0.14958905 -0.032361697 1.5140001 4280296740
-0.21097185 -0.029516276 1.5020001 4278652689
-0.2080874 -0.029476972 1.5000001 4279902240
-0.20575781 -0.029516276 1.5020001 4279836446
-0.20342131 -0.029555576 1.5040001 4279770650
-0.20094433 -0.029575231 1.5050001 4279902490
-0.1983321 -0.029575231 1.5050001 4279836697
-0.19571988 -0.029575231 1.5050001 4279770904
-0.19310765 -0.029575231 1.5050001 4279836697
-0.19062202 -0.02959488 1.506 4279902490
-0.18813288 -0.029614531 1.5070001 4279901463
-0.1858865 -0.029673485 1.5100001 4280227862
-0.18338695 -0.029693134 1.511 4281276699
-0.18100359 -0.02973244 1.5130001 4282456353
-0.17837748 -0.02973244 1.5130001 4283046694
-0.17586751 -0.029752089 1.5140001 4283244329
-0.17323968 -0.029752089 1.5140001 4282851368
-0.17061183 -0.029752089 1.5140001 4281736738
-0.16798398 -0.029752089 1.5140001 4281015840
-0.16535613 -0.029752089 1.5140001 4280295197
-0.16272828 -0.029752089 1.5140001 4279835930
-0.15999469 -0.02973244 1.5130001 4279902238
-0.15736859 -0.02973244 1.5130001 4280033824
-0.15474246 -0.02973244 1.5130001 4280099874
-0.21167417 -0.02701699 1.5070001 4278586639
-0.20850357 -0.02694528 1.503 4279574045
-0.2060318 -0.026963206 1.5040001 4279968033
-0.20369183 -0.026999062 1.506 4279836447
-0.20121138 -0.02701699 1.5070001 4279836444
-0.1984639 -0.026999062 1.506 4279836698
-0.19584994 -0.026999062 1.506 4279836697
-0.19323598 -0.026999062 1.506 4279836697
-0.19062202 -0.026999062 1.506 4279836698
-0.18813288 -0.02701699 1.5070001 4279902234
-0.18564029 -0.027034918 1.508 4279967257
-0.18302286 -0.027034918 1.508 4280294424
-0.20864229 -0.024370836 1.5040001 4279310874
-0.20616879 -0.024387041 1.5050001 4279902240
-0.20369183 -0.024403244 1.506 4279836447
-0.20107786 -0.024403244 1.506 4279770652
-0.19049543 -0.024387041 1.5050001 4280033821
-0.18800806 -0.024403244 1.506 4279968028
-0.25280482 -0.015766246 1.429 4293982718
-0.25067484 -0.015788311 1.4310001 4292206307
-0.24819106 -0.015788311 1.4310001 4281416509
-0.2463941 -0.015832443 1.4350001 4280231722
-0.24458322 -0.015876576 1.439 4281152053
-0.24242203 -0.015898643 1.4410001 4278980884
-0.24075337 -0.015953807 1.4460001 4279507228
-0.23906733 -0.016008973 1.4510001 4279507228
-0.23671187 -0.016020007 1.452 4281086260
-0.25209716 -0.013265911 1.4250001 4293127662
-0.24979897 -0.013275221 1.4260001 4281745474
-0.24697699 -0.013256603 1.424 4279113241
-0.24519216 -0.013293839 1.4280001 4280297514
-0.24356341 -0.013340387 1.4330001 4280362791
-0.24158087 -0.013368315 1.4360001 4280428584
-0.23958787 -0.013396244 1.439 4280296998
-0.23741975 -0.013414862 1.4410001 4280494377
-0.23508163 -0.013424171 1.442 4279770654
-0.23290132 -0.01344279 1.4440001 4279244056
-0.23119274 -0.013489338 1.4490001 4279244056
-0.22915117 -0.013517266 1.452 4279244057
-0.22678702 -0.013526576 1.4530001 4284704877
-0.25560087 -0.010749023 1.4170001 4293982717
-0.25332001 -0.010756609 1.4180001 4288324518
-0.25085881 -0.010756609 1.4180001 4280166442
-0.24874792 -0.010771781 1.4200001 4279705377
-0.24645667 -0.010779367 1.4210001 4280363562
-0.24502045 -0.010824881 1.427 4280231975
-0.24339345 -0.01086281 1.432 4280363559
-0.24124439 -0.010877982 1.434 4280296996
-0.23942138 -0.010908325 1.4380001 4280362789
-0.23725499 -0.010923496 1.4400001 4280296996
-0.23475559 -0.010923496 1.4400001 4280165410
-0.23257875 -0.010938668 1.442 4280231203
-0.2307141 -0.01096901 1.4460001 4280296998
-0.2285199 -0.010984182 1.4480001 4280362537
-0.22616269 -0.010991768 1.4490001 4279441436
-0.25787821 -0.0083007487 1.416 4294377215
-0.25505969 -0.0082890242 1.414 4286416264
-0.25242677 -0.0082831625 1.4130001 4278850325
-0.24997425 -0.0082831625 1.4130001 4280100135
-0.24804722 -0.0083007487 1.416 4280362791
-0.24593636 -0.0083124731 1.4180001 4280296996
-0.24450536 -0.0083476463 1.424 4280296994
-0.24305353 -0.0083828187 1.4300001 4280296994
-0.24107616 -0.0084004039 1.4330001 4280362787
-0.23925489 -0.0084238527 1.437 4280297248
-0.23709022 -0.0084355772 1.439 4280165662
-0.23459254 -0.0084355772 1.439 4280099615
-0.23225617 -0.0084414398 1.4400001 4280099615
-0.22991632 -0.0084473016 1.4410001 4280296996
-0.22757299 -0.0084531633 1.442 4280296996
-0.22538227 -0.0084648877 1.4440001 4280099619
-0.22364765 -0.0084941983 1.4490001 4280362537
-0.22143786 -0.0085059218 1.4510001 4279441179
-0.25787821 -0.00586006 1.416 4290758602
-0.25487933 -0.0058476441 1.4130001 4278718482
-0.25224814 -0.0058435057 1.4120001 4280099365
-0.24979734 -0.0058435057 1.4120001 4280362791
-0.24787204 -0.0058559212 1.4150001 4280362789
-0.24593636 -0.0058683362 1.4180001 4280231201
-0.24450536 -0.0058931671 1.424 4280165408
-0.24305353 -0.005917998 1.4300001 4280165408
-0.24107616 -0.0059304135 1.4330001 4280165408
-0.23958787 -0.0059552444 1.439 4280231455
-0.23741975 -0.0059635211 1.4410001 4280099869
-0.23475559 -0.0059593827 1.4400001 4280099869
-0.23241746 -0.0059635211 1.4410001 4280099869
-0.23007587 -0.0059676599 1.442 4280033822
-0.22757299 -0.0059676599 1.442 4280033822
-0.22522619 -0.0059717977 1.4430001 4280033824
-0.22287592 -0.0059759365 1.4440001 4280296483
-0.2205222 -0.0059800749 1.4450001 4280296487
-0.21876848 -0.006000767 1.45 4280428073
-0.21684828 -0.0060173213 1.4540001 4279572509
-0.21447197 -0.0060214596 1.455 4280230440
-0.25696763 -0.0034072965 1.411 4282731601
-0.25379702 -0.0033976373 1.4070001 4279178263
-0.2513549 -0.0033976373 1.4070001 4280231205
-0.24908969 -0.003400052 1.4080001 4280231203
-0.24734654 -0.0034097114 1.4120001 4280231201
-0.24541603 -0.0034169557 1.4150001 4280231455
-0.24416193 -0.0034338594 1.4220001 4280231455
-0.24305353 -0.0034531779 1.4300001 4280165408
-0.24107616 -0.0034604224 1.4330001 4280033822
-0.23942138 -0.0034724963 1.4380001 4280099869
-0.23725499 -0.0034773259 1.4400001 4279968283
-0.23491861 -0.0034797408 1.4410001 4279836697
-0.23241746 -0.0034797408 1.4410001 4279968283
-0.23023543 -0.0034845704 1.4430001 4279968029
-0.22773081 -0.0034845704 1.4430001 4280033821
-0.22522619 -0.0034845704 1.4430001 4279967772
-0.22287592 -0.0034869853 1.4440001 4280164381
-0.22036958 -0.0034869853 1.4440001 4280033313
-0.21846673 -0.0034966446 1.4480001 4280296486
-0.21654999 -0.0035063035 1.452 4280362280
-0.21417716 -0.0035087185 1.4530001 4280362538
-0.28027913 -0.001015313 1.4690001 4285087835
-0.27697316 -0.0010125483 1.465 4292398300
-0.27405569 -0.0010111659 1.4630001 4294309630
-0.26297933 -0.00097937265 1.4170001 4293784314
-0.25960055 -0.0009759168 1.4120001 4293390578
-0.25623918 -0.00097246101 1.4070001 4278718995
-0.25325587 -0.00097038754 1.404 4280099619
-0.25081897 -0.00097038754 1.404 4280033824
-0.24873587 -0.0009717698 1.406 4280231201
-0.24699616 -0.00097453455 1.4100001 4280297248
-0.24472229 -0.00097522564 1.411 4280165662
-0.24347514 -0.00098006381 1.4180001 4280165662
-0.24237365 -0.00098559307 1.4260001 4280099869
-0.24057148 -0.00098835758 1.4300001 4279968283
-0.23925489 -0.0009931958 1.437 4279902490
-0.23741975 -0.00099596044 1.4410001 4280034076
-0.23508163 -0.00099665171 1.442 4279902490
-0.23290132 -0.00099803391 1.4440001 4279836440
-0.23055452 -0.00099872507 1.4450001 4279705111
-0.22820428 -0.00099941622 1.4460001 4279770904
-0.22569445 -0.00099941622 1.4460001 4279770904
-0.22287592 -0.00099803391 1.4440001 4279836186
-0.22036958 -0.00099803391 1.4440001 4280033310
-0.21801411 -0.00099872507 1.4450001 4280230691
-0.21595344 -0.0010007985 1.4480001 4280362279
-0.21373495 -0.001002181 1.45 4280296487
-0.21180087 -0.0010049455 1.4540001 4280362280
-0.27989754 0.0015146647 1.4670001 4283565613
-0.27640596 0.0015095023 1.462 4284161600
-0.27368107 0.0015084697 1.4610001 4291015363
-0.26335049 0.0014651051 1.419 4294835455
-0.2597844 0.0014589102 1.4130001 4292928485
-0.25623918 0.0014527153 1.4070001 4278849810
-0.25325587 0.0014496177 1.404 4280099618
-0.25046167 0.0014475527 1.4020001 4280033824
-0.24838203 0.0014496177 1.404 4280165408
-0.24664582 0.0014537477 1.4080001 4280231455
-0.24454883 0.0014558126 1.4100001 4280165662
-0.24330343 0.0014630401 1.4170001 4280165662
-0.24220368 0.0014713 1.4250001 4280165408
-0.24040325 0.00147543 1.429 4280099615
-0.2390884 0.0014826574 1.4360001 4279903006
-0.23741975 0.0014878198 1.4410001 4279837211
-0.23524465 0.0014898849 1.4430001 4279639831
-0.2330626 0.0014919499 1.4450001 4279573525
-0.23087364 0.0014940149 1.447 4279639318
-0.22867772 0.0014960798 1.4490001 4279704854
-0.22616269 0.0014960798 1.4490001 4279639062
-0.22333896 0.0014940149 1.447 4279704601
-0.2206748 0.0014929824 1.4460001 4279967772
-0.21801411 0.0014919499 1.4450001 4279967774
-0.21565516 0.0014929824 1.4460001 4280099104
-0.21329275 0.0014940149 1.447 4280296484
-0.21136387 0.0014981448 1.4510001 4280099106
-0.20970896 0.0015043397 1.457 4280362280
-0.20789103 0.0015095023 1.462 4279770144
-0.31425476 0.0040267231 1.4610001 4280228641
-0.27451539 0.0040019178 1.452 4284221746
-0.27124584 0.0039908933 1.4480001 4283569462
-0.26353607 0.0039137215 1.4200001 4288777629
-0.25996825 0.0038971843 1.414 4292795619
-0.25569281 0.0038696232 1.404 4279769372
-0.25271475 0.0038613547 1.401 4280164898
-0.25028303 0.0038613547 1.401 4280165408
-0.24802823 0.0038641109 1.4020001 4280165408
-0.24612029 0.003872379 1.4050001 4280231455
-0.24385509 0.0038751354 1.406 4280165662
-0.24227323 0.0038889162 1.411 4280165662
-0.24101391 0.003908209 1.4180001 4280033822
-0.23905738 0.0039164773 1.4210001 4279968029
-0.23792294 0.0039385268 1.429 4280033822
-0.23676069 0.0039605754 1.437 4280033822
-0.23491861 0.0039716004 1.4410001 4280296991
-0.2330626 0.003982625 1.4450001 4280297248
-0.23087364 0.003988137 1.447 4279835927
-0.2285199 0.0039908933 1.4480001 4279572756
-0.22600661 0.0039908933 1.4480001 4279835416
-0.22333896 0.003988137 1.447 4279966232
-0.2206748 0.0039853808 1.4460001 4279900953
-0.21801411 0.003982625 1.4450001 4280098588
-0.21535689 0.0039798687 1.4440001 4280164383
-0.21299794 0.003982625 1.4450001 4280033311
-0.21078119 0.003988137 1.447 4280099105
-0.20913322 0.004004674 1.4530001 4280296484
-0.20703784 0.0040129423 1.4560001 4280230950
-0.31539226 0.0064643403 1.4430001 4280888625
-0.31245399 0.0064553809 1.4410001 4280427559
-0.31038302 0.0064643403 1.4430001 4280359970
-0.26372164 0.0063657844 1.4210001 4283371052
-0.25996825 0.0063344259 1.414 4282723386
-0.2558749 0.006294108 1.4050001 4280558888
-0.25271475 0.0062761889 1.401 4280427300
-0.25028303 0.0062761889 1.401 4279967772
-0.24785133 0.0062761889 1.401 4280033563
-0.24559478 0.006280669 1.4020001 4280165661
-0.2435082 0.0062896283 1.404 4280165661
-0.2415864 0.0063030673 1.4070001 4280099869
-0.23982415 0.0063209869 1.411 4280165408
-0.23787977 0.0063344259 1.414 4280099615
-0.23659095 0.0063657844 1.4210001 4279968799
-0.23577213 0.0064105829 1.4310001 4280099100
-0.23394045 0.0064285016 1.4350001 4280953125
-0.23241746 0.0064553809 1.4410001 4281675564
-0.23023543 0.0064643403 1.4430001 4280753692
-0.22804643 0.0064733 1.4450001 4280556827
-0.22585052 0.0064822594 1.447 4280623905
-0.22333896 0.0064822594 1.447 4280229149
-0.2208274 0.0064822594 1.447 4279966232
-0.21801411 0.0064733 1.4450001 4279966748
-0.21520774 0.0064643403 1.4430001 4279967261
-0.21270314 0.0064643403 1.4430001 4280164383
-0.21034418 0.0064688199 1.4440001 4280164897
-0.20826963 0.0064822594 1.447 4280231204
-0.20618466 0.0064956988 1.45 4280099620
-0.2043702 0.0065180976 1.455 4280493866
-0.31473657 0.0089329574 1.4400001 4280692014
-0.31180349 0.0089205503 1.4380001 4280624423
-0.30973774 0.0089329574 1.4400001 4281080356
-0.26390722 0.0088212956 1.4220001 4283503919
-0.2601521 0.0087778708 1.4150001 4282392880
-0.25605705 0.0087220399 1.406 4280755240
-0.25289512 0.0086972266 1.4020001 4280230434
-0.25046167 0.0086972266 1.4020001 4279901979
-0.24785133 0.008691024 1.401 4279902490
-0.24559478 0.0086972266 1.4020001 4279968283
-0.24333477 0.0087034302 1.4030001 4280165662
-0.2414147 0.0087220399 1.406 4280165662
-0.23948419 0.0087406514 1.409 4280034076
-0.23754331 0.0087592611 1.4120001 4280296735
-0.23625797 0.0088026859 1.419 4280230942
-0.23511308 0.0088523133 1.427 4280295453
-0.23345137 0.00888333 1.432 4281147937
-0.23193358 0.0089205503 1.4380001 4282132008
-0.22991632 0.008939161 1.4410001 4282720810
-0.22773081 0.0089515671 1.4430001 4282327335
-0.22553836 0.0089639751 1.4450001 4281342493
-0.22333896 0.0089763813 1.447 4281081122
-0.2206748 0.0089701787 1.4460001 4280490526
-0.21801411 0.0089639751 1.4450001 4279966235
-0.21505861 0.0089453645 1.442 4279901468
-0.21240832 0.008939161 1.4410001 4280098590
-0.20990717 0.008939161 1.4410001 4280098847
-0.20783783 0.0089577716 1.4440001 4280165410
-0.20561588 0.0089701787 1.4460001 4280034340
-0.20394883 0.009007398 1.452 4280231208
-0.31408086 0.011391234 1.437 4281086772
-0.31115299 0.011375379 1.4350001 4280886312
-0.30887735 0.011383306 1.4360001 4282786352
-0.26446402 0.011296107 1.4250001 4292331731
-0.26088753 0.011248546 1.419 4282989895
-0.25660339 0.011169274 1.409 4280688935
-0.25307551 0.011121712 1.4030001 4280295458
-0.25046167 0.011113784 1.4020001 4280032797
-0.24785133 0.011105858 1.401 4279967772
-0.24541961 0.011105858 1.401 4280034076
-0.24316134 0.011113784 1.4020001 4280099869
-0.24089958 0.011121712 1.4030001 4280165662
-0.2389743 0.011145493 1.406 4280231455
-0.23670214 0.01115342 1.4070001 4280296735
-0.235259 0.011200983 1.4130001 4280165149
-0.23412453 0.0112644 1.4210001 4280426524
-0.23231021 0.011296107 1.4250001 4281475362
-0.23096585 0.011351597 1.432 4283178793
-0.22911856 0.011383306 1.4360001 4285343033
-0.2267839 0.011391234 1.437 4285868093
-0.22491403 0.011422941 1.4410001 4285079606
-0.22272158 0.011438795 1.4430001 4284688699
-0.22021697 0.011438795 1.4430001 4282654506
-0.21756148 0.011430869 1.442 4281210398
-0.21476033 0.011415014 1.4400001 4280424989
-0.21211353 0.011407087 1.439 4279966491
-0.20961586 0.011407087 1.439 4280033311
-0.20740604 0.011422941 1.4410001 4280099361
-0.20352745 0.011486358 1.4490001 4280231463
-0.31451797 0.01388742 1.439 4281414456
-0.31093615 0.013839167 1.434 4281082152
-0.30823207 0.013829516 1.4330001 4284231488
-0.30638489 0.013858468 1.4360001 4285938514
-0.26162294 0.013733009 1.4230001 4290885824
-0.25714976 0.01362685 1.4120001 4281017387
-0.25343627 0.013559295 1.4050001 4280492580
-0.2506403 0.013539993 1.4030001 4280164383
-0.24785133 0.013520692 1.401 4279770393
-0.24524444 0.013511041 1.4000001 4279902236
-0.2429879 0.013520692 1.401 4280033822
-0.24055618 0.013520692 1.401 4280099869
-0.2384644 0.013539993 1.4030001 4280034076
-0.23619744 0.013549645 1.404 4280230942
-0.23442651 0.013588247 1.4080001 4280165408
-0.23297121 0.013646152 1.414 4280427551
-0.23084296 0.013665453 1.416 4281082401
-0.22951427 0.013733009 1.4230001 4283113515
-0.22800168 0.013790912 1.429 4285933886
-0.22583699 0.013810215 1.4310001 4285931576
-0.22413363 0.013858468 1.4360001 4286128958
-0.22210421 0.01388742 1.439 4285997370
-0.21960653 0.01388742 1.439 4285211190
-0.21710886 0.01388742 1.439 4283243048
-0.21431291 0.013868119 1.437 4281473311
-0.21167131 0.013858468 1.4360001 4280359451
-0.20947018 0.013877769 1.4380001 4279967518
-0.20726211 0.013897071 1.4400001 4280034337
-0.20547369 0.013945324 1.4450001 4280296741
-0.31451797 0.016367752 1.439 4281808957
-0.3105025 0.016288131 1.432 4281016102
-0.30823207 0.016299507 1.4330001 4284625733
-0.30659825 0.016345004 1.437 4285346633
-0.3060087 0.016447375 1.4460001 4282526517
-0.26199064 0.016208513 1.4250001 4281741110
-0.25733188 0.01607202 1.4130001 4281213996
-0.25361666 0.015992397 1.406 4280492837
-0.25081897 0.015969649 1.404 4280361505
-0.24802823 0.0159469 1.4020001 4279901722
-0.24541961 0.015935525 1.401 4279902236
-0.2429879 0.015935525 1.401 4279770650
-0.24055618 0.015935525 1.401 4279770650
-0.23829444 0.0159469 1.4020001 4280165408
-0.23586099 0.0159469 1.4020001 4280363041
-0.23392701 0.015981024 1.4050001 4280362530
-0.23231216 0.016037896 1.4100001 4280232225
-0.23019089 0.016060645 1.4120001 4280754978
-0.2288691 0.016140265 1.419 4281539361
-0.22736347 0.016208513 1.4250001 4284097073
-0.22536355 0.016242635 1.4280001 4285802044
-0.22366539 0.016299507 1.4330001 4286128958
-0.2217955 0.016345004 1.437 4286390588
-0.21930131 0.016345004 1.437 4286522943
-0.21680711 0.016345004 1.437 4285276214
-0.21431291 0.016345004 1.437 4283046440
-0.21167131 0.01633363 1.4360001 4281474594
-0.20947018 0.016356379 1.4380001 4280229661
-0.20726211 0.016379127 1.4400001 4280230690
-0.3105025 0.018756399 1.432 4281212969
-0.30780187 0.018743303 1.4310001 4285084747
-0.30595815 0.018782595 1.434 4285280072
-0.30431569 0.01883499 1.4380001 4281737001
-0.30223954 0.018861184 1.4400001 4281017898
-0.29994828 0.018874282 1.4410001 4281544753
-0.26272607 0.018717105 1.429 4282266939
-0.25824246 0.018573027 1.4180001 4282659899
-0.25415778 0.018455144 1.409 4281084461
-0.2513549 0.01842895 1.4070001 4280296226
-0.24820514 0.018376557 1.4030001 4279967518
-0.24541961 0.018350361 1.401 4279770137
-0.24281447 0.018337263 1.4000001 4279705370
-0.24021275 0.018324163 1.399 4280099615
-0.23778452 0.018324163 1.399 4280231201
-0.23552452 0.018337263 1.4000001 4280166178
-0.23342754 0.018363459 1.4020001 4280165408
-0.2313236 0.018389653 1.404 4280166178
-0.22921275 0.01841585 1.406 4280362530
-0.2274175 0.018468244 1.4100001 4280492062
-0.22608703 0.018559931 1.4170001 4281474081
-0.22394319 0.018586125 1.419 4283310639
-0.22241673 0.018664714 1.4250001 4284293684
-0.2204064 0.018704008 1.4280001 4285604667
-0.21808042 0.018717105 1.429 4286786116
-0.21575099 0.018730205 1.4300001 4286260798
-0.21341808 0.018743303 1.4310001 4284818231
-0.2112291 0.018769499 1.4330001 4282327081
-0.20917885 0.018808791 1.4360001 4280558113
-0.20683032 0.01882189 1.437 4280296739
-0.31071931 0.021239489 1.4330001 4280752163
-0.30737171 0.021180201 1.429 4284689989
-0.30531809 0.021209845 1.4310001 4285149513
-0.30368081 0.021269133 1.4350001 4282394161
-0.26346147 0.021239489 1.4330001 4285028961
-0.25897092 0.02107645 1.4220001 4284500050
-0.25487933 0.020943055 1.4130001 4282135096
-0.2517122 0.020883767 1.409 4280756777
-0.24855894 0.020824483 1.4050001 4280099104
-0.24524444 0.020750374 1.4000001 4279770393
-0.242641 0.020735551 1.399 4279770393
-0.24004106 0.02072073 1.3980001 4279705371
-0.23761456 0.02072073 1.3980001 4279968029
-0.23535627 0.020735551 1.399 4279968543
-0.23309454 0.020750374 1.4000001 4280099615
-0.23082933 0.020765195 1.401 4280231201
-0.22888668 0.02080966 1.404 4280296480
-0.22725621 0.020883767 1.409 4280231201
-0.22512971 0.020913411 1.411 4280427553
-0.22346973 0.02098752 1.416 4280754465
-0.22163631 0.021046808 1.4200001 4281868582
-0.21948032 0.02107645 1.4220001 4283900979
-0.21731737 0.021106094 1.424 4285737021
-0.21514748 0.021135738 1.4260001 4286196288
-0.21282153 0.021150557 1.427 4284951612
-0.21078689 0.021195024 1.4300001 4282460717
-0.20888752 0.02125431 1.434 4280624675
-0.20639852 0.02125431 1.434 4280296994
-0.31071931 0.023709482 1.4330001 4284173400
-0.30758679 0.023659846 1.4300001 4285742164
-0.30531809 0.02367639 1.4310001 4285476938
-0.26364532 0.023726026 1.434 4282196269
-0.25933516 0.023560572 1.424 4283245877
-0.25505969 0.023395117 1.414 4283445566
-0.2520695 0.023345482 1.411 4281806644
-0.24855894 0.02324621 1.4050001 4280427812
-0.24559478 0.023196574 1.4020001 4280229663
-0.24281447 0.023163484 1.4000001 4280032795
-0.24021275 0.023146939 1.399 4279771163
-0.23778452 0.023146939 1.399 4279902236
-0.23535627 0.023146939 1.399 4280099615
-0.23309454 0.023163484 1.4000001 4280231201
-0.23066457 0.023163484 1.4000001 4280296737
-0.22872366 0.02321312 1.4030001 4280165408
-0.22693363 0.023279302 1.4070001 4280099871
-0.2248106 0.023312392 1.409 4280362787
-0.2231541 0.023395117 1.414 4280230942
-0.22132415 0.023461301 1.4180001 4280492831
-0.21917161 0.023494391 1.4200001 4281212704
-0.21716475 0.023544027 1.4230001 4282194722
-0.21499661 0.023577118 1.4250001 4283113514
-0.21282153 0.023610208 1.427 4282131496
-0.21063948 0.023643298 1.429 4281018661
-0.20859617 0.023692934 1.432 4280428321
-0.30758679 0.026124666 1.4300001 4288966535
-0.25951728 0.02603332 1.4250001 4282848552
-0.25505969 0.025832361 1.414 4283771194
-0.25189084 0.025759285 1.4100001 4282986811
-0.24855894 0.025667939 1.4050001 4281084717
-0.24559478 0.025613133 1.4020001 4280427812
-0.2429879 0.025594862 1.401 4280033824
-0.24038449 0.025576595 1.4000001 4279967517
-0.23795451 0.025576595 1.4000001 4279836699
-0.23552452 0.025576595 1.4000001 4279771420
-0.23292804 0.025558325 1.399 4280033822
-0.23066457 0.025576595 1.4000001 4280033822
-0.22839761 0.025594862 1.401 4279968799
-0.22644977 0.025649671 1.404 4280296737
-0.2241724 0.025667939 1.4050001 4280428579
-0.22236501 0.025741015 1.409 4280034846
-0.22038765 0.025795823 1.4120001 4280100382
-0.21824554 0.025832361 1.414 4280362527
-0.21624909 0.025887169 1.4170001 4280624930
-0.21439311 0.025960244 1.4210001 4280427807
-0.21207583 0.025978511 1.4220001 4280428065
-0.21034469 0.026069857 1.427 4280428322
-0.25969937 0.028509516 1.4260001 4292987350
-0.25542045 0.028309589 1.416 4283902269
-0.2520695 0.028209625 1.411 4282590259
-0.24891278 0.028129654 1.4070001 4281741621
-0.24594511 0.028069675 1.404 4281085231
-0.24333477 0.028049683 1.4030001 4280296740
-0.24072789 0.028029691 1.4020001 4279903008
-0.23829444 0.028029691 1.4020001 4279836445
-0.23586099 0.028029691 1.4020001 4279836958
-0.23309454 0.027989706 1.4000001 4279902236
-0.23066457 0.027989706 1.4000001 4280099615
-0.22839761 0.028009698 1.401 4280231201
-0.22628847 0.028049683 1.4030001 4280165408
-0.22401285 0.028069675 1.404 4280296994
-0.22189155 0.02810966 1.406 4280231456
-0.21976332 0.028149646 1.4080001 4280363041
-0.2174738 0.028169638 1.409 4280231455
-0.21563865 0.028249608 1.4130001 4280297248
-0.21394049 0.028349573 1.4180001 4280297249
-0.21177754 0.028389556 1.4200001 4280296994
-0.20990248 0.028469529 1.424 4280296994
-0.25560087 0.030771991 1.4170001 4294040039
-0.25242677 0.030685127 1.4130001 4283970372
-0.24926659 0.030598264 1.409 4282001202
-0.24629548 0.030533114 1.406 4281348916
-0.24368162 0.030511398 1.4050001 4280757292
-0.24107128 0.030489679 1.404 4280428069
-0.23863436 0.030489679 1.404 4280165924
-0.23619744 0.030489679 1.404 4279903264
-0.23342754 0.03044625 1.4020001 4279770652
-0.23082933 0.030424532 1.401 4280033824
-0.22856064 0.03044625 1.4020001 4280033822
-0.22644977 0.030489679 1.404 4280099615
-0.22401285 0.030489679 1.404 4280099615
-0.22173373 0.030511398 1.4050001 4280231201
-0.21960725 0.030554829 1.4070001 4280296994
-0.2174738 0.030598264 1.409 4280428580
-0.21563865 0.030685127 1.4130001 4280428835
-0.21378961 0.030771991 1.4170001 4280363042
-0.21177754 0.030837141 1.4200001 4280428580
-0.25332001 0.033237845 1.4180001 4286605430
-0.25015116 0.033144087 1.414 4282853944
-0.24717136 0.033073764 1.411 4281411375
-0.24454883 0.033050325 1.4100001 4281216561
-0.2419298 0.033026889 1.409 4280888622
-0.23914427 0.032980006 1.4070001 4280362533
-0.23670214 0.032980006 1.4070001 4280165410
-0.23376052 0.032909684 1.404 4279902238
-0.23099409 0.032862809 1.4020001 4279902238
-0.22856064 0.032862809 1.4020001 4279902238
-0.22628847 0.032886248 1.4030001 4280033824
-0.22401285 0.032909684 1.404 4280033822
-0.22173373 0.032933127 1.4050001 4280231201
-0.21945116 0.032956567 1.406 4280428580
-0.21716513 0.032980006 1.4070001 4280362787
-0.21533343 0.033073764 1.411 4280362787
-0.21363874 0.033190966 1.416 4280362787
-0.24278831 0.035581328 1.414 4281085485
-0.23999411 0.035531003 1.4120001 4280822570
-0.23737508 0.035505835 1.411 4280296994
-0.23426002 0.035405181 1.4070001 4280099617
-0.2313236 0.035329692 1.404 4280099617
-0.2290497 0.035354856 1.4050001 4279901982
