# .PCD v0.7 - Point Cloud Data file format
VERSION 0.7
FIELDS x y z rgba
SIZE 4 4 4 4
TYPE F F F U
COUNT 1 1 1 1
WIDTH 1111
HEIGHT 1
VIEWPOINT 0 0 0 1 0 0 0
POINTS 1111
DATA ascii
-0.20933394 0.082766086 1.312 4292007898
-0.208354 0.08282917 1.3130001 4291942105
-0.20737234 0.082892254 1.314 4291942105
-0.20623198 0.082892254 1.314 4292007898
-0.20509164 0.082892254 1.314 4292007898
-0.20410649 0.082955338 1.3150001 4292073434
-0.20311961 0.08301843 1.3160001 4292007898
-0.202131 0.083081506 1.317 4291942105
-0.20114066 0.08314459 1.3180001 4291942105
-0.19999683 0.08314459 1.3180001 4291876312
-0.19900388 0.083207682 1.319 4291876312
-0.19785918 0.083207682 1.319 4291876312
-0.19686364 0.083270758 1.3200001 4291876312
-0.19601461 0.083396927 1.322 4291810519
-0.19501473 0.083460011 1.3230001 4291810519
-0.19401309 0.083523095 1.3240001 4291744726
-0.19315539 0.083649263 1.3260001 4291678933
-0.19214943 0.083712347 1.327 4291678933
-0.19114172 0.083775431 1.3280001 4291744726
-0.19041842 0.083964683 1.3310001 4291744726
-0.1894055 0.084027767 1.332 4291678933
-0.18839085 0.084090844 1.3330001 4291613140
-0.18779586 0.084343188 1.337 4291678934
-0.18677513 0.084406272 1.3380001 4291810520
-0.1858914 0.08453244 1.34 4291876313
-0.18555564 0.084910944 1.3460001 4291876313
-0.18466148 0.085037112 1.348 4291876313
-0.18376386 0.085163273 1.35 4291810520
-0.18276453 0.085794114 1.36 4291744727
-0.18198481 0.085983366 1.363 4291678934
-0.18119988 0.086172618 1.3660001 4291744727
-0.26338318 0.087477766 1.368 4293389552
-0.26142931 0.08722198 1.3640001 4292929001
-0.25967318 0.087030143 1.3610001 4292402657
-0.25564313 0.086070955 1.3460001 4292205278
-0.25390783 0.085879125 1.3430001 4292336864
-0.25142497 0.085431494 1.3360001 4292336864
-0.24989085 0.085303612 1.3340001 4292402657
-0.24836023 0.085175715 1.332 4292336863
-0.2464619 0.084919937 1.3280001 4292271070
-0.24493995 0.08479204 1.3260001 4292205277
-0.24305376 0.084536262 1.322 4292271070
-0.24190648 0.084536262 1.322 4292336863
-0.24057706 0.084472314 1.3210001 4292402656
-0.23924939 0.084408373 1.3200001 4292271070
-0.23792346 0.084344424 1.319 4292139484
-0.23677877 0.084344424 1.319 4292205277
-0.23527676 0.084216535 1.317 4292205277
-0.23395602 0.084152587 1.3160001 4292270813
-0.23263703 0.084088638 1.3150001 4292270813
-0.23114373 0.083960749 1.3130001 4292270558
-0.23000425 0.083960749 1.3130001 4292270558
-0.22851613 0.08383286 1.3110001 4292204765
-0.2273784 0.08383286 1.3110001 4292138972
-0.22606806 0.083768912 1.3100001 4292205020
-0.22493118 0.083768912 1.3100001 4292270813
-0.2237943 0.083768912 1.3100001 4292336606
-0.22265741 0.083768912 1.3100001 4292336606
-0.22135144 0.083704963 1.309 4292336863
-0.22038364 0.083768912 1.3100001 4292336863
-0.21924677 0.083768912 1.3100001 4292336350
-0.21810989 0.083768912 1.3100001 4292205020
-0.21697301 0.083768912 1.3100001 4292007898
-0.21583612 0.083768912 1.3100001 4292073691
-0.21453536 0.083704963 1.309 4292073691
-0.21356235 0.083768912 1.3100001 4292073434
-0.21258764 0.08383286 1.3110001 4292073691
-0.21144989 0.08383286 1.3110001 4292139484
-0.21047255 0.083896801 1.312 4292073691
-0.20933394 0.083896801 1.312 4292007898
-0.208354 0.083960749 1.3130001 4292007898
-0.20721452 0.083960749 1.3130001 4292007898
-0.20623198 0.084024698 1.314 4292007898
-0.20509164 0.084024698 1.314 4292007898
-0.20410649 0.084088638 1.3150001 4292073434
-0.20311961 0.084152587 1.3160001 4292007898
-0.202131 0.084216535 1.317 4292007898
-0.20114066 0.084280476 1.3180001 4292007898
-0.19999683 0.084280476 1.3180001 4291942105
-0.19900388 0.084344424 1.319 4291876312
-0.19800919 0.084408373 1.3200001 4291876312
-0.19686364 0.084408373 1.3200001 4291810519
-0.19601461 0.084536262 1.322 4291810519
-0.19501473 0.084600203 1.3230001 4291744726
-0.19401309 0.084664151 1.3240001 4291678933
-0.19315539 0.08479204 1.3260001 4291678933
-0.19214943 0.084855989 1.327 4291678933
-0.19114172 0.084919937 1.3280001 4291744726
-0.19041842 0.085111775 1.3310001 4291744726
-0.1894055 0.085175715 1.332 4291678933
-0.18839085 0.085239664 1.3330001 4291613140
-0.18779586 0.08549545 1.337 4291678934
-0.18677513 0.08555939 1.3380001 4291810520
-0.1858914 0.085687287 1.34 4291876313
-0.18555564 0.086070955 1.3460001 4291876313
-0.18466148 0.086198851 1.348 4291876313
-0.18376386 0.086326741 1.35 4291810520
-0.18263014 0.086902246 1.3590001 4291678934
-0.18198481 0.087158039 1.363 4291678934
-0.18119988 0.087349877 1.3660001 4291744727
-0.261621 0.088462323 1.365 4293060587
-0.25967318 0.088203087 1.3610001 4292534243
-0.25602299 0.087360591 1.348 4292205278
-0.254475 0.087230973 1.3460001 4292336864
-0.25180134 0.086712509 1.3380001 4292402657
-0.25045285 0.086647704 1.337 4292336864
-0.24891959 0.086518094 1.335 4292271070
-0.24683309 0.086194053 1.33 4292271070
-0.24549411 0.086129248 1.3290001 4292205277
-0.24342149 0.085805207 1.3240001 4292271070
-0.24227247 0.085805207 1.3240001 4292336863
-0.24094129 0.085740402 1.3230001 4292336863
-0.23943064 0.085610785 1.3210001 4292402910
-0.2382842 0.085610785 1.3210001 4292271324
-0.23695827 0.085545979 1.3200001 4292270813
-0.23545542 0.085416362 1.3180001 4292139227
-0.23413379 0.085351557 1.317 4292336606
-0.23299085 0.085351557 1.317 4292138970
-0.23131977 0.085157134 1.314 4292335837
-0.23017941 0.085157134 1.314 4292401630
-0.22869046 0.085027516 1.312 4292335837
-0.22755185 0.085027516 1.312 4292270044
-0.22624065 0.084962711 1.3110001 4292335837
-0.22493118 0.084897898 1.3100001 4292401630
-0.2237943 0.084897898 1.3100001 4292401629
-0.22265741 0.084897898 1.3100001 4292467422
-0.22152053 0.084897898 1.3100001 4292533215
-0.22038364 0.084897898 1.3100001 4292533215
-0.21924677 0.084897898 1.3100001 4292533215
-0.21810989 0.084897898 1.3100001 4292401885
-0.21697301 0.084897898 1.3100001 4292204763
-0.21583612 0.084897898 1.3100001 4292073434
-0.21469924 0.084897898 1.3100001 4292138970
-0.21372539 0.084962711 1.3110001 4292139227
-0.21258764 0.084962711 1.3110001 4292073691
-0.21144989 0.084962711 1.3110001 4292073691
-0.21047255 0.085027516 1.312 4292073691
-0.20949349 0.085092321 1.3130001 4292073691
-0.208354 0.085092321 1.3130001 4292073691
-0.20737234 0.085157134 1.314 4292073691
-0.20623198 0.085157134 1.314 4292007898
-0.20509164 0.085157134 1.314 4292007898
-0.20426171 0.085286751 1.3160001 4292007898
-0.20327397 0.085351557 1.317 4292007898
-0.20228449 0.085416362 1.3180001 4292007898
-0.20129326 0.085481174 1.319 4292007898
-0.20014857 0.085481174 1.319 4291942105
-0.19930562 0.085610785 1.3210001 4291876312
-0.1981592 0.085610785 1.3210001 4291810519
-0.19716191 0.085675597 1.322 4291810519
-0.19631116 0.085805207 1.3240001 4291810519
-0.19530952 0.08587002 1.325 4291744726
-0.19415963 0.08587002 1.325 4291678933
-0.19344673 0.086064443 1.3280001 4291678933
-0.19229423 0.086064443 1.3280001 4291810519
-0.19128565 0.086129248 1.3290001 4291810519
-0.19056147 0.086323671 1.332 4291810519
-0.1895477 0.086388476 1.3330001 4291744726
-0.18853219 0.086453289 1.3340001 4291744726
-0.18793632 0.086712509 1.3380001 4291744727
-0.18705432 0.086842127 1.34 4291810520
-0.18603012 0.086906932 1.3410001 4291810520
-0.18569349 0.087295778 1.3470001 4291810520
-0.18479848 0.087425396 1.3490001 4291810520
-0.18389998 0.087555014 1.3510001 4291810520
-0.18289891 0.088203087 1.3610001 4291678934
-0.18211833 0.08839751 1.3640001 4291678934
-0.26142931 0.089573041 1.3640001 4293323759
-0.25967318 0.089376032 1.3610001 4292731622
-0.25659275 0.088719338 1.3510001 4292205278
-0.25466406 0.088456661 1.3470001 4292205278
-0.25198951 0.087931313 1.3390001 4292402657
-0.25064015 0.087865636 1.3380001 4292271071
-0.24910606 0.087734297 1.3360001 4292271070
-0.24701868 0.08740595 1.3310001 4292271070
-0.24567886 0.08734028 1.33 4292271070
-0.24360535 0.087011933 1.325 4292271070
-0.24227247 0.086946264 1.3240001 4292271070
-0.24112342 0.086946264 1.3240001 4292336863
-0.23961188 0.086814933 1.322 4292205277
-0.2382842 0.086749256 1.3210001 4292205277
-0.23695827 0.086683586 1.3200001 4291941848
-0.23545542 0.086552247 1.3180001 4291612627
-0.2343116 0.086552247 1.3180001 4291414735
-0.23299085 0.086486578 1.317 4291612114
-0.23149581 0.086355239 1.3150001 4292401117
-0.23017941 0.08628957 1.314 4292335324
-0.22869046 0.086158231 1.312 4292401117
-0.22755185 0.086158231 1.312 4292335324
-0.22641321 0.086158231 1.312 4292203738
-0.22510289 0.086092561 1.3110001 4292466910
-0.22396514 0.086092561 1.3110001 4292466653
-0.22265741 0.086026892 1.3100001 4292795875
-0.22152053 0.086026892 1.3100001 4292861667
-0.22038364 0.086026892 1.3100001 4292861667
-0.21924677 0.086026892 1.3100001 4292598495
-0.21810989 0.086026892 1.3100001 4292466909
-0.21697301 0.086026892 1.3100001 4292335323
-0.21583612 0.086026892 1.3100001 4292269786
-0.21486314 0.086092561 1.3110001 4292270043
-0.21372539 0.086092561 1.3110001 4292270300
-0.21258764 0.086092561 1.3110001 4292139227
-0.21161118 0.086158231 1.312 4292073691
-0.21063298 0.0862239 1.3130001 4292139484
-0.20949349 0.0862239 1.3130001 4292073691
-0.208354 0.0862239 1.3130001 4292073691
-0.20737234 0.08628957 1.314 4292073691
-0.20623198 0.08628957 1.314 4292073691
-0.20524772 0.086355239 1.3150001 4292007898
-0.20426171 0.086420916 1.3160001 4292007898
-0.20327397 0.086486578 1.317 4292073691
-0.20243795 0.086617924 1.319 4292007898
-0.20129326 0.086617924 1.319 4292007898
-0.20014857 0.086617924 1.319 4291942105
-0.19930562 0.086749256 1.3210001 4291876312
-0.1983092 0.086814933 1.322 4291810519
-0.19716191 0.086814933 1.322 4291810519
-0.19645943 0.087011933 1.325 4291810519
-0.19530952 0.087011933 1.325 4291810519
-0.19430616 0.087077603 1.3260001 4291744726
-0.19344673 0.087208942 1.3280001 4291810519
-0.19243903 0.087274611 1.3290001 4291876312
-0.19128565 0.087274611 1.3290001 4291876312
-0.19056147 0.087471619 1.332 4291810520
-0.1895477 0.087537289 1.3330001 4291810520
-0.18853219 0.087602958 1.3340001 4291810520
-0.18807678 0.087931313 1.3390001 4291810520
-0.18705432 0.087996975 1.34 4291810520
-0.18603012 0.088062644 1.3410001 4291810520
-0.18583134 0.08852233 1.348 4291810520
-0.18493545 0.088653669 1.35 4291810520
-0.18403611 0.088785008 1.3520001 4291810520
-0.18303329 0.089441702 1.3620001 4291678934
-0.25967318 0.090548977 1.3610001 4292929001
-0.25697264 0.090016723 1.353 4292271071
-0.25466406 0.089617535 1.3470001 4292139485
-0.25217772 0.089151822 1.34 4292336864
-0.25064015 0.089018755 1.3380001 4292205278
-0.24929252 0.088952228 1.337 4292205278
-0.24720426 0.088619567 1.332 4292336864
-0.24567886 0.088486508 1.33 4292402656
-0.2437892 0.088220388 1.3260001 4292336863
-0.24245544 0.088153854 1.325 4292336863
-0.24112342 0.08808732 1.3240001 4292336863
-0.23961188 0.08795426 1.322 4292271070
-0.2382842 0.087887727 1.3210001 4292271070
-0.23713778 0.087887727 1.3210001 4292007641
-0.23563407 0.087754667 1.319 4290428609
-0.2343116 0.087688133 1.3180001 4287138190
-0.23299085 0.087621607 1.317 4287532948
-0.23167184 0.087555073 1.3160001 4291216843
-0.23035459 0.08748854 1.3150001 4292795875
-0.22886476 0.087355472 1.3130001 4292860900
-0.22755185 0.087288946 1.312 4292400349
-0.22641321 0.087288946 1.312 4292071126
-0.22510289 0.08722242 1.3110001 4292005589
-0.22396514 0.08722242 1.3110001 4292334041
-0.22282739 0.08722242 1.3110001 4292860641
-0.22152053 0.087155879 1.3100001 4293255911
-0.22038364 0.087155879 1.3100001 4293189862
-0.21924677 0.087155879 1.3100001 4292597468
-0.2182764 0.08722242 1.3110001 4292071381
-0.21713865 0.08722242 1.3110001 4292071381
-0.21600088 0.08722242 1.3110001 4292269273
-0.21486314 0.08722242 1.3110001 4292401372
-0.21388841 0.087288946 1.312 4292204507
-0.21274979 0.087288946 1.312 4292073434
-0.21161118 0.087288946 1.312 4292139228
-0.21063298 0.087355472 1.3130001 4292073691
-0.20949349 0.087355472 1.3130001 4292073691
-0.20851269 0.087422013 1.314 4292073691
-0.20737234 0.087422013 1.314 4292073691
-0.20638894 0.08748854 1.3150001 4292073691
-0.20524772 0.08748854 1.3150001 4292007898
-0.20426171 0.087555073 1.3160001 4292073691
-0.20327397 0.087621607 1.317 4292073691
-0.20243795 0.087754667 1.319 4292073691
-0.20144588 0.0878212 1.3200001 4292007898
-0.20030032 0.0878212 1.3200001 4291942105
-0.1994565 0.08795426 1.322 4291876312
-0.19845922 0.088020794 1.3230001 4291876312
-0.19731106 0.088020794 1.3230001 4291876312
-0.19645943 0.088153854 1.325 4291876312
-0.19545694 0.088220388 1.3260001 4291876312
-0.1944527 0.088286914 1.327 4291876312
-0.1935924 0.088419974 1.3290001 4291876312
-0.19243903 0.088419974 1.3290001 4291942105
-0.19142959 0.088486508 1.33 4291876313
-0.19070454 0.088686101 1.3330001 4291810520
-0.1896899 0.088752635 1.3340001 4291810520
-0.18867351 0.088819161 1.335 4291810520
-0.18807678 0.089085296 1.3390001 4291810520
-0.18719392 0.089218348 1.3410001 4291744727
-0.18616885 0.089284889 1.342 4291744727
-0.18583134 0.089684077 1.348 4291744727
-0.18493545 0.089817129 1.35 4291810520
-0.18403611 0.089950196 1.3520001 4291810520
-0.18289891 0.090548977 1.3610001 4291678934
-0.25986397 0.09178932 1.3620001 4293060586
-0.25716257 0.091250174 1.3540001 4292271070
-0.2550422 0.090913206 1.3490001 4292073691
-0.25255412 0.090441458 1.342 4292205277
-0.2510148 0.090306669 1.34 4292336863
-0.24966542 0.090239279 1.3390001 4292336863
-0.24738984 0.089834914 1.3330001 4292336863
-0.24604829 0.089767523 1.332 4292336863
-0.24397305 0.089430556 1.327 4292336863
-0.24263842 0.089363165 1.3260001 4292336863
-0.24148765 0.089363165 1.3260001 4292468192
-0.23979312 0.089160986 1.3230001 4292533216
-0.23846458 0.089093596 1.322 4292401630
-0.23731729 0.089093596 1.322 4292204765
-0.23581271 0.088958807 1.3200001 4289902010
-0.23448937 0.088891417 1.319 4284900202
-0.23334467 0.088891417 1.319 4285294446
-0.23184788 0.088756628 1.317 4289767087
-0.23070493 0.088756628 1.317 4293122017
-0.22938767 0.088689238 1.3160001 4292858075
-0.22789872 0.088554449 1.314 4291538879
-0.22675836 0.088554449 1.314 4289824410
-0.22544628 0.088487051 1.3130001 4289626004
-0.22413598 0.088419661 1.312 4290548390
-0.22282739 0.08835227 1.3110001 4292918221
-0.22168964 0.08835227 1.3110001 4294300644
-0.22055189 0.08835227 1.3110001 4293906143
-0.21941414 0.08835227 1.3110001 4292195268
-0.21844289 0.088419661 1.312 4290024356
-0.21730426 0.088419661 1.312 4289893540
-0.21616565 0.088419661 1.312 4290619573
-0.21502703 0.088419661 1.312 4292266450
-0.21405143 0.088487051 1.3130001 4292531675
-0.21291195 0.088487051 1.3130001 4292203993
-0.21177246 0.088487051 1.3130001 4292270043
-0.21079341 0.088554449 1.314 4292204507
-0.20965305 0.088554449 1.314 4292204763
-0.20851269 0.088554449 1.314 4292205020
-0.20753016 0.08862184 1.3150001 4292139484
-0.20638894 0.08862184 1.3150001 4292205020
-0.20540379 0.088689238 1.3160001 4292139483
-0.20441692 0.088756628 1.317 4292073691
-0.20342831 0.088824019 1.3180001 4292073691
-0.20259145 0.088958807 1.3200001 4292007898
-0.20144588 0.088958807 1.3200001 4291942105
-0.20045206 0.089026198 1.3210001 4291942105
-0.19960739 0.089160986 1.3230001 4291942105
-0.19845922 0.089160986 1.3230001 4291876312
-0.19746019 0.089228377 1.3240001 4291876312
-0.19660771 0.089363165 1.3260001 4291942105
-0.19560434 0.089430556 1.327 4291876312
-0.1944527 0.089430556 1.327 4291876312
-0.1935924 0.089565344 1.3290001 4291942105
-0.19258383 0.089632735 1.33 4291942105
-0.19157353 0.089700133 1.3310001 4291876312
-0.19084761 0.089902312 1.3340001 4291810519
-0.18983209 0.089969702 1.335 4291810519
-0.18881483 0.090037093 1.3360001 4291876312
-0.1883577 0.09037406 1.3410001 4291876312
-0.18733349 0.090441458 1.342 4291810520
-0.18616885 0.090441458 1.342 4291810520
-0.18583134 0.090845816 1.348 4291810520
-0.18389998 0.091047995 1.3510001 4291810520
-0.18299803 0.091182776 1.353 4291744727
-0.25716257 0.092417084 1.3540001 4291810519
-0.25523123 0.092144057 1.35 4292007898
-0.25255412 0.091598026 1.342 4292205277
-0.25120211 0.091529764 1.3410001 4292271070
-0.24966542 0.091393262 1.3390001 4292336863
-0.24738984 0.090983726 1.3330001 4292336863
-0.24604829 0.090915471 1.332 4292402656
-0.24397305 0.090574197 1.327 4292336863
-0.24263842 0.090505943 1.3260001 4292336863
-0.24148765 0.090505943 1.3260001 4292336863
-0.23979312 0.090301178 1.3230001 4292599009
-0.23846458 0.090232931 1.322 4292270558
-0.23731729 0.090232931 1.322 4292599523
-0.23581271 0.090096414 1.3200001 4291086284
-0.23466715 0.090096414 1.3200001 4285032044
-0.23334467 0.090028167 1.319 4284899431
-0.23202395 0.089959905 1.3180001 4288385178
-0.23070493 0.08989165 1.317 4292924125
-0.22956197 0.08989165 1.317 4292264654
-0.22807215 0.08975514 1.3150001 4288182922
-0.22693092 0.08975514 1.3150001 4285021264
-0.22527459 0.089550376 1.312 4284954702
-0.22413598 0.089550376 1.312 4286073696
-0.22299735 0.089550376 1.312 4288838285
-0.22185874 0.089550376 1.312 4291273909
-0.22072011 0.089550376 1.312 4290615723
-0.2195815 0.089550376 1.312 4288179585
-0.21844289 0.089550376 1.312 4286009186
-0.21730426 0.089550376 1.312 4285221724
-0.21633041 0.089618631 1.3130001 4286014062
-0.21519092 0.089618631 1.3130001 4289503658
-0.21405143 0.089618631 1.3130001 4291939795
-0.21291195 0.089618631 1.3130001 4292400859
-0.21177246 0.089618631 1.3130001 4292335323
-0.21079341 0.089686885 1.314 4292335580
-0.20965305 0.089686885 1.314 4292270300
-0.20851269 0.089686885 1.314 4292205020
-0.20753016 0.08975514 1.3150001 4292139484
-0.20638894 0.08975514 1.3150001 4292073948
-0.20540379 0.089823402 1.3160001 4291942875
-0.20441692 0.08989165 1.317 4291942875
-0.20342831 0.089959905 1.3180001 4291942618
-0.20259145 0.090096414 1.3200001 4292007898
-0.20144588 0.090096414 1.3200001 4291942105
-0.20045206 0.090164669 1.3210001 4292007898
-0.19960739 0.090301178 1.3230001 4291942105
-0.19845922 0.090301178 1.3230001 4291876312
-0.19746019 0.090369433 1.3240001 4291876312
-0.19660771 0.090505943 1.3260001 4291942105
-0.19545694 0.090505943 1.3260001 4291876312
-0.1944527 0.090574197 1.327 4291876312
-0.1935924 0.090710707 1.3290001 4291876312
-0.19258383 0.090778962 1.33 4291942105
-0.19142959 0.090778962 1.33 4291876312
-0.19084761 0.091051988 1.3340001 4291810519
-0.18983209 0.091120236 1.335 4291810519
-0.18881483 0.09118849 1.3360001 4291810519
-0.18821724 0.091461517 1.34 4291876313
-0.18719392 0.091529764 1.3410001 4291810520
-0.18616885 0.091598026 1.342 4291810520
-0.1859692 0.09207581 1.3490001 4291810520
-0.18507244 0.092212319 1.3510001 4291810520
-0.18299803 0.092348821 1.353 4291744727
-0.25735247 0.093653105 1.355 4290560452
-0.25523123 0.093307525 1.35 4291613140
-0.25274229 0.092823707 1.3430001 4292139484
-0.25120211 0.092685476 1.3410001 4292336863
-0.24966542 0.092547245 1.3390001 4292336863
-0.24738984 0.092132539 1.3330001 4292336863
-0.24604829 0.092063427 1.332 4292336863
-0.24397305 0.091717839 1.327 4292336863
-0.24263842 0.091648728 1.3260001 4292271070
-0.24148765 0.091648728 1.3260001 4292271070
-0.23979312 0.091441378 1.3230001 4292074462
-0.23864496 0.091441378 1.3230001 4292336607
-0.23731729 0.091372259 1.322 4292665316
-0.23581271 0.091234028 1.3200001 4291875286
-0.23466715 0.091234028 1.3200001 4287203214
-0.23352158 0.091234028 1.3200001 4284570980
-0.23219998 0.091164909 1.319 4287266696
-0.23088013 0.09109579 1.3180001 4292988378
-0.2297363 0.09109579 1.3180001 4292918991
-0.22807215 0.090888441 1.3150001 4289031814
-0.22675836 0.090819329 1.314 4286064456
-0.22544628 0.090750203 1.3130001 4286259012
-0.22430681 0.090750203 1.3130001 4286982735
-0.22299735 0.090681091 1.312 4288561767
-0.22185874 0.090681091 1.312 4289482355
-0.22072011 0.090681091 1.312 4289219697
-0.2195815 0.090681091 1.312 4288430951
-0.21860938 0.090750203 1.3130001 4287840098
-0.21746989 0.090750203 1.3130001 4286921561
-0.21633041 0.090750203 1.3130001 4286135895
-0.21519092 0.090750203 1.3130001 4287061617
-0.21421446 0.090819329 1.314 4290356400
-0.21307412 0.090819329 1.314 4292267990
-0.21193376 0.090819329 1.314 4292467165
-0.21079341 0.090819329 1.314 4292204763
-0.20965305 0.090819329 1.314 4292139484
-0.20867138 0.090888441 1.3150001 4292139484
-0.20753016 0.090888441 1.3150001 4292139740
-0.20638894 0.090888441 1.3150001 4292008412
-0.20540379 0.09095756 1.3160001 4292008155
-0.20441692 0.091026679 1.317 4292073434
-0.20342831 0.09109579 1.3180001 4292073434
-0.20259145 0.091234028 1.3200001 4292007898
-0.20144588 0.091234028 1.3200001 4292007898
-0.20045206 0.09130314 1.3210001 4291942105
-0.1994565 0.091372259 1.322 4291942105
-0.19845922 0.091441378 1.3230001 4291876312
-0.19746019 0.09151049 1.3240001 4291876312
-0.19645943 0.091579609 1.325 4291942105
-0.19545694 0.091648728 1.3260001 4291942105
-0.1944527 0.091717839 1.327 4291876312
-0.1935924 0.091856077 1.3290001 4291876312
-0.19258383 0.091925189 1.33 4291876312
-0.19157353 0.091994308 1.3310001 4291810519
-0.19084761 0.092201658 1.3340001 4291744726
-0.1896899 0.092201658 1.3340001 4291744726
-0.18867351 0.092270777 1.335 4291810519
-0.18821724 0.092616357 1.34 4291810520
-0.18719392 0.092685476 1.3410001 4291810520
-0.18630758 0.092823707 1.3430001 4291810520
-0.1859692 0.093238406 1.3490001 4291810520
-0.18507244 0.093376644 1.3510001 4291810520
-0.18417223 0.093514875 1.353 4291810520
-0.25617653 0.094820879 1.355 4291547347
-0.25311866 0.094121099 1.345 4292139484
-0.25157678 0.093981139 1.3430001 4292336863
-0.25003833 0.09384118 1.3410001 4292336863
-0.24776101 0.09342131 1.335 4292271070
-0.246233 0.093281351 1.3330001 4292336863
-0.24415688 0.092931464 1.3280001 4292336863
-0.24282141 0.092861481 1.327 4292271071
-0.24148765 0.092791505 1.3260001 4292271071
-0.23997439 0.092651546 1.3240001 4292270558
-0.23864496 0.09258157 1.3230001 4292467681
-0.23749679 0.09258157 1.3230001 4292993254
-0.23599134 0.092441611 1.3210001 4292401117
-0.23484492 0.092441611 1.3210001 4288125085
-0.23369849 0.092441611 1.3210001 4284637030
-0.23237602 0.092371635 1.3200001 4286345595
-0.23123047 0.092371635 1.3200001 4292988378
-0.2299106 0.092301659 1.319 4293313493
-0.22841901 0.0921617 1.317 4290479517
-0.22710349 0.092091724 1.3160001 4286525264
-0.2257897 0.092021741 1.3150001 4286325062
-0.22464848 0.092021741 1.3150001 4287048271
-0.22333729 0.091951765 1.314 4287706458
-0.22219694 0.091951765 1.314 4288035423
-0.22105658 0.091951765 1.314 4288364644
-0.21991624 0.091951765 1.314 4288824682
-0.21877588 0.091951765 1.314 4288365927
-0.21763553 0.091951765 1.314 4286855768
-0.21665993 0.092021741 1.3150001 4285872980
-0.21551871 0.092021741 1.3150001 4286206822
-0.21437748 0.092021741 1.3150001 4289106334
-0.21323626 0.092021741 1.3150001 4292136661
-0.21209504 0.092021741 1.3150001 4292336093
-0.21111424 0.092091724 1.3160001 4292139227
-0.20997214 0.092091724 1.3160001 4292139227
-0.20883006 0.092091724 1.3160001 4292139484
-0.20784579 0.0921617 1.317 4292139484
-0.20670284 0.0921617 1.317 4292139484
-0.20555988 0.0921617 1.317 4292139484
-0.20457213 0.092231676 1.3180001 4292139227
-0.20358264 0.092301659 1.319 4292139484
-0.20274492 0.092441611 1.3210001 4292139484
-0.20159848 0.092441611 1.3210001 4292073691
-0.2006038 0.092511594 1.322 4292007898
-0.19960739 0.09258157 1.3230001 4291876312
-0.19860922 0.092651546 1.3240001 4291876312
-0.19746019 0.092651546 1.3240001 4291942105
-0.19660771 0.092791505 1.3260001 4291942105
-0.19560434 0.092861481 1.327 4291942105
-0.1944527 0.092861481 1.327 4291942105
-0.19373806 0.093071416 1.33 4291876312
-0.19272864 0.093141399 1.3310001 4291876312
-0.19157353 0.093141399 1.3310001 4291810519
-0.19099067 0.09342131 1.335 4291744726
-0.18997428 0.093491286 1.3360001 4291744726
-0.18895617 0.093561269 1.337 4291744726
-0.18849815 0.093911164 1.342 4291810519
-0.1874731 0.093981139 1.3430001 4291810520
-0.18658502 0.094121099 1.345 4291810520
-0.18507244 0.094540969 1.3510001 4291810520
-0.18417223 0.09468092 1.353 4291810520
-0.25330687 0.095351093 1.3460001 4292205277
-0.25176409 0.095209412 1.3440001 4292336863
-0.2502248 0.095067732 1.342 4292336864
-0.24776101 0.094571851 1.335 4292271071
-0.24641772 0.094501011 1.3340001 4292271071
-0.24415688 0.09407597 1.3280001 4292336864
-0.24282141 0.094005123 1.327 4292336864
-0.24148765 0.093934283 1.3260001 4292336864
-0.23997439 0.093792602 1.3240001 4292467680
-0.23864496 0.093721762 1.3230001 4292204765
-0.23749679 0.093721762 1.3230001 4292336351
-0.23616999 0.09365093 1.322 4292402657
-0.23502269 0.09365093 1.322 4289309359
-0.23369849 0.093580082 1.3210001 4284308578
-0.23237602 0.093509242 1.3200001 4285952119
-0.23105529 0.093438409 1.319 4291543241
-0.2299106 0.093438409 1.319 4293318625
-0.22859247 0.093367562 1.3180001 4292066248
-0.22727607 0.093296722 1.317 4288180612
-0.2257897 0.093155041 1.3150001 4285938260
-0.22464848 0.093155041 1.3150001 4286656336
-0.22350726 0.093155041 1.3150001 4287377493
-0.22236603 0.093155041 1.3150001 4287903837
-0.22122481 0.093155041 1.3150001 4288562023
-0.22008359 0.093155041 1.3150001 4288628586
-0.21894237 0.093155041 1.3150001 4288103782
-0.21780115 0.093155041 1.3150001 4286987611
-0.21665993 0.093155041 1.3150001 4286135895
-0.21551871 0.093155041 1.3150001 4287324533
-0.21454051 0.093225889 1.3160001 4290355631
-0.21339841 0.093225889 1.3160001 4292399064
-0.21225633 0.093225889 1.3160001 4292467166
-0.21127467 0.093296722 1.317 4292205277
-0.2101317 0.093296722 1.317 4292139484
-0.20898876 0.093296722 1.317 4292139227
-0.20800361 0.093367562 1.3180001 4292139484
-0.20685978 0.093367562 1.3180001 4292205277
-0.20571595 0.093367562 1.3180001 4292139741
-0.20472734 0.093438409 1.319 4292074205
-0.20373701 0.093509242 1.3200001 4292073948
-0.20289838 0.09365093 1.322 4292139484
-0.2017511 0.09365093 1.322 4292073691
-0.2006038 0.09365093 1.322 4292007898
-0.19975825 0.093792602 1.3240001 4291942105
-0.19860922 0.093792602 1.3240001 4291942105
-0.19760932 0.09386345 1.325 4291942105
-0.19660771 0.093934283 1.3260001 4291942105
-0.19560434 0.094005123 1.327 4292007898
-0.19459923 0.09407597 1.3280001 4292007898
-0.19373806 0.094217643 1.33 4291942105
-0.19258383 0.094217643 1.33 4291876312
-0.19157353 0.094288491 1.3310001 4291876312
-0.19099067 0.094571851 1.335 4291810519
-0.18997428 0.094642684 1.3360001 4291744727
-0.18909749 0.094784372 1.3380001 4291744727
-0.18863863 0.095138572 1.3430001 4291810520
-0.1876127 0.095209412 1.3440001 4291810520
-0.18672375 0.095351093 1.3460001 4291810520
-0.18520944 0.095776133 1.3520001 4291810520
-0.25368327 0.096654512 1.348 4292139485
-0.25195143 0.096439406 1.345 4292271071
-0.25041127 0.096296005 1.3430001 4292336864
-0.24794662 0.095794082 1.3360001 4292271071
-0.24660243 0.095722385 1.335 4292336864
-0.24434073 0.095292173 1.3290001 4292336864
-0.24300438 0.095220469 1.3280001 4292336864
-0.24166977 0.095148765 1.327 4292336864
-0.23997439 0.094933659 1.3240001 4292270558
-0.23882537 0.094933659 1.3240001 4292270301
-0.23749679 0.094861962 1.3230001 4292599009
-0.23616999 0.094790258 1.322 4292927461
-0.23484492 0.094718553 1.3210001 4290558400
-0.23369849 0.094718553 1.3210001 4284504930
-0.23237602 0.094646856 1.3200001 4285162859
-0.23123047 0.094646856 1.3200001 4289504428
-0.2300849 0.094646856 1.3200001 4293384931
-0.22859247 0.094503447 1.3180001 4293777122
-0.22727607 0.09443175 1.317 4293114317
-0.2259614 0.094360046 1.3160001 4290740893
-0.2248193 0.094360046 1.3160001 4288432490
-0.22350726 0.094288342 1.3150001 4287969116
-0.22236603 0.094288342 1.3150001 4287705431
-0.22122481 0.094288342 1.3150001 4287837530
-0.22008359 0.094288342 1.3150001 4287773534
-0.21894237 0.094288342 1.3150001 4287709281
-0.21780115 0.094288342 1.3150001 4287448419
-0.21682468 0.094360046 1.3160001 4288241784
-0.2156826 0.094360046 1.3160001 4291206832
-0.21454051 0.094360046 1.3160001 4292922070
-0.21339841 0.094360046 1.3160001 4292728541
-0.21241762 0.09443175 1.317 4292204507
-0.21127467 0.09443175 1.317 4292139484
-0.2101317 0.09443175 1.317 4292073691
-0.20914744 0.094503447 1.3180001 4292205020
-0.20800361 0.094503447 1.3180001 4292205277
-0.20685978 0.094503447 1.3180001 4292271070
-0.20587203 0.094575152 1.319 4292271070
-0.20488256 0.094646856 1.3200001 4292270813
-0.20373701 0.094646856 1.3200001 4292139484
-0.20274492 0.094718553 1.3210001 4292073691
-0.20190372 0.094861962 1.3230001 4292073691
-0.20075555 0.094861962 1.3230001 4292073691
-0.19975825 0.094933659 1.3240001 4292007898
-0.19875923 0.095005363 1.325 4292007898
-0.19760932 0.095005363 1.325 4292007898
-0.19675598 0.095148765 1.327 4292007898
-0.19545694 0.095077068 1.3260001 4292007898
-0.1944527 0.095148765 1.327 4292007898
-0.19373806 0.09536387 1.33 4291942105
-0.19272864 0.095435575 1.3310001 4291876312
-0.19171746 0.095507279 1.332 4291876313
-0.19113374 0.095794082 1.3360001 4291810520
-0.19011649 0.095865794 1.337 4291810520
-0.18923882 0.096009195 1.3390001 4291744727
-0.18877909 0.096367702 1.3440001 4291810520
-0.18775228 0.096439406 1.345 4291810520
-0.18686247 0.096582808 1.3470001 4291810520
-0.25424784 0.09803395 1.3510001 4292073692
-0.25270072 0.09788882 1.3490001 4292271071
-0.2509706 0.097671129 1.3460001 4292271071
-0.24850337 0.097163178 1.3390001 4292271071
-0.24697189 0.097018048 1.337 4292336864
-0.24544385 0.096872918 1.335 4292336864
-0.24318737 0.096437536 1.3290001 4292271071
-0.24185188 0.096364975 1.3280001 4292205278
-0.24015564 0.096147284 1.325 4292204765
-0.23900574 0.096147284 1.325 4292336351
-0.23767634 0.096074715 1.3240001 4292205278
-0.23616999 0.095929593 1.322 4292534243
-0.23502269 0.095929593 1.322 4290823367
-0.23387539 0.095929593 1.322 4285362291
-0.23255207 0.095857024 1.3210001 4284638055
-0.23140563 0.095857024 1.3210001 4287467154
-0.23025921 0.095857024 1.3210001 4292073177
-0.22893934 0.095784463 1.3200001 4292993509
-0.22762121 0.095711902 1.319 4293124069
-0.22630481 0.095639333 1.3180001 4293055966
-0.22516099 0.095639333 1.3180001 4291999941
-0.2238472 0.095566772 1.317 4289363859
-0.22270425 0.095566772 1.317 4286990691
-0.22156128 0.095566772 1.317 4286331478
-0.22041832 0.095566772 1.317 4286266711
-0.21927537 0.095566772 1.317 4287125869
-0.21813241 0.095566772 1.317 4289170072
-0.21698946 0.095566772 1.317 4291673800
-0.21601038 0.095639333 1.3180001 4292991713
-0.21486656 0.095639333 1.3180001 4292533216
-0.21372274 0.095639333 1.3180001 4292468192
-0.21257891 0.095639333 1.3180001 4292205533
-0.21159551 0.095711902 1.319 4291942875
-0.21045081 0.095711902 1.319 4292073948
-0.20930611 0.095711902 1.319 4292270813
-0.20831925 0.095784463 1.3200001 4292336606
-0.20717369 0.095784463 1.3200001 4292402655
-0.20602812 0.095784463 1.3200001 4292402399
-0.20503777 0.095857024 1.3210001 4292336606
-0.20389134 0.095857024 1.3210001 4292205277
-0.20289838 0.095929593 1.322 4292139484
-0.20190372 0.096002154 1.3230001 4292073691
-0.20075555 0.096002154 1.3230001 4292073691
-0.19990912 0.096147284 1.325 4292073691
-0.19875923 0.096147284 1.325 4292007898
-0.19760932 0.096147284 1.325 4292007898
-0.19660771 0.096219845 1.3260001 4292007898
-0.19560434 0.096292406 1.327 4292007898
-0.19459923 0.096364975 1.3280001 4292007898
-0.19388375 0.096582666 1.3310001 4292007898
-0.19287343 0.096655227 1.332 4291942105
-0.19186138 0.096727788 1.3330001 4291876313
-0.1912768 0.097018048 1.337 4291876313
-0.19040087 0.097163178 1.3390001 4291810520
-0.18938015 0.097235739 1.34 4291810520
-0.18891953 0.097598568 1.345 4291810520
-0.18803146 0.09774369 1.3470001 4291810520
-0.1870012 0.097816259 1.348 4291810520
-0.25270072 0.099051423 1.3490001 4292205278
-0.2511571 0.098904565 1.3470001 4292205278
-0.24850337 0.098317169 1.3390001 4292139485
-0.24715661 0.098243736 1.3380001 4292271071
-0.24562773 0.098096885 1.3360001 4292336864
-0.24337037 0.097656325 1.33 4292271071
-0.24203399 0.097582906 1.3290001 4292008669
-0.24033688 0.097362623 1.3260001 4291942876
-0.23882537 0.097215772 1.3240001 4292074462
-0.23767634 0.097215772 1.3240001 4292271071
-0.23634863 0.097142346 1.3230001 4292730852
-0.23502269 0.097068928 1.322 4291743443
-0.23387539 0.097068928 1.322 4288651172
-0.23255207 0.096995495 1.3210001 4285361778
-0.23140563 0.096995495 1.3210001 4287598740
-0.23025921 0.096995495 1.3210001 4291612113
-0.22893934 0.09692207 1.3200001 4292927717
-0.22779378 0.09692207 1.3200001 4293189862
-0.22630481 0.096775219 1.3180001 4293648103
-0.22516099 0.096775219 1.3180001 4294105830
-0.22401716 0.096775219 1.3180001 4293640403
-0.22270425 0.096701793 1.317 4290608537
-0.22156128 0.096701793 1.317 4287515238
-0.22041832 0.096701793 1.317 4287516521
-0.21927537 0.096701793 1.317 4289954712
-0.21813241 0.096701793 1.317 4292722894
-0.21698946 0.096701793 1.317 4293450467
-0.21601038 0.096775219 1.3180001 4292861153
-0.21486656 0.096775219 1.3180001 4292336092
-0.21372274 0.096775219 1.3180001 4292270556
-0.21257891 0.096775219 1.3180001 4292205020
-0.21159551 0.096848652 1.319 4292270813
-0.21045081 0.096848652 1.319 4292270813
-0.2094648 0.09692207 1.3200001 4292271070
-0.20831925 0.09692207 1.3200001 4292271070
-0.20717369 0.09692207 1.3200001 4292271583
-0.20602812 0.09692207 1.3200001 4292337119
-0.20503777 0.096995495 1.3210001 4292336863
-0.20389134 0.096995495 1.3210001 4292336863
-0.20289838 0.097068928 1.322 4292205277
-0.20190372 0.097142346 1.3230001 4292139484
-0.20075555 0.097142346 1.3230001 4292073691
-0.19960739 0.097142346 1.3230001 4292073691
-0.19860922 0.097215772 1.3240001 4292007898
-0.19746019 0.097215772 1.3240001 4292007898
-0.19660771 0.097362623 1.3260001 4292073691
-0.19560434 0.097436048 1.327 4292073691
-0.19459923 0.097509481 1.3280001 4292073691
-0.19388375 0.097729757 1.3310001 4292007898
-0.19287343 0.097803183 1.332 4291942105
-0.19186138 0.097876601 1.3330001 4291876313
-0.1912768 0.09817031 1.337 4291876313
-0.19040087 0.098317169 1.3390001 4291876313
-0.18938015 0.098390587 1.34 4291810520
-0.18891953 0.098757721 1.345 4291810520
-0.18803146 0.098904565 1.3470001 4291810520
-0.24943133 0.099842586 1.3440001 4292073692
-0.24789549 0.099694014 1.342 4292139485
-0.24636312 0.099545434 1.34 4292271071
-0.24391931 0.099025413 1.3330001 4292205278
-0.24185188 0.098653987 1.3280001 4291942363
-0.24015564 0.098431118 1.325 4291613911
-0.23900574 0.098431118 1.325 4291745497
-0.23767634 0.098356828 1.3240001 4292271071
-0.23634863 0.098282546 1.3230001 4292468450
-0.23520046 0.098282546 1.3230001 4292336606
-0.23387539 0.098208256 1.322 4291415504
-0.23255207 0.098133966 1.3210001 4290757317
-0.23140563 0.098133966 1.3210001 4291217868
-0.23025921 0.098133966 1.3210001 4291744469
-0.22893934 0.098059684 1.3200001 4292270557
-0.22779378 0.098059684 1.3200001 4292467422
-0.22647651 0.097985394 1.319 4292467166
-0.22533181 0.097985394 1.319 4292729824
-0.22401716 0.097911105 1.3180001 4292926946
-0.22287333 0.097911105 1.3180001 4292136404
-0.2217295 0.097911105 1.3180001 4290820544
-0.22058569 0.097911105 1.3180001 4290294456
-0.21927537 0.097836822 1.317 4291676623
-0.21813241 0.097836822 1.317 4292730081
-0.2171542 0.097911105 1.3180001 4292664801
-0.21601038 0.097911105 1.3180001 4292336349
-0.21486656 0.097911105 1.3180001 4292270813
-0.21372274 0.097911105 1.3180001 4292270813
-0.21257891 0.097911105 1.3180001 4292336606
-0.21159551 0.097985394 1.319 4292270813
-0.21061037 0.098059684 1.3200001 4292271070
-0.2094648 0.098059684 1.3200001 4292271070
-0.20831925 0.098059684 1.3200001 4292271070
-0.20733063 0.098133966 1.3210001 4292271070
-0.20618421 0.098133966 1.3210001 4292402143
-0.20503777 0.098133966 1.3210001 4292467935
-0.20389134 0.098133966 1.3210001 4292402399
-0.20289838 0.098208256 1.322 4292205277
-0.2017511 0.098208256 1.322 4292205277
-0.2006038 0.098208256 1.322 4292073691
-0.19960739 0.098282546 1.3230001 4292073691
-0.19860922 0.098356828 1.3240001 4292139484
-0.19746019 0.098356828 1.3240001 4292073691
-0.19660771 0.098505408 1.3260001 4292073691
-0.19560434 0.09857969 1.327 4292007898
-0.1944527 0.09857969 1.327 4292007898
-0.19388375 0.098876849 1.3310001 4292007898
-0.19287343 0.098951131 1.332 4291942105
-0.19186138 0.099025413 1.3330001 4291876313
-0.1912768 0.099322572 1.337 4291876313
-0.19040087 0.099471152 1.3390001 4291876313
-0.18938015 0.099545434 1.34 4291876313
-0.18891953 0.099916875 1.345 4291876313
-0.24961691 0.10107603 1.345 4292007899
-0.24808022 0.10092573 1.3430001 4292073692
-0.24654697 0.10077543 1.3410001 4292139485
-0.24428527 0.10032453 1.335 4292139485
-0.24258035 0.10009908 1.332 4291942106
-0.24088062 0.099873632 1.3290001 4290955211
-0.23954688 0.099798486 1.3280001 4290100159
-0.23839436 0.099798486 1.3280001 4291086797
-0.23670594 0.099573039 1.325 4292205278
-0.23555604 0.099573039 1.325 4292665571
-0.23440614 0.099573039 1.325 4292665571
-0.23290414 0.099422738 1.3230001 4292402399
-0.23175597 0.099422738 1.3230001 4292205020
-0.23060781 0.099422738 1.3230001 4292468192
-0.22928621 0.099347591 1.322 4292533729
-0.22813891 0.099347591 1.322 4292401629
-0.22681992 0.099272437 1.3210001 4292730594
-0.2256735 0.099272437 1.3210001 4292795874
-0.22452706 0.099272437 1.3210001 4292598238
-0.22321154 0.099197291 1.3200001 4292795617
-0.22206597 0.099197291 1.3200001 4292532188
-0.22092041 0.099197291 1.3200001 4292466139
-0.21977486 0.099197291 1.3200001 4292795617
-0.2186293 0.099197291 1.3200001 4292993252
-0.21748373 0.099197291 1.3200001 4292664801
-0.21633817 0.099197291 1.3200001 4292533728
-0.21519262 0.099197291 1.3200001 4292336606
-0.21404704 0.099197291 1.3200001 4292336863
-0.21290149 0.099197291 1.3200001 4292336863
-0.21191634 0.099272437 1.3210001 4292271070
-0.21076992 0.099272437 1.3210001 4292271070
-0.20962349 0.099272437 1.3210001 4292336863
-0.20863487 0.099347591 1.322 4292271070
-0.20748757 0.099347591 1.322 4292271070
-0.20634028 0.099347591 1.322 4292402399
-0.20519298 0.099347591 1.322 4292336606
-0.20404568 0.099347591 1.322 4292205277
-0.20289838 0.099347591 1.322 4292205277
-0.20190372 0.099422738 1.3230001 4292205277
-0.20075555 0.099422738 1.3230001 4292205020
-0.19975825 0.099497885 1.3240001 4292139484
-0.19875923 0.099573039 1.325 4292139484
-0.19760932 0.099573039 1.325 4292205277
-0.19690424 0.099798486 1.3280001 4292073691
-0.19575173 0.099798486 1.3280001 4292007898
-0.19474578 0.099873632 1.3290001 4292007898
-0.19402941 0.10009908 1.332 4292007898
-0.19301823 0.10017423 1.3330001 4291942105
-0.19214925 0.10032453 1.335 4291942106
-0.19156292 0.10062514 1.3390001 4291942106
-0.19054309 0.10070028 1.34 4291942106
-0.18966281 0.10085058 1.342 4291942106
-0.24826494 0.10215916 1.3440001 4292007899
-0.24673085 0.10200715 1.342 4292073692
-0.24446829 0.10155108 1.3360001 4292073692
-0.24276248 0.10132305 1.3330001 4291941850
-0.2410619 0.10109501 1.33 4290625733
-0.23972724 0.101019 1.3290001 4288586150
-0.23839436 0.10094299 1.3280001 4288849322
-0.23688458 0.10079097 1.3260001 4291283663
-0.23573382 0.10079097 1.3260001 4292599778
-0.23440614 0.10071496 1.325 4292336606
-0.23308021 0.10063894 1.3240001 4291481297
-0.23193116 0.10063894 1.3240001 4291612883
-0.23060781 0.10056293 1.3230001 4292205020
-0.22928621 0.10048693 1.322 4292599778
-0.22813891 0.10048693 1.322 4292468192
-0.22699162 0.10048693 1.322 4292402143
-0.22584432 0.10048693 1.322 4292664801
-0.22452706 0.10041091 1.3210001 4292927716
-0.22338064 0.10041091 1.3210001 4292993253
-0.2222342 0.10041091 1.3210001 4292927460
-0.22108777 0.10041091 1.3210001 4292993253
-0.21994135 0.10041091 1.3210001 4293125095
-0.21879491 0.10041091 1.3210001 4293125352
-0.21764849 0.10041091 1.3210001 4292796644
-0.21650206 0.10041091 1.3210001 4292402399
-0.21535563 0.10041091 1.3210001 4292468192
-0.2142092 0.10041091 1.3210001 4292402656
-0.21306278 0.10041091 1.3210001 4292336863
-0.21207677 0.10048693 1.322 4292271070
-0.21092947 0.10048693 1.322 4292402399
-0.20978217 0.10048693 1.322 4292336606
-0.2087927 0.10056293 1.3230001 4291941848
-0.20748757 0.10048693 1.322 4291481297
-0.20634028 0.10048693 1.322 4291612627
-0.20534821 0.10056293 1.3230001 4291941593
-0.20420004 0.10056293 1.3230001 4292204764
-0.20305188 0.10056293 1.3230001 4292336350
-0.20190372 0.10056293 1.3230001 4292205020
-0.20075555 0.10056293 1.3230001 4292205020
-0.19990912 0.10071496 1.325 4292205020
-0.19890924 0.10079097 1.3260001 4292270813
-0.19775847 0.10079097 1.3260001 4292205277
-0.19690424 0.10094299 1.3280001 4292139484
-0.19589914 0.101019 1.3290001 4292007898
-0.1948923 0.10109501 1.33 4292007898
-0.19417506 0.10132305 1.3330001 4292007898
-0.19316304 0.10139906 1.3340001 4292007898
-0.19214925 0.10147507 1.335 4292007899
-0.191706 0.10185513 1.34 4292007899
-0.19068527 0.10193113 1.3410001 4291942106
-0.18966281 0.10200715 1.342 4291876313
-0.2452002 0.10300997 1.34 4292073692
-0.24385518 0.1029331 1.3390001 4292139485
-0.24160562 0.10247186 1.3330001 4291349969
-0.24044879 0.10247186 1.3330001 4288586662
-0.23911244 0.10239498 1.332 4287796889
-0.23742051 0.10216437 1.3290001 4289770679
-0.23626713 0.10216437 1.3290001 4292073691
-0.23493686 0.1020875 1.3280001 4291481554
-0.23343228 0.10193375 1.3260001 4288981163
-0.23228151 0.10193375 1.3260001 4288784041
-0.23095644 0.10185688 1.325 4291086539
-0.22963311 0.10178 1.3240001 4291612883
-0.22848408 0.10178 1.3240001 4291349711
-0.22733502 0.10178 1.3240001 4291283662
-0.22601517 0.10170313 1.3230001 4292006871
-0.224867 0.10170313 1.3230001 4292730594
-0.22371884 0.10170313 1.3230001 4292533215
-0.22257067 0.10170313 1.3230001 4292204250
-0.22158986 0.10178 1.3240001 4292204250
-0.22044083 0.10178 1.3240001 4292401629
-0.21929181 0.10178 1.3240001 4292533215
-0.21814276 0.10178 1.3240001 4292599265
-0.21682985 0.10170313 1.3230001 4292599778
-0.21568169 0.10170313 1.3230001 4292731621
-0.21453352 0.10170313 1.3230001 4292863207
-0.21338536 0.10170313 1.3230001 4292929000
-0.21223719 0.10170313 1.3230001 4292600035
-0.21108903 0.10170313 1.3230001 4291941592
-0.20978217 0.10162625 1.322 4290954184
-0.2087927 0.10170313 1.3230001 4289309359
-0.20764454 0.10170313 1.3230001 4288322464
-0.20649637 0.10170313 1.3230001 4288980651
-0.20550342 0.10178 1.3240001 4290823112
-0.20435438 0.10178 1.3240001 4292072922
-0.20335883 0.10185688 1.325 4292401630
-0.20236154 0.10193375 1.3260001 4292270557
-0.20121078 0.10193375 1.3260001 4292205020
-0.20036174 0.1020875 1.3280001 4292205020
-0.19920924 0.1020875 1.3280001 4292270813
-0.19820589 0.10216437 1.3290001 4292139484
-0.19734906 0.10231812 1.3310001 4292073691
-0.19634135 0.10239498 1.332 4292073691
-0.19518538 0.10239498 1.332 4292073691
-0.19461207 0.10270248 1.3360001 4292007898
-0.19359744 0.10277935 1.337 4292007898
-0.19258104 0.10285623 1.3380001 4292007899
-0.24538319 0.10424255 1.3410001 4292007899
-0.24403729 0.10416482 1.34 4292139485
-0.24178687 0.10369841 1.3340001 4292073692
-0.24062917 0.10369841 1.3340001 4290428867
-0.23929194 0.10362067 1.3330001 4287468181
-0.23759918 0.10338747 1.33 4288520869
-0.23626713 0.10330974 1.3290001 4291152589
-0.23511377 0.10330974 1.3290001 4290363073
-0.23360832 0.10315426 1.327 4287073423
-0.23228151 0.10307653 1.3260001 4287468181
-0.23113075 0.10307653 1.3260001 4290560195
-0.22963311 0.10292105 1.3240001 4290494402
-0.22848408 0.10292105 1.3240001 4287533717
-0.22733502 0.10292105 1.3240001 4286414980
-0.22618599 0.10292105 1.3240001 4289769909
-0.22503696 0.10292105 1.3240001 4292204250
-0.22388794 0.10292105 1.3240001 4291612113
-0.22273889 0.10292105 1.3240001 4289967288
-0.22158986 0.10292105 1.3240001 4288651428
-0.22044083 0.10292105 1.3240001 4288717221
-0.21929181 0.10292105 1.3240001 4289111979
-0.21814276 0.10292105 1.3240001 4289506737
-0.21699373 0.10292105 1.3240001 4290428095
-0.21584471 0.10292105 1.3240001 4291481297
-0.21453352 0.10284332 1.3230001 4292336606
-0.21338536 0.10284332 1.3230001 4292797414
-0.21223719 0.10284332 1.3230001 4292007641
-0.21108903 0.10284332 1.3230001 4289243822
-0.20994087 0.10284332 1.3230001 4286150782
-0.2087927 0.10284332 1.3230001 4285492852
-0.20764454 0.10284332 1.3230001 4286019453
-0.20649637 0.10284332 1.3230001 4287796120
-0.20550342 0.10292105 1.3240001 4290493890
-0.20450872 0.10299879 1.325 4292072922
-0.20335883 0.10299879 1.325 4292401630
-0.20236154 0.10307653 1.3260001 4292401630
-0.20121078 0.10307653 1.3260001 4292335837
-0.20036174 0.103232 1.3280001 4292204763
-0.19920924 0.103232 1.3280001 4292139227
-0.19820589 0.10330974 1.3290001 4292205020
-0.19734906 0.10346521 1.3310001 4292205020
-0.19634135 0.10354294 1.332 4292139227
-0.19533192 0.10362067 1.3330001 4292073691
-0.19461207 0.10385387 1.3360001 4292007898
-0.19359744 0.10393161 1.337 4292007898
-0.19258104 0.10400935 1.3380001 4292007899
-0.24214938 0.10500527 1.3360001 4292402657
-0.24080954 0.10492668 1.335 4291481555
-0.23947145 0.10484809 1.3340001 4288390054
-0.23777781 0.10461229 1.3310001 4287271572
-0.23644494 0.10453369 1.33 4289311155
-0.23511377 0.1044551 1.3290001 4289903035
-0.23360832 0.1042979 1.327 4286744458
-0.23245668 0.1042979 1.327 4287336595
-0.23113075 0.10421931 1.3260001 4291218125
-0.22980654 0.10414071 1.325 4290560195
-0.22865663 0.10414071 1.325 4286809224
-0.22750674 0.10414071 1.325 4284506469
-0.22618599 0.10406211 1.3240001 4287006603
-0.22503696 0.10406211 1.3240001 4291809492
-0.22388794 0.10406211 1.3240001 4290954183
-0.22273889 0.10406211 1.3240001 4286743431
-0.22175723 0.10414071 1.325 4283519574
-0.22060733 0.10414071 1.325 4284309090
-0.21945743 0.10414071 1.325 4286085501
-0.21830752 0.10414071 1.325 4286414466
-0.21699373 0.10406211 1.3240001 4285624950
-0.21584471 0.10406211 1.3240001 4286348929
-0.21469568 0.10406211 1.3240001 4289704886
-0.21338536 0.10398352 1.3230001 4292138714
-0.21223719 0.10398352 1.3230001 4290296253
-0.21108903 0.10398352 1.3230001 4286282624
-0.20994087 0.10398352 1.3230001 4284374371
-0.2087927 0.10398352 1.3230001 4286216575
-0.20780148 0.10406211 1.3240001 4289308846
-0.20665245 0.10406211 1.3240001 4291085514
-0.20550342 0.10406211 1.3240001 4292072665
-0.20450872 0.10414071 1.325 4292664802
-0.20335883 0.10414071 1.325 4292533216
-0.20236154 0.10421931 1.3260001 4292335837
-0.20121078 0.10421931 1.3260001 4292335837
-0.20036174 0.1043765 1.3280001 4292204763
-0.19935925 0.1044551 1.3290001 4292139227
-0.19820589 0.1044551 1.3290001 4292205020
-0.19749732 0.10469089 1.332 4292205020
-0.19634135 0.10469089 1.332 4292139484
-0.19533192 0.10476948 1.3330001 4292073691
-0.19461207 0.10500527 1.3360001 4292007899
-0.19359744 0.10508388 1.337 4292007899
-0.24001001 0.10623614 1.337 4290428867
-0.23831373 0.10599776 1.3340001 4287599768
-0.23697826 0.1059183 1.3330001 4287994526
-0.23582141 0.1059183 1.3330001 4287731353
-0.23413646 0.10567992 1.33 4286349700
-0.23280703 0.10560046 1.3290001 4287928475
-0.23165365 0.10560046 1.3290001 4292007641
-0.23015341 0.10544155 1.327 4291546833
-0.22900178 0.10544155 1.327 4287861912
-0.22785014 0.10544155 1.327 4283914588
-0.22652768 0.10536209 1.3260001 4286151808
-0.2253769 0.10536209 1.3260001 4291152332
-0.22422613 0.10536209 1.3260001 4291020746
-0.22307536 0.10536209 1.3260001 4287007117
-0.2219246 0.10536209 1.3260001 4283453781
-0.22094032 0.10544155 1.327 4284769641
-0.21978869 0.10544155 1.327 4287796119
-0.21863705 0.10544155 1.327 4288322720
-0.21732153 0.10536209 1.3260001 4285691513
-0.21600772 0.10528263 1.325 4283914845
-0.21485783 0.10528263 1.325 4285953915
-0.21370792 0.10528263 1.325 4289901239
-0.21255803 0.10528263 1.325 4289637810
-0.21140812 0.10528263 1.325 4285822073
-0.21025823 0.10528263 1.325 4283782747
-0.20910832 0.10528263 1.325 4285164400
-0.20795843 0.10528263 1.325 4288256671
-0.20680852 0.10528263 1.325 4290559171
-0.20581384 0.10536209 1.3260001 4291809239
-0.20481741 0.10544155 1.327 4292335582
-0.20366578 0.10544155 1.327 4292335837
-0.20266676 0.10552101 1.3280001 4292335837
-0.20151424 0.10552101 1.3280001 4292401630
-0.20036174 0.10552101 1.3280001 4292270301
-0.19950926 0.10567992 1.33 4292204765
-0.19850416 0.10575938 1.3310001 4292205021
-0.19779387 0.10599776 1.3340001 4292139484
-0.19678356 0.10607722 1.335 4292139484
-0.19562499 0.10607722 1.335 4292139484
-0.23849238 0.10722775 1.335 4288981421
