# .PCD v0.7 - Point Cloud Data file format
VERSION 0.7
FIELDS x y z rgba
SIZE 4 4 4 4
TYPE F F F U
COUNT 1 1 1 1
WIDTH 1083
HEIGHT 1
VIEWPOINT 0 0 0 1 0 0 0
POINTS 1083
DATA ascii
-0.14523087 0.00024234575 1.4200001 4294047473
-0.14389712 0.00024217508 1.419 4294046960
-0.1425651 0.0002420044 1.4180001 4293915631
-0.09573435 0.00024183374 1.4170001 4294113008
-0.094638005 0.00024217508 1.419 4294113265
-0.093406521 0.00024217508 1.419 4294113265
-0.09230496 0.00024251641 1.4210001 4294113265
-0.091071747 0.00024251641 1.4210001 4293850351
-0.089838535 0.00024251641 1.4210001 4293652973
-0.088730022 0.00024285774 1.4230001 4293455596
-0.087556563 0.00024302841 1.424 4293192424
-0.086320743 0.00024302841 1.424 4292863459
-0.085383676 0.00024388173 1.429 4292600287
-0.084202409 0.0002440524 1.4300001 4292468703
-0.083077408 0.00024439374 1.432 4292402910
-0.082120389 0.00024524707 1.437 4292402657
-0.08092957 0.00024541773 1.4380001 4292402657
-0.079792425 0.00024575906 1.4400001 4292402657
-0.0787609 0.00024644172 1.4440001 4292534243
-0.18076737 0.0014950474 1.4480001 4293653242
-0.17938673 0.0014940149 1.447 4293653241
-0.17800787 0.0014929824 1.4460001 4293455862
-0.17663072 0.0014919499 1.4450001 4293324275
-0.17537668 0.0014919499 1.4450001 4293258481
-0.17412265 0.0014919499 1.4450001 4293389553
-0.17274895 0.0014909174 1.4440001 4293455346
-0.17161456 0.0014919499 1.4450001 4293521138
-0.17036052 0.0014919499 1.4450001 4293652724
-0.16898943 0.0014909174 1.4440001 4293586931
-0.16762011 0.0014898849 1.4430001 4293455345
-0.16625251 0.0014888523 1.442 4293192173
-0.16511549 0.0014898849 1.4430001 4292797415
-0.16374964 0.0014888523 1.442 4292402657
-0.16238549 0.0014878198 1.4410001 4292007899
-0.16113493 0.0014878198 1.4410001 4291744726
-0.15977341 0.0014867875 1.4400001 4291744726
-0.15852371 0.0014867875 1.4400001 4292007898
-0.15694635 0.0014836899 1.437 4292271070
-0.15559091 0.0014826574 1.4360001 4292402655
-0.15423718 0.001481625 1.4350001 4292534240
-0.15245876 0.0014764626 1.4300001 4292666082
-0.15079473 0.0014723325 1.4260001 4292863204
-0.14913768 0.0014682026 1.4220001 4293060839
-0.14779957 0.0014671701 1.4210001 4293389290
-0.14646322 0.0014661376 1.4200001 4293652461
-0.14492404 0.0014630401 1.4170001 4293850097
-0.14359289 0.0014620076 1.416 4293981683
-0.14236403 0.0014620076 1.416 4294047476
-0.14103547 0.0014609752 1.4150001 4294113268
-0.13980746 0.0014609752 1.4150001 4294113010
-0.13857946 0.0014609752 1.4150001 4293981679
-0.13744853 0.0014620076 1.416 4293915629
-0.13621965 0.0014620076 1.416 4293784300
-0.1350861 0.0014630401 1.4170001 4293849580
-0.13395083 0.0014640725 1.4180001 4293915115
-0.13272022 0.0014640725 1.4180001 4293849579
-0.13139687 0.0014630401 1.4170001 4293849323
-0.12989156 0.0014599427 1.414 4293849578
-0.12857343 0.0014589102 1.4130001 4293849578
-0.10895309 0.0014589102 1.4130001 4294046702
-0.1078793 0.0014609752 1.4150001 4294046702
-0.10680203 0.0014630401 1.4170001 4294046702
-0.1056468 0.0014640725 1.4180001 4294046702
-0.10441618 0.0014640725 1.4180001 4294046702
-0.10311281 0.0014630401 1.4170001 4293981678
-0.10181117 0.0014620076 1.416 4293981679
-0.10058229 0.0014620076 1.416 4293981680
-0.099283256 0.0014609752 1.4150001 4294178803
-0.097985946 0.0014599427 1.414 4294310389
-0.096758805 0.0014599427 1.414 4294244852
-0.095531672 0.0014599427 1.414 4294178805
-0.094371229 0.0014609752 1.4150001 4294047476
-0.093143217 0.0014609752 1.4150001 4293850353
-0.09211009 0.0014640725 1.4180001 4293718511
-0.090879478 0.0014640725 1.4180001 4293324011
-0.089712091 0.0014651051 1.419 4293060839
-0.088667676 0.0014682026 1.4220001 4292863206
-0.087495074 0.0014692351 1.4230001 4292665828
-0.086381368 0.0014713 1.4250001 4292534241
-0.08544343 0.0014764626 1.4300001 4292402655
-0.084320173 0.0014785274 1.432 4292336864
-0.083193444 0.0014805924 1.434 4292271071
-0.082463272 0.0014898849 1.4430001 4292271071
-0.081379801 0.0014929824 1.4460001 4292336864
-0.08029113 0.0014960798 1.4490001 4292336864
-0.079251789 0.0015002098 1.4530001 4292534243
-0.18076737 0.0027429704 1.4480001 4293587448
-0.17938673 0.0027410761 1.447 4293455861
-0.17800787 0.0027391817 1.4460001 4293258225
-0.17663072 0.0027372874 1.4450001 4293126639
-0.17537668 0.0027372874 1.4450001 4293192175
-0.17412265 0.0027372874 1.4450001 4293389552
-0.17298822 0.0027391817 1.4460001 4293521138
-0.17185208 0.0027410761 1.447 4293718517
-0.1705963 0.0027410761 1.447 4293784310
-0.16934052 0.0027410761 1.447 4293784310
-0.16808474 0.0027410761 1.447 4293718517
-0.16659839 0.0027372874 1.4450001 4293455345
-0.16534434 0.0027372874 1.4450001 4293126380
-0.16409031 0.0027372874 1.4450001 4292731622
-0.16261087 0.0027334986 1.4430001 4292402657
-0.16124676 0.0027316043 1.442 4292073691
-0.15999532 0.0027316043 1.442 4291942105
-0.15863378 0.00272971 1.4410001 4292007898
-0.15705556 0.0027240273 1.4380001 4292139484
-0.15569925 0.002722133 1.437 4292271070
-0.15434466 0.0027202386 1.4360001 4292468448
-0.15256536 0.0027107669 1.4310001 4292534241
-0.15090048 0.0027031896 1.427 4292600290
-0.14913768 0.0026937181 1.4220001 4292666082
-0.14779957 0.0026918238 1.4210001 4292797668
-0.14646322 0.0026899294 1.4200001 4292995046
-0.14492404 0.0026842465 1.4170001 4293323498
-0.14359289 0.0026823522 1.416 4293586670
-0.14226347 0.0026804579 1.4150001 4293849841
-0.14093581 0.0026785636 1.414 4294047219
-0.13970867 0.0026785636 1.414 4294179061
-0.13848153 0.0026785636 1.414 4294244852
-0.13725439 0.0026785636 1.414 4294113267
-0.13602725 0.0026785636 1.414 4294047473
-0.13480011 0.0026785636 1.414 4293981680
-0.13366742 0.0026804579 1.4150001 4293981423
-0.13234583 0.0026785636 1.414 4293915886
-0.13093323 0.0026747747 1.4120001 4293915629
-0.12961598 0.0026728804 1.411 4293915372
-0.12820944 0.002669092 1.409 4293915372
-0.10986746 0.002669092 1.409 4294046702
-0.10879888 0.0026728804 1.411 4294046702
-0.10772681 0.0026766693 1.4130001 4293981423
-0.10665129 0.0026804579 1.4150001 4294047215
-0.10534878 0.0026785636 1.414 4294113008
-0.10412164 0.0026785636 1.414 4294113265
-0.10282173 0.0026766693 1.4130001 4294113265
-0.10159546 0.0026766693 1.4130001 4294179058
-0.10036919 0.0026766693 1.4130001 4294179060
-0.099072762 0.0026747747 1.4120001 4294244853
-0.097847357 0.0026747747 1.4120001 4294244853
-0.096621953 0.0026747747 1.4120001 4294113267
-0.09546411 0.0026766693 1.4130001 4293850096
-0.094304532 0.0026785636 1.414 4293521387
-0.093143217 0.0026804579 1.4150001 4293192424
-0.092045128 0.0026842465 1.4170001 4292929252
-0.090815388 0.0026842465 1.4170001 4292666080
-0.089648865 0.0026861408 1.4180001 4292468702
-0.088667676 0.0026937181 1.4220001 4292402910
-0.087495074 0.0026956124 1.4230001 4292402911
-0.086381368 0.002699401 1.4250001 4292337118
-0.085503183 0.0027107669 1.4310001 4292337117
-0.084320173 0.0027126612 1.432 4292336863
-0.083193444 0.0027164498 1.434 4292271070
-0.082463272 0.0027334986 1.4430001 4292271071
-0.081379801 0.0027391817 1.4460001 4292336864
-0.08029113 0.0027448647 1.4490001 4292336864
-0.079197243 0.0027505476 1.452 4292468450
-0.18076737 0.0039908933 1.4480001 4293455861
-0.17938673 0.003988137 1.447 4293192689
-0.17800787 0.0039853808 1.4460001 4292995053
-0.17650849 0.0039798687 1.4440001 4293126381
-0.17537668 0.003982625 1.4450001 4293323760
-0.17424314 0.0039853808 1.4460001 4293586931
-0.17322749 0.0039908933 1.4480001 4293784310
-0.17197084 0.0039908933 1.4480001 4293915896
-0.1707142 0.0039908933 1.4480001 4293850103
-0.16969161 0.0039964058 1.45 4293915896
-0.16831706 0.0039936495 1.4490001 4293850103
-0.16705956 0.0039936495 1.4490001 4293652724
-0.16568762 0.0039908933 1.4480001 4293389552
-0.16431741 0.003988137 1.447 4293060587
-0.16283627 0.003982625 1.4450001 4292797415
-0.16147038 0.0039798687 1.4440001 4292468450
-0.16021721 0.0039798687 1.4440001 4292139485
-0.15885396 0.0039771125 1.4430001 4291942105
-0.15716478 0.0039660879 1.439 4292007898
-0.15580758 0.0039633317 1.4380001 4292205277
-0.15445215 0.0039605754 1.437 4292402656
-0.15256536 0.0039440389 1.4310001 4292468449
-0.15100624 0.0039357701 1.4280001 4292534241
-0.14924255 0.0039219894 1.4230001 4292534241
-0.14790359 0.0039192336 1.4220001 4292534241
-0.14646322 0.0039137215 1.4200001 4292600034
-0.14492404 0.0039054528 1.4170001 4292731619
-0.14359289 0.0039026965 1.416 4292929254
-0.14226347 0.0038999405 1.4150001 4293192169
-0.14083613 0.0038944283 1.4130001 4293389548
-0.13960986 0.0038944283 1.4130001 4293586926
-0.13828565 0.003891672 1.4120001 4293850097
-0.13696319 0.0038889162 1.411 4293981939
-0.13573864 0.0038889162 1.411 4294047732
-0.13441879 0.0038861597 1.4100001 4294047474
-0.13328958 0.0038889162 1.411 4293981681
-0.13197145 0.0038861597 1.4100001 4293981680
-0.13065505 0.003883404 1.409 4293981681
-0.1293404 0.0038806475 1.4080001 4293981680
-0.12793647 0.0038751354 1.406 4293981424
-0.10963354 0.0038751354 1.406 4294179060
-0.10856755 0.0038806475 1.4080001 4294113266
-0.10742186 0.003883404 1.409 4294047474
-0.1063498 0.0038889162 1.411 4294113266
-0.10512527 0.0038889162 1.411 4294179059
-0.10390073 0.0038889162 1.411 4294113267
-0.10260343 0.0038861597 1.4100001 4294047473
-0.10145167 0.0038889162 1.411 4293915888
-0.10015609 0.0038861597 1.4100001 4293784047
-0.098932423 0.0038861597 1.4100001 4293652462
-0.09777806 0.0038889162 1.411 4293455083
-0.096553519 0.0038889162 1.411 4293191911
-0.095396549 0.003891672 1.4120001 4292863460
-0.094237834 0.0038944283 1.4130001 4292666082
-0.093011566 0.0038944283 1.4130001 4292534496
-0.091980174 0.0039026965 1.416 4292402910
-0.090815388 0.0039054528 1.4170001 4292336862
-0.089648865 0.003908209 1.4180001 4292271069
-0.088667676 0.0039192336 1.4220001 4292271070
-0.087556563 0.0039247461 1.424 4292336863
-0.086381368 0.0039275023 1.4250001 4292271070
-0.085503183 0.0039440389 1.4310001 4292271070
-0.084379055 0.0039495509 1.4330001 4292336863
-0.083251461 0.0039550634 1.4350001 4292271070
-0.082463272 0.0039771125 1.4430001 4292336864
-0.081379801 0.0039853808 1.4460001 4292402657
-0.08029113 0.0039936495 1.4490001 4292336864
-0.079251789 0.004004674 1.4530001 4292402657
-0.18101704 0.0052460521 1.45 4293258482
-0.17963469 0.0052424343 1.4490001 4292929517
-0.17825408 0.0052388161 1.4480001 4292929260
-0.16328701 0.0052424343 1.4490001 4292863208
-0.1620295 0.0052424343 1.4490001 4292600036
-0.16077198 0.0052424343 1.4490001 4292271071
-0.15951447 0.0052424343 1.4490001 4292007899
-0.15749244 0.0052171084 1.442 4291942106
-0.15613264 0.0052134907 1.4410001 4292139485
-0.15477459 0.0052098725 1.4400001 4292336864
-0.15299182 0.0051917825 1.4350001 4292468449
-0.15153496 0.0051845466 1.4330001 4292468449
-0.1494523 0.0051556029 1.4250001 4292468449
-0.14811161 0.0051519852 1.424 4292402656
-0.14666951 0.0051447493 1.4220001 4292402656
-0.14502631 0.0051302775 1.4180001 4292468449
-0.14359289 0.0051230411 1.416 4292600034
-0.14226347 0.0051194234 1.4150001 4292666083
-0.14073646 0.0051085693 1.4120001 4292797668
-0.13941225 0.0051049516 1.411 4292863460
-0.13789392 0.0050940975 1.4080001 4292995045
-0.13647784 0.0050868616 1.406 4293258217
-0.13525765 0.0050868616 1.406 4293389803
-0.13394211 0.0050832434 1.4050001 4293455595
-0.1327228 0.0050832434 1.4050001 4293521388
-0.13140987 0.0050796256 1.404 4293652717
-0.13019142 0.0050796256 1.404 4293718509
-0.12897295 0.0050796256 1.404 4293784302
-0.12775449 0.0050796256 1.404 4293850095
-0.12653603 0.0050796256 1.404 4293850094
-0.12531757 0.0050796256 1.404 4293915886
-0.12409911 0.0050796256 1.404 4293915886
-0.12296817 0.0050832434 1.4050001 4293981679
-0.12174883 0.0050832434 1.4050001 4293981679
-0.12052951 0.0050832434 1.4050001 4293981679
-0.11931018 0.0050832434 1.4050001 4293981679
-0.11809085 0.0050832434 1.4050001 4293981679
-0.11687153 0.0050832434 1.4050001 4293915886
-0.11556989 0.0050796256 1.404 4293915886
-0.11435143 0.0050796256 1.404 4293850094
-0.11313296 0.0050796256 1.404 4293915888
-0.11183479 0.0050760075 1.4030001 4294113267
-0.1106172 0.0050760075 1.4030001 4294244853
-0.10939961 0.0050760075 1.4030001 4294113267
-0.10818201 0.0050760075 1.4030001 4293850095
-0.10696442 0.0050760075 1.4030001 4293652716
-0.1058222 0.0050796256 1.404 4293586923
-0.10460374 0.0050796256 1.404 4293521130
-0.10345892 0.0050832434 1.4050001 4293323751
-0.10231236 0.0050868616 1.406 4292994786
-0.10109216 0.0050868616 1.406 4292731614
-0.099942997 0.0050904793 1.4070001 4292534237
-0.098792098 0.0050940975 1.4080001 4292468188
-0.097639464 0.0050977156 1.409 4292336859
-0.096485093 0.0051013334 1.4100001 4292271322
-0.095328987 0.0051049516 1.411 4292271322
-0.094237834 0.0051121875 1.4130001 4292337115
-0.093077391 0.0051158052 1.414 4292271324
-0.092045128 0.0051266593 1.4170001 4292337117
-0.090879478 0.0051302775 1.4180001 4292337117
-0.089712091 0.0051338952 1.419 4292205531
-0.088792384 0.0051519852 1.424 4292205277
-0.087618053 0.0051556029 1.4250001 4292205277
-0.086502604 0.0051628388 1.427 4292271070
-0.08556293 0.0051809289 1.432 4292336863
-0.084437944 0.0051881648 1.434 4292402399
-0.083309472 0.0051954007 1.4360001 4292336606
-0.082520418 0.0052243443 1.4440001 4292336864
-0.081436083 0.0052351984 1.447 4292336864
-0.08034654 0.0052460521 1.45 4292271071
-0.079306334 0.0052605239 1.4540001 4292271071
-0.18114188 0.0065001785 1.4510001 4293126639
-0.17988263 0.0065001785 1.4510001 4292929260
-0.17850028 0.0064956988 1.45 4293060589
-0.1633997 0.0064956988 1.45 4292600036
-0.16225314 0.0065001785 1.4510001 4292336864
-0.1609939 0.0065001785 1.4510001 4292205278
-0.15973465 0.0065001785 1.4510001 4292007899
-0.15749244 0.0064598601 1.442 4292007899
-0.15613264 0.0064553809 1.4410001 4292139485
-0.15477459 0.0064509008 1.4400001 4292271071
-0.15299182 0.0064285016 1.4350001 4292468450
-0.15164071 0.0064240224 1.434 4292468449
-0.14955717 0.0063881837 1.4260001 4292402657
-0.14821562 0.006383704 1.4250001 4292468449
-0.14677264 0.0063747442 1.4230001 4292468449
-0.14502631 0.0063523455 1.4180001 4292468449
-0.1436943 0.0063478653 1.4170001 4292468449
-0.14236403 0.0063433857 1.416 4292534242
-0.14073646 0.0063254666 1.4120001 4292600034
-0.13951105 0.0063254666 1.4120001 4292600034
-0.13789392 0.0063075474 1.4080001 4292600034
-0.13657491 0.0063030673 1.4070001 4292666082
-0.13525765 0.0062985881 1.406 4292797667
-0.13394211 0.006294108 1.4050001 4292863460
-0.1327228 0.006294108 1.4050001 4292863461
-0.13150346 0.006294108 1.4050001 4292995045
-0.13019142 0.0062896283 1.404 4293060838
-0.12897295 0.0062896283 1.404 4293126630
-0.12775449 0.0062896283 1.404 4293192423
-0.12653603 0.0062896283 1.404 4293258216
-0.12531757 0.0062896283 1.404 4293324009
-0.12409911 0.0062896283 1.404 4293389545
-0.12288065 0.0062896283 1.404 4293455338
-0.12166218 0.0062896283 1.404 4293455595
-0.12044373 0.0062896283 1.404 4293455595
-0.11922527 0.0062896283 1.404 4293389802
-0.11800681 0.0062896283 1.404 4293389546
-0.11670516 0.0062851482 1.4030001 4293324009
-0.11548756 0.0062851482 1.4030001 4293258216
-0.11426997 0.0062851482 1.4030001 4293258216
-0.11305238 0.0062851482 1.4030001 4293323753
-0.11183479 0.0062851482 1.4030001 4293389802
-0.1106172 0.0062851482 1.4030001 4293389802
-0.10939961 0.0062851482 1.4030001 4293192423
-0.10818201 0.0062851482 1.4030001 4292929251
-0.10696442 0.0062851482 1.4030001 4292797665
-0.1058222 0.0062896283 1.404 4292797666
-0.10460374 0.0062896283 1.404 4292731873
-0.10345892 0.006294108 1.4050001 4292600286
-0.10231236 0.0062985881 1.406 4292402908
-0.10116406 0.0063030673 1.4070001 4292337114
-0.099942997 0.0063030673 1.4070001 4292205529
-0.098862268 0.0063120276 1.409 4292271322
-0.097639464 0.0063120276 1.409 4292205530
-0.096416667 0.0063120276 1.409 4292139738
-0.09546411 0.0063299467 1.4130001 4292139738
-0.094304532 0.0063344259 1.414 4292205531
-0.093143217 0.006338906 1.4150001 4292271324
-0.092175044 0.0063568251 1.419 4292271324
-0.090943567 0.0063568251 1.419 4292271070
-0.089775309 0.0063613052 1.4200001 4292271070
-0.088854738 0.006383704 1.4250001 4292271070
-0.087679535 0.0063881837 1.4260001 4292271070
-0.086502604 0.0063926638 1.427 4292336863
-0.085622683 0.0064195422 1.4330001 4292336863
-0.084496826 0.0064285016 1.4350001 4292336864
-0.083309472 0.0064329817 1.4360001 4292271071
-0.082577564 0.0064733 1.4450001 4292271071
-0.081492364 0.006486739 1.4480001 4292205278
-0.080401957 0.0065001785 1.4510001 4292205278
-0.079306334 0.0065136179 1.4540001 4292336864
-0.18126673 0.0077560283 1.452 4293060589
-0.18000661 0.0077560283 1.452 4292929003
-0.17862339 0.0077506872 1.4510001 4293126381
-0.16236496 0.0077560283 1.452 4292139485
-0.1612158 0.0077613699 1.4530001 4292073692
-0.15995482 0.0077613699 1.4530001 4292007899
-0.15749244 0.0077026128 1.442 4292073692
-0.15613264 0.0076972712 1.4410001 4292139485
-0.15488207 0.0076972712 1.4410001 4292205278
-0.15309843 0.0076705627 1.4360001 4292336864
-0.15164071 0.007659879 1.434 4292402657
-0.14966206 0.0076224883 1.427 4292402657
-0.14831963 0.0076171462 1.4260001 4292468450
-0.1468758 0.007606463 1.424 4292468450
-0.14512859 0.0075797555 1.419 4292468449
-0.1437957 0.0075744139 1.4180001 4292468449
-0.14246456 0.0075690718 1.4170001 4292468449
-0.14073646 0.0075423638 1.4120001 4292534242
-0.13941225 0.0075370218 1.411 4292534242
-0.13789392 0.0075209974 1.4080001 4292534242
-0.13667198 0.0075209974 1.4080001 4292534242
-0.13535385 0.0075156554 1.4070001 4292600034
-0.13394211 0.0075049726 1.4050001 4292534497
-0.1327228 0.0075049726 1.4050001 4292534496
-0.13150346 0.0075049726 1.4050001 4292534495
-0.13019142 0.007499631 1.404 4292600288
-0.12897295 0.007499631 1.404 4292534495
-0.12775449 0.007499631 1.404 4292600287
-0.12644589 0.0074942894 1.4030001 4292731873
-0.1252283 0.0074942894 1.4030001 4292797666
-0.12401071 0.0074942894 1.4030001 4292797666
-0.12279312 0.0074942894 1.4030001 4292797666
-0.12166218 0.007499631 1.404 4292797666
-0.12044373 0.007499631 1.404 4292797666
-0.11914034 0.0074942894 1.4030001 4292731873
-0.11792275 0.0074942894 1.4030001 4292666080
-0.11670516 0.0074942894 1.4030001 4292600287
-0.11548756 0.0074942894 1.4030001 4292600287
-0.11418853 0.0074889474 1.4020001 4292600287
-0.11297181 0.0074889474 1.4020001 4292666080
-0.11175508 0.0074889474 1.4020001 4292666080
-0.11053836 0.0074889474 1.4020001 4292666080
-0.10932163 0.0074889474 1.4020001 4292600287
-0.10810491 0.0074889474 1.4020001 4292402908
-0.10688818 0.0074889474 1.4020001 4292337115
-0.1058222 0.007499631 1.404 4292337115
-0.10460374 0.007499631 1.404 4292337115
-0.10345892 0.0075049726 1.4050001 4292337115
-0.10238513 0.0075156554 1.4070001 4292271322
-0.10109216 0.0075103138 1.406 4292271322
-0.099942997 0.0075156554 1.4070001 4292205529
-0.098862268 0.007526339 1.409 4292271322
-0.097708754 0.0075316811 1.4100001 4292271324
-0.096485093 0.0075316811 1.4100001 4292139738
-0.095531672 0.0075530475 1.414 4292139738
-0.094371229 0.0075583882 1.4150001 4292205531
-0.093209051 0.0075637302 1.416 4292271324
-0.092239998 0.0075850966 1.4200001 4292271324
-0.091007657 0.0075850966 1.4200001 4292271070
-0.089838535 0.0075904382 1.4210001 4292271070
-0.088854738 0.0076118046 1.4250001 4292271070
-0.087741025 0.0076224883 1.427 4292271070
-0.086563222 0.0076278299 1.4280001 4292336863
-0.085622683 0.0076545384 1.4330001 4292271070
-0.084496826 0.0076652211 1.4350001 4292271071
-0.083367489 0.0076759048 1.437 4292205278
-0.082577564 0.0077186371 1.4450001 4292205278
-0.081492364 0.0077346619 1.4480001 4292205278
-0.080401957 0.0077506872 1.4510001 4292271071
-0.078098156 0.0077720536 1.455 4292402657
-0.18568558 0.0091004502 1.4670001 4293521397
-0.18353249 0.0090570264 1.46 4293323761
-0.18151641 0.009019806 1.4540001 4292929003
-0.18037851 0.0090260096 1.455 4292863210
-0.1791158 0.0090260096 1.455 4292994795
-0.16006491 0.009019806 1.4540001 4292007899
-0.1584754 0.0090011954 1.4510001 4292073692
-0.15689111 0.0089825848 1.4480001 4292205278
-0.15541948 0.0089701787 1.4460001 4292205278
-0.15341829 0.0089267539 1.439 4292205278
-0.15195794 0.0089143477 1.437 4292271071
-0.14987181 0.0088647194 1.429 4292336864
-0.14842364 0.0088523133 1.427 4292402657
-0.14708208 0.0088461088 1.4260001 4292468450
-0.14533314 0.008815092 1.4210001 4292468450
-0.14399852 0.0088088885 1.4200001 4292468449
-0.14246456 0.0087902779 1.4170001 4292468449
-0.14093581 0.0087716682 1.414 4292534243
-0.13960986 0.0087654646 1.4130001 4292534242
-0.1383836 0.0087654646 1.4130001 4292534242
-0.13676904 0.0087406514 1.409 4292468449
-0.13554624 0.0087406514 1.409 4292468449
-0.13413279 0.0087282434 1.4070001 4292468448
-0.13291173 0.0087282434 1.4070001 4292402655
-0.13159706 0.0087220399 1.406 4292337117
-0.13028413 0.0087158373 1.4050001 4292337117
-0.12906481 0.0087158373 1.4050001 4292337117
-0.12775449 0.0087096337 1.404 4292402910
-0.12653603 0.0087096337 1.404 4292534495
-0.1252283 0.0087034302 1.4030001 4292600288
-0.12401071 0.0087034302 1.4030001 4292534495
-0.12279312 0.0087034302 1.4030001 4292534495
-0.12157553 0.0087034302 1.4030001 4292468703
-0.12035793 0.0087034302 1.4030001 4292468703
-0.11905543 0.0086972266 1.4020001 4292402909
-0.1178387 0.0086972266 1.4020001 4292337117
-0.11662198 0.0086972266 1.4020001 4292271324
-0.11532294 0.008691024 1.401 4292271323
-0.11410709 0.008691024 1.401 4292271324
-0.11289122 0.008691024 1.401 4292337117
-0.11167537 0.008691024 1.401 4292402909
-0.11045951 0.008691024 1.401 4292337117
-0.10924365 0.008691024 1.401 4292271324
-0.10810491 0.0086972266 1.4020001 4292205530
-0.10688818 0.0086972266 1.4020001 4292139738
-0.10574683 0.0087034302 1.4030001 4292205531
-0.10460374 0.0087096337 1.404 4292205531
-0.10338528 0.0087096337 1.404 4292205531
-0.10231236 0.0087220399 1.406 4292271324
-0.10116406 0.0087282434 1.4070001 4292205531
-0.10001403 0.008734447 1.4080001 4292205531
-0.098932423 0.008746855 1.4100001 4292271324
-0.09777806 0.0087530576 1.411 4292271324
-0.096621953 0.0087592611 1.4120001 4292205531
-0.095599234 0.0087778708 1.4150001 4292139738
-0.09443792 0.0087840743 1.416 4292205531
-0.093274869 0.0087902779 1.4170001 4292271324
-0.09230496 0.008815092 1.4210001 4292205531
-0.091135837 0.0088212956 1.4220001 4292271070
-0.089901753 0.0088212956 1.4220001 4292271070
-0.088917084 0.0088461088 1.4260001 4292271070
-0.087741025 0.0088523133 1.427 4292271070
-0.086623833 0.0088647194 1.429 4292205278
-0.085682437 0.0088957362 1.434 4292205278
-0.0845557 0.0089081442 1.4360001 4292139485
-0.083367489 0.0089143477 1.437 4292139485
-0.082577564 0.0089639751 1.4450001 4292205278
-0.081492364 0.0089825848 1.4480001 4292271071
-0.08045736 0.009007398 1.452 4292271071
-0.078098156 0.0090260096 1.455 4292402657
-0.185559 0.010357683 1.4660001 4293521397
-0.18353249 0.010315292 1.46 4293192175
-0.18164124 0.010279965 1.455 4292731624
-0.18037851 0.010279965 1.455 4292665831
-0.1792389 0.010287031 1.4560001 4292731623
-0.15995482 0.010265835 1.4530001 4292139485
-0.15836617 0.010244639 1.45 4292139485
-0.15678275 0.010223443 1.447 4292271071
-0.15541948 0.010216378 1.4460001 4292205278
-0.15341829 0.010166921 1.439 4292139485
-0.15195794 0.010152791 1.437 4292271071
-0.14987181 0.010096268 1.429 4292336864
-0.14842364 0.010082138 1.427 4292336864
-0.14708208 0.010075072 1.4260001 4292336864
-0.14523087 0.01003268 1.4200001 4292402657
-0.14389712 0.010025616 1.419 4292402657
-0.1425651 0.01001855 1.4180001 4292468450
-0.14093581 0.0099902889 1.414 4292600036
-0.13970867 0.0099902889 1.414 4292600035
-0.1383836 0.0099832239 1.4130001 4292534242
-0.13686612 0.0099620279 1.4100001 4292468450
-0.13554624 0.0099549629 1.409 4292468450
-0.13413279 0.0099408319 1.4070001 4292402657
-0.13291173 0.0099408319 1.4070001 4292402656
-0.13169067 0.0099408319 1.4070001 4292402655
-0.13028413 0.0099267019 1.4050001 4292402655
-0.12906481 0.0099267019 1.4050001 4292402912
-0.12784548 0.0099267019 1.4050001 4292468448
-0.12653603 0.009919636 1.404 4292534496
-0.12531757 0.009919636 1.404 4292468703
-0.12409911 0.009919636 1.404 4292468703
-0.12279312 0.0099125709 1.4030001 4292468703
-0.12157553 0.0099125709 1.4030001 4292402910
-0.12035793 0.0099125709 1.4030001 4292402910
-0.11914034 0.0099125709 1.4030001 4292402910
-0.1178387 0.009905505 1.4020001 4292337117
-0.11662198 0.009905505 1.4020001 4292271324
-0.11540525 0.009905505 1.4020001 4292271324
-0.11418853 0.009905505 1.4020001 4292337117
-0.11289122 0.0098984409 1.401 4292337117
-0.11167537 0.0098984409 1.401 4292337117
-0.11045951 0.0098984409 1.401 4292271324
-0.10924365 0.0098984409 1.401 4292271324
-0.10810491 0.009905505 1.4020001 4292271324
-0.10688818 0.009905505 1.4020001 4292271324
-0.10574683 0.0099125709 1.4030001 4292271324
-0.10452924 0.0099125709 1.4030001 4292271324
-0.10338528 0.009919636 1.404 4292205531
-0.10238513 0.0099408319 1.4070001 4292205277
-0.10116406 0.0099408319 1.4070001 4292139484
-0.10001403 0.0099478969 1.4080001 4292271068
-0.098932423 0.0099620279 1.4100001 4292337117
-0.09777806 0.0099690929 1.411 4292337117
-0.096621953 0.0099761579 1.4120001 4292271324
-0.095599234 0.0099973539 1.4150001 4292271324
-0.09443792 0.010004419 1.416 4292337117
-0.093274869 0.010011485 1.4170001 4292336862
-0.092239998 0.01003268 1.4200001 4292271070
-0.091071747 0.010039746 1.4210001 4292205277
-0.089901753 0.010046811 1.4220001 4292205277
-0.088917084 0.010075072 1.4260001 4292205277
-0.087741025 0.010082138 1.427 4292205277
-0.086563222 0.010089203 1.4280001 4292139485
-0.085682437 0.010131594 1.434 4292139485
-0.084496826 0.01013866 1.4350001 4292139485
-0.083367489 0.010152791 1.437 4292139485
-0.082577564 0.010209313 1.4450001 4292205278
-0.081492364 0.010230508 1.4480001 4292271071
-0.080401957 0.010251705 1.4510001 4292271071
-0.079306334 0.0102729 1.4540001 4292336864
-0.185559 0.011621119 1.4660001 4293521140
-0.18353249 0.011573557 1.46 4292994796
-0.18164124 0.011533921 1.455 4292600038
-0.18050249 0.011541848 1.4560001 4292468452
-0.1792389 0.011541848 1.4560001 4292468451
-0.15984473 0.011510139 1.452 4292402659
-0.15825696 0.011486358 1.4490001 4292336865
-0.15678275 0.011470503 1.447 4292336864
-0.155312 0.01145465 1.4450001 4292271071
-0.15341829 0.011407087 1.439 4292205278
-0.15195794 0.011391234 1.437 4292336864
-0.14987181 0.011327816 1.429 4292402657
-0.14842364 0.011311962 1.427 4292402657
-0.14697893 0.011296107 1.4250001 4292336864
-0.14523087 0.011256472 1.4200001 4292336864
-0.14389712 0.011248546 1.419 4292402657
-0.1425651 0.011240618 1.4180001 4292468450
-0.14103547 0.011216836 1.4150001 4292534243
-0.13970867 0.01120891 1.414 4292534243
-0.1383836 0.011200983 1.4130001 4292468450
-0.13686612 0.011177202 1.4100001 4292468450
-0.13554624 0.011169274 1.409 4292468450
-0.13422811 0.011161347 1.4080001 4292402657
-0.13291173 0.01115342 1.4070001 4292336864
-0.13169067 0.01115342 1.4070001 4292336863
-0.13037686 0.011145493 1.406 4292402656
-0.12915666 0.011145493 1.406 4292402656
-0.12784548 0.011137567 1.4050001 4292402656
-0.12662615 0.011137567 1.4050001 4292402912
-0.12531757 0.011129639 1.404 4292402912
-0.12409911 0.011129639 1.404 4292402912
-0.12288065 0.011129639 1.404 4292402912
-0.12166218 0.011129639 1.404 4292402656
-0.12044373 0.011129639 1.404 4292402656
-0.11914034 0.011121712 1.4030001 4292336862
-0.11792275 0.011121712 1.4030001 4292271070
-0.11662198 0.011113784 1.4020001 4292205533
-0.11540525 0.011113784 1.4020001 4292205277
-0.11418853 0.011113784 1.4020001 4292205533
-0.11289122 0.011105858 1.401 4292271070
-0.11167537 0.011105858 1.401 4292271069
-0.11045951 0.011105858 1.401 4292205277
-0.10932163 0.011113784 1.4020001 4292271069
-0.10802779 0.011105858 1.401 4292205533
-0.10681194 0.011105858 1.401 4292205277
-0.10574683 0.011121712 1.4030001 4292271069
-0.10460374 0.011129639 1.404 4292271070
-0.10338528 0.011129639 1.404 4292205277
-0.10238513 0.01115342 1.4070001 4292139484
-0.10116406 0.01115342 1.4070001 4292205277
-0.10001403 0.011161347 1.4080001 4292336862
-0.098932423 0.011177202 1.4100001 4292336863
-0.09777806 0.011185128 1.411 4292336863
-0.096621953 0.011193056 1.4120001 4292336863
-0.095599234 0.011216836 1.4150001 4292402655
-0.09443792 0.011224763 1.416 4292468448
-0.093274869 0.011232691 1.4170001 4292468449
-0.092239998 0.011256472 1.4200001 4292336863
-0.091071747 0.0112644 1.4210001 4292205277
-0.089901753 0.011272326 1.4220001 4292205277
-0.088854738 0.011296107 1.4250001 4292205277
-0.087741025 0.011311962 1.427 4292139484
-0.086563222 0.01131989 1.4280001 4292139485
-0.085622683 0.011359525 1.4330001 4292139485
-0.084496826 0.011375379 1.4350001 4292205278
-0.083367489 0.011391234 1.437 4292271071
-0.082577564 0.01145465 1.4450001 4292205278
-0.081492364 0.011478431 1.4480001 4292205278
-0.080401957 0.011502213 1.4510001 4292205278
-0.079306334 0.011525993 1.4540001 4292271071
-0.185559 0.012884554 1.4660001 4293455347
-0.18378392 0.012849399 1.462 4292863210
-0.15363149 0.012664831 1.4410001 4292271071
-0.1520637 0.012638465 1.4380001 4292336864
-0.14976694 0.012550576 1.4280001 4292402657
-0.14842364 0.012541787 1.427 4292468450
-0.14697893 0.012524209 1.4250001 4292402657
-0.14533314 0.012489053 1.4210001 4292336864
-0.14399852 0.012480264 1.4200001 4292336864
-0.14266564 0.012471476 1.419 4292402657
-0.14113516 0.012445108 1.416 4292468450
-0.13980746 0.012436319 1.4150001 4292402657
-0.13848153 0.012427531 1.414 4292402657
-0.13696319 0.012401164 1.411 4292402657
-0.13564245 0.012392376 1.4100001 4292402657
-0.13432345 0.012383587 1.409 4292402657
-0.13310064 0.012383587 1.409 4292402657
-0.13178425 0.012374797 1.4080001 4292402657
-0.13056232 0.012374797 1.4080001 4292402657
-0.12924853 0.012366008 1.4070001 4292402657
-0.12802747 0.012366008 1.4070001 4292402657
-0.12680641 0.012366008 1.4070001 4292402656
-0.12549607 0.012357219 1.406 4292402656
-0.12427588 0.012357219 1.406 4292402656
-0.12305568 0.012357219 1.406 4292402656
-0.12174883 0.01234843 1.4050001 4292402656
-0.12052951 0.01234843 1.4050001 4292336863
-0.11931018 0.01234843 1.4050001 4292271071
-0.11809085 0.01234843 1.4050001 4292271071
-0.11678835 0.012339641 1.404 4292205277
-0.11556989 0.012339641 1.404 4292205277
-0.11426997 0.012330852 1.4030001 4292271070
-0.11305238 0.012330852 1.4030001 4292271070
-0.11183479 0.012330852 1.4030001 4292271070
-0.11053836 0.012322064 1.4020001 4292271070
-0.10932163 0.012322064 1.4020001 4292336863
-0.10810491 0.012322064 1.4020001 4292336863
-0.10688818 0.012322064 1.4020001 4292271070
-0.1058222 0.012339641 1.404 4292336863
-0.10467824 0.01234843 1.4050001 4292336863
-0.10345892 0.01234843 1.4050001 4292271070
-0.10238513 0.012366008 1.4070001 4292271070
-0.10123596 0.012374797 1.4080001 4292336863
-0.10008506 0.012383587 1.409 4292402656
-0.099002592 0.012401164 1.411 4292336863
-0.097847357 0.012409952 1.4120001 4292336863
-0.096690379 0.012418742 1.4130001 4292402656
-0.095666796 0.012445108 1.416 4292402656
-0.09450461 0.012453898 1.4170001 4292402656
-0.093274869 0.012453898 1.4170001 4292336863
-0.092239998 0.012480264 1.4200001 4292271070
-0.091071747 0.012489053 1.4210001 4292205277
-0.089901753 0.012497842 1.4220001 4292205277
-0.088917084 0.012532998 1.4260001 4292205277
-0.087741025 0.012541787 1.427 4292205277
-0.086563222 0.012550576 1.4280001 4292205278
-0.085622683 0.01259452 1.4330001 4292205278
-0.084496826 0.012612098 1.4350001 4292205278
-0.083367489 0.012629676 1.437 4292271071
-0.082577564 0.012699987 1.4450001 4292205278
-0.081492364 0.012726353 1.4480001 4292205278
-0.080401957 0.012752721 1.4510001 4292205278
-0.079360873 0.012787877 1.455 4292271071
-0.185559 0.01414799 1.4660001 4293323761
-0.18390962 0.014119038 1.4630001 4292731624
-0.15363149 0.013906722 1.4410001 4292271071
-0.15216945 0.01388742 1.439 4292271071
-0.14987181 0.013790912 1.429 4292402657
-0.14842364 0.013771611 1.427 4292468450
-0.14708208 0.013761961 1.4260001 4292468450
-0.14533314 0.013713706 1.4210001 4292402657
-0.14399852 0.013704056 1.4200001 4292402657
-0.14266564 0.013694406 1.419 4292402657
-0.14113516 0.013665453 1.416 4292402657
-0.13980746 0.013655802 1.4150001 4292402657
-0.13848153 0.013646152 1.414 4292336864
-0.13696319 0.013617199 1.411 4292336864
-0.13564245 0.013607549 1.4100001 4292336864
-0.13432345 0.013597898 1.409 4292402657
-0.13310064 0.013597898 1.409 4292402657
-0.13187784 0.013597898 1.409 4292402657
-0.13056232 0.013588247 1.4080001 4292402657
-0.1293404 0.013588247 1.4080001 4292402657
-0.12811846 0.013588247 1.4080001 4292468450
-0.12680641 0.013578597 1.4070001 4292402657
-0.12558535 0.013578597 1.4070001 4292402657
-0.12436428 0.013578597 1.4070001 4292402657
-0.12305568 0.013568945 1.406 4292402657
-0.12183549 0.013568945 1.406 4292402657
-0.12061529 0.013568945 1.406 4292402657
-0.11931018 0.013559295 1.4050001 4292336864
-0.11809085 0.013559295 1.4050001 4292336864
-0.11687153 0.013559295 1.4050001 4292336863
-0.11556989 0.013549645 1.404 4292336863
-0.11435143 0.013549645 1.404 4292336863
-0.11305238 0.013539993 1.4030001 4292336863
-0.11183479 0.013539993 1.4030001 4292336863
-0.1106172 0.013539993 1.4030001 4292402656
-0.10939961 0.013539993 1.4030001 4292468449
-0.10818201 0.013539993 1.4030001 4292468449
-0.10696442 0.013539993 1.4030001 4292468449
-0.10589758 0.013559295 1.4050001 4292468449
-0.10467824 0.013559295 1.4050001 4292468449
-0.10353255 0.013568945 1.406 4292402656
-0.1024579 0.013588247 1.4080001 4292336863
-0.10123596 0.013588247 1.4080001 4292402656
-0.10008506 0.013597898 1.409 4292402656
-0.099072762 0.01362685 1.4120001 4292336863
-0.097916648 0.013636501 1.4130001 4292271070
-0.096690379 0.013636501 1.4130001 4292336863
-0.09573435 0.013675104 1.4170001 4292336863
-0.09450461 0.013675104 1.4170001 4292271070
-0.093340695 0.013684754 1.4180001 4292205277
-0.09230496 0.013713706 1.4210001 4292205277
-0.091135837 0.013723358 1.4220001 4292271070
-0.089964971 0.013733009 1.4230001 4292271070
-0.088917084 0.013761961 1.4260001 4292271070
-0.087741025 0.013771611 1.427 4292205277
-0.086563222 0.013781263 1.4280001 4292205278
-0.085682437 0.013839167 1.434 4292205278
-0.084496826 0.013848817 1.4350001 4292205278
-0.083367489 0.013868119 1.437 4292271071
-0.082577564 0.013945324 1.4450001 4292271071
-0.081548639 0.013983928 1.4490001 4292271071
-0.080401957 0.014003229 1.4510001 4292271071
-0.079360873 0.014041833 1.455 4292336864
-0.18568558 0.015421938 1.4670001 4293257968
-0.18416104 0.015400913 1.465 4292600038
-0.18276478 0.015390401 1.4640001 4292271073
-0.15373813 0.015159124 1.442 4292205278
-0.1520637 0.015117074 1.4380001 4292271071
-0.14987181 0.01502246 1.429 4292402657
-0.14852765 0.015011949 1.4280001 4292534243
-0.14708208 0.014990923 1.4260001 4292534243
-0.14543542 0.014948872 1.4220001 4292534243
-0.14399852 0.014927848 1.4200001 4292468450
-0.14266564 0.014917335 1.419 4292468450
-0.14113516 0.014885797 1.416 4292468450
-0.13980746 0.014875285 1.4150001 4292468450
-0.13848153 0.014864772 1.414 4292402657
-0.13696319 0.014833234 1.411 4292336864
-0.13573864 0.014833234 1.411 4292336864
-0.13432345 0.014812209 1.409 4292336864
-0.13310064 0.014812209 1.409 4292336864
-0.13187784 0.014812209 1.409 4292336864
-0.13065505 0.014812209 1.409 4292336864
-0.1293404 0.014801697 1.4080001 4292402657
-0.12811846 0.014801697 1.4080001 4292468450
-0.12689653 0.014801697 1.4080001 4292402657
-0.12558535 0.014791185 1.4070001 4292402657
-0.12436428 0.014791185 1.4070001 4292402657
-0.12314321 0.014791185 1.4070001 4292468450
-0.12183549 0.014780671 1.406 4292468450
-0.12061529 0.014780671 1.406 4292534243
-0.11939509 0.014780671 1.406 4292402657
-0.1181749 0.014780671 1.406 4292402657
-0.11695471 0.014780671 1.406 4292402657
-0.1156522 0.014770159 1.4050001 4292402657
-0.11435143 0.014759646 1.404 4292402657
-0.11313296 0.014759646 1.404 4292402657
-0.11183479 0.014749134 1.4030001 4292468449
-0.1106172 0.014749134 1.4030001 4292534242
-0.10939961 0.014749134 1.4030001 4292468449
-0.10825912 0.014759646 1.404 4292600035
-0.10704066 0.014759646 1.404 4292600035
-0.10589758 0.014770159 1.4050001 4292534242
-0.10475275 0.014780671 1.406 4292468449
-0.10353255 0.014780671 1.406 4292402656
-0.1024579 0.014801697 1.4080001 4292336863
-0.10130786 0.014812209 1.409 4292336863
-0.10008506 0.014812209 1.409 4292402656
-0.099072762 0.014843748 1.4120001 4292271070
-0.097916648 0.01485426 1.4130001 4292205277
-0.096758805 0.014864772 1.414 4292271070
-0.09573435 0.014896311 1.4170001 4292271070
-0.094571307 0.014906823 1.4180001 4292139484
-0.093340695 0.014906823 1.4180001 4292205277
-0.09230496 0.01493836 1.4210001 4292271070
-0.091135837 0.014948872 1.4220001 4292271070
-0.089964971 0.014959386 1.4230001 4292271070
-0.088979445 0.015001435 1.427 4292205277
-0.087802507 0.015011949 1.4280001 4292205277
-0.086623833 0.01502246 1.429 4292205278
-0.085682437 0.015075023 1.434 4292205278
-0.0845557 0.015096049 1.4360001 4292271071
-0.083367489 0.015106561 1.437 4292271071
-0.08263471 0.015201175 1.4460001 4292271071
-0.081548639 0.015232712 1.4490001 4292336864
-0.08045736 0.015264249 1.452 4292336864
-0.079360873 0.015295787 1.455 4292336864
-0.19092596 0.016811354 1.478 4293718776
-0.18913002 0.016765857 1.4740001 4293718519
-0.1874685 0.016731735 1.4710001 4293586933
-0.18581216 0.01669761 1.4680001 4293192175
-0.18441245 0.016686236 1.4670001 4292534245
-0.18301447 0.016674863 1.4660001 4292205280
-0.15384473 0.016413251 1.4430001 4292205279
-0.15227519 0.016379127 1.4400001 4292336864
-0.1499767 0.016265385 1.4300001 4292468450
-0.14852765 0.016242635 1.4280001 4292600036
-0.14718522 0.016231259 1.427 4292600036
-0.14543542 0.016174387 1.4220001 4292534243
-0.14409992 0.016163014 1.4210001 4292534242
-0.14276618 0.016151641 1.4200001 4292534242
-0.14113516 0.016106142 1.416 4292534243
-0.13980746 0.016094768 1.4150001 4292468450
-0.13848153 0.016083393 1.414 4292402657
-0.13696319 0.01604927 1.411 4292336864
-0.13564245 0.016037896 1.4100001 4292402657
-0.13441879 0.016037896 1.4100001 4292336864
-0.13319512 0.016037896 1.4100001 4292336864
-0.13197145 0.016037896 1.4100001 4292271071
-0.13065505 0.016026521 1.409 4292271071
-0.12943225 0.016026521 1.409 4292336864
-0.12820944 0.016026521 1.409 4292336864
-0.12698665 0.016026521 1.409 4292336864
-0.12567459 0.016015148 1.4080001 4292336864
-0.12445267 0.016015148 1.4080001 4292402657
-0.12314321 0.016003773 1.4070001 4292534243
-0.12192215 0.016003773 1.4070001 4292534243
-0.12070109 0.016003773 1.4070001 4292534243
-0.11948002 0.016003773 1.4070001 4292468450
-0.11825896 0.016003773 1.4070001 4292402657
-0.11703789 0.016003773 1.4070001 4292402657
-0.1156522 0.015981024 1.4050001 4292402657
-0.11443287 0.015981024 1.4050001 4292402657
-0.11321354 0.015981024 1.4050001 4292336864
-0.11199421 0.015981024 1.4050001 4292336864
-0.11077488 0.015981024 1.4050001 4292534242
-0.10955556 0.015981024 1.4050001 4292402657
-0.10833623 0.015981024 1.4050001 4292468450
-0.1071169 0.015981024 1.4050001 4292468450
-0.10597295 0.015992397 1.406 4292402657
-0.10482725 0.016003773 1.4070001 4292402656
-0.10360619 0.016003773 1.4070001 4292336863
-0.10253067 0.016026521 1.409 4292271070
-0.10137976 0.016037896 1.4100001 4292205277
-0.10015609 0.016037896 1.4100001 4292205277
-0.099142917 0.01607202 1.4130001 4292205277
-0.097985946 0.016083393 1.414 4292271068
-0.096827239 0.016094768 1.4150001 4292271324
-0.09580192 0.01612889 1.4180001 4292205532
-0.094638005 0.016140265 1.419 4292205531
-0.093472347 0.016151641 1.4200001 4292271324
-0.092369922 0.016174387 1.4220001 4292402654
-0.09119992 0.016185762 1.4230001 4292205277
-0.090028197 0.016197138 1.424 4292205277
-0.088979445 0.016231259 1.427 4292205277
-0.087863989 0.01625401 1.429 4292205277
-0.086684458 0.016265385 1.4300001 4292271071
-0.08574219 0.016322257 1.4350001 4292271071
-0.0845557 0.01633363 1.4360001 4292336351
-0.083425507 0.016356379 1.4380001 4292336351
-0.08263471 0.016447375 1.4460001 4292271071
-0.081548639 0.016481496 1.4490001 4292271071
-0.080512777 0.016526995 1.4530001 4292205278
-0.07815183 0.016561119 1.4560001 4292336866
-0.18938664 0.01806066 1.4760001 4293652983
-0.18772337 0.018023951 1.473 4293586933
-0.18568558 0.017950533 1.4670001 4293126382
-0.18441245 0.017950533 1.4670001 4292534245
-0.18301447 0.017938299 1.4660001 4292205280
-0.15384473 0.017656865 1.4430001 4292271072
-0.15227519 0.017620156 1.4400001 4292336864
-0.1499767 0.017497795 1.4300001 4292468449
-0.14852765 0.017473321 1.4280001 4292534244
-0.14718522 0.017461084 1.427 4292534244
-0.14543542 0.017399903 1.4220001 4292534243
-0.14409992 0.017387668 1.4210001 4292468450
-0.14276618 0.017375432 1.4200001 4292534242
-0.14113516 0.017326487 1.416 4292534243
-0.13980746 0.017314252 1.4150001 4292468450
-0.13848153 0.017302014 1.414 4292402657
-0.13696319 0.017265305 1.411 4292402657
-0.13564245 0.017253069 1.4100001 4292402657
-0.13441879 0.017253069 1.4100001 4292468450
-0.13319512 0.017253069 1.4100001 4292402657
-0.13197145 0.017253069 1.4100001 4292271071
-0.13065505 0.017240832 1.409 4292271071
-0.12943225 0.017240832 1.409 4292271071
-0.12820944 0.017240832 1.409 4292336864
-0.12689653 0.017228598 1.4080001 4292336864
-0.12567459 0.017228598 1.4080001 4292336864
-0.12445267 0.017228598 1.4080001 4292468450
-0.12314321 0.017216362 1.4070001 4292534243
-0.12192215 0.017216362 1.4070001 4292534243
-0.12070109 0.017216362 1.4070001 4292534243
-0.11939509 0.017204124 1.406 4292534243
-0.11809085 0.017191889 1.4050001 4292468450
-0.11687153 0.017191889 1.4050001 4292468450
-0.1156522 0.017191889 1.4050001 4292468450
-0.11443287 0.017191889 1.4050001 4292402657
-0.11321354 0.017191889 1.4050001 4292336864
-0.11199421 0.017191889 1.4050001 4292271071
-0.11077488 0.017191889 1.4050001 4292336864
-0.10955556 0.017191889 1.4050001 4292468450
-0.10833623 0.017191889 1.4050001 4292468450
-0.1071169 0.017191889 1.4050001 4292402657
-0.10597295 0.017204124 1.406 4292336864
-0.10482725 0.017216362 1.4070001 4292271071
-0.10360619 0.017216362 1.4070001 4292271071
-0.10260343 0.017253069 1.4100001 4292271070
-0.10137976 0.017253069 1.4100001 4292205277
-0.10022712 0.017265305 1.411 4292205277
-0.099142917 0.017289778 1.4130001 4292205277
-0.097985946 0.017302014 1.414 4292205277
-0.096827239 0.017314252 1.4150001 4292205277
-0.09580192 0.017350959 1.4180001 4292205277
-0.094638005 0.017363194 1.419 4292205277
-0.093472347 0.017375432 1.4200001 4292205277
-0.092434876 0.017412141 1.4230001 4292271070
-0.09119992 0.017412141 1.4230001 4292271070
-0.090028197 0.017424377 1.424 4292205277
-0.089041799 0.017473321 1.4280001 4292205277
-0.087863989 0.017485557 1.429 4292205277
-0.086684458 0.017497795 1.4300001 4292205278
-0.08574219 0.017558975 1.4350001 4292271071
-0.08461459 0.017583447 1.437 4292271071
-0.083425507 0.017595684 1.4380001 4292271071
-0.082691863 0.017705809 1.447 4292271071
-0.08160492 0.017742518 1.45 4292336864
-0.080512777 0.017779227 1.4530001 4292336864
-0.07815183 0.017815936 1.4560001 4292336866
-0.18785082 0.019306518 1.4740001 4293521139
-0.18568558 0.019214831 1.4670001 4293060589
-0.18441245 0.019214831 1.4670001 4292534245
-0.18301447 0.019201733 1.4660001 4292139487
-0.15552697 0.018952871 1.447 4292534502
-0.15395135 0.018913576 1.4440001 4292271071
-0.15227519 0.018861184 1.4400001 4292271071
-0.1499767 0.018730205 1.4300001 4292402656
-0.14852765 0.018704008 1.4280001 4292468451
-0.14718522 0.018690908 1.427 4292468451
-0.14543542 0.01862542 1.4220001 4292468450
-0.14409992 0.018612321 1.4210001 4292468449
-0.14276618 0.018599223 1.4200001 4292534242
-0.14113516 0.018546831 1.416 4292534243
-0.13980746 0.018533733 1.4150001 4292534243
-0.13818772 0.01848134 1.411 4292468450
-0.13696319 0.01848134 1.411 4292468450
-0.13564245 0.018468244 1.4100001 4292468450
-0.13432345 0.018455144 1.409 4292534243
-0.13310064 0.018455144 1.409 4292468450
-0.13187784 0.018455144 1.409 4292336864
-0.13065505 0.018455144 1.409 4292271071
-0.12943225 0.018455144 1.409 4292336864
-0.12820944 0.018455144 1.409 4292336864
-0.12689653 0.018442048 1.4080001 4292336864
-0.12567459 0.018442048 1.4080001 4292336864
-0.12445267 0.018442048 1.4080001 4292468450
-0.12314321 0.01842895 1.4070001 4292534243
-0.12192215 0.01842895 1.4070001 4292534243
-0.12061529 0.01841585 1.406 4292534243
-0.11931018 0.018402753 1.4050001 4292534243
-0.11809085 0.018402753 1.4050001 4292468450
-0.11687153 0.018402753 1.4050001 4292402657
-0.1156522 0.018402753 1.4050001 4292468450
-0.11435143 0.018389653 1.404 4292468450
-0.11313296 0.018389653 1.404 4292402657
-0.1119145 0.018389653 1.404 4292402657
-0.11069604 0.018389653 1.404 4292336864
-0.10955556 0.018402753 1.4050001 4292336864
-0.10833623 0.018402753 1.4050001 4292336864
-0.1071169 0.018402753 1.4050001 4292336864
-0.10597295 0.01841585 1.406 4292205278
-0.10482725 0.01842895 1.4070001 4292336864
-0.10360619 0.01842895 1.4070001 4292271071
-0.10260343 0.018468244 1.4100001 4292271071
-0.10137976 0.018468244 1.4100001 4292205278
-0.10022712 0.01848134 1.411 4292205277
-0.099213086 0.018520635 1.414 4292205277
-0.097985946 0.018520635 1.414 4292205277
-0.096827239 0.018533733 1.4150001 4292205277
-0.09580192 0.018573027 1.4180001 4292205277
-0.094638005 0.018586125 1.419 4292205277
-0.093472347 0.018599223 1.4200001 4292271070
-0.092434876 0.018638518 1.4230001 4292271070
-0.091264017 0.018651616 1.424 4292336863
-0.090028197 0.018651616 1.424 4292271070
-0.089041799 0.018704008 1.4280001 4292205278
-0.087863989 0.018717105 1.429 4292205278
-0.086684458 0.018730205 1.4300001 4292271071
-0.08574219 0.018795695 1.4350001 4292336864
-0.08461459 0.01882189 1.437 4292336864
-0.083425507 0.01883499 1.4380001 4292336864
-0.08263471 0.018939773 1.4460001 4292271071
-0.081548639 0.018979067 1.4490001 4292402657
-0.080512777 0.019031459 1.4530001 4292402657
-0.078098156 0.019057654 1.455 4292402659
-0.18568558 0.02047913 1.4670001 4292929002
-0.18441245 0.02047913 1.4670001 4292402659
-0.18288964 0.020451209 1.465 4292073694
-0.18199015 0.020493088 1.4680001 4291613143
-0.18096235 0.020521007 1.47 4291284178
-0.17980886 0.02053497 1.4710001 4291876315
-0.15552697 0.020199932 1.447 4292534502
-0.15384473 0.020144092 1.4430001 4292139999
-0.15227519 0.020102212 1.4400001 4292139742
-0.15008157 0.019976573 1.4310001 4292271071
-0.14863166 0.019948654 1.429 4292402658
-0.14718522 0.019920733 1.427 4292402658
-0.14553769 0.019864894 1.4230001 4292402657
-0.14420134 0.019850934 1.4220001 4292468450
-0.14276618 0.019823017 1.4200001 4292534243
-0.14123482 0.019781137 1.4170001 4292600036
-0.13990627 0.019767176 1.416 4292534243
-0.13848153 0.019739255 1.414 4292468450
-0.13696319 0.019697376 1.411 4292468450
-0.13573864 0.019697376 1.411 4292402657
-0.13441879 0.019683417 1.4100001 4292468450
-0.13319512 0.019683417 1.4100001 4292468450
-0.13197145 0.019683417 1.4100001 4292468450
-0.13074778 0.019683417 1.4100001 4292402657
-0.12952411 0.019683417 1.4100001 4292402657
-0.12830044 0.019683417 1.4100001 4292402657
-0.12698665 0.019669456 1.409 4292402657
-0.12576385 0.019669456 1.409 4292402657
-0.12445267 0.019655496 1.4080001 4292468450
-0.12305568 0.019627577 1.406 4292534243
-0.12183549 0.019627577 1.406 4292468450
-0.12061529 0.019627577 1.406 4292468450
-0.11939509 0.019627577 1.406 4292533986
-0.1181749 0.019627577 1.406 4292402401
-0.11687153 0.019613618 1.4050001 4292336864
-0.1156522 0.019613618 1.4050001 4292336864
-0.11443287 0.019613618 1.4050001 4292336864
-0.11321354 0.019613618 1.4050001 4292336864
-0.11199421 0.019613618 1.4050001 4292271071
-0.11077488 0.019613618 1.4050001 4292271071
-0.10955556 0.019613618 1.4050001 4292271071
-0.10833623 0.019613618 1.4050001 4292271071
-0.10719314 0.019627577 1.406 4292402657
-0.10604832 0.019641537 1.4070001 4292271071
-0.10490175 0.019655496 1.4080001 4292271071
-0.10375346 0.019669456 1.409 4292205278
-0.1026762 0.019697376 1.411 4292271071
-0.10152356 0.019711336 1.4120001 4292205278
-0.10036919 0.019725297 1.4130001 4292139484
-0.099283256 0.019753216 1.4150001 4292139484
