# .PCD v0.7 - Point Cloud Data file format
VERSION 0.7
FIELDS x y z rgba
SIZE 4 4 4 4
TYPE F F F U
COUNT 1 1 1 1
WIDTH 384
HEIGHT 1
VIEWPOINT 0 0 0 1 0 0 0
POINTS 384
DATA ascii
-0.20249385 -0.15878902 1.3700001 4291466631
-0.197587 -0.15786178 1.3620001 4289292372
-0.19300857 -0.15716635 1.3560001 4288503886
-0.19013819 -0.15786178 1.3620001 4287261545
-0.20142284 -0.15142129 1.3380001 4292189834
-0.19584259 -0.14995009 1.325 4290346857
-0.19120386 -0.1491579 1.3180001 4292582790
-0.18731511 -0.14893156 1.3160001 4290146127
-0.18371651 -0.14893156 1.3160001 4289356362
-0.18080221 -0.1494974 1.3210001 4290947241
-0.17987259 -0.15176082 1.3410001 4278190080
-0.20508161 -0.14776252 1.3380001 4289815359
-0.19811095 -0.14533295 1.3160001 4289357128
-0.19332989 -0.14444946 1.3080001 4292518788
-0.18960808 -0.14433904 1.307 4290083165
-0.18546472 -0.14389729 1.3030001 4290080851
-0.18218085 -0.14411816 1.3050001 4289881938
-0.17943352 -0.14478077 1.3110001 4287129189
-0.17772646 -0.14632687 1.325 4278190080
-0.20416196 -0.14345755 1.332 4289815883
-0.19735824 -0.14119583 1.3110001 4289486918
-0.19244304 -0.14022653 1.302 4289619533
-0.18859258 -0.14001112 1.3000001 4290013775
-0.18503772 -0.14001112 1.3000001 4288960576
-0.18218085 -0.14054963 1.3050001 4288829252
-0.17984413 -0.14151894 1.314 4286731602
-0.17799473 -0.14291905 1.327 4293390068
-0.20508161 -0.14044498 1.3380001 4288500285
-0.19826148 -0.13824068 1.317 4288368952
-0.1931821 -0.13719103 1.307 4288105780
-0.189463 -0.13708606 1.3060001 4288040755
-0.18589173 -0.13708606 1.3060001 4288106808
-0.18315808 -0.13771585 1.312 4288632898
-0.18093909 -0.13876551 1.322 4286407526
-0.1794702 -0.14044498 1.3380001 4293653240
-0.18080457 -0.14443371 1.376 4278190080
-0.22028507 -0.14435136 1.4120001 4288699982
-0.20600125 -0.1373996 1.3440001 4288304707
-0.19856258 -0.1348438 1.319 4288435521
-0.19362551 -0.13392371 1.3100001 4288566848
-0.18975314 -0.13371925 1.3080001 4288238394
-0.18646109 -0.13392371 1.3100001 4288369980
-0.18371651 -0.13453712 1.3160001 4288764737
-0.18134969 -0.13545719 1.325 4287059286
-0.17973845 -0.13699067 1.34 4294309114
-0.17962198 -0.13975093 1.3670001 4278190080
-0.22200118 -0.14158469 1.4230001 4288174407
-0.20600125 -0.13372442 1.3440001 4288238914
-0.19886366 -0.13143598 1.3210001 4288238912
-0.19421671 -0.1307395 1.314 4288435521
-0.19033344 -0.13054049 1.312 4288041531
-0.18674576 -0.13054049 1.312 4288567877
-0.18385608 -0.13103798 1.317 4288765508
-0.18134969 -0.13183396 1.325 4287388503
-0.17973845 -0.13332643 1.34 4294966527
-0.17922778 -0.13571435 1.3640001 4293389552
-0.22137713 -0.13730644 1.419 4278190080
-0.20600125 -0.13004923 1.3440001 4287187766
-0.19871311 -0.12772693 1.3200001 4286924340
-0.19421671 -0.12714635 1.314 4287054387
-0.1900433 -0.12675931 1.3100001 4287186994
-0.18674576 -0.12695281 1.312 4287581243
-0.18357688 -0.12724312 1.3150001 4287714886
-0.18148655 -0.12830751 1.3260001 4288178019
-0.18000673 -0.12985571 1.342 4286138444
-0.17935918 -0.13208126 1.365 4292264394
-0.18296042 -0.13759674 1.4220001 4294440187
-0.21950501 -0.13229783 1.4070001 4287911248
-0.20753402 -0.12731434 1.3540001 4287713865
-0.20036905 -0.12515168 1.3310001 4287648327
-0.19539918 -0.12430543 1.322 4287449665
-0.19134894 -0.12402335 1.319 4287384640
-0.18802679 -0.1242114 1.3210001 4287384643
-0.18497293 -0.12458751 1.325 4288308575
-0.18299209 -0.12571585 1.337 4287980126
-0.18161634 -0.12731434 1.3540001 4287386709
-0.18041037 -0.12910087 1.373 4287582556
-0.17832851 -0.13032325 1.386 4285678423
-0.17768674 -0.13267395 1.411 4294505983
-0.22462243 -0.12918073 1.4150001 4287056974
-0.21622884 -0.12653321 1.386 4287978327
-0.20983312 -0.12498122 1.3690001 4288043609
-0.20353039 -0.12342922 1.3520001 4288240981
-0.19805966 -0.1223337 1.34 4288242016
-0.19323486 -0.12160335 1.332 4288439648
-0.18987715 -0.12178593 1.3340001 4288176736
-0.18706694 -0.1223337 1.34 4289100407
-0.18545571 -0.1237031 1.355 4289561209
-0.18336006 -0.12479863 1.3670001 4288307033
-0.18014757 -0.12516381 1.3710001 4288763983
-0.17562658 -0.12461604 1.365 4288301381
-0.17113839 -0.12406828 1.3590001 4287184967
-0.17025568 -0.12616804 1.3820001 4293717490
-0.22752289 -0.12478005 1.409 4286793551
-0.21747896 -0.12132623 1.3700001 4287385167
-0.21357666 -0.12123767 1.3690001 4287648851
-0.21059951 -0.12168047 1.3740001 4290215291
-0.2065412 -0.12150335 1.3720001 4287912024
-0.20131141 -0.12061776 1.3620001 4288306784
-0.19599122 -0.11964361 1.3510001 4288374117
-0.19243923 -0.11973216 1.3520001 4288045920
-0.18957978 -0.12026352 1.358 4288771183
-0.187235 -0.12114911 1.368 4289493878
-0.18322591 -0.120972 1.3660001 4289818991
-0.17857079 -0.12035207 1.3590001 4289025364
-0.17356795 -0.11946649 1.3490001 4288826698
-0.16899759 -0.11884657 1.342 4288367698
-0.16619025 -0.11946649 1.3490001 4286205017
-0.16768119 -0.12327454 1.3920001 4293390068
-0.22122523 -0.11757996 1.3700001 4285083188
-0.21303414 -0.11517686 1.342 4287581778
-0.21014446 -0.11560598 1.3470001 4287648851
-0.20753402 -0.11620677 1.3540001 4288504673
-0.20473471 -0.1167217 1.36 4287648594
-0.20057239 -0.11646423 1.3570001 4287384652
-0.19613628 -0.1160351 1.3520001 4287582546
-0.19229689 -0.11594928 1.3510001 4288964199
-0.18874216 -0.1160351 1.3520001 4290677125
-0.18504511 -0.1160351 1.3520001 4289886067
-0.18054324 -0.11552016 1.3460001 4289157979
-0.17594281 -0.11491939 1.3390001 4289090900
-0.17150933 -0.11440444 1.3330001 4289286994
-0.16748643 -0.11414696 1.33 4288432970
-0.1645887 -0.11466192 1.3360001 4286398797
-0.16358553 -0.11655006 1.358 4293915385
-0.23088318 -0.11682492 1.406 4284361520
-0.21734975 -0.11183952 1.3460001 4285869620
-0.21017675 -0.11001153 1.3240001 4288170319
-0.20671228 -0.11009461 1.325 4291198077
-0.20370214 -0.11042698 1.3290001 4289421666
-0.20112176 -0.11100861 1.3360001 4289353050
-0.19776405 -0.11117478 1.3380001 4289288025
-0.19410528 -0.11117478 1.3380001 4290209129
-0.19016184 -0.11100861 1.3360001 4290670452
-0.18622932 -0.11084242 1.3340001 4290738555
-0.18203403 -0.11051006 1.33 4290279031
-0.17786059 -0.1101777 1.3260001 4288304725
-0.17397183 -0.11001153 1.3240001 4289619043
-0.17060867 -0.1101777 1.3260001 4289352787
-0.16723457 -0.11034389 1.3280001 4288760901
-0.1644655 -0.11092552 1.335 4287450964
-0.16286276 -0.11233805 1.3520001 4294045944
-0.16411021 -0.11582784 1.3940001 4293455347
-0.2262852 -0.11073025 1.378 4286658877
-0.21492757 -0.10695352 1.3310001 4287973191
-0.2085893 -0.10558748 1.314 4288695892
-0.20421611 -0.10518569 1.309 4289420637
-0.20078993 -0.10526605 1.3100001 4289355358
-0.19780986 -0.10558748 1.314 4289288027
-0.19451234 -0.10574819 1.3160001 4289353050
-0.19105878 -0.10582854 1.317 4289617251
-0.18745744 -0.10582854 1.317 4288565846
-0.18357688 -0.10566783 1.3150001 4286660417
-0.17970727 -0.10550711 1.3130001 4285083952
-0.17598273 -0.10542676 1.312 4283838503
-0.17305204 -0.10582854 1.317 4285475624
-0.16996536 -0.10614996 1.3210001 4288366405
-0.16685678 -0.10647138 1.325 4288694083
-0.16384953 -0.10687316 1.33 4287384917
-0.16214001 -0.10815886 1.3460001 4294110707
-0.16234432 -0.1108106 1.3790001 4293258736
-0.2246431 -0.10618588 1.368 4287446595
-0.21428168 -0.10300341 1.327 4287905854
-0.20843057 -0.10191671 1.3130001 4288563275
-0.20390411 -0.10145099 1.307 4288694607
-0.20017682 -0.10137336 1.3060001 4284953134
-0.19675609 -0.10145099 1.307 4285218620
-0.19347769 -0.10160622 1.309 4285680454
-0.18960808 -0.10145099 1.307 4285482821
-0.1861764 -0.1015286 1.3080001 4285614920
-0.18259966 -0.1015286 1.3080001 4285154371
-0.17929667 -0.10168385 1.3100001 4284430135
-0.1758486 -0.10176147 1.3110001 4284693048
-0.17318344 -0.10230482 1.3180001 4284362284
-0.17022267 -0.10269292 1.3230001 4288039760
-0.16710864 -0.10300341 1.327 4288497991
-0.16421913 -0.10346914 1.3330001 4288502884
-0.16226047 -0.10455583 1.3470001 4294242294
-0.16187342 -0.10672923 1.3750001 4293192689
-0.22513573 -0.10266973 1.3710001 4287512903
-0.21460462 -0.099524491 1.3290001 4288035909
-0.2089068 -0.09855096 1.3160001 4288299333
-0.20437214 -0.098101638 1.3100001 4288102983
-0.20048335 -0.097951859 1.3080001 4285019954
-0.19660555 -0.097802088 1.3060001 4285744966
-0.19303428 -0.097802088 1.3060001 4285417030
-0.18888271 -0.097502545 1.302 4284563004
-0.18546472 -0.09757743 1.3030001 4284694847
-0.18204127 -0.097652309 1.304 4284759100
-0.17929667 -0.098101638 1.3100001 4284363829
-0.17598273 -0.098251402 1.312 4284100143
-0.17318344 -0.098700732 1.3180001 4283442211
-0.17022267 -0.099075168 1.3230001 4286330171
-0.1673605 -0.099524491 1.3290001 4288236377
-0.1645887 -0.10004869 1.3360001 4288635248
-0.16250139 -0.10102222 1.3490001 4294044914
-0.16210887 -0.10311905 1.3770001 4293192175
-0.22694206 -0.099714391 1.3820001 4278190080
-0.21621941 -0.096611843 1.3390001 4288434517
-0.20985927 -0.095385253 1.322 4288365644
-0.20515217 -0.094880193 1.3150001 4287906634
-0.20140301 -0.094808035 1.314 4284690736
-0.19750878 -0.094663724 1.312 4284493618
-0.19406892 -0.094735883 1.3130001 4284165681
-0.18960808 -0.094302975 1.307 4284429625
-0.1857494 -0.094158664 1.3050001 4283771695
-0.18218085 -0.094158664 1.3050001 4284098860
-0.17915981 -0.094447277 1.309 4285609019
-0.1758486 -0.09459158 1.3110001 4287254872
-0.17278925 -0.094880193 1.3150001 4284364855
-0.17022267 -0.095457412 1.3230001 4285216316
-0.16799015 -0.096251078 1.3340001 4288567143
-0.16545108 -0.096900448 1.3430001 4288306543
-0.16298324 -0.097621977 1.353 4293781743
-0.16257977 -0.099642232 1.381 4293192175
-0.2285842 -0.096629478 1.3920001 4278190080
-0.21751124 -0.093505673 1.3470001 4289028713
-0.21081173 -0.092186742 1.3280001 4288762972
-0.20608823 -0.091700815 1.3210001 4286727752
-0.20201612 -0.091492563 1.3180001 4285349949
-0.19780986 -0.091214895 1.314 4285546306
-0.19406892 -0.091145471 1.3130001 4285152576
-0.18989822 -0.090867803 1.309 4285021508
-0.1861764 -0.090798378 1.3080001 4284759362
-0.18301848 -0.091006644 1.3110001 4284627002
-0.17970727 -0.091145471 1.3130001 4286398793
-0.17638513 -0.091284312 1.3150001 4285284164
-0.17292064 -0.091353729 1.3160001 4284495929
-0.17073734 -0.092117324 1.327 4285939525
-0.16849387 -0.092880912 1.3380001 4287976287
-0.16582066 -0.093436264 1.3460001 4288174442
-0.16322415 -0.094061017 1.355 4293780459
-0.16257977 -0.095865875 1.381 4293126382
-0.21880306 -0.090355754 1.355 4288832876
-0.21176417 -0.08895541 1.3340001 4288698206
-0.20686826 -0.088421941 1.3260001 4287845720
-0.20278248 -0.088221893 1.3230001 4285939776
-0.19871311 -0.088021845 1.3200001 4286006345
-0.19510356 -0.088021845 1.3200001 4285678922
-0.19134894 -0.087955162 1.319 4285154890
-0.18759978 -0.087888479 1.3180001 4284364604
-0.18441451 -0.088088527 1.3210001 4284299581
-0.18052849 -0.087955162 1.319 4285154890
-0.17705579 -0.088021845 1.3200001 4285680460
-0.17357764 -0.088088527 1.3210001 4284957762
-0.17099467 -0.088621996 1.3290001 4284297007
-0.1686198 -0.089288823 1.3390001 4288305503
-0.16594385 -0.089822292 1.3470001 4288241769
-0.16322415 -0.090355754 1.355 4292199375
-0.1622266 -0.091889471 1.378 4293126380
-0.21977192 -0.087034188 1.3610001 4288370015
-0.21208167 -0.085435472 1.3360001 4288435547
-0.20718031 -0.084923886 1.3280001 4287846233
-0.20308904 -0.084732033 1.325 4286007109
-0.19886366 -0.08447624 1.3210001 4285482824
-0.19480795 -0.084284395 1.3180001 4285153605
-0.19120386 -0.084284395 1.3180001 4284694085
-0.18774213 -0.084348343 1.319 4284694596
-0.18483332 -0.084668085 1.3240001 4284233788
-0.18107595 -0.084604137 1.3230001 4285154118
-0.17772646 -0.084732033 1.325 4285613896
-0.17423463 -0.084795982 1.3260001 4285089346
-0.17150933 -0.085243627 1.3330001 4285020214
-0.16849387 -0.085563369 1.3380001 4288238170
-0.16557427 -0.085947059 1.3440001 4288503660
-0.16310368 -0.08658655 1.3540001 4290621107
-0.16199113 -0.087993421 1.376 4293257455
-0.22090228 -0.083741024 1.368 4288173919
-0.21303414 -0.082149453 1.342 4288829792
-0.20764831 -0.081476092 1.3310001 4287845720
-0.20339559 -0.081231236 1.327 4286401097
-0.19931528 -0.081047595 1.3240001 4285087038
-0.19525136 -0.080863953 1.3210001 4285219652
-0.19178416 -0.080925167 1.322 4284563264
-0.18816914 -0.080925167 1.322 4285155401
-0.18497293 -0.081108809 1.325 4283773233
-0.18162343 -0.081231236 1.327 4285152831
-0.17839713 -0.081414886 1.33 4285350206
-0.17528582 -0.081659742 1.3340001 4285545786
-0.17189533 -0.08178217 1.3360001 4287975507
-0.16849387 -0.081904598 1.3380001 4288302934
-0.16545108 -0.082210667 1.3430001 4288108643
-0.16298324 -0.082822807 1.353 4289567390
-0.16210887 -0.08429195 1.3770001 4293191662
-0.22138672 -0.080175646 1.3710001 4288371812
-0.21319287 -0.078538217 1.3430001 4288765795
-0.20749231 -0.077777989 1.33 4288631899
-0.2032423 -0.077544063 1.3260001 4286003516
-0.19916473 -0.077368625 1.3230001 4285937725
-0.19525136 -0.077251665 1.3210001 4285085496
-0.19134894 -0.077134706 1.319 4284431418
-0.18774213 -0.077134706 1.319 4285151548
-0.18455411 -0.077310145 1.322 4286332483
-0.18134969 -0.077485584 1.325 4287252302
-0.17812885 -0.07766103 1.3280001 4287976277
-0.17515443 -0.077953421 1.3330001 4287647311
-0.17163798 -0.078011908 1.3340001 4287975247
-0.16849387 -0.078245826 1.3380001 4288302931
-0.16557427 -0.078596696 1.3440001 4288437091
-0.16334462 -0.079298452 1.3560001 4288051079
-0.21382785 -0.075088754 1.3470001 4288962152
-0.20811634 -0.074364066 1.3340001 4288107865
-0.20370214 -0.07408534 1.3290001 4287711311
-0.19961634 -0.073918104 1.3260001 4287514443
-0.19569479 -0.073806614 1.3240001 4287450446
-0.19192922 -0.073750868 1.3230001 4287514958
-0.18831146 -0.073750868 1.3230001 4287711824
-0.18483332 -0.073806614 1.3240001 4287317579
-0.18148655 -0.073918104 1.3260001 4287317579
-0.17839713 -0.074141085 1.33 4287252039
-0.17528582 -0.074364066 1.3340001 4287054658
-0.17189533 -0.074475557 1.3360001 4287843659
-0.16874573 -0.074698538 1.34 4288435285
-0.16594385 -0.075088754 1.3470001 4288501599
-0.16358553 -0.075701952 1.358 4286933367
-0.21398661 -0.071458377 1.348 4288831081
-0.20811634 -0.070716232 1.3340001 4288763485
-0.20385541 -0.070504189 1.33 4288106835
-0.19976689 -0.070345156 1.327 4287383112
-0.19584259 -0.070239134 1.325 4287646282
-0.19192922 -0.070133112 1.3230001 4287384139
-0.18831146 -0.070133112 1.3230001 4287186760
-0.18483332 -0.070186123 1.3240001 4287581004
-0.18134969 -0.070239134 1.325 4287252039
-0.17799473 -0.070345156 1.327 4287383625
-0.17462882 -0.070451178 1.3290001 4287843663
-0.17138065 -0.07061021 1.332 4287844174
-0.16849387 -0.070928276 1.3380001 4288304214
-0.16569746 -0.071299352 1.345 4288435808
-0.16346507 -0.071935475 1.3570001 4287782253
-0.21478032 -0.068023644 1.353 4288764774
-0.2090524 -0.06737005 1.34 4288829278
-0.20462178 -0.067118667 1.335 4288040530
-0.20051959 -0.066967845 1.332 4287449418
-0.1961382 -0.066716462 1.327 4287712075
-0.19221938 -0.066615909 1.325 4287449932
-0.18845381 -0.066565633 1.3240001 4287449418
-0.18539172 -0.066766739 1.3280001 4287581004
-0.1817603 -0.066766739 1.3280001 4287975762
-0.17839713 -0.066867292 1.33 4287581004
-0.17476024 -0.066867292 1.33 4287581004
-0.17163798 -0.067068398 1.3340001 4287581004
-0.1686198 -0.067319773 1.3390001 4287581004
-0.16569746 -0.067621432 1.345 4288370785
-0.16310368 -0.068073913 1.3540001 4288636788
-0.20874038 -0.063610725 1.3380001 4288566622
-0.20462178 -0.063468099 1.335 4288303961
-0.20067014 -0.063373014 1.3330001 4287646542
-0.19643381 -0.063182853 1.3290001 4287646797
-0.19221938 -0.062992685 1.325 4287449933
-0.18831146 -0.0628976 1.3230001 4287449933
-0.18511251 -0.063040227 1.3260001 4287449933
-0.18162343 -0.063087769 1.327 4286988612
-0.17799473 -0.063087769 1.327 4287054405
-0.17436604 -0.063087769 1.327 4286792003
-0.17138065 -0.06332548 1.332 4286988867
-0.16849387 -0.063610725 1.3380001 4287712075
-0.16557427 -0.063895978 1.3440001 4288567133
-0.20952041 -0.060175985 1.3430001 4288765025
-0.20508161 -0.059951954 1.3380001 4288370267
-0.20127228 -0.059907142 1.337 4286463038
-0.19717284 -0.059772726 1.3340001 4286857026
-0.19294472 -0.059593495 1.33 4287121481
-0.18888082 -0.059459072 1.327 4287581778
-0.18553132 -0.059548687 1.3290001 4287120970
-0.18203403 -0.059593495 1.33 4286528833
-0.17826299 -0.059548687 1.3290001 4286989384
-0.17489162 -0.059638299 1.3310001 4287186763
-0.17189533 -0.059862338 1.3360001 4287449163
-0.16912352 -0.060175985 1.3430001 4287712590
-0.20508161 -0.056293178 1.3380001 4287844950
-0.20097122 -0.056166958 1.335 4288172886
-0.19732064 -0.056166958 1.335 4287581519
-0.19323486 -0.056040745 1.332 4287516755
-0.18916547 -0.055914525 1.3290001 4287516755
-0.18553132 -0.055914525 1.3290001 4287449933
-0.18203403 -0.055956598 1.33 4287515726
-0.17826299 -0.055914525 1.3290001 4287514958
-0.17502302 -0.056040745 1.332 4287054407
-0.17189533 -0.056209031 1.3360001 4287448650
-0.18987715 -0.052477051 1.3340001 4287581519
-0.18595013 -0.052398376 1.332 4287383625
-0.18244463 -0.052437712 1.3330001 4287186246
-0.17879952 -0.052437712 1.3330001 4287514956
