# .PCD v0.7 - Point Cloud Data file format
VERSION 0.7
FIELDS x y z rgba
SIZE 4 4 4 4
TYPE F F F U
COUNT 1 1 1 1
WIDTH 367
HEIGHT 1
VIEWPOINT 0 0 0 1 0 0 0
POINTS 367
DATA ascii
-0.091970131 -0.096678786 1.291 4292061864
-0.087001279 -0.095106162 1.2700001 4290942351
-0.083396904 -0.094956398 1.268 4289622881
-0.080307767 -0.095405713 1.274 4289686869
-0.077306412 -0.096004814 1.2820001 4287589215
-0.094094887 -0.091777645 1.2720001 4289293392
-0.088906839 -0.090045996 1.248 4292123536
-0.085083134 -0.08961308 1.2420001 4290741625
-0.081423797 -0.089324467 1.238 4291925640
-0.078353651 -0.089685231 1.243 4290013264
-0.075195864 -0.089973837 1.2470001 4289621856
-0.072304033 -0.090623215 1.256 4292529104
-0.099107347 -0.089687698 1.2920001 4278190080
-0.092393473 -0.086702742 1.2490001 4289751624
-0.087980725 -0.085730888 1.235 4292190101
-0.084329583 -0.08545322 1.2310001 4290082405
-0.080831863 -0.085314386 1.2290001 4291266162
-0.077597223 -0.08545322 1.2310001 4290079568
-0.074472249 -0.085730888 1.235 4289621339
-0.071555659 -0.086286232 1.243 4289895842
-0.098493673 -0.085621253 1.284 4278190080
-0.092393473 -0.083287343 1.2490001 4289686089
-0.087980725 -0.082353771 1.235 4289686607
-0.084261082 -0.082020357 1.23 4290410079
-0.080634549 -0.081753619 1.2260001 4289554772
-0.077471152 -0.081953675 1.2290001 4288369469
-0.074532546 -0.082420461 1.2360001 4288043083
-0.098877221 -0.082429886 1.289 4278190080
-0.092319503 -0.079807989 1.248 4288371009
-0.08805196 -0.079040602 1.2360001 4287909947
-0.084192574 -0.078592964 1.2290001 4287909947
-0.080831863 -0.078592964 1.2290001 4287778361
-0.077534184 -0.078656904 1.23 4288041281
-0.074592851 -0.07910455 1.2370001 4287978317
-0.07489454 -0.083197266 1.3010001 4291608002
-0.099184051 -0.079149954 1.2930001 4288371787
-0.092837319 -0.076823816 1.2550001 4288239173
-0.0884794 -0.076028034 1.2420001 4287910208
-0.084672108 -0.07566075 1.2360001 4287844156
-0.081226483 -0.075599536 1.235 4287975488
-0.077975437 -0.075721964 1.2370001 4287910986
-0.076341592 -0.077497177 1.266 4288043602
-0.074434005 -0.079149954 1.2930001 4287458421
-0.07451722 -0.083190091 1.3590001 4293454834
-0.099184051 -0.075614236 1.2930001 4288042052
-0.092837319 -0.073392011 1.2550001 4288042052
-0.088621885 -0.072748728 1.2440001 4287778880
-0.084740616 -0.072339371 1.2370001 4287843903
-0.081358023 -0.072339371 1.2370001 4287777340
-0.078164548 -0.07251481 1.24 4288106304
-0.076763704 -0.074444637 1.273 4287778882
-0.074434005 -0.075614236 1.2930001 4287589488
-0.071994938 -0.076783828 1.3130001 4294375420
-0.070592634 -0.079239979 1.355 4293521140
-0.09880051 -0.071799785 1.2880001 4287647294
-0.092911288 -0.070015945 1.256 4288107588
-0.089904189 -0.070350409 1.2620001 4287778880
-0.085973702 -0.069960199 1.2550001 4288041282
-0.08227881 -0.069737218 1.251 4287712317
-0.080496877 -0.071186587 1.2770001 4287712317
-0.077909432 -0.072022766 1.2920001 4287713605
-0.074721843 -0.072357245 1.2980001 4287849831
-0.070953123 -0.072134256 1.294 4286401881
-0.067466758 -0.072190002 1.2950001 4294569714
-0.066245653 -0.074810028 1.342 4293520625
-0.10693026 -0.071352355 1.3460001 4278190080
-0.09880051 -0.068277739 1.2880001 4278190080
-0.09601821 -0.068807848 1.2980001 4286924351
-0.091756411 -0.068277739 1.2880001 4286989884
-0.087206796 -0.067482576 1.273 4287318079
-0.083331138 -0.067164518 1.2670001 4287253056
-0.081568487 -0.068595804 1.294 4287384900
-0.078210935 -0.068754837 1.2970001 4287782229
-0.074318871 -0.068436772 1.291 4287389280
-0.070020966 -0.067694619 1.2770001 4288176487
-0.066216409 -0.067376554 1.271 4286531157
-0.063431934 -0.068118706 1.2850001 4293516001
-0.062855706 -0.071458377 1.348 4293586931
-0.11061091 -0.067671709 1.3460001 4286664015
-0.10136925 -0.064152375 1.276 4287781720
-0.098953925 -0.064856239 1.2900001 4287583310
-0.096166149 -0.065359004 1.3000001 4278190080
-0.092611283 -0.065359004 1.3000001 4287385670
-0.088371374 -0.064856239 1.2900001 4287517256
-0.084975399 -0.064956792 1.2920001 4287451465
-0.081568487 -0.065057345 1.294 4288175706
-0.077728525 -0.06480597 1.289 4288637289
-0.073512934 -0.064202651 1.2770001 4288639345
-0.069308147 -0.063549064 1.2640001 4288835697
-0.065539137 -0.063247405 1.258 4287976287
-0.06259276 -0.06375017 1.268 4287648098
-0.060664155 -0.06540928 1.3010001 4294111224
-0.10792315 -0.060425434 1.271 4287253591
-0.1029684 -0.059569687 1.253 4286662734
-0.099700943 -0.059664771 1.2550001 4287188562
-0.096959509 -0.060092647 1.2640001 4287978846
-0.094242826 -0.060568061 1.274 4287714904
-0.090972781 -0.060710683 1.2770001 4288307811
-0.087275296 -0.060568061 1.274 4288504163
-0.083594218 -0.060425434 1.271 4287320916
-0.080055624 -0.060377896 1.2700001 4288241767
-0.076341592 -0.060187727 1.266 4290611595
-0.072361603 -0.059759852 1.2570001 4289165173
-0.068540491 -0.05942706 1.25 4278190080
-0.06496606 -0.059284434 1.2470001 4288631635
-0.062148489 -0.059854936 1.2590001 4288760911
-0.05973158 -0.060900852 1.281 4287184977
-0.0590818 -0.063991055 1.3460001 4294440442
-0.1142034 -0.0583837 1.3030001 4278190080
-0.10681929 -0.056367379 1.258 4286792266
-0.10222881 -0.055740081 1.2440001 4287385169
-0.09866818 -0.055650465 1.2420001 4287319889
-0.095425345 -0.055740081 1.2440001 4290545286
-0.092245534 -0.0558745 1.2470001 4287319889
-0.089120559 -0.056053732 1.251 4287451732
-0.085836694 -0.056143347 1.253 4287189332
-0.08214727 -0.05596412 1.2490001 4286334023
-0.078605793 -0.0558745 1.2470001 4288507243
-0.075195864 -0.0558745 1.2470001 4289166200
-0.071670793 -0.055784885 1.245 4289162604
-0.068266332 -0.055784885 1.245 4288961629
-0.065018162 -0.055919308 1.248 4289090383
-0.062049765 -0.056322575 1.2570001 4288892489
-0.059451804 -0.0571291 1.2750001 4288235601
-0.058028337 -0.059235036 1.322 4293055196
-0.11280106 -0.054147474 1.2870001 4278190080
-0.10622492 -0.052632861 1.251 4288104013
-0.10198227 -0.05221213 1.2410001 4288565591
-0.098270975 -0.05204384 1.2370001 4288763736
-0.094734967 -0.051959697 1.235 4288435287
-0.091209896 -0.05187555 1.233 4288368976
-0.087838247 -0.05187555 1.233 4288631896
-0.084672108 -0.052001771 1.2360001 4289358183
-0.081094943 -0.05187555 1.233 4291992217
-0.077786326 -0.051917627 1.2340001 4293504429
-0.074411944 -0.051917627 1.2340001 4290804093
-0.071267828 -0.052085917 1.238 4289945185
-0.067992166 -0.052170061 1.24 4289551962
-0.064913966 -0.052422497 1.2460001 4289747547
-0.061901674 -0.052759074 1.2540001 4289352273
-0.05921866 -0.053432241 1.2700001 4288235339
-0.05741382 -0.055030998 1.3080001 4285810256
-0.11253812 -0.050510146 1.284 4287840843
-0.10630982 -0.049251325 1.2520001 4288694093
-0.10206445 -0.048857946 1.2420001 4289024857
-0.098350413 -0.048700593 1.238 4289421155
-0.094965093 -0.048700593 1.238 4289093215
-0.091357842 -0.048582576 1.235 4288697689
-0.087767005 -0.048464559 1.2320001 4289156952
-0.084124073 -0.048307206 1.228 4289091420
-0.080766097 -0.048307206 1.228 4289289817
-0.077849366 -0.048582576 1.235 4289487975
-0.074532546 -0.048621915 1.2360001 4289290848
-0.071382962 -0.048779268 1.24 4289157465
-0.068101831 -0.048857946 1.2420001 4289353555
-0.065070257 -0.049133312 1.2490001 4289417806
-0.062099125 -0.049487352 1.258 4288628039
-0.059451804 -0.050156102 1.2750001 4288105042
-0.05741382 -0.051454261 1.3080001 4289167756
-0.11280106 -0.047108848 1.2870001 4288102219
-0.10639475 -0.045864325 1.253 4288301643
-0.10222881 -0.04553489 1.2440001 4285346861
-0.098509304 -0.045388475 1.24 4285544507
-0.095118508 -0.045388475 1.24 4287185993
-0.091505796 -0.045278665 1.2370001 4287709514
-0.087767005 -0.045095645 1.2320001 4287317579
-0.08378154 -0.044766214 1.223 4286923848
-0.080700323 -0.044912629 1.2270001 4285807677
-0.078101508 -0.04535187 1.2390001 4283707691
-0.074894354 -0.045461684 1.2420001 4284430125
-0.071440533 -0.045425076 1.2410001 4284755242
-0.067992166 -0.045388475 1.24 4288695112
-0.064913966 -0.045608096 1.2460001 4288628798
-0.062148489 -0.046083946 1.2590001 4288694081
-0.059638318 -0.046816014 1.279 4287386193
-0.057677183 -0.048097141 1.314 4287920771
-0.11376517 -0.043962091 1.2980001 4287906382
-0.10707403 -0.042708933 1.261 4288105295
-0.10280404 -0.042370241 1.251 4284754221
-0.09890651 -0.04216703 1.245 4284690736
-0.095425345 -0.04213316 1.2440001 4284431668
-0.091727719 -0.041997686 1.24 4286009419
-0.08726833 -0.04148965 1.225 4285943626
-0.084055565 -0.041557387 1.2270001 4285679943
-0.081094943 -0.041760601 1.233 4285483336
-0.078227587 -0.042031553 1.2410001 4285089605
-0.075135566 -0.042200897 1.2460001 4284166963
-0.071785927 -0.042234767 1.2470001 4283965724
-0.068430826 -0.042268638 1.248 4288497733
-0.065278649 -0.042437982 1.253 4288299323
-0.0625434 -0.042912148 1.2670001 4287972668
-0.059964724 -0.043555662 1.286 4287516757
-0.058116131 -0.044842687 1.3240001 4286932849
-0.11429106 -0.040599506 1.304 4288171597
-0.10758351 -0.039447524 1.2670001 4287450186
-0.10321493 -0.039105043 1.256 4285019955
-0.099065401 -0.038824834 1.2470001 4284691765
-0.095348626 -0.038700297 1.243 4284429876
-0.091653734 -0.038575757 1.2390001 4284628025
-0.087695763 -0.038326681 1.2310001 4284891199
-0.084398091 -0.038357813 1.2320001 4284758588
-0.081292257 -0.038482353 1.2360001 4284627774
-0.078227587 -0.038638026 1.2410001 4284298296
-0.075256161 -0.038855966 1.248 4283968306
-0.071843497 -0.038855966 1.248 4283573799
-0.068595327 -0.03894937 1.251 4287054910
-0.065330751 -0.039042775 1.2540001 4287775802
-0.0625434 -0.039447524 1.2670001 4287973966
-0.059918091 -0.040007945 1.2850001 4288240737
-0.11472929 -0.037175704 1.309 4288371296
-0.10843263 -0.036266904 1.2770001 4287123539
-0.10395452 -0.0359261 1.2650001 4284101933
-0.099700943 -0.035642099 1.2550001 4284362286
-0.095808879 -0.0354717 1.2490001 4284165936
-0.09209758 -0.035358101 1.245 4284297010
-0.0884794 -0.0352729 1.2420001 4284298036
-0.085083134 -0.0352729 1.2420001 4284430135
-0.08162111 -0.035244502 1.2410001 4283969071
-0.078353651 -0.035301302 1.243 4283771954
-0.075376764 -0.035500098 1.25 4283376937
-0.072188899 -0.035613701 1.2540001 4283180846
-0.068979152 -0.035727303 1.258 4285807936
-0.065695435 -0.035812501 1.261 4287842632
-0.062790215 -0.036124904 1.2720001 4288040529
-0.060011346 -0.036550902 1.2870001 4288371812
-0.11472929 -0.033596233 1.309 4288702318
-0.10851754 -0.0328006 1.2780001 4285810246
-0.10387235 -0.032441281 1.2640001 4285677635
-0.099700943 -0.03221029 1.2550001 4285547076
-0.095808879 -0.032056298 1.2490001 4285086526
-0.09217155 -0.0319793 1.2460001 4285218371
-0.08869312 -0.031953637 1.245 4284299577
-0.085151643 -0.031902306 1.243 4283510316
-0.08162111 -0.031850975 1.2410001 4286796116
-0.078353651 -0.031902306 1.243 4287386458
-0.075316466 -0.032056298 1.2490001 4285022273
-0.072016194 -0.032107629 1.251 4283774523
-0.06881465 -0.03221029 1.2550001 4284889147
-0.065591238 -0.032312952 1.2590001 4288040789
-0.062740847 -0.03262094 1.271 4288238681
-0.059918091 -0.032980256 1.2850001 4287648343
-0.10885719 -0.02939762 1.2820001 4287387487
-0.10403671 -0.029030722 1.266 4286203985
-0.10009816 -0.028893137 1.2600001 4286007887
-0.096192427 -0.028755549 1.2540001 4285088843
-0.092615396 -0.028709687 1.2520001 4285220429
-0.089334272 -0.028755549 1.2540001 4284564293
-0.085768186 -0.028709687 1.2520001 4283906872
-0.08227881 -0.028686756 1.251 4284299832
-0.078794904 -0.028663825 1.25 4285349957
-0.075678274 -0.02877848 1.2550001 4284824383
-0.072246462 -0.02877848 1.2550001 4284563261
-0.068979152 -0.028847275 1.258 4284956220
-0.065747529 -0.028938999 1.2620001 4287647060
-0.062839575 -0.029191241 1.273 4287842899
-0.060104609 -0.029558139 1.289 4288240226
-0.10868736 -0.025851585 1.2800001 4287846757
-0.10379018 -0.025508244 1.263 4284628544
-0.099939272 -0.025407262 1.258 4284169533
-0.096039005 -0.02528608 1.2520001 4284432453
-0.092615396 -0.02528608 1.2520001 4284498246
-0.089263037 -0.025306277 1.253 4284431424
-0.085494168 -0.025205296 1.248 4284233786
-0.08214727 -0.025225492 1.2490001 4285022785
-0.078731872 -0.025225492 1.2490001 4285417031
-0.075557671 -0.025306277 1.253 4285350725
-0.072131328 -0.025306277 1.253 4284365623
-0.068869486 -0.025366867 1.256 4284560692
-0.06564334 -0.025447655 1.2600001 4287843923
-0.062740847 -0.025669815 1.271 4288106323
-0.060011346 -0.02599296 1.2870001 4288240226
-0.10885719 -0.022386337 1.2820001 4288437087
-0.10403671 -0.022106944 1.266 4285612867
-0.1001776 -0.022019634 1.261 4285154118
-0.096345834 -0.021932324 1.256 4285022283
-0.092467457 -0.021827551 1.25 4284563013
-0.089049317 -0.021827551 1.25 4284563010
-0.085494168 -0.021792628 1.248 4283576883
-0.082081504 -0.021792628 1.248 4284628797
-0.078857943 -0.021845013 1.251 4285942347
-0.075617976 -0.0218974 1.2540001 4285940807
-0.072304033 -0.021932324 1.256 4284491049
-0.069033988 -0.021984709 1.2590001 4286462270
-0.065851726 -0.022072019 1.2640001 4288039760
-0.062888935 -0.02224664 1.274 4288106323
-0.060011346 -0.022473646 1.2870001 4288237916
-0.10885719 -0.018880695 1.2820001 4288435798
-0.10420106 -0.01867451 1.268 4287451473
-0.1001776 -0.018571418 1.261 4286268487
-0.096422553 -0.018512506 1.2570001 4284691768
-0.092319503 -0.018379958 1.248 4284235067
-0.088835597 -0.018365232 1.2470001 4284301117
-0.08542566 -0.018365232 1.2470001 4283642927
-0.08201573 -0.018365232 1.2470001 4284232497
-0.078731872 -0.018394686 1.2490001 4285479995
-0.075437069 -0.01842414 1.251 4286793802
-0.072131328 -0.018453598 1.253 4287843923
-0.068869486 -0.01849778 1.256 4287843151
-0.065799624 -0.018600872 1.263 4287973966
-0.062790215 -0.018733419 1.2720001 4288039502
-0.059964724 -0.018939605 1.286 4288369502
-0.10902701 -0.015399039 1.284 4288633439
-0.10436542 -0.015231138 1.2700001 4287647825
-0.10049537 -0.015171172 1.2650001 4287252807
-0.096729383 -0.015123201 1.261 4287252039
-0.092393473 -0.014979284 1.2490001 4287317064
-0.088978082 -0.014979284 1.2490001 4287251784
-0.085562676 -0.014979284 1.2490001 4287121481
-0.08214727 -0.014979284 1.2490001 4287384140
-0.078857943 -0.01500327 1.251 4287055175
-0.075497366 -0.015015262 1.2520001 4286988867
-0.072246462 -0.015051242 1.2550001 4287448905
-0.069033988 -0.015099213 1.2590001 4287777355
-0.065955922 -0.015183165 1.266 4287842632
-0.062938303 -0.015291102 1.2750001 4288106322
-0.10428324 -0.011749052 1.2690001 4287976528
-0.10033649 -0.011693501 1.263 4287975247
-0.096652679 -0.011665726 1.2600001 4287581002
-0.092541426 -0.011582398 1.251 4287122248
-0.089049317 -0.01157314 1.25 4287188043
-0.085631177 -0.01157314 1.25 4287119940
-0.082213044 -0.01157314 1.25 4287186246
-0.078857943 -0.011582398 1.251 4287317830
-0.075617976 -0.011610175 1.2540001 4286856764
-0.072419167 -0.011647208 1.258 4287184702
-0.069143645 -0.011674984 1.261 4288040011
-0.065903828 -0.011712017 1.2650001 4288040009
-0.062839575 -0.011786086 1.273 4288171345
-0.10444759 -0.0082920073 1.271 4288042580
-0.10057482 -0.0082593868 1.266 4287581000
-0.096345834 -0.0081941467 1.256 4287449414
-0.092837319 -0.0081876228 1.2550001 4287318600
-0.089405514 -0.0081876228 1.2550001 4287252807
-0.085905202 -0.0081810988 1.2540001 4287318346
-0.082476124 -0.0081810988 1.2540001 4287712590
-0.079110086 -0.0081876228 1.2550001 4287515211
-0.075919479 -0.0082137184 1.2590001 4287712075
-0.072649434 -0.0082332911 1.2620001 4287580487
-0.069362983 -0.0082528628 1.2650001 4287711816
-0.066060118 -0.0082724346 1.268 4287711562
-0.10049537 -0.0047937077 1.2650001 4287515209
-0.096422553 -0.0047633918 1.2570001 4287384391
-0.092837319 -0.0047558132 1.2550001 4287450186
-0.089334272 -0.0047520236 1.2540001 4287187273
-0.085836694 -0.0047482336 1.253 4287449932
-0.082476124 -0.0047520236 1.2540001 4287647311
-0.079173118 -0.0047596022 1.256 4287646797
-0.075919479 -0.0047709709 1.2590001 4287317832
-0.0725343 -0.0047747605 1.2600001 4287119938
-0.069253311 -0.0047861291 1.263 4287119938
-0.065955922 -0.0047974973 1.266 4287843148
-0.096729383 -0.0013303332 1.261 4286923588
-0.093059242 -0.0013271682 1.258 4286726722
-0.089547992 -0.0013261132 1.2570001 4286529858
-0.086110719 -0.0013261132 1.2570001 4286661446
-0.082673438 -0.0013261132 1.2570001 4286529090
-0.079362229 -0.0013282232 1.2590001 4286923591
-0.075979784 -0.0013292781 1.2600001 4286331452
-0.072591864 -0.0013303332 1.261 4286528316
-0.069308147 -0.001333498 1.2640001 4286790975
-0.096499257 0.002112845 1.258 4287318347
-0.092985272 0.0021111656 1.2570001 4286858825
-0.089547992 0.0021111656 1.2570001 4287056204
-0.08604221 0.0021094859 1.256 4286464067
-0.082607664 0.0021094859 1.256 4286332481
-0.079362229 0.0021145246 1.2590001 4286595653
-0.075979784 0.002116204 1.2600001 4286923848
