# .PCD v0.7 - Point Cloud Data file format
VERSION 0.7
FIELDS x y z rgba
SIZE 4 4 4 4
TYPE F F F U
COUNT 1 1 1 1
WIDTH 1069
HEIGHT 1
VIEWPOINT 0 0 0 1 0 0 0
POINTS 1069
DATA ascii
-0.055597514 -0.023674063 1.4610001 4279837217
-0.053097975 -0.023690268 1.462 4279837474
-0.050664134 -0.02373888 1.465 4279903267
-0.048088487 -0.023722677 1.4640001 4279903010
-0.045485202 -0.023690268 1.462 4279968803
-0.04283011 -0.02362545 1.4580001 4279968803
-0.040244181 -0.023593044 1.4560001 4279968803
-0.037768811 -0.02362545 1.4580001 4280099619
-0.035310671 -0.023674063 1.4610001 4280099619
-0.032685082 -0.023609249 1.457 4280165412
-0.030135473 -0.023593044 1.4560001 4280165158
-0.027608296 -0.023593044 1.4560001 4280230951
-0.025081119 -0.023593044 1.4560001 4280100136
-0.02252296 -0.023560636 1.4540001 4280296745
-0.11760929 -0.020909645 1.4440001 4281021238
-0.1147044 -0.020837242 1.439 4280889649
-0.11158292 -0.0207214 1.4310001 4280692526
-0.10887042 -0.020677958 1.4280001 4280560682
-0.10646634 -0.02069244 1.429 4280625961
-0.10376772 -0.020648997 1.4260001 4280691755
-0.10100849 -0.020591076 1.4220001 4280692269
-0.097916648 -0.020460753 1.4130001 4280823855
-0.094991185 -0.020359391 1.406 4280758062
-0.092484966 -0.020344909 1.4050001 4280758319
-0.086086661 -0.02117029 1.462 4279903010
-0.083491914 -0.02115581 1.4610001 4279903010
-0.077293023 -0.020851724 1.4400001 4279771424
-0.074741669 -0.020837242 1.439 4279837217
-0.072746046 -0.020982046 1.4490001 4279837217
-0.070424892 -0.021039966 1.4530001 4279903010
-0.068043128 -0.021083409 1.4560001 4279903010
-0.065740928 -0.02115581 1.4610001 4279837217
-0.063205078 -0.02115581 1.4610001 4279968803
-0.060586169 -0.02112685 1.4590001 4279837217
-0.058093578 -0.02114133 1.46 4279968033
-0.055673622 -0.021184772 1.4630001 4279903010
-0.045454092 -0.02115581 1.4610001 4280099619
-0.042506974 -0.020953085 1.447 4280034596
-0.039995417 -0.020953085 1.447 4280034596
-0.035141487 -0.021054449 1.4540001 4280231205
-0.032640219 -0.021068929 1.455 4280362791
-0.03007338 -0.021039966 1.4530001 4280231205
-0.027570371 -0.021054449 1.4540001 4280165158
-0.025063893 -0.021068929 1.455 4280100135
-0.022507472 -0.021039966 1.4530001 4279902757
-0.11173887 -0.018280368 1.4330001 4280889133
-0.10879418 -0.01820383 1.427 4280889133
-0.10624283 -0.018191073 1.4260001 4280691754
-0.10347665 -0.018140046 1.4220001 4280757547
-0.10072435 -0.018089019 1.4180001 4280758060
-0.097570166 -0.017961452 1.4080001 4280692524
-0.094653375 -0.017872155 1.401 4280692526
-0.092090011 -0.017846642 1.399 4280692526
-0.085321181 -0.018484477 1.4490001 4279837217
-0.082691863 -0.018458964 1.447 4279968803
-0.076702587 -0.018229343 1.429 4279837217
-0.074170336 -0.018216586 1.4280001 4279705631
-0.072294205 -0.018369667 1.4400001 4279837217
-0.070134081 -0.018458964 1.447 4279837217
-0.067715995 -0.018484477 1.4490001 4279837217
-0.065245964 -0.018497234 1.45 4279837217
-0.062729202 -0.018497234 1.45 4279837217
-0.060295489 -0.018522747 1.452 4279902240
-0.057695676 -0.018497234 1.45 4280033826
-0.055369187 -0.018561017 1.455 4280099619
-0.052880064 -0.018573774 1.4560001 4279968803
-0.050422054 -0.018599287 1.4580001 4279968803
-0.044582963 -0.018280368 1.4330001 4280099619
-0.042213213 -0.018331397 1.437 4279968803
-0.039801937 -0.018369667 1.4400001 4280034596
-0.037483864 -0.018458964 1.447 4280100389
-0.035020642 -0.018484477 1.4490001 4280034596
-0.032460753 -0.018458964 1.447 4280034596
-0.029866405 -0.018407935 1.4430001 4280100389
-0.027399717 -0.01843345 1.4450001 4280034596
-0.024926083 -0.018458964 1.447 4279968549
-0.022414528 -0.018458964 1.447 4279902757
-0.11197279 -0.015843477 1.4360001 4280823340
-0.10887042 -0.015755212 1.4280001 4280823340
-0.10594481 -0.015689015 1.4220001 4280758060
-0.10340388 -0.015677981 1.4210001 4280758317
-0.10051126 -0.015611783 1.4150001 4280692524
-0.097431578 -0.015512486 1.406 4280692524
-0.09445069 -0.015424221 1.3980001 4280626731
-0.091760881 -0.015380088 1.3940001 4280758319
-0.08461459 -0.015854511 1.437 4279771424
-0.082120389 -0.015854511 1.437 4279902756
-0.07923831 -0.015777279 1.4300001 4279902756
-0.076380529 -0.015700048 1.4230001 4279837217
-0.073858693 -0.015689015 1.4220001 4279705631
-0.072344415 -0.015898643 1.4410001 4279902497
-0.070037141 -0.015942775 1.4450001 4280033826
-0.067622527 -0.015964841 1.447 4280033826
-0.061820708 -0.015766246 1.429 4279967779
-0.059464972 -0.015799345 1.432 4279901986
-0.057098828 -0.015832443 1.4350001 4280033826
-0.05487448 -0.015909676 1.442 4280033826
-0.052008413 -0.015799345 1.432 4279903010
-0.049211647 -0.015700048 1.4230001 4279968803
-0.044396296 -0.015744179 1.427 4280165412
-0.041978206 -0.015766246 1.429 4280034596
-0.039580815 -0.015799345 1.432 4280034596
-0.037380245 -0.015920708 1.4430001 4280034596
-0.034899801 -0.015931742 1.4440001 4280034596
-0.032303721 -0.015887611 1.4400001 4280034596
-0.02965943 -0.015810378 1.4330001 4280034596
-0.027096329 -0.015766246 1.429 4280034596
-0.024633242 -0.015777279 1.4300001 4280034342
-0.022213155 -0.015821412 1.434 4280034343
-0.019834202 -0.015909676 1.442 4280363308
-0.017403437 -0.015975874 1.4480001 4280231722
-0.1057958 -0.013219365 1.4200001 4280823854
-0.10253067 -0.01311696 1.409 4280758316
-0.099871963 -0.013089033 1.406 4280758317
-0.097085088 -0.013042485 1.401 4280824110
-0.094248004 -0.012986629 1.3950001 4280758317
-0.091629229 -0.012958701 1.3920001 4280889903
-0.08921314 -0.012958701 1.3920001 4281284662
-0.0845557 -0.013368315 1.4360001 4279836704
-0.082177542 -0.013386934 1.4380001 4279771424
-0.079459958 -0.013349697 1.434 4279837217
-0.076326862 -0.013237983 1.4220001 4279705632
-0.073702879 -0.013210054 1.419 4279705631
-0.07083828 -0.01313558 1.411 4279902240
-0.068486147 -0.013154198 1.4130001 4279902240
-0.066173814 -0.013182127 1.416 4279902240
-0.061647665 -0.013265911 1.4250001 4279902240
-0.058966663 -0.013219365 1.4200001 4279968033
-0.0563826 -0.013191436 1.4170001 4280033826
-0.05403728 -0.013219365 1.4200001 4280099619
-0.051608909 -0.013228674 1.4210001 4279968803
-0.049038734 -0.013200746 1.4180001 4279968803
-0.046544664 -0.013191436 1.4170001 4279903010
-0.044271849 -0.013247292 1.4230001 4279837474
-0.042125087 -0.013349697 1.434 4280100389
-0.039774299 -0.013396244 1.439 4280034596
-0.03740615 -0.01344279 1.4440001 4280100389
-0.034851462 -0.013424171 1.442 4280033826
-0.032258853 -0.013386934 1.4380001 4280165412
-0.029576642 -0.013303149 1.429 4280231205
-0.026982557 -0.013247292 1.4230001 4280165412
-0.024460981 -0.013219365 1.4200001 4280231205
-0.02196531 -0.013200746 1.4180001 4280100135
-0.1057958 -0.010771781 1.4200001 4280758319
-0.10260343 -0.010695923 1.4100001 4280824110
-0.099942997 -0.010673166 1.4070001 4280824110
-0.097154386 -0.010635237 1.4020001 4280758317
-0.094518252 -0.010612479 1.399 4280758317
-0.092024185 -0.010604895 1.3980001 4280889903
-0.08461459 -0.010900739 1.437 4279771169
-0.082177542 -0.010908325 1.4380001 4279902756
-0.079570778 -0.010893153 1.4360001 4279902756
-0.076112159 -0.010756609 1.4180001 4279836963
-0.073495112 -0.010733852 1.4150001 4279771170
-0.070587263 -0.010665581 1.406 4279771170
-0.06814687 -0.010665581 1.406 4279902240
-0.065799944 -0.010680752 1.4080001 4280033826
-0.061474618 -0.010779367 1.4210001 4280033826
-0.058800563 -0.010741438 1.416 4280033826
-0.056183655 -0.010711095 1.4120001 4280033826
-0.053808954 -0.010726266 1.414 4279968033
-0.051390998 -0.010733852 1.4150001 4280033826
-0.048900399 -0.010726266 1.414 4280033824
-0.046446122 -0.010726266 1.414 4279903008
-0.044240735 -0.010786952 1.4220001 4279903008
-0.04209571 -0.010870395 1.4330001 4280034596
-0.039719015 -0.010900739 1.437 4280034596
-0.037328433 -0.010931082 1.4410001 4280034596
-0.034778956 -0.010915911 1.439 4279968803
-0.032191552 -0.010885567 1.4350001 4280165412
-0.029535247 -0.010824881 1.427 4280165412
-0.02690671 -0.010764195 1.419 4280099619
-0.024392078 -0.010741438 1.416 4280296998
-0.021903347 -0.010726266 1.414 4280297514
-0.10282173 -0.0082831625 1.4130001 4280692526
-0.10015609 -0.0082655754 1.4100001 4280824110
-0.097362272 -0.0082362648 1.4050001 4280824110
-0.094788499 -0.0082245413 1.4030001 4280692524
-0.092419133 -0.0082304031 1.404 4280692525
-0.090302669 -0.0082597136 1.409 4281021491
-0.084379055 -0.0084004039 1.4330001 4279836963
-0.081891797 -0.0084004039 1.4330001 4279771170
-0.079626195 -0.0084238527 1.437 4279705377
-0.077131994 -0.0084238527 1.437 4279771170
-0.074533917 -0.0084121292 1.4350001 4279836963
-0.070185624 -0.0081952307 1.3980001 4279771170
-0.067662187 -0.0081835063 1.396 4279771170
-0.06367106 -0.0082948869 1.4150001 4279968033
-0.06130157 -0.0083066104 1.4170001 4280033826
-0.058842085 -0.0083066104 1.4170001 4280099619
-0.056303024 -0.0082948869 1.4150001 4279968033
-0.0537709 -0.0082831625 1.4130001 4279968031
-0.051209401 -0.0082655754 1.4100001 4280033824
-0.048762068 -0.0082655754 1.4100001 4280165410
-0.04638043 -0.0082773007 1.4120001 4280033824
-0.044147402 -0.0083183348 1.419 4279968031
-0.041948833 -0.0083710933 1.4280001 4279968801
-0.039553177 -0.0083886804 1.4310001 4279968803
-0.037173007 -0.0084121292 1.4350001 4280034596
-0.034658112 -0.0084062666 1.434 4279968803
-0.032124255 -0.0083945422 1.432 4280100389
-0.029452458 -0.0083417837 1.4230001 4280231205
-0.026830863 -0.0082948869 1.4150001 4280428584
-0.024340399 -0.0082831625 1.4130001 4280296998
-0.021856876 -0.0082714381 1.411 4280296744
-0.019490335 -0.0083066104 1.4170001 4280494123
-0.017090943 -0.008335921 1.4220001 4280823089
-0.10311281 -0.0058641983 1.4170001 4280824112
-0.10029816 -0.0058435057 1.4120001 4280889905
-0.097362272 -0.0058145365 1.4050001 4280692526
-0.094856054 -0.0058103981 1.404 4280495147
-0.092550792 -0.0058186748 1.406 4280692526
-0.090430848 -0.0058393674 1.411 4281021491
-0.088418253 -0.0058683362 1.4180001 4280100389
-0.086138889 -0.0058807521 1.4210001 4279903010
-0.083907999 -0.0058973054 1.4250001 4279771424
-0.081548922 -0.0059055826 1.427 4279771424
-0.079459958 -0.0059345518 1.434 4279903010
-0.077078313 -0.005942829 1.4360001 4279837217
-0.074533917 -0.0059386906 1.4350001 4279903010
-0.069783993 -0.0057524596 1.3900001 4279903010
-0.067322902 -0.0057483213 1.3890001 4279771424
-0.065052219 -0.0057607368 1.3920001 4279968033
-0.063626066 -0.0058517829 1.414 4279902240
-0.061215051 -0.0058559212 1.4150001 4279968033
-0.058842085 -0.0058641983 1.4170001 4279968033
-0.0563826 -0.0058641983 1.4170001 4279902240
-0.053885065 -0.00586006 1.416 4280033824
-0.051245719 -0.0058393674 1.411 4280099617
-0.048692901 -0.0058269519 1.4080001 4280099617
-0.046281885 -0.0058310903 1.409 4280165410
-0.043991845 -0.0058517829 1.414 4280165410
-0.0417432 -0.0058807521 1.4210001 4279968801
-0.03938733 -0.0058973054 1.4250001 4280034594
-0.037043486 -0.005917998 1.4300001 4280034596
-0.034561437 -0.005917998 1.4300001 4280034596
-0.032012086 -0.0059055826 1.427 4280297514
-0.029411063 -0.0058807521 1.4210001 4280428330
-0.026811901 -0.0058517829 1.414 4280691502
-0.024323173 -0.0058435057 1.4120001 4280494123
-0.021841386 -0.0058352291 1.4100001 4280494123
-0.019435316 -0.0058476441 1.4130001 4280428330
-0.01703085 -0.0058641983 1.4170001 4280691502
-0.10318558 -0.0034242002 1.4180001 4280626479
-0.10036919 -0.0034121261 1.4130001 4280889135
-0.097362272 -0.0033928077 1.4050001 4280757806
-0.094720937 -0.0033855634 1.4020001 4280626733
-0.092419133 -0.0033903928 1.404 4280692526
-0.090302669 -0.0034024669 1.409 4281153077
-0.088231191 -0.0034169557 1.4150001 4280297768
-0.085957035 -0.0034242002 1.4180001 4279705631
-0.083731346 -0.0034338594 1.4220001 4279771424
-0.081377476 -0.003438689 1.424 4279837217
-0.07934913 -0.0034580075 1.432 4279903010
-0.076970965 -0.0034628371 1.434 4279968803
-0.074430034 -0.0034604224 1.4330001 4279968803
-0.069783993 -0.0033565855 1.3900001 4280034596
-0.067322902 -0.0033541706 1.3890001 4279837217
-0.065098956 -0.00336383 1.393 4279903010
-0.063356079 -0.003400052 1.4080001 4280033826
-0.061042003 -0.0034072965 1.411 4280099365
-0.058717508 -0.0034145408 1.414 4280033826
-0.05634281 -0.0034193706 1.416 4280033824
-0.053885065 -0.0034193706 1.416 4280165410
-0.051282041 -0.0034097114 1.4120001 4280231201
-0.048658319 -0.0033976373 1.4070001 4280099617
-0.046183344 -0.0033952224 1.406 4280296996
-0.043898508 -0.0034072965 1.411 4280494377
-0.041655071 -0.0034242002 1.4180001 4280231975
-0.03924913 -0.0034290296 1.4200001 4280231721
-0.036939867 -0.0034435187 1.4260001 4280429354
-0.034488928 -0.0034459336 1.427 4280495147
-0.031967219 -0.003441104 1.4250001 4280626479
-0.029369667 -0.0034266151 1.419 4280823088
-0.026792942 -0.0034121261 1.4130001 4281086514
-0.024305947 -0.0034072965 1.411 4280888882
-0.021810405 -0.003400052 1.4080001 4280757295
-0.019380298 -0.0034024669 1.409 4280888881
-0.016994791 -0.0034145408 1.414 4280954675
-0.10304005 -0.00097868149 1.416 4280626734
-0.10022712 -0.00097522564 1.411 4280757549
-0.097223684 -0.00096969638 1.4030001 4280889135
-0.094518252 -0.00096693175 1.399 4280889135
-0.092090011 -0.00096693175 1.399 4280889392
-0.089918129 -0.00096969638 1.4030001 4281218100
-0.087857068 -0.00097384339 1.409 4280362791
-0.085532703 -0.00097522564 1.411 4280033826
-0.083201401 -0.00097660802 1.4130001 4279836447
-0.07643421 -0.00098421075 1.424 4279903010
-0.073910631 -0.0009835196 1.4230001 4279903010
-0.069984809 -0.00096347602 1.3940001 4279968803
-0.067468308 -0.00096209365 1.3920001 4279903010
-0.065145679 -0.00096347602 1.3940001 4279968803
-0.063041098 -0.00096831413 1.401 4280099619
-0.060739171 -0.00097038754 1.404 4280231205
-0.058509883 -0.00097384339 1.409 4280296998
-0.056223441 -0.00097660802 1.4130001 4280428582
-0.053885065 -0.00097868149 1.416 4280362789
-0.051354676 -0.00097729906 1.414 4280362789
-0.048727483 -0.00097384339 1.409 4280560168
-0.046216194 -0.00097246101 1.4070001 4280494377
-0.043836284 -0.00097384339 1.409 4280691756
-0.041655071 -0.00098006381 1.4180001 4280560938
-0.039304409 -0.00098282832 1.4220001 4280758065
-0.036965773 -0.00098628423 1.427 4280824112
-0.034440592 -0.00098490191 1.4250001 4280758319
-0.031877492 -0.00098213728 1.4210001 4280758065
-0.029328272 -0.00097937265 1.4170001 4280823858
-0.026830863 -0.00097799033 1.4150001 4281086514
-0.024323173 -0.0009759168 1.4120001 4281020468
-0.021763936 -0.00097107876 1.4050001 4281152053
-0.016934698 -0.00097384339 1.409 4281152054
-0.097292975 0.0014496177 1.404 4280824112
-0.094248004 0.0014403253 1.3950001 4280824112
-0.091760881 0.0014392928 1.3940001 4280823342
-0.089341313 0.0014392928 1.3940001 4281283893
-0.087295875 0.0014454877 1.4000001 4280560170
-0.084987141 0.0014475527 1.4020001 4280033826
-0.082671456 0.0014496177 1.404 4280033826
-0.079948798 0.0014444554 1.399 4280034596
-0.0757901 0.0014578777 1.4120001 4279968803
-0.072923772 0.0014496177 1.404 4279903010
-0.070135422 0.0014423903 1.3970001 4280034342
-0.067565247 0.0014392928 1.3940001 4280100389
-0.065052219 0.0014372278 1.3920001 4280166182
-0.062771119 0.0014403253 1.3950001 4280297768
-0.060436338 0.0014423903 1.3970001 4280428584
-0.057928517 0.0014403253 1.3950001 4280560170
-0.051282041 0.0014578777 1.4120001 4280691756
-0.048762068 0.0014558126 1.4100001 4280757549
-0.046281885 0.0014547801 1.409 4280560940
-0.043898508 0.0014568452 1.411 4280560940
-0.041684445 0.0014651051 1.419 4280692524
-0.039359692 0.0014702675 1.424 4280889651
-0.036965773 0.001473365 1.427 4280824112
-0.034392256 0.0014692351 1.4230001 4280824112
-0.031832624 0.0014651051 1.419 4280692272
-0.029328272 0.0014630401 1.4170001 4281087030
-0.026868789 0.0014630401 1.4170001 4281086514
-0.024323173 0.0014578777 1.4120001 4281349433
-0.021701973 0.0014465202 1.401 4281349432
-0.019339032 0.0014516828 1.406 4281283639
-0.097292975 0.0038696232 1.404 4280824371
-0.094045326 0.0038365494 1.3920001 4281021493
-0.091497585 0.0038310371 1.3900001 4280692526
-0.089149043 0.0038337929 1.391 4280889648
-0.086984105 0.0038448179 1.3950001 4280692012
-0.084684044 0.0038503301 1.3970001 4280231205
-0.082435921 0.0038585986 1.4000001 4280296998
-0.079720214 0.0038448179 1.3950001 4280165412
-0.075360693 0.0038696232 1.404 4280297255
-0.072767951 0.0038613547 1.401 4280231721
-0.070135422 0.0038503301 1.3970001 4280363307
-0.067516781 0.0038393056 1.393 4280495147
-0.065005481 0.0038337929 1.391 4280495147
-0.062591128 0.0038337929 1.391 4280495147
-0.060220033 0.0038365494 1.3920001 4280560940
-0.05780394 0.0038365494 1.3920001 4280692526
-0.051136766 0.0038806475 1.4080001 4280692526
-0.048762068 0.0038861597 1.4100001 4280626733
-0.046281885 0.003883404 1.409 4280758319
-0.043898508 0.0038889162 1.411 4280758319
-0.041625693 0.0039054528 1.4170001 4280824112
-0.039276771 0.0039164773 1.4210001 4280889651
-0.036888059 0.0039247461 1.424 4280955444
-0.034343917 0.0039164773 1.4210001 4280889905
-0.031810191 0.003908209 1.4180001 4281152823
-0.029328272 0.0039054528 1.4170001 4281020467
-0.026849827 0.0039026965 1.416 4281152307
-0.024323173 0.003891672 1.4120001 4281283639
-0.021686483 0.0038585986 1.4000001 4281415225
-0.019325279 0.003872379 1.4050001 4281415225
-0.093977757 0.0062313909 1.391 4280955444
-0.091431752 0.0062224311 1.3890001 4280824112
-0.088956781 0.0062179519 1.388 4280955185
-0.086797044 0.006235871 1.3920001 4280757805
-0.084441572 0.0062403507 1.393 4280428584
-0.082023747 0.0062403507 1.393 4280428584
-0.079491623 0.0062313909 1.391 4280494377
-0.07713268 0.006235871 1.3920001 4280625963
-0.074823938 0.0062448303 1.3940001 4280495147
-0.072508253 0.0062537896 1.396 4280626733
-0.070035011 0.0062493104 1.3950001 4280560940
-0.067565247 0.0062448303 1.3940001 4280560686
-0.065145679 0.0062448303 1.3940001 4280626480
-0.062816113 0.0062537896 1.396 4280626480
-0.060436338 0.0062582698 1.3970001 4280626479
-0.057970047 0.0062537896 1.396 4280823858
-0.05554701 0.0062537896 1.396 4281021237
-0.053200081 0.0062627494 1.3980001 4280823858
-0.051064126 0.0062985881 1.406 4280889651
-0.04879665 0.0063209869 1.411 4280823858
-0.046281885 0.0063120276 1.409 4280823858
-0.043774065 0.0063030673 1.4070001 4280823858
-0.041302558 0.0062985881 1.406 4281021237
-0.038806885 0.0062896283 1.404 4281021491
-0.036784437 0.0063613052 1.4200001 4281021491
-0.034247242 0.0063478653 1.4170001 4281086514
-0.031742893 0.006338906 1.4150001 4281218100
-0.029224787 0.0063254666 1.4120001 4281152307
-0.026717095 0.0063120276 1.409 4281218100
-0.02411646 0.0062717092 1.4000001 4281415479
-0.021686483 0.0062717092 1.4000001 4281481018
-0.019297769 0.0062851482 1.4030001 4281349432
-0.094045326 0.0086351931 1.3920001 4280692272
-0.091431752 0.0086165816 1.3890001 4280889651
-0.088956781 0.008610378 1.388 4281152053
-0.086672343 0.0086227851 1.3900001 4280954928
-0.084380955 0.0086351931 1.3920001 4280494377
-0.082023747 0.0086413957 1.393 4280494377
-0.079491623 0.0086289886 1.391 4280560940
-0.07713268 0.0086351931 1.3920001 4280692526
-0.074823938 0.0086475993 1.3940001 4280758319
-0.072300494 0.0086351931 1.3920001 4280692526
-0.069884405 0.0086351931 1.3920001 4280758319
-0.067613713 0.0086538028 1.3950001 4280758319
-0.065426074 0.0086848196 1.4000001 4280692272
-0.063176088 0.0087096337 1.404 4280823858
-0.060782433 0.0087158373 1.4050001 4280758065
-0.058219202 0.0086972266 1.4020001 4280889651
-0.05566638 0.008678616 1.399 4281021237
-0.053276192 0.0086848196 1.4000001 4281021237
-0.051100448 0.0087282434 1.4070001 4281087030
-0.048762068 0.008746855 1.4100001 4281021237
-0.046249039 0.008734447 1.4080001 4281087030
-0.043680727 0.0087096337 1.404 4281087030
-0.041038178 0.0086662089 1.3970001 4281153077
-0.038668688 0.008678616 1.399 4281021491
-0.036421776 0.0087220399 1.406 4280955698
-0.034126397 0.0087592611 1.4120001 4281087284
-0.031653158 0.0087530576 1.411 4281152307
-0.029100599 0.0087220399 1.406 4281152307
-0.026527476 0.008678616 1.399 4281218100
-0.024064783 0.0086662089 1.3970001 4281218100
-0.021686483 0.0086848196 1.4000001 4281349432
-0.019311523 0.0087096337 1.404 4281349432
-0.016934698 0.0087406514 1.409 4281350203
-0.014519949 0.0087592611 1.4120001 4281350203
-0.093977757 0.011026587 1.391 4280889652
-0.091365926 0.011002805 1.388 4280889652
-0.088892691 0.010994879 1.3870001 4281218103
-0.086609982 0.011010733 1.3890001 4280954674
-0.084380955 0.011034514 1.3920001 4280691502
-0.082141511 0.011058295 1.3950001 4280757295
-0.079663061 0.011050368 1.3940001 4280626733
-0.077188089 0.01104244 1.393 4280692526
-0.074877612 0.011058295 1.3950001 4280824112
-0.072248548 0.011026587 1.391 4280824112
-0.069834195 0.011026587 1.391 4281021491
-0.067516781 0.01104244 1.393 4280758319
-0.065426074 0.01109793 1.4000001 4280692526
-0.063176088 0.011129639 1.404 4280758065
-0.060782433 0.011137567 1.4050001 4280955444
-0.058177672 0.011105858 1.401 4280955444
-0.05566638 0.011090003 1.399 4281021237
-0.053276192 0.01109793 1.4000001 4281021750
-0.051064126 0.011145493 1.406 4281021750
-0.048692901 0.011161347 1.4080001 4281152823
-0.046150498 0.011137567 1.4050001 4281087284
-0.043649618 0.011121712 1.4030001 4281218870
-0.040920671 0.01104244 1.393 4281087284
-0.038585767 0.011066223 1.396 4281087284
-0.036344063 0.011121712 1.4030001 4281153077
-0.034053888 0.011169274 1.409 4281153077
-0.031608291 0.011169274 1.409 4281153077
-0.029079903 0.011137567 1.4050001 4281218100
-0.02647059 0.011066223 1.396 4281283893
-0.024064783 0.011074149 1.3970001 4281218100
-0.021701973 0.011105858 1.401 4281218870
-0.019311523 0.011129639 1.404 4281087030
-0.016946718 0.011177202 1.4100001 4281284409
-0.089020871 0.013404883 1.3890001 4281021238
-0.086547628 0.013395232 1.388 4281021237
-0.084138475 0.013395232 1.388 4280823858
-0.081905976 0.013424185 1.391 4280560686
-0.079491623 0.013424185 1.391 4280889135
-0.077077262 0.013424185 1.391 4280954928
-0.074662909 0.013424185 1.391 4281086514
-0.072092734 0.013395232 1.388 4280758319
-0.069834195 0.013424185 1.391 4280824112
-0.067613713 0.013462787 1.3950001 4280824112
-0.065519549 0.013530343 1.4020001 4280692272
-0.063176088 0.013549645 1.404 4280889651
-0.060652651 0.013530343 1.4020001 4280955444
-0.058177672 0.013520692 1.401 4281021237
-0.055785753 0.013530343 1.4020001 4280955444
-0.053428408 0.013549645 1.404 4281021750
-0.051027808 0.013559295 1.4050001 4281153336
-0.048485406 0.013530343 1.4020001 4281284409
-0.045920566 0.01349174 1.3980001 4281284663
-0.043245163 0.013414534 1.3900001 4281153077
-0.040715043 0.01337593 1.386 4281153077
-0.038364641 0.013395232 1.388 4281218870
-0.036110923 0.013453136 1.3940001 4281153077
-0.033788033 0.01349174 1.3980001 4281218870
-0.031361528 0.01349174 1.3980001 4281218870
-0.028893627 0.013472439 1.396 4281349686
-0.026489554 0.013482088 1.3970001 4281349686
-0.024047555 0.013472439 1.396 4281349432
-0.021609031 0.013462787 1.3950001 4281283893
-0.019228995 0.01349174 1.3980001 4281283639
-0.016862584 0.013539993 1.4030001 4281284409
-0.014447967 0.013559295 1.4050001 4281350202
-0.086547628 0.015787659 1.388 4280955444
-0.083956622 0.015753536 1.3850001 4280758065
-0.081552684 0.015753536 1.3850001 4280625964
-0.07914874 0.015753536 1.3850001 4280823342
-0.076689392 0.015742162 1.3840001 4280954928
-0.074287184 0.015742162 1.3840001 4281086514
-0.071936913 0.015753536 1.3850001 4281020721
-0.069783993 0.015810408 1.3900001 4281020721
-0.067516781 0.015844531 1.393 4280824112
-0.065005481 0.015821781 1.391 4280955444
-0.062501132 0.015799034 1.3890001 4280955444
-0.060263298 0.015844531 1.393 4281087030
-0.058053095 0.015901404 1.3980001 4281087030
-0.055745959 0.015935525 1.401 4281021237
-0.053352304 0.0159469 1.4020001 4281218616
-0.047897492 0.015753536 1.3850001 4281284409
-0.045559242 0.015776286 1.3870001 4281547835
-0.043089606 0.015753536 1.3850001 4281350456
-0.040597536 0.015719414 1.3820001 4281349686
-0.038254082 0.015742162 1.3840001 4281415479
-0.035955492 0.015787659 1.388 4281415477
-0.033570513 0.015799034 1.3890001 4281283891
-0.031271797 0.015855907 1.3940001 4281349684
-0.026546437 0.015924152 1.4000001 4281349686
-0.024013106 0.015855907 1.3940001 4281218100
-0.021485107 0.015776286 1.3870001 4281153077
-0.01909145 0.015787659 1.388 4281153077
-0.016718356 0.015821781 1.391 4281218616
-0.014334851 0.015855907 1.3940001 4281416249
-0.011966572 0.015924152 1.4000001 4281547835
-0.089020871 0.018193185 1.3890001 4281021237
-0.08642292 0.018153889 1.386 4280889651
-0.083896011 0.018127695 1.3840001 4281021491
-0.081376031 0.018101498 1.3820001 4280691756
-0.078977302 0.018101498 1.3820001 4280757549
-0.076523148 0.018088399 1.381 4280954928
-0.07407248 0.018075302 1.3800001 4281152307
-0.071833037 0.018114595 1.383 4281086514
-0.06963338 0.018166989 1.3870001 4281086514
-0.067322902 0.018193185 1.3890001 4280955444
-0.064771824 0.018153889 1.386 4281087030
-0.062321145 0.018140791 1.3850001 4281021237
-0.060046986 0.018180085 1.388 4280955444
-0.057886992 0.018258676 1.3940001 4281152823
-0.05554701 0.01828487 1.396 4281218616
-0.053123977 0.01828487 1.396 4281218616
-0.047828328 0.018114595 1.383 4281218870
-0.045460701 0.018127695 1.3840001 4281350456
-0.042934053 0.018075302 1.3800001 4281416249
-0.040538788 0.018075302 1.3800001 4281481270
-0.038198803 0.018101498 1.3820001 4281547063
-0.03592959 0.018166989 1.3870001 4281481268
-0.033594683 0.018206282 1.3900001 4281152305
-0.028914323 0.018297968 1.3970001 4281415479
-0.026565401 0.018350361 1.401 4281349686
-0.023995878 0.018245576 1.393 4281349686
-0.021438638 0.018127695 1.3840001 4281153077
-0.019036431 0.018127695 1.3840001 4281218870
-0.016670281 0.018166989 1.3870001 4281350456
-0.014293716 0.018206282 1.3900001 4281482042
-0.011932382 0.01828487 1.396 4281482042
-0.083835386 0.020498404 1.383 4281087284
-0.081140503 0.020424295 1.378 4280889905
-0.078691565 0.020409474 1.3770001 4281481272
-0.076246098 0.020394653 1.376 4281218100
-0.073857777 0.020394653 1.376 4281152307
-0.071521394 0.020409474 1.3770001 4281152307
-0.069281951 0.020453939 1.3800001 4280955444
-0.066983625 0.020483583 1.3820001 4280889651
-0.064631626 0.020498404 1.383 4281087030
-0.062186152 0.020483583 1.3820001 4281087030
-0.05983068 0.020498404 1.383 4281087543
-0.057554789 0.020542869 1.386 4281021750
-0.055228688 0.020572513 1.388 4281152823
-0.052819539 0.020572513 1.388 4281152823
-0.050337754 0.020542869 1.386 4281152823
-0.047828328 0.020498404 1.383 4281283893
-0.045427855 0.020498404 1.383 4281547065
-0.042809602 0.020394653 1.376 4281481270
-0.040421281 0.020394653 1.376 4281218098
-0.038060598 0.020409474 1.3770001 4281481268
-0.035696451 0.020424295 1.378 4281283889
-0.033328824 0.020439118 1.3790001 4281547063
-0.031249361 0.020646621 1.393 4281349684
-0.028914323 0.020705909 1.3970001 4281481272
-0.02647059 0.020691086 1.396 4281547065
-0.023961425 0.020616977 1.391 4281547065
-0.021454128 0.020528048 1.3850001 4281284663
-0.019050186 0.020528048 1.3850001 4281284663
-0.016658263 0.020542869 1.386 4281350456
-0.014262867 0.020557692 1.3870001 4281416249
-0.011898192 0.020631799 1.3920001 4281350456
-0.0094889123 0.020646621 1.393 4281153077
-0.0070609315 0.020616977 1.391 4281481788
-0.0046599368 0.020676265 1.3950001 4281415996
-0.083896011 0.02289876 1.3840001 4281284409
-0.081022739 0.022766396 1.376 4281087286
-0.078577265 0.022749851 1.3750001 4281481788
-0.07619068 0.022749851 1.3750001 4281613374
-0.073750429 0.022733305 1.3740001 4281152823
-0.071261689 0.022700215 1.3720001 4281021237
-0.068980724 0.022733305 1.3740001 4280955444
-0.06674128 0.02278294 1.3770001 4280955444
-0.064444691 0.022816032 1.3790001 4280955444
-0.06196117 0.02278294 1.3770001 4280955444
-0.059527848 0.022766396 1.376 4280955444
-0.057181057 0.02278294 1.3770001 4281087030
-0.054950159 0.022849122 1.381 4281218616
-0.052667323 0.02289876 1.3840001 4281152823
-0.050337754 0.022931848 1.386 4281283639
-0.04786291 0.02289876 1.3840001 4281349686
-0.045230769 0.02278294 1.3770001 4281481272
-0.042685155 0.022700215 1.3720001 4281941821
-0.040303778 0.022700215 1.3720001 4283652439
-0.037922397 0.022700215 1.3720001 4284178783
-0.035592832 0.022733305 1.3740001 4284836713
-0.033280488 0.02278294 1.3770001 4282994509
-0.031025032 0.022882212 1.383 4281349686
-0.028707348 0.022948395 1.3870001 4281612858
-0.026318897 0.022964939 1.388 4281350456
-0.023909748 0.022964939 1.388 4281284663
-0.021500599 0.022964939 1.388 4281350202
-0.019105205 0.022981485 1.3890001 4281415995
-0.01669432 0.022981485 1.3890001 4281284922
-0.014262867 0.022948395 1.3870001 4281284920
-0.01187255 0.022981485 1.3890001 4281284920
-0.0094684763 0.022998031 1.3900001 4281350713
-0.0070558554 0.022998031 1.3900001 4281284663
-0.0046499153 0.023031121 1.3920001 4281350202
-0.083835386 0.025266021 1.383 4281416509
-0.081199385 0.025192946 1.3790001 4281745474
-0.07874871 0.025174676 1.378 4281350202
-0.076246098 0.02513814 1.376 4281613374
-0.073857777 0.02513814 1.376 4281481788
-0.071261689 0.025065063 1.3720001 4281087030
-0.068830118 0.025046794 1.3710001 4281021237
-0.066547409 0.025083331 1.373 4281087030
-0.064211026 0.0251016 1.3740001 4280955444
-0.061781179 0.025083331 1.373 4281087030
-0.059311543 0.025046794 1.3710001 4281021237
-0.056973424 0.025065063 1.3720001 4281021237
-0.054790996 0.025156409 1.3770001 4281218616
-0.052477051 0.025192946 1.3790001 4281152823
-0.050265115 0.02528429 1.3840001 4281284663
-0.047828328 0.025266021 1.383 4281415479
-0.045165077 0.025119869 1.3750001 4281283893
-0.042654045 0.025046794 1.3710001 4284441955
-0.0402744 0.025046794 1.3710001 4282862921
-0.037894759 0.025046794 1.3710001 4280823338
-0.035566926 0.025083331 1.373 4281218098
-0.033232152 0.025119869 1.3750001 4284770920
-0.030935297 0.025192946 1.3790001 4282008386
-0.028583165 0.025229482 1.381 4281547835
-0.026205126 0.025247753 1.3820001 4281548092
-0.023875296 0.025320828 1.386 4281416506
-0.02151609 0.025375636 1.3890001 4281218616
-0.019105205 0.025375636 1.3890001 4281547581
-0.016682301 0.025357366 1.388 4281350715
-0.014252585 0.025320828 1.386 4281153334
-0.011846907 0.025320828 1.386 4281350713
-0.0094480403 0.025339099 1.3870001 4281153334
-0.007045703 0.025357366 1.388 4281153336
-0.081670448 0.027729802 1.3870001 4281548095
-0.079205886 0.027709808 1.386 4281745216
-0.076578565 0.027629837 1.3820001 4281613374
-0.07407248 0.027589852 1.3800001 4281679167
-0.071365573 0.027469898 1.3740001 4281350202
-0.068779908 0.027389925 1.3700001 4281087030
-0.06635353 0.027369933 1.3690001 4280955444
-0.063883893 0.027329948 1.3670001 4280955444
-0.061376207 0.027269971 1.3640001 4281087030
-0.058922186 0.027229985 1.3620001 4281152823
-0.056641221 0.027269971 1.3640001 4281087030
-0.054552257 0.027409919 1.3710001 4281021237
-0.052362885 0.027509883 1.376 4281217846
-0.050119843 0.027589852 1.3800001 4281283639
-0.047655411 0.027549867 1.378 4281481018
-0.045033686 0.027409919 1.3710001 4281547065
-0.042529598 0.027329948 1.3670001 4284441957
-0.040156901 0.027329948 1.3670001 4283323474
-0.0377842 0.027329948 1.3670001 4282270786
-0.035411499 0.027329948 1.3670001 4286086780
-0.033062968 0.02734994 1.368 4283586646
-0.030688534 0.02734994 1.368 4284573543
-0.028334796 0.027369933 1.3690001 4281482042
-0.025977587 0.027389925 1.3700001 4281284663
-0.021407656 0.027629837 1.3820001 4281350456
-0.019008921 0.027629837 1.3820001 4281284663
-0.016622204 0.027649829 1.383 4281284920
-0.014232018 0.027669823 1.3840001 4281219127
-0.074340858 0.030077072 1.3850001 4281811267
-0.071677215 0.029968491 1.3800001 4281481789
-0.068980724 0.029838191 1.3740001 4281218616
-0.06635353 0.02972961 1.3690001 4281021237
-0.063650228 0.029577596 1.3620001 4281021237
-0.061061222 0.029469017 1.3570001 4281021237
-0.058878928 0.02955588 1.3610001 4281086260
-0.056682743 0.029642746 1.365 4281349432
-0.054353304 0.029664462 1.3660001 4281349433
-0.049720332 0.02972961 1.3690001 4281415225
-0.047309581 0.029707894 1.368 4281546811
-0.044869449 0.029664462 1.3660001 4281547065
-0.042405151 0.029599315 1.363 4281678651
-0.040039394 0.029599315 1.363 4285165680
-0.037645999 0.029577596 1.3620001 4284705129
-0.035256069 0.02955588 1.3610001 4287928986
-0.032893784 0.02955588 1.3610001 4286415747
-0.030509068 0.029534165 1.36 4283520855
-0.028148519 0.029534165 1.36 4283586648
-0.02580693 0.02955588 1.3610001 4281810237
-0.02351355 0.029642746 1.365 4281744444
-0.021237262 0.029773042 1.3710001 4281482042
-0.018843867 0.029751329 1.3700001 4281416249
-0.016297694 0.029447298 1.3560001 4281416249
-0.013944087 0.029447298 1.3560001 4281284663
-0.011607575 0.02949073 1.358 4281416249
-0.0092845559 0.029599315 1.363 4281284663
-0.0069391038 0.029686177 1.3670001 4281218870
-0.0045730849 0.02972961 1.3690001 4281350456
-0.069081135 0.03225337 1.376 4281547581
-0.066402003 0.032112729 1.3700001 4281218616
-0.063416563 0.031808011 1.3570001 4281087030
-0.061061222 0.031808011 1.3570001 4281021237
-0.058835663 0.03187833 1.36 4281152053
-0.056641221 0.031972088 1.3640001 4281349432
-0.054313518 0.031995527 1.365 4281217847
-0.049502421 0.031948648 1.363 4281283640
-0.047136664 0.031948648 1.363 4281612604
-0.044770908 0.031948648 1.363 4281350456
-0.042374041 0.031925209 1.3620001 4281350456
-0.04001002 0.031925209 1.3620001 4282599753
-0.037618358 0.031901769 1.3610001 4285428852
-0.035230167 0.03187833 1.36 4282665544
-0.032869618 0.03187833 1.36 4284310369
-0.030486636 0.03185489 1.3590001 4283389267
-0.028127821 0.03185489 1.3590001 4283784027
-0.025787968 0.03187833 1.36 4281678651
-0.023496322 0.031972088 1.3640001 4281612858
-0.021159811 0.032018971 1.3660001 4281613626
-0.018775092 0.031995527 1.365 4281482042
-0.016261637 0.031714249 1.353 4281350456
-0.013913237 0.031714249 1.353 4281350456
-0.011573385 0.031737689 1.3540001 4281284663
-0.0092641199 0.03187833 1.36 4281153077
-0.0069187991 0.031948648 1.363 4281153077
-0.0045697447 0.032065846 1.368 4281153077
-0.0022113568 0.032300249 1.378 4281349432
-0.066644341 0.034599949 1.3750001 4281612860
-0.063696966 0.034297984 1.363 4281349432
-0.061106224 0.034172166 1.358 4281152053
-0.058878928 0.034247655 1.3610001 4281152053
-0.056599692 0.034297984 1.363 4281217846
-0.054233935 0.034297984 1.363 4281217847
-0.05179207 0.034247655 1.3610001 4281349433
-0.049393468 0.034222495 1.36 4281415225
-0.047067497 0.034247655 1.3610001 4281284409
-0.044738062 0.03427282 1.3620001 4281350456
-0.042342927 0.034247655 1.3610001 4281284663
-0.039951269 0.034222495 1.36 4281744444
-0.037535436 0.034172166 1.358 4284244578
-0.035178356 0.034172166 1.358 4283981404
-0.03277294 0.034121841 1.3560001 4283849818
-0.030419333 0.034121841 1.3560001 4286481538
-0.028086426 0.034147006 1.3570001 4282862923
-0.025750045 0.034172166 1.358 4284244576
-0.023427419 0.034222495 1.36 4281152307
-0.021066869 0.034222495 1.36 4281350454
-0.018678809 0.034172166 1.358 4281416249
-0.016273657 0.034071509 1.3540001 4281416249
-0.013913237 0.034046348 1.353 4281350456
-0.0092436848 0.034147006 1.3570001 4281153077
-0.0069035706 0.034222495 1.36 4281087284
-0.0045530424 0.034297984 1.363 4281153077
-0.0021953091 0.034423802 1.368 4281349432
0.00017951892 0.034499291 1.3710001 4281349432
0.0025666279 0.034599949 1.3750001 4281283639
-0.063883893 0.036754869 1.3670001 4281547065
-0.061241213 0.036593545 1.3610001 4281349686
-0.058922186 0.036620431 1.3620001 4281349432
-0.056475114 0.03656666 1.36 4281349432
-0.053995196 0.036485996 1.3570001 4281283639
-0.051754016 0.03656666 1.36 4281283639
-0.049575061 0.036701094 1.365 4281349432
-0.047205832 0.036701094 1.365 4281218616
-0.044770908 0.03664732 1.363 4281284663
-0.042311817 0.03656666 1.36 4281284663
-0.039921891 0.036539771 1.3590001 4281547065
-0.037480153 0.036459111 1.3560001 4281481272
-0.035100643 0.036432222 1.355 4284770922
-0.032748774 0.036432222 1.355 4284178783
-0.030396901 0.036432222 1.355 4286678917
-0.02804503 0.036432222 1.355 4285231471
-0.0256742 0.036405332 1.3540001 4283784025
-0.023306837 0.036378447 1.353 4283849818
-0.020973928 0.036405332 1.3540001 4281350454
-0.018610038 0.036378447 1.353 4281416247
-0.016273657 0.036405332 1.3540001 4281284663
-0.01395437 0.036485996 1.3570001 4281218870
-0.011599028 0.036485996 1.3570001 4281350456
-0.0092504965 0.036512882 1.358 4281350202
-0.0069035706 0.03656666 1.36 4281087030
-0.0045497017 0.036620431 1.3620001 4281284409
-0.0021904949 0.036701094 1.365 4281283639
0.0001791261 0.036781754 1.368 4281283639
0.0025572947 0.036835533 1.3700001 4281349432
-0.063977361 0.039168321 1.3690001 4281350456
-0.061376207 0.039025266 1.3640001 4280955698
-0.058878928 0.038939431 1.3610001 4281283893
-0.056309011 0.03879638 1.3560001 4281349686
-0.053836033 0.038710546 1.353 4281218100
-0.051639851 0.03882499 1.3570001 4281283893
-0.049538743 0.039025266 1.3640001 4281283893
-0.047205832 0.039053876 1.365 4281415479
-0.044770908 0.038996655 1.363 4281284663
-0.042280708 0.038882211 1.3590001 4281284663
-0.039892513 0.038853601 1.358 4281349686
-0.037507799 0.03882499 1.3570001 4281349686
-0.035126548 0.03879638 1.3560001 4281612858
-0.032748774 0.038767766 1.355 4284770920
-0.030374469 0.038739156 1.3540001 4284047197
-0.028003637 0.038710546 1.353 4286349952
-0.025617313 0.038653322 1.3510001 4281941820
-0.023237932 0.038596101 1.3490001 4284112989
-0.020880984 0.038567491 1.348 4282074175
-0.018541263 0.038567491 1.348 4281482040
-0.016249618 0.038681936 1.3520001 4281350456
-0.013933803 0.038767766 1.355 4281416249
-0.01159048 0.03879638 1.3560001 4281350202
-0.0092436848 0.03882499 1.3570001 4281415995
-0.0069035706 0.038910825 1.36 4281218616
-0.0045497017 0.038968045 1.3620001 4281021237
-0.0021872853 0.038996655 1.363 4281283639
0.00017886423 0.03908249 1.3660001 4281349432
-0.061466198 0.041436996 1.3660001 4281350456
-0.058705881 0.041163985 1.3570001 4281021491
-0.056059856 0.040951643 1.35 4281021234
-0.053597294 0.040860638 1.3470001 4281086514
-0.051069036 0.040708967 1.342 4281152307
-0.044540975 0.04113365 1.3560001 4281087284
-0.042156257 0.041103315 1.355 4281087284
-0.039833762 0.04113365 1.3560001 4281086514
-0.037507799 0.041163985 1.3570001 4281283891
-0.035126548 0.04113365 1.3560001 4281152305
-0.032748774 0.041103315 1.355 4283521623
-0.030329604 0.041012309 1.3520001 4284245346
-0.027900148 0.040890973 1.348 4285100653
-0.025427695 0.040678628 1.3410001 4285166446
-0.023082897 0.040648296 1.34 4282995277
-0.020757062 0.040648296 1.34 4284245344
-0.018513756 0.040830303 1.3460001 4281416247
-0.016237598 0.040981974 1.3510001 4281482040
-0.013902954 0.041012309 1.3520001 4281350456
-0.011564838 0.041042645 1.353 4281481788
-0.0092232488 0.04107298 1.3540001 4281415995
-0.0068883421 0.041163985 1.3570001 4281481018
-0.0045430209 0.04125499 1.36 4281349432
-0.002184076 0.041285321 1.3610001 4281284410
0.0001784714 0.041345991 1.363 4281284410
-0.061196215 0.043599155 1.36 4281744959
-0.058489576 0.043342687 1.3520001 4281218870
-0.055810701 0.04308622 1.3440001 4280758319
-0.053318761 0.042957988 1.34 4280758319
-0.050802656 0.042797696 1.335 4280889905
-0.048485499 0.042797696 1.335 4281218100
-0.046272092 0.042893872 1.3380001 4280954928
-0.044048268 0.042990044 1.3410001 4281086514
-0.041814029 0.04308622 1.3440001 4280955698
-0.039569378 0.043182395 1.3470001 4281086514
-0.037286676 0.043246511 1.3490001 4281218100
-0.034893408 0.043182395 1.3470001 4281283893
-0.032507084 0.043118279 1.345 4281021491
-0.03010527 0.043022104 1.342 4285100655
-0.027651779 0.042829756 1.3360001 4283784793
-0.025313925 0.042797696 1.335 4282732105
-0.023013994 0.042829756 1.3360001 4280429604
-0.020695101 0.042829756 1.3360001 4283521621
-0.018417472 0.042925932 1.3390001 4283719001
-0.016129429 0.043022104 1.342 4281350454
-0.013810405 0.043054163 1.3430001 4281482042
-0.011496457 0.043118279 1.345 4281284409
-0.0091687543 0.043150339 1.3460001 4281415225
-0.0068731136 0.043406799 1.3540001 4281415225
-0.0045430209 0.043599155 1.36 4281415225
-0.0021824711 0.043599155 1.36 4281087031
-0.061151214 0.045909535 1.3590001 4282073925
-0.058403049 0.045605499 1.35 4281678908
-0.055810701 0.045402806 1.3440001 4281153077
-0.053398341 0.045335244 1.342 4280889905
-0.050840709 0.045132551 1.3360001 4280954928
-0.048449177 0.045064989 1.3340001 4280954928
-0.046202924 0.045132551 1.3360001 4281086514
-0.043949727 0.045200113 1.3380001 4281086514
-0.041658472 0.045233898 1.3390001 4281153077
-0.039363746 0.045267679 1.34 4280824112
-0.037037909 0.045267679 1.34 4280889905
-0.034686171 0.045233898 1.3390001 4281021491
-0.032337904 0.045200113 1.3380001 4280955698
-0.029903373 0.045031209 1.3330001 4282337349
-0.027589688 0.045031209 1.3330001 4284179553
-0.025294963 0.045064989 1.3340001 4282534726
-0.02303122 0.045166336 1.337 4282534726
-0.020695101 0.045132551 1.3360001 4284640102
-0.018389963 0.045166336 1.337 4282205761
-0.016081354 0.045200113 1.3380001 4281284661
-0.013769271 0.045233898 1.3390001 4281481272
-0.011462267 0.04530146 1.3410001 4281283893
-0.0091415066 0.045335244 1.342 4281152053
-0.0068528089 0.045605499 1.35 4281217846
-0.0045329994 0.045841973 1.3570001 4281217846
-0.0021792615 0.04587575 1.358 4281021237
-0.058446314 0.047967929 1.3510001 4281744190
-0.055935279 0.04782591 1.3470001 4281415225
-0.05351771 0.047754899 1.345 4281284409
-0.050992925 0.047577374 1.34 4281020467
-0.048521817 0.047435351 1.3360001 4280954674
-0.046237506 0.047470856 1.337 4281020467
-0.043949727 0.047506358 1.3380001 4281217846
-0.041658472 0.047541864 1.3390001 4281021491
-0.039334372 0.047541864 1.3390001 4281021491
-0.036982633 0.047506358 1.3380001 4280889905
-0.034634363 0.047470856 1.337 4280890162
-0.032241225 0.047364339 1.3340001 4280955955
-0.029880941 0.047293328 1.332 4280890416
-0.02756899 0.047293328 1.332 4281548346
-0.025313925 0.047399841 1.335 4283258451
-0.023048447 0.047506358 1.3380001 4283258451
-0.020726083 0.047506358 1.3380001 4281941819
-0.018403718 0.047506358 1.3380001 4281415477
-0.016093371 0.047541864 1.3390001 4281349684
-0.013758988 0.047506358 1.3380001 4281218100
-0.011445171 0.047541864 1.3390001 4281020721
-0.0091278832 0.047577374 1.34 4281086260
-0.0068375808 0.04782591 1.3470001 4281020467
-0.0045229783 0.048074447 1.3540001 4281086260
-0.051373471 0.050259355 1.35 4281087030
-0.048776049 0.049998753 1.3430001 4281020467
-0.046410419 0.049961522 1.342 4281152053
-0.043949727 0.049812604 1.3380001 4281217846
-0.041534029 0.049700916 1.335 4280955698
-0.039216869 0.049700916 1.335 4280889905
-0.036733869 0.049477544 1.3290001 4281284663
-0.034453031 0.049514771 1.33 4281219127
-0.032120384 0.049477544 1.3290001 4281219125
-0.029768776 0.049403086 1.327 4281022002
-0.027444804 0.049365856 1.3260001 4281285174
-0.025200155 0.049477544 1.3290001 4281284661
-0.022962317 0.049626458 1.3330001 4281284661
-0.02066412 0.049663689 1.3340001 4281153075
-0.018362453 0.049700916 1.335 4281283891
-0.016045295 0.049700916 1.335 4281020719
-0.013728138 0.049700916 1.335 4281152306
-0.011419529 0.049738146 1.3360001 4281020721
-0.0091006355 0.049738146 1.3360001 4281086514
-0.0068223523 0.05003598 1.3440001 4281152307
-0.048885003 0.052430473 1.3460001 4281349432
-0.046410419 0.052274659 1.342 4281218100
-0.043884031 0.052040942 1.3360001 4281086771
-0.041471802 0.051924087 1.3330001 4281086514
-0.039158117 0.051924087 1.3330001 4281218357
-0.03667859 0.05169037 1.327 4281152307
-0.034375317 0.05169037 1.327 4281087284
-0.032023709 0.051612463 1.325 4281284663
-0.029679041 0.051534556 1.3230001 4281284663
-0.027382713 0.051534556 1.3230001 4281416247
-0.025124308 0.051612463 1.325 4281481527
-0.022893412 0.051768273 1.3290001 4281349684
-0.020617649 0.051846176 1.3310001 4281349684
-0.018348698 0.051963039 1.3340001 4281349684
-0.016045295 0.05200199 1.335 4281218098
-0.013738422 0.052040942 1.3360001 4281218099
-0.011428077 0.052079897 1.337 4281152307
-0.0091074482 0.052079897 1.337 4281218100
-0.0068172761 0.052313615 1.3430001 4281349686
-0.048848685 0.054709829 1.345 4281481273
-0.046375837 0.05454712 1.3410001 4281810237
-0.043851186 0.054303065 1.335 4281612858
-0.041502912 0.054262388 1.3340001 4281415479
-0.039187491 0.054262388 1.3340001 4281415479
-0.036706232 0.054018326 1.3280001 4281283893
-0.034401223 0.054018326 1.3280001 4281284663
-0.032023709 0.053896297 1.325 4281350456
-0.029679041 0.053814948 1.3230001 4281153077
-0.027382713 0.053814948 1.3230001 4281284663
-0.025143268 0.053936977 1.3260001 4281350454
-0.022927864 0.054140355 1.3310001 4281416247
-0.02064863 0.054221712 1.3330001 4281283891
-0.018389963 0.054384418 1.337 4281218098
-0.016081354 0.054425091 1.3380001 4281218100
-0.013758988 0.054425091 1.3380001 4281349686
-0.011445171 0.054465771 1.3390001 4281481272
-0.0091210706 0.054465771 1.3390001 4281547065
-0.0068122 0.0545878 1.342 4281547065
-0.048776049 0.056943338 1.3430001 4281218100
-0.046272092 0.056731336 1.3380001 4281283893
-0.043752644 0.056476936 1.332 4281744444
-0.041440692 0.056476936 1.332 4281744444
-0.039099365 0.056434534 1.3310001 4281678649
-0.036706232 0.056307334 1.3280001 4281481270
-0.034349412 0.056222536 1.3260001 4281284148
-0.03199954 0.056137737 1.3240001 4281284663
-0.029679041 0.056095336 1.3230001 4281218870
-0.027424108 0.056180134 1.325 4281284663
-0.025238078 0.056434534 1.3310001 4281416249
-0.023013994 0.056646533 1.3360001 4281284663
-0.020710591 0.056688938 1.337 4281481272
-0.018417472 0.056773741 1.3390001 4281612858
-0.016093371 0.056773741 1.3390001 4281612858
-0.013779555 0.056816138 1.34 4281612858
-0.011470814 0.056900941 1.342 4281547065
-0.0091415066 0.056900941 1.342 4281349686
-0.046202924 0.058949333 1.3360001 4281283891
-0.043719795 0.058728717 1.3310001 4281415477
-0.041409578 0.058728717 1.3310001 4281481270
-0.039128743 0.05877284 1.332 4281020719
-0.03667859 0.058552217 1.327 4281152305
-0.03432351 0.058463976 1.325 4281349685
-0.03197537 0.058375727 1.3230001 4281349686
-0.029723909 0.058463976 1.325 4281481272
-0.0274862 0.058596347 1.3280001 4281415479
-0.025313925 0.05890521 1.335 4281415479
-0.023065671 0.059081711 1.3390001 4281283893
-0.020741571 0.059081711 1.3390001 4281349686
-0.018417472 0.059081711 1.3390001 4281349686
-0.016093371 0.059081711 1.3390001 4281020719
-0.046168342 0.061206285 1.335 4281349684
-0.043752644 0.06106874 1.332 4281415477
-0.041502912 0.061160438 1.3340001 4281481270
-0.039187491 0.061160438 1.3340001 4281020721
-0.036733869 0.060931198 1.3290001 4280823342
-0.034349412 0.060793657 1.3260001 4280954928
-0.03199954 0.060701963 1.3240001 4280889135
-0.029768776 0.060839504 1.327 4280823342
-0.027527597 0.060977045 1.33 4280757549
-0.025332887 0.061252128 1.3360001 4280757550
-0.036733869 0.063221931 1.3290001 4280954928
-0.034375317 0.063126788 1.327 4280889135
-0.03199954 0.062984072 1.3240001 4280823342
-0.029723909 0.063031651 1.325 4280954928
-0.027465502 0.063126788 1.327 4280954928
-0.02525704 0.063364647 1.332 4280889133
-0.036733869 0.065512665 1.3290001 4280889135
-0.034349412 0.065364778 1.3260001 4280757549
-0.031951204 0.065167606 1.322 4280625963
-0.02965661 0.065167606 1.322 4280625963
-0.027382713 0.065216891 1.3230001 4280823340
-0.025124308 0.065315485 1.325 4280625961
-0.022876186 0.065463372 1.3280001 4280691754
-0.020586669 0.065512665 1.3290001 4280625961
-0.034349412 0.06765034 1.3260001 4281218100
-0.031951204 0.067446269 1.322 4281020721
-0.029634174 0.067395248 1.3210001 4281020721
-0.027341319 0.067395248 1.3210001 4281020719
-0.025086384 0.067497283 1.3230001 4280889133
-0.022824507 0.067599326 1.325 4280954926
-0.020540196 0.06765034 1.3260001 4280954925
-0.03197537 0.069777675 1.3230001 4281415479
-0.02965661 0.069724932 1.322 4281481272
-0.027362017 0.069724932 1.322 4281349685
-0.025086384 0.069777675 1.3230001 4281283891
-0.62196481 0.23229942 1.0480001 4279836948
-0.62196481 0.23410581 1.0480001 4279902741
-0.62192106 0.23477596 1.051 4280231195
-0.62304688 0.23589288 1.056 4280100120
-0.62376493 0.23969041 1.0730001 4280034329
-0.62255836 0.23613729 1.049 4279968534
-0.62369627 0.23726283 1.054 4280100121
