# .PCD v0.7 - Point Cloud Data file format
VERSION 0.7
FIELDS x y z rgba
SIZE 4 4 4 4
TYPE F F F U
COUNT 1 1 1 1
WIDTH 1086
HEIGHT 1
VIEWPOINT 0 0 0 1 0 0 0
POINTS 1086
DATA ascii
-0.055521403 -0.02112685 1.4590001 4281941569
-0.053097975 -0.02117029 1.462 4282270535
-0.14230193 -0.018701341 1.4660001 4279770401
-0.12432036 -0.018675826 1.4640001 4280691756
-0.12152974 -0.018637557 1.4610001 4281415992
-0.11899389 -0.018637557 1.4610001 4281679164
-0.11653776 -0.018650314 1.462 4281810751
-0.11392218 -0.018637557 1.4610001 4282008386
-0.11138632 -0.018637557 1.4610001 4282008386
-0.10892498 -0.018650314 1.462 4281876800
-0.10653292 -0.018675826 1.4640001 4281811007
-0.10392083 -0.018663071 1.4630001 4281876800
-0.10124291 -0.018637557 1.4610001 4281745214
-0.096882895 -0.018293126 1.434 4281810753
-0.094130605 -0.018242098 1.4300001 4281481788
-0.091071747 -0.018127289 1.4210001 4281284409
-0.087919421 -0.017986964 1.4100001 4281415995
-0.085290231 -0.017948695 1.4070001 4280955444
-0.082435921 -0.017859397 1.4000001 4281021491
-0.079434477 -0.01773183 1.3900001 4280889905
-0.076911032 -0.017706318 1.388 4280824112
-0.074609235 -0.01773183 1.3900001 4280824112
-0.06853462 -0.018037992 1.414 4281086512
-0.066267274 -0.018089019 1.4180001 4281086512
-0.064076036 -0.018165559 1.424 4281218100
-0.061820708 -0.018229343 1.429 4281218100
-0.05942345 -0.018254856 1.4310001 4281283893
-0.057138614 -0.01831864 1.4360001 4281152053
-0.055102807 -0.01847172 1.4480001 4281481018
-0.052589513 -0.01847172 1.4480001 4282007363
-0.14678776 -0.016108271 1.46 4279179033
-0.14415485 -0.016097238 1.4590001 4279836707
-0.14201073 -0.01614137 1.4630001 4279836194
-0.11131009 -0.016108271 1.46 4281679678
-0.10885047 -0.016119303 1.4610001 4281679678
-0.10117361 -0.016108271 1.46 4281613373
-0.096950464 -0.015832443 1.4350001 4281679166
-0.094196431 -0.015788311 1.4310001 4281547581
-0.09119992 -0.015700048 1.4230001 4281218616
-0.088044129 -0.015578683 1.4120001 4281416250
-0.085229613 -0.015512486 1.406 4281153077
-0.081964865 -0.015358022 1.3920001 4281153077
-0.079263039 -0.015302856 1.3870001 4280889905
-0.076800212 -0.015291825 1.386 4280758319
-0.074448213 -0.015302856 1.3870001 4280889905
-0.070788078 -0.015556618 1.4100001 4280889133
-0.066080339 -0.01560075 1.414 4281086512
-0.063941047 -0.015677981 1.4210001 4281020721
-0.061561137 -0.015700048 1.4230001 4280955698
-0.059174296 -0.015722113 1.4250001 4281153077
-0.056899872 -0.015777279 1.4300001 4281021237
-0.054531988 -0.015810378 1.4330001 4280955444
-0.052153688 -0.015843477 1.4360001 4281217846
-0.14608398 -0.013526576 1.4530001 4279639581
-0.1432656 -0.013498647 1.45 4279770654
-0.11298648 -0.013489338 1.4490001 4281614140
-0.098166563 -0.013526576 1.4530001 4281482044
-0.09538129 -0.013489338 1.4490001 4281416250
-0.092353545 -0.013414862 1.4410001 4281218871
-0.084320337 -0.012949391 1.391 4281416249
-0.081670448 -0.012912153 1.3870001 4280889905
-0.079034448 -0.012874917 1.383 4280889905
-0.076689392 -0.012884226 1.3840001 4280824112
-0.074340858 -0.012893535 1.3850001 4280889903
-0.072300494 -0.012958701 1.3920001 4280824110
-0.070386447 -0.013051796 1.4020001 4280758317
-0.068195336 -0.013098342 1.4070001 4280889903
-0.066173814 -0.013182127 1.416 4280758319
-0.063716061 -0.013182127 1.416 4280889650
-0.061344832 -0.013200746 1.4180001 4281021491
-0.059008192 -0.013228674 1.4210001 4281021491
-0.056661133 -0.013256603 1.424 4280955698
-0.054303661 -0.01328453 1.427 4281218870
-0.049661223 -0.013368315 1.4360001 4281283639
-0.14578237 -0.010999354 1.45 4279704860
-0.14296919 -0.010976597 1.447 4279770653
-0.14123417 -0.011037283 1.455 4279836447
-0.12599489 -0.011029697 1.4540001 4281284663
-0.12338625 -0.011022111 1.4530001 4281350455
-0.11582034 -0.011022111 1.4530001 4281416760
-0.11267457 -0.010961425 1.4450001 4281284920
-0.097761191 -0.010976597 1.447 4281415995
-0.095249638 -0.010976597 1.447 4281481529
-0.092353545 -0.010931082 1.4410001 4281415479
-0.084017247 -0.010513864 1.386 4281350456
-0.081199385 -0.010460765 1.3790001 4280889905
-0.078634419 -0.010438007 1.376 4280955698
-0.076412328 -0.010460765 1.3790001 4281021491
-0.074126147 -0.010475936 1.381 4280824110
-0.071988851 -0.010513864 1.386 4280824110
-0.069783993 -0.010544208 1.3900001 4280824110
-0.067371376 -0.010544208 1.3900001 4280824110
-0.063446075 -0.010695923 1.4100001 4280626733
-0.061128523 -0.01071868 1.4130001 4280824112
-0.058842085 -0.010749023 1.4170001 4281021491
-0.056581553 -0.010786952 1.4220001 4281021491
-0.054227553 -0.01080971 1.4250001 4281087284
-0.052081052 -0.010877982 1.434 4281021491
-0.1479923 -0.0084824748 1.447 4279770653
-0.14497806 -0.0084531633 1.442 4279836445
-0.14217876 -0.0084355772 1.439 4279770652
-0.14006937 -0.008459026 1.4430001 4279902238
-0.13785075 -0.0084766122 1.4460001 4279968031
-0.12807664 -0.0084941983 1.4490001 4280824110
-0.12504169 -0.008459026 1.4430001 4280955696
-0.12245216 -0.0084531633 1.442 4281153075
-0.11994928 -0.0084531633 1.442 4281153075
-0.11760929 -0.0084648877 1.4440001 4281218868
-0.11502324 -0.008459026 1.4430001 4281284661
-0.11236268 -0.0084473016 1.4410001 4281218869
-0.10955657 -0.0084238527 1.437 4281416249
-0.10661535 -0.0083886804 1.4310001 4281415994
-0.10405879 -0.0083828187 1.4300001 4281350202
-0.10164778 -0.0083886804 1.4310001 4281349689
-0.099579781 -0.0084238527 1.437 4281283639
-0.097423382 -0.0084531633 1.442 4281415225
-0.094986334 -0.008459026 1.4430001 4281415225
-0.092289455 -0.0084414398 1.4400001 4281415479
-0.083774768 -0.0081014363 1.3820001 4281087284
-0.081081621 -0.0080721267 1.3770001 4280955698
-0.078462973 -0.0080486778 1.373 4280758319
-0.07619068 -0.0080604022 1.3750001 4280758319
-0.073911451 -0.0080721267 1.3770001 4280824110
-0.071833037 -0.0081072999 1.383 4280824110
-0.069683582 -0.0081366096 1.388 4280824110
-0.067322902 -0.0081424722 1.3890001 4280626731
-0.065239154 -0.0081835063 1.396 4280692524
-0.06322109 -0.0082362648 1.4050001 4280626733
-0.06095548 -0.0082597136 1.409 4280758319
-0.058759037 -0.0082948869 1.4150001 4280889905
-0.056581553 -0.008335921 1.4220001 4280889905
-0.054227553 -0.0083535081 1.4250001 4280889905
-0.052081052 -0.0084062666 1.434 4281283893
-0.15019181 -0.0059759365 1.4440001 4279770653
-0.14727637 -0.0059593827 1.4400001 4279836444
-0.14427426 -0.0059386906 1.4350001 4279770651
-0.14138833 -0.0059221364 1.4310001 4279836443
-0.13919576 -0.0059345518 1.434 4280099615
-0.13699275 -0.0059469673 1.437 4280099616
-0.12772308 -0.0059800749 1.4450001 4280560168
-0.12460841 -0.0059511056 1.4380001 4280560938
-0.12194265 -0.005942829 1.4360001 4280889390
-0.11920064 -0.0059304135 1.4330001 4281152305
-0.11679483 -0.0059345518 1.434 4281087026
-0.11446527 -0.005942829 1.4360001 4280889903
-0.11197279 -0.005942829 1.4360001 4280955696
-0.10940409 -0.0059386906 1.4350001 4281153077
-0.10661535 -0.0059221364 1.4310001 4281021491
-0.10413156 -0.0059221364 1.4310001 4280889905
-0.10178985 -0.0059304135 1.4330001 4281021235
-0.099649079 -0.0059511056 1.4380001 4281086515
-0.097288266 -0.0059593827 1.4400001 4281086515
-0.094788857 -0.0059593827 1.4400001 4281086514
-0.092033096 -0.005942829 1.4360001 4281152307
-0.078291535 -0.0056696902 1.3700001 4281021491
-0.07596904 -0.005673829 1.3710001 4280824112
-0.073750429 -0.0056862445 1.3740001 4280889903
-0.071677215 -0.0057110754 1.3800001 4280758317
-0.06963338 -0.0057400442 1.3870001 4280626731
-0.067322902 -0.0057483213 1.3890001 4280692524
-0.065192416 -0.0057731518 1.3950001 4280889133
-0.0630861 -0.005802121 1.4020001 4280757547
-0.060825698 -0.0058186748 1.406 4280823340
-0.058717508 -0.0058517829 1.414 4281152305
-0.05650197 -0.0058766133 1.4200001 4280889903
-0.054189499 -0.0058931671 1.424 4280758317
-0.052008413 -0.0059262747 1.432 4281152307
-0.14987978 -0.0034797408 1.4410001 4279704858
-0.14696956 -0.0034700814 1.437 4279770650
-0.1440732 -0.0034604224 1.4330001 4279836443
-0.14119072 -0.0034507629 1.429 4279902236
-0.13880749 -0.0034531779 1.4300001 4279902236
-0.13651609 -0.0034580075 1.432 4279968029
-0.1275463 -0.0034845704 1.4430001 4280165410
-0.12452176 -0.0034700814 1.437 4280231203
-0.1216879 -0.0034604224 1.4330001 4280428582
-0.1189511 -0.0034531779 1.4300001 4280494377
-0.11638759 -0.0034507629 1.429 4280757547
-0.11406671 -0.0034555928 1.4310001 4280626216
-0.11181685 -0.0034628371 1.434 4280692012
-0.10940409 -0.003465252 1.4350001 4280889133
-0.10683886 -0.0034628371 1.434 4280691754
-0.10442264 -0.003465252 1.4350001 4280757805
-0.10200294 -0.0034676667 1.4360001 4280955185
-0.09971837 -0.0034749112 1.439 4280954928
-0.097355828 -0.0034797408 1.4410001 4280954928
-0.094788857 -0.0034773259 1.4400001 4281086514
-0.091840826 -0.0034604224 1.4330001 4281152307
-0.078234382 -0.0033058745 1.3690001 4281086769
-0.075858213 -0.0033058745 1.3690001 4280823340
-0.073643073 -0.0033131188 1.3720001 4280757547
-0.07162527 -0.0033300226 1.3790001 4280889133
-0.069583178 -0.0033469263 1.386 4280757547
-0.067322902 -0.0033541706 1.3890001 4280823338
-0.065145679 -0.0033662447 1.3940001 4280757545
-0.062996097 -0.0033807335 1.4000001 4280757545
-0.060739171 -0.0033903928 1.404 4280691754
-0.05863446 -0.0034097114 1.4120001 4281152305
-0.056422394 -0.0034242002 1.4180001 4280823340
-0.054075334 -0.0034314445 1.4210001 4280954926
-0.051935777 -0.0034531779 1.4300001 4281086512
-0.14894369 -0.00098974002 1.432 4279770651
-0.14656046 -0.00099043117 1.4330001 4279770650
-0.1440732 -0.00099043117 1.4330001 4279836443
-0.14148714 -0.00098974002 1.432 4279902236
-0.13900161 -0.00098974002 1.432 4279770650
-0.13651609 -0.00098974002 1.432 4279770650
-0.13459215 -0.00099388696 1.4380001 4279836443
-0.12460841 -0.00099388696 1.4380001 4279902238
-0.12177281 -0.00099112233 1.434 4280033823
-0.1189511 -0.00098835758 1.4300001 4280099617
-0.11646905 -0.00098835758 1.4300001 4280231202
-0.113987 -0.00098835758 1.4300001 4280296994
-0.11189482 -0.00099181349 1.4350001 4280428582
-0.091776729 -0.00098974002 1.432 4280757548
-0.08066944 -0.00094688818 1.3700001 4281152305
-0.078177236 -0.0009455058 1.368 4281152305
-0.075802803 -0.0009455058 1.368 4280691754
-0.073589399 -0.00094757928 1.3710001 4280757547
-0.071677215 -0.00095379975 1.3800001 4280823340
-0.069733791 -0.00096002017 1.3890001 4280757547
-0.067468308 -0.00096209365 1.3920001 4280757545
-0.065239154 -0.00096485828 1.396 4280757545
-0.062996097 -0.00096762291 1.4000001 4280625959
-0.060652651 -0.00096900528 1.4020001 4280691754
-0.058426827 -0.00097246101 1.4070001 4280823340
-0.056263231 -0.00097729906 1.414 4280823340
-0.053923115 -0.00097937265 1.4170001 4280889133
-0.051863141 -0.00098697538 1.4280001 4280954926
-0.15283991 0.0014682026 1.4220001 4279770653
-0.15005451 0.0014651051 1.419 4279704858
-0.14790359 0.0014682026 1.4220001 4279704857
-0.14625363 0.0014764626 1.4300001 4279770650
-0.14417374 0.0014805924 1.434 4279836443
-0.13929282 0.001481625 1.4350001 4279770650
-0.13670675 0.0014805924 1.434 4279770650
-0.13431136 0.001481625 1.4350001 4279770650
-0.12434845 0.001481625 1.4350001 4279902239
-0.12160297 0.0014785274 1.432 4279902237
-0.1188679 0.00147543 1.429 4279968031
-0.11638759 0.00147543 1.429 4280033822
-0.11390728 0.00147543 1.429 4280033822
-0.080551669 0.001412448 1.368 4280889133
-0.078005798 0.0014093505 1.365 4281152305
-0.075691983 0.0014103831 1.3660001 4280625961
-0.073482044 0.0014134805 1.3690001 4280823340
-0.07162527 0.0014238055 1.3790001 4280757547
-0.069783993 0.0014351628 1.3900001 4280691753
-0.067516781 0.0014382603 1.393 4280625959
-0.065285876 0.0014423903 1.3970001 4280757545
-0.062996097 0.0014454877 1.4000001 4280625959
-0.060609385 0.0014465202 1.401 4280625959
-0.05830225 0.0014496177 1.404 4280625961
-0.056143861 0.0014568452 1.411 4280691754
-0.053847011 0.0014609752 1.4150001 4281086512
-0.05182682 0.001473365 1.427 4280954926
-0.15240997 0.003908209 1.4180001 4279836445
-0.14963152 0.0038999405 1.4150001 4279704858
-0.14769556 0.0039137215 1.4200001 4279639064
-0.1459468 0.0039330143 1.427 4279704857
-0.14387211 0.0039440389 1.4310001 4279704857
-0.13651609 0.0039467951 1.432 4279704857
-0.13403057 0.0039467951 1.432 4279704857
-0.1314532 0.0039440389 1.4310001 4279704857
-0.12896942 0.0039440389 1.4310001 4279836443
-0.12648563 0.0039440389 1.4310001 4279770651
-0.12382853 0.0039385268 1.429 4279968030
-0.12109346 0.0039302581 1.4260001 4280033822
-0.11836881 0.0039219894 1.4230001 4279968030
-0.11598036 0.0039247461 1.424 4279836444
-0.11358844 0.0039275023 1.4250001 4279968029
-0.080316149 0.0037593772 1.3640001 4280560166
-0.077891506 0.0037566214 1.363 4281086510
-0.075636566 0.0037621337 1.365 4280823338
-0.073374696 0.0037676457 1.3670001 4280889131
-0.071521394 0.0037952075 1.3770001 4280823338
-0.06963338 0.0038227686 1.3870001 4280691752
-0.067371376 0.0038310371 1.3900001 4280625959
-0.065192416 0.0038448179 1.3950001 4280691752
-0.06295111 0.0038558424 1.399 4280625959
-0.060566124 0.0038585986 1.4000001 4280691754
-0.05830225 0.0038696232 1.404 4280494375
-0.056104071 0.0038861597 1.4100001 4280625963
-0.0537709 0.0038944283 1.4130001 4281086514
-0.05175418 0.0039275023 1.4250001 4280823342
-0.15552652 0.0063792244 1.424 4279836446
-0.15219502 0.0063433857 1.416 4279704858
-0.14963152 0.006338906 1.4150001 4279704857
-0.14759156 0.0063568251 1.419 4279639064
-0.14574225 0.006383704 1.4250001 4279639064
-0.14346996 0.0063926638 1.427 4279639064
-0.1359441 0.0063881837 1.4260001 4279639064
-0.13337541 0.006383704 1.4250001 4279639064
-0.13062644 0.0063702646 1.4220001 4279770650
-0.1278879 0.0063568251 1.419 4279836444
-0.12533656 0.0063523455 1.4180001 4279836445
-0.12278868 0.0063478653 1.4170001 4279770653
-0.12015936 0.006338906 1.4150001 4279902238
-0.11795289 0.0063523455 1.4180001 4279836445
-0.11573602 0.0063657844 1.4210001 4279770652
-0.10325835 0.0063568251 1.419 4279902238
-0.1007954 0.0063568251 1.419 4279968030
-0.098748215 0.006383704 1.4250001 4279836445
-0.080021724 0.0060880375 1.3590001 4280231201
-0.077605769 0.0060835578 1.358 4281086510
-0.075470336 0.006101477 1.3620001 4280823338
-0.073321015 0.0061193961 1.3660001 4280954924
-0.071469456 0.0061641941 1.376 4280757545
-0.069583178 0.0062089921 1.386 4280494373
-0.067322902 0.0062224311 1.3890001 4280494375
-0.065145679 0.0062448303 1.3940001 4280757547
-0.06295111 0.0062672296 1.399 4280757549
-0.060652651 0.006280669 1.4020001 4280691754
-0.058385305 0.0062985881 1.406 4280362789
-0.056104071 0.0063165068 1.4100001 4280691754
-0.053732846 0.0063254666 1.4120001 4281020719
-0.15208752 0.0087778708 1.4150001 4279770653
-0.14963152 0.0087778708 1.4150001 4279770651
-0.14748754 0.0087964823 1.4180001 4279639064
-0.14563999 0.0088337017 1.424 4279441685
-0.13832214 0.0088399053 1.4250001 4279704857
-0.13575344 0.0088337017 1.424 4279639064
-0.13290741 0.0088088885 1.4200001 4279704857
-0.13007528 0.0087840743 1.416 4279704857
-0.12689653 0.008734447 1.4080001 4279836444
-0.12436428 0.0087282434 1.4070001 4279836445
-0.12183549 0.0087220399 1.406 4279770652
-0.11948002 0.0087282434 1.4070001 4279770652
-0.1174538 0.0087592611 1.4120001 4279770652
-0.11524733 0.0087778708 1.4150001 4279704859
-0.11064722 0.0088026859 1.419 4279836445
-0.10841298 0.0088212956 1.4220001 4279770650
-0.10587031 0.008815092 1.4210001 4279902236
-0.10311281 0.0087902779 1.4170001 4279836444
-0.10058229 0.0087840743 1.416 4279902236
-0.098401725 0.0088088885 1.4200001 4279968029
-0.082926109 0.00848631 1.368 4279770652
-0.079903968 0.008418072 1.3570001 4280033823
-0.077548623 0.008418072 1.3570001 4280889132
-0.075525746 0.0084552923 1.363 4280823338
-0.073428363 0.00848631 1.368 4280889131
-0.071573332 0.0085483445 1.378 4280823338
-0.06963338 0.0086041754 1.3870001 4280625959
-0.067371376 0.0086227851 1.3900001 4280494375
-0.065192416 0.0086538028 1.3950001 4280625961
-0.063041098 0.008691024 1.401 4280625961
-0.060782433 0.0087158373 1.4050001 4280560168
-0.05863446 0.0087592611 1.4120001 4280494375
-0.056462184 0.0088026859 1.419 4280625961
-0.15165761 0.011185128 1.411 4279770653
-0.14920853 0.011185128 1.411 4279639065
-0.14717551 0.011216836 1.4150001 4279573271
-0.14533314 0.0112644 1.4210001 4279573271
-0.13281383 0.011248546 1.419 4279704857
-0.12989156 0.01120891 1.414 4279770651
-0.12662615 0.011137567 1.4050001 4279836445
-0.12392233 0.011113784 1.4020001 4279836445
-0.12140223 0.011105858 1.401 4279836445
-0.11905543 0.011113784 1.4020001 4279770652
-0.11695471 0.011145493 1.406 4279704859
-0.11475865 0.011169274 1.409 4279704859
-0.11033531 0.011216836 1.4150001 4279704858
-0.10803178 0.011232691 1.4170001 4279770650
-0.1056468 0.011240618 1.4180001 4279836443
-0.10318558 0.011240618 1.4180001 4279836443
-0.1007954 0.011248546 1.419 4279704857
-0.082926109 0.010844263 1.368 4279836445
-0.080021724 0.01077292 1.3590001 4279902238
-0.077605769 0.010764993 1.358 4280823339
-0.075581163 0.010812555 1.3640001 4280889133
-0.073535718 0.010860117 1.3700001 4281020717
-0.071677215 0.010939389 1.3800001 4280823340
-0.069683582 0.011002805 1.388 4280494375
-0.067371376 0.01101866 1.3900001 4280494375
-0.065239154 0.011066223 1.396 4280428582
-0.063131101 0.011121712 1.4030001 4280560168
-0.060868952 0.01115342 1.4070001 4280362789
-0.058675982 0.011200983 1.4130001 4280494375
-0.15058279 0.013520692 1.401 4279704859
-0.14815107 0.013520692 1.401 4279639064
-0.14644744 0.013588247 1.4080001 4279639064
-0.1447195 0.013655802 1.4150001 4279704857
-0.14246456 0.013675104 1.4170001 4279639064
-0.12989156 0.013646152 1.414 4279704859
-0.12617552 0.013511041 1.4000001 4279704859
-0.12312682 0.013443486 1.393 4279770652
-0.12070899 0.013443486 1.393 4279704859
-0.11863083 0.013482088 1.3970001 4279704859
-0.11645561 0.013511041 1.4000001 4279704859
-0.11410709 0.013520692 1.401 4279836445
-0.11183479 0.013539993 1.4030001 4279770652
-0.10963354 0.013568945 1.406 4279836443
-0.10734562 0.013588247 1.4080001 4279836443
-0.10527427 0.013636501 1.4130001 4279770650
-0.089789949 0.013520692 1.401 4279704857
-0.083047345 0.013221518 1.3700001 4279836445
-0.080198377 0.013144312 1.3620001 4279836445
-0.077834353 0.013144312 1.3620001 4280757547
-0.075802803 0.013202217 1.368 4280889133
-0.073643073 0.013240821 1.3720001 4281020719
-0.071729153 0.013327677 1.381 4280889133
-0.069733791 0.013404883 1.3890001 4280560168
-0.067468308 0.013433835 1.3920001 4280494375
-0.065379351 0.013501391 1.399 4280362789
-0.063266091 0.013568945 1.406 4280494375
-0.06095548 0.013597898 1.409 4280362276
-0.14972292 0.015844531 1.393 4279704858
-0.1473051 0.015844531 1.393 4279573271
-0.14561534 0.015924152 1.4000001 4279639064
-0.14410584 0.016026521 1.409 4279639064
-0.14196186 0.016060645 1.4120001 4279639064
-0.12500389 0.015776286 1.3870001 4279704859
-0.12268487 0.015787659 1.388 4279770396
-0.12027572 0.015787659 1.388 4279770140
-0.11829116 0.015844531 1.393 4279704859
-0.11612289 0.015878653 1.396 4279770652
-0.11353695 0.015855907 1.3940001 4279770652
-0.11095797 0.015833156 1.3920001 4279770650
-0.10869782 0.015855907 1.3940001 4279770650
-0.10650698 0.015890028 1.3970001 4279836443
-0.094315566 0.015878653 1.396 4279836443
-0.091892533 0.015878653 1.396 4279836443
-0.088508144 0.015708037 1.381 4279770650
-0.085861735 0.015662542 1.3770001 4279704859
-0.083107971 0.015594295 1.3710001 4279704859
-0.080316149 0.015514674 1.3640001 4279902239
-0.077891506 0.015503298 1.363 4280691754
-0.075802803 0.015560171 1.368 4280757547
-0.073750429 0.015628418 1.3740001 4280757547
-0.071729153 0.015708037 1.381 4280757547
-0.069683582 0.015787659 1.388 4280428582
-0.067516781 0.015844531 1.393 4280428582
-0.065426074 0.015924152 1.4000001 4280428582
-0.063311085 0.016003773 1.4070001 4280362789
-0.14961544 0.018232478 1.3920001 4279639065
-0.14709359 0.01821938 1.391 4279704857
-0.14551133 0.018324163 1.399 4279639064
-0.1439013 0.01842895 1.4070001 4279704857
-0.14155971 0.018442048 1.4080001 4279704857
-0.12491376 0.018153889 1.386 4279704857
-0.1224197 0.018140791 1.3850001 4279770652
-0.12001576 0.018140791 1.3850001 4279836445
-0.11795148 0.018193185 1.3890001 4279704859
-0.11579014 0.018232478 1.3920001 4279704859
-0.11329261 0.01821938 1.391 4279639066
-0.11063912 0.018180085 1.388 4279836444
-0.10830795 0.018193185 1.3890001 4279770650
-0.10604954 0.01821938 1.391 4279836443
-0.094180442 0.018258676 1.3940001 4279704857
-0.091760881 0.018258676 1.3940001 4279836443
-0.088572241 0.018101498 1.3820001 4279704857
-0.085924082 0.018049104 1.378 4279770652
-0.083107971 0.017957419 1.3710001 4279836445
-0.080257259 0.017852634 1.363 4279770652
-0.077891506 0.017852634 1.363 4280691754
-0.075802803 0.017918125 1.368 4280757547
-0.073696747 0.017983615 1.373 4280757547
-0.071677215 0.018075302 1.3800001 4280691754
-0.06963338 0.018166989 1.3870001 4280494375
-0.067419842 0.01821938 1.391 4280428582
-0.065379351 0.018324163 1.399 4280362789
-0.063311085 0.01842895 1.4070001 4280165410
-0.14940047 0.020602155 1.3900001 4279639066
-0.14698786 0.020602155 1.3900001 4279704858
-0.14488727 0.020646621 1.393 4279639065
-0.14287853 0.020705909 1.3970001 4279770650
-0.14055431 0.02072073 1.3980001 4279770650
-0.13773258 0.020661443 1.3940001 4279770651
-0.12944433 0.020498404 1.383 4279704857
-0.12704386 0.020498404 1.383 4279704857
-0.12464339 0.020498404 1.383 4279704857
-0.12250809 0.020542869 1.386 4279704857
-0.12027572 0.020572513 1.388 4279704858
-0.11795148 0.020587334 1.3890001 4279704858
-0.11554059 0.020587334 1.3890001 4279704859
-0.11321117 0.020602155 1.3900001 4279704859
-0.11055941 0.020557692 1.3870001 4279770652
-0.1078401 0.020498404 1.383 4279704859
-0.10551587 0.020513227 1.3840001 4279770650
-0.10415672 0.02072073 1.3980001 4279704857
-0.10209405 0.020794839 1.4030001 4279704857
-0.099729896 0.02080966 1.404 4279770650
-0.097015791 0.020750374 1.4000001 4279770650
-0.094112888 0.020646621 1.393 4279836443
-0.091695055 0.020646621 1.393 4279770650
-0.088572241 0.020483583 1.3820001 4279836443
-0.085799381 0.020394653 1.376 4279770650
-0.082804874 0.020246437 1.3660001 4279902236
-0.080257259 0.02020197 1.363 4279968029
-0.077891506 0.02020197 1.363 4280757545
-0.075747393 0.020261258 1.3670001 4280823340
-0.073535718 0.020305723 1.3700001 4280823340
-0.071417511 0.02037983 1.3750001 4280494375
-0.069432564 0.020498404 1.383 4280362789
-0.067274436 0.020572513 1.388 4280165410
-0.065285876 0.020705909 1.3970001 4280099617
-0.15356 0.02289876 1.3840001 4279770652
-0.15126701 0.022915304 1.3850001 4279704859
-0.14907803 0.022948395 1.3870001 4279704859
-0.14677636 0.022964939 1.388 4279704859
-0.14426321 0.022948395 1.3870001 4279770652
-0.14175351 0.022931848 1.386 4279704859
-0.1392473 0.022915304 1.3850001 4279639064
-0.12878916 0.022766396 1.376 4279704856
-0.12649269 0.02278294 1.3770001 4279639319
-0.12437301 0.022832576 1.3800001 4279770650
-0.12268487 0.022964939 1.388 4279770650
-0.12079564 0.023064213 1.3940001 4279704857
-0.11394419 0.023146939 1.399 4279770650
-0.11071883 0.022981485 1.3890001 4279639578
-0.10776212 0.022865668 1.3820001 4279639834
-0.10536338 0.022865668 1.3820001 4279770650
-0.10363518 0.023014575 1.391 4279836443
-0.10187574 0.023163484 1.4000001 4279704857
-0.099445768 0.023163484 1.4000001 4279770650
-0.096600004 0.023064213 1.3940001 4279902236
-0.094248004 0.023080757 1.3950001 4279836443
-0.091892533 0.023097303 1.396 4279836443
-0.089149043 0.023014575 1.391 4279836443
-0.082562394 0.022534762 1.3620001 4279836443
-0.080139495 0.022518216 1.3610001 4280033822
-0.077777214 0.022518216 1.3610001 4280691752
-0.075636566 0.022584397 1.365 4280757545
-0.073428363 0.022634031 1.368 4280625961
-0.071417511 0.022749851 1.3750001 4280428582
-0.069382355 0.022865668 1.3820001 4280231205
-0.067129031 0.022915304 1.3850001 4280033826
-0.065332614 0.023130393 1.3980001 4280625963
-0.15322714 0.025229482 1.381 4279770652
-0.15104857 0.025266021 1.383 4279836445
-0.14875558 0.02528429 1.3840001 4279836445
-0.14635338 0.02528429 1.3840001 4279704860
-0.14395118 0.02528429 1.3840001 4279770652
-0.14144668 0.025266021 1.383 4279770651
-0.13884515 0.025229482 1.381 4279770650
-0.12822758 0.025028525 1.3700001 4279705112
-0.12584966 0.025028525 1.3700001 4279705111
-0.12401251 0.02513814 1.376 4279705111
-0.12250809 0.025320828 1.386 4279836441
-0.12053568 0.025412172 1.391 4279770905
-0.11386275 0.025540056 1.3980001 4279836443
-0.11063912 0.025357366 1.388 4279770907
-0.10776212 0.025247753 1.3820001 4279770650
-0.10543963 0.025266021 1.383 4279770650
-0.10370969 0.025430443 1.3920001 4279704857
-0.096392117 0.025412172 1.391 4279836443
-0.094248004 0.025485249 1.3950001 4279836443
-0.091892533 0.025503518 1.396 4279902237
-0.089149043 0.025412172 1.391 4279704859
-0.082501784 0.024864104 1.3610001 4279902236
-0.080080613 0.024845835 1.36 4280099615
-0.077777214 0.024864104 1.3610001 4280691752
-0.075691983 0.02495545 1.3660001 4280757545
-0.073482044 0.025010256 1.3690001 4280297764
-0.071521394 0.025156409 1.3770001 4280297766
-0.069432564 0.025266021 1.383 4280034594
-0.067177497 0.025320828 1.386 4280363561
-0.15573682 0.027629837 1.3820001 4279770911
-0.15333809 0.027629837 1.3820001 4279836445
-0.15104857 0.027649829 1.383 4279836445
-0.14854062 0.027629837 1.3820001 4279836445
-0.14603613 0.027609844 1.381 4279770652
-0.14384715 0.027649829 1.383 4279836445
-0.14144668 0.027649829 1.383 4279704859
-0.13854352 0.027549867 1.378 4279770651
-0.1353613 0.027389925 1.3700001 4279902238
-0.13259512 0.027309956 1.3660001 4279836444
-0.12993816 0.027249977 1.363 4279704857
-0.1278532 0.027309956 1.3660001 4279705111
-0.12575781 0.027369933 1.3690001 4279770904
-0.12410264 0.027529875 1.3770001 4279770904
-0.12250809 0.027709808 1.386 4279705111
-0.12044903 0.027789779 1.3900001 4279836442
-0.11095797 0.027829764 1.3920001 4279836443
-0.10143913 0.02786975 1.3940001 4279902236
-0.098593377 0.027749794 1.388 4279836443
-0.095976338 0.027689815 1.3850001 4279836443
-0.093775079 0.027749794 1.388 4279968029
-0.091431752 0.027769787 1.3890001 4279902238
-0.087354533 0.027249977 1.363 4279836445
-0.084926419 0.027229985 1.3620001 4279836443
-0.082501784 0.027209993 1.3610001 4279836443
-0.080257259 0.027249977 1.363 4280099615
-0.078062944 0.027309956 1.3660001 4280954924
-0.15573682 0.030011922 1.3820001 4279836961
-0.15367095 0.030077072 1.3850001 4279704861
-0.1511578 0.030055353 1.3840001 4279836447
-0.14972292 0.030250803 1.393 4279836445
-0.14195806 0.03014222 1.388 4279836445
-0.13934782 0.030098788 1.386 4279770652
-0.13051015 0.02972961 1.3690001 4279902236
-0.12841478 0.02979476 1.3720001 4279836443
-0.12649269 0.029903339 1.3770001 4279836442
-0.12455326 0.030011922 1.3820001 4279836442
-0.12250809 0.030098788 1.386 4279770650
-0.12027572 0.03014222 1.388 4279836443
-0.11795148 0.030163938 1.3890001 4279902490
-0.10114806 0.030185651 1.3900001 4279902236
-0.098522343 0.030120503 1.3870001 4280033822
-0.095352665 0.029881626 1.376 4280033822
-0.092964344 0.029881626 1.376 4280033822
-0.087354533 0.029599315 1.363 4279968031
-0.084864065 0.02955588 1.3610001 4280033824
-0.082562394 0.029577596 1.3620001 4279968031
-0.080551669 0.029707894 1.368 4280296996
-0.078462973 0.029816477 1.373 4280889133
-0.076744795 0.030077072 1.3850001 4280691754
-0.15618758 0.032487769 1.386 4279902754
-0.13089147 0.032183047 1.373 4280033822
-0.12869556 0.032229926 1.3750001 4279902236
-0.12676828 0.032347128 1.3800001 4279968029
-0.12455326 0.032394007 1.3820001 4279968029
-0.12215453 0.032394007 1.3820001 4279968029
-0.11984245 0.03241745 1.383 4280033822
-0.11761181 0.032464329 1.3850001 4280099615
-0.10085699 0.032487769 1.386 4280099615
-0.097812019 0.032276805 1.3770001 4280099615
-0.095075473 0.032159608 1.3720001 4280231201
-0.09282922 0.032206487 1.3740001 4280231201
-0.087098166 0.03185489 1.3590001 4280231203
-0.084552296 0.031784568 1.3560001 4280165410
-0.08231993 0.031831447 1.358 4280165410
-0.080551669 0.032065846 1.368 4280494375
-0.078520127 0.032206487 1.3740001 4280889135
-0.13098681 0.034574784 1.3740001 4280231202
-0.12888275 0.034650274 1.3770001 4280362787
-0.12676828 0.034725767 1.3800001 4280296994
-0.12428289 0.034700602 1.3790001 4280428581
-0.12153581 0.034599949 1.3750001 4280362788
-0.11914922 0.034599949 1.3750001 4280362788
-0.11693247 0.034650274 1.3770001 4280428582
-0.10229412 0.03454962 1.373 4280428580
-0.099838227 0.034524456 1.3720001 4280362787
-0.097172722 0.034423802 1.368 4280428580
-0.08833795 0.033769548 1.342 4280296995
-0.085880458 0.033719223 1.34 4280428582
-0.083741687 0.033794712 1.3430001 4280428582
-0.082016833 0.034046348 1.353 4280494375
-0.080551669 0.034423802 1.368 4280428584
-0.078577265 0.034599949 1.3750001 4280691756
-0.13079615 0.036889303 1.3720001 4280625961
-0.12869556 0.036969967 1.3750001 4280691754
-0.12667641 0.037077516 1.3790001 4280494375
-0.12419277 0.037050627 1.378 4280757547
-0.12135902 0.036916193 1.373 4280691754
-0.11888926 0.036889303 1.3720001 4280823340
-0.11659279 0.036916193 1.373 4280691754
-0.10345739 0.036485996 1.3570001 4280691752
-0.10125105 0.036539771 1.3590001 4280625959
-0.098965012 0.03656666 1.36 4280625959
-0.096462399 0.036512882 1.358 4280560166
-0.09292727 0.0360558 1.3410001 4280625961
-0.090397015 0.035975136 1.3380001 4280494375
-0.087877169 0.035894476 1.335 4280560168
-0.085624099 0.035921365 1.3360001 4280691754
-0.083492279 0.036002025 1.3390001 4280625961
-0.081471264 0.03613646 1.3440001 4280625961
-0.080198377 0.036620431 1.3620001 4280691756
-0.078062944 0.036727984 1.3660001 4280823342
-0.15438455 0.039196935 1.3700001 4280626221
-0.14821817 0.03945443 1.3790001 4280757549
-0.13713597 0.039025266 1.3640001 4280626733
-0.13427445 0.038882211 1.3590001 4280692011
-0.1317215 0.03882499 1.3570001 4280757547
-0.12984282 0.038968045 1.3620001 4280823340
-0.1278532 0.03908249 1.3660001 4280889133
-0.12557408 0.039111096 1.3670001 4280691754
-0.12338164 0.039168321 1.3690001 4280823340
-0.12082869 0.039111096 1.3670001 4280757547
-0.11845598 0.039111096 1.3670001 4280954926
-0.11591344 0.039053876 1.365 4280757547
-0.1030762 0.038681936 1.3520001 4280757547
-0.10095304 0.038767766 1.355 4280757547
-0.098673932 0.03879638 1.3560001 4280757547
-0.096249297 0.038767766 1.355 4280823340
-0.092996567 0.038395826 1.342 4280691754
-0.090397015 0.038281381 1.3380001 4280691754
-0.087811343 0.03816694 1.3340001 4280823340
-0.085624099 0.038224161 1.3360001 4280823340
-0.083429918 0.038281381 1.3380001 4280757547
-0.08153189 0.03848166 1.345 4280757549
-0.080257259 0.038996655 1.363 4280691756
-0.078177236 0.03913971 1.368 4280757549
-0.15619032 0.041406661 1.365 4280758064
-0.13743758 0.041467328 1.3670001 4280758317
-0.13437326 0.04125499 1.36 4280889390
-0.1317215 0.041163985 1.3570001 4280823340
-0.1291755 0.041103315 1.355 4280889133
-0.12813398 0.041527998 1.3690001 4280954926
-0.12594153 0.041588668 1.3710001 4280691754
-0.12356188 0.041588668 1.3710001 4280889133
-0.12109385 0.041558333 1.3700001 4280889133
-0.1186293 0.041527998 1.3690001 4280954926
-0.11480951 0.041012309 1.3520001 4280954926
-0.11213012 0.040890973 1.348 4280889133
-0.10954606 0.040799968 1.345 4280823340
-0.10729125 0.040830303 1.3460001 4280691754
-0.10503298 0.040860638 1.3470001 4280691754
-0.10292371 0.040951643 1.35 4280625961
-0.10072953 0.041012309 1.3520001 4280823340
-0.098310098 0.040981974 1.3510001 4280757547
-0.09561 0.040830303 1.3460001 4280691754
-0.093065858 0.040739302 1.3430001 4280757547
-0.090532131 0.040648296 1.34 4280823340
-0.087877169 0.040496621 1.335 4280757547
-0.085944556 0.040678628 1.3410001 4280757547
-0.083679341 0.040708967 1.342 4280757547
-0.15493165 0.043406799 1.3540001 4281021493
-0.15291958 0.043502979 1.3570001 4280955185
-0.15100805 0.043631211 1.3610001 4281086514
-0.13703543 0.043695327 1.363 4280954926
-0.13427445 0.043567095 1.3590001 4281020719
-0.1317215 0.043502979 1.3570001 4280889133
-0.12356188 0.043951791 1.3710001 4281020719
-0.12109385 0.043919735 1.3700001 4281020719
-0.1186293 0.043887675 1.3690001 4281020719
-0.11506427 0.043438859 1.355 4280954926
-0.11237967 0.043310627 1.3510001 4280889133
-0.10970895 0.043182395 1.3470001 4280823340
-0.1076101 0.043278571 1.35 4280823340
-0.10542286 0.043342687 1.3520001 4280691754
-0.10322867 0.043406799 1.3540001 4280625961
-0.10065503 0.043310627 1.3510001 4280757547
-0.098019019 0.043182395 1.3470001 4280757547
-0.09546794 0.04308622 1.3440001 4280757547
-0.093273751 0.043150339 1.3460001 4280954926
-0.091005065 0.043182395 1.3470001 4280757547
-0.088996209 0.043342687 1.3520001 4280823340
-0.086969994 0.043502979 1.3570001 4280823340
-0.084614649 0.043502979 1.3570001 4280889133
-0.1537874 0.045402806 1.3440001 4281153078
-0.14853656 0.045943316 1.36 4281086514
-0.13603003 0.045706846 1.353 4281020719
-0.12548223 0.046146009 1.3660001 4281086512
-0.12293101 0.046078444 1.3640001 4281020720
-0.1206519 0.046112224 1.365 4281086513
-0.11828268 0.046112224 1.365 4281086513
-0.1152341 0.045841973 1.3570001 4281086514
-0.11254603 0.045706846 1.353 4280889135
-0.10987184 0.045571715 1.3490001 4280954927
-0.1076101 0.045605499 1.35 4280823854
-0.10542286 0.045673061 1.3520001 4280692524
-0.10315243 0.045706846 1.353 4280823340
-0.10013349 0.045402806 1.3440001 4281020719
-0.097582415 0.04530146 1.3410001 4280889133
-0.095396906 0.045369025 1.3430001 4280823340
-0.093412347 0.045537934 1.348 4280889133
-0.091140181 0.045571715 1.3490001 4281086512
-0.089259505 0.045808189 1.3560001 4281020719
-0.087418623 0.046078444 1.3640001 4281152306
-0.085113481 0.046112224 1.365 4281152306
-0.1533297 0.047577374 1.34 4280955697
-0.14853656 0.048287481 1.36 4281086514
-0.13562788 0.047896922 1.3490001 4281020719
-0.13003349 0.0484295 1.3640001 4280954926
-0.1275724 0.048393998 1.363 4280954926
-0.12493107 0.048287481 1.36 4281020721
-0.12257051 0.048287481 1.36 4281086514
-0.12038673 0.048358493 1.3620001 4281152307
-0.11802271 0.048358493 1.3620001 4281218100
-0.11514919 0.048145458 1.3560001 4281086514
-0.11246285 0.048003439 1.3520001 4280954928
-0.1097904 0.047861416 1.348 4281020721
-0.10737097 0.04782591 1.3470001 4280889903
-0.10518893 0.047896922 1.3490001 4280824110
-0.10292371 0.047932427 1.35 4281086512
-0.099686474 0.047506358 1.3380001 4280954926
-0.097436875 0.047541864 1.3390001 4280954926
-0.095396906 0.047683887 1.3430001 4280889133
-0.093273751 0.047790404 1.3460001 4280954926
-0.091072626 0.047861416 1.348 4281086514
-0.089259505 0.048145458 1.3560001 4281086514
-0.15916033 0.050259355 1.35 4280758065
-0.15635251 0.050110437 1.3460001 4281284664
-0.15367298 0.049998753 1.3430001 4281087283
-0.15156731 0.050073206 1.345 4281152305
-0.1494547 0.050147668 1.3470001 4281218098
-0.14711672 0.050147668 1.3470001 4281218099
-0.14456376 0.050073206 1.345 4281152307
-0.14233501 0.050110437 1.3460001 4281152305
-0.13989474 0.050073206 1.345 4281218098
-0.13745795 0.05003598 1.3440001 4281152305
-0.13472302 0.049887065 1.34 4281086512
-0.13210078 0.049775377 1.337 4281152305
-0.12968306 0.049738146 1.3360001 4281086512
-0.12166926 0.050259355 1.35 4281086514
-0.11950284 0.050333813 1.3520001 4281152307
-0.11732948 0.05040827 1.3540001 4281020721
-0.11489443 0.050371043 1.353 4280954928
-0.11237967 0.050296582 1.3510001 4281020721
-0.10970895 0.050147668 1.3470001 4281020721
-0.10697241 0.049961522 1.342 4281020976
-0.10448715 0.049887065 1.34 4281020719
-0.10132268 0.049477544 1.3290001 4281020719
-0.099090435 0.049514771 1.33 4281020719
-0.096927494 0.049589228 1.332 4280889133
-0.094899669 0.049738146 1.3360001 4280954926
-0.09292727 0.049924292 1.3410001 4281152305
-0.090734817 0.049998753 1.3430001 4281086514
-0.088732906 0.050184894 1.348 4281020721
-0.15892453 0.052508377 1.348 4281087286
-0.15658481 0.052508377 1.348 4281415736
-0.15424509 0.052508377 1.348 4281349685
-0.15156731 0.052391518 1.345 4281218097
-0.1490109 0.052313615 1.3430001 4281218098
-0.14667985 0.052313615 1.3430001 4281283891
-0.14434882 0.052313615 1.3430001 4281283891
-0.14180627 0.052235708 1.3410001 4281218099
-0.13937469 0.052196756 1.34 4281283891
-0.13704886 0.052196756 1.34 4281152305
-0.13422032 0.05200199 1.335 4281086512
-0.13160674 0.051885132 1.332 4281152305
-0.12939186 0.051924087 1.3330001 4281086512
-0.12745951 0.052079897 1.337 4281152305
-0.12551327 0.052235708 1.3410001 4281086512
-0.12336943 0.052313615 1.3430001 4281152307
-0.12121862 0.052391518 1.345 4281283893
-0.11914928 0.052508377 1.348 4281152307
-0.11698287 0.052586284 1.35 4281152052
-0.11463968 0.052586284 1.35 4281086260
-0.11213012 0.052508377 1.348 4280954928
-0.1096275 0.052430473 1.3460001 4281020719
-0.10673328 0.052157801 1.3390001 4281086512
-0.1040193 0.051963039 1.3340001 4280954924
-0.1011702 0.05169037 1.327 4281086510
-0.098643415 0.051573511 1.3240001 4280954926
-0.09641812 0.051612463 1.325 4281086512
-0.094473474 0.051807228 1.33 4280954926
-0.092719376 0.052118849 1.3380001 4281020719
-0.090599693 0.052235708 1.3410001 4281020720
-0.08866708 0.052469425 1.3470001 4281349686
-0.15880665 0.054791182 1.3470001 4281284150
-0.15658481 0.054831859 1.348 4281481271
-0.15401626 0.054750506 1.3460001 4281349684
-0.15122923 0.0545878 1.342 4281283891
-0.14878899 0.05454712 1.3410001 4281283891
-0.14657062 0.0545878 1.342 4281349684
-0.14424132 0.0545878 1.342 4281349684
-0.14170052 0.054506447 1.34 4281283891
-0.13927068 0.054465771 1.3390001 4281349684
-0.13694657 0.054465771 1.3390001 4281218098
-0.13371761 0.054099683 1.33 4281152305
-0.13150795 0.054140355 1.3310001 4281152305
-0.12919773 0.054140355 1.3310001 4281152305
-0.12726885 0.054303065 1.335 4281349684
-0.12523247 0.054425091 1.3380001 4281349685
-0.12318569 0.05454712 1.3410001 4281086514
-0.1211285 0.054669149 1.3440001 4281218100
-0.11906089 0.054791182 1.3470001 4281152307
-0.11680955 0.054831859 1.348 4281218100
-0.11438492 0.054791182 1.3470001 4281086515
-0.11204693 0.054791182 1.3470001 4281086514
-0.10954606 0.054709829 1.345 4281152305
-0.10673328 0.054465771 1.3390001 4281020717
-0.1040193 0.054262388 1.3340001 4280889131
-0.10109396 0.053936977 1.3260001 4280954924
-0.098568909 0.053814948 1.3230001 4281020717
-0.09641812 0.053896297 1.325 4281086510
-0.094544515 0.054140355 1.3310001 4281020719
-0.092719376 0.054425091 1.3380001 4281020719
-0.090667263 0.0545878 1.342 4281152305
-0.08866708 0.054791182 1.3470001 4281349686
-0.16126426 0.057155341 1.348 4281284664
-0.15845296 0.056985736 1.3440001 4281349943
-0.15623634 0.057028141 1.345 4281349684
-0.15367298 0.056943338 1.3430001 4281283891
-0.15100387 0.056816138 1.34 4281283891
-0.14867803 0.056816138 1.34 4281283891
-0.14667985 0.056943338 1.3430001 4281349684
-0.14434882 0.056943338 1.3430001 4281218611
-0.14159477 0.056773741 1.3390001 4281218355
-0.13875063 0.056561738 1.3340001 4281481270
-0.13633291 0.056519333 1.3330001 4281349684
-0.133416 0.056264937 1.327 4281218098
-0.13111272 0.056264937 1.327 4281349684
-0.12880945 0.056264937 1.327 4281612856
-0.12679218 0.056392137 1.33 4282862923
-0.1246709 0.056476936 1.332 4283060302
-0.12263453 0.056604136 1.335 4283718233
-0.12058775 0.056731336 1.3380001 4283060302
-0.11844217 0.056816138 1.34 4281283893
-0.11620298 0.056858536 1.3410001 4281152307
-0.11387541 0.056858536 1.3410001 4281086512
-0.1117142 0.056943338 1.3430001 4281152305
-0.10938316 0.056943338 1.3430001 4281086511
-0.10649414 0.056646533 1.3360001 4280954924
-0.10386335 0.056476936 1.332 4281086510
-0.10094148 0.056137737 1.3240001 4281020717
-0.098568909 0.056095336 1.3230001 4281020717
-0.09641812 0.056180134 1.325 4281020717
-0.094757609 0.056561738 1.3340001 4281020719
-0.093135156 0.056985736 1.3440001 4281086512
-0.091005065 0.057112936 1.3470001 4281283893
-0.161025 0.059390571 1.3460001 4281547066
-0.15833506 0.0592582 1.3430001 4281481272
-0.1557717 0.059169952 1.3410001 4281349685
-0.1533297 0.059125829 1.34 4281283891
-0.15111655 0.059169952 1.3410001 4281217842
-0.14889993 0.059214082 1.342 4281349684
-0.14678906 0.059302323 1.3440001 4281415478
-0.14348894 0.05890521 1.335 4281218869
-0.14085455 0.05877284 1.332 4281284662
-0.1384386 0.058728717 1.3310001 4281284661
-0.13571927 0.058552217 1.327 4281218611
-0.13311438 0.058419846 1.3240001 4281349684
-0.13081631 0.058419846 1.3240001 4281349683
-0.12851825 0.058419846 1.3240001 4283126093
-0.12641086 0.058508098 1.3260001 4281876028
-0.12420291 0.058552217 1.327 4280757547
-0.12208337 0.058640469 1.3290001 4281678649
-0.11977662 0.058640469 1.3290001 4286086780
-0.11755826 0.058684591 1.33 4281020719
-0.11524978 0.058684591 1.33 4281086512
-0.1128564 0.058640469 1.3290001 4281086511
-0.11046647 0.058596347 1.3280001 4281152304
-0.10881303 0.058949333 1.3360001 4281086510
-0.10063652 0.058243357 1.3200001 4281086510
-0.098494403 0.058331605 1.322 4280889133
-0.09649089 0.058508098 1.3260001 4281020719
-0.094828643 0.05890521 1.335 4280954928
-0.15833506 0.061573066 1.3430001 4281481272
-0.1557717 0.061481368 1.3410001 4281415477
-0.15344413 0.061481368 1.3410001 4281415477
-0.15134194 0.061573066 1.3430001 4281283892
-0.1490109 0.061573066 1.3430001 4281415479
-0.14667985 0.061573066 1.3430001 4281415479
-0.14370392 0.061297979 1.337 4281218614
-0.14096029 0.061114587 1.3330001 4281350456
-0.13833457 0.060977045 1.33 4281415734
-0.135617 0.060793657 1.3260001 4281481526
-0.13291329 0.060610272 1.322 4281349939
-0.13061871 0.060610272 1.322 4282073405
-0.12822704 0.060564417 1.3210001 4283455058
-0.12622018 0.060701963 1.3240001 4282533956
-0.12410932 0.060793657 1.3260001 4282139198
-0.12189964 0.060839504 1.327 4282599750
-0.11941611 0.060747813 1.325 4285626229
-0.11702793 0.060701963 1.3240001 4280889133
-0.11472987 0.060701963 1.3240001 4281152307
-0.11251672 0.060747813 1.325 4281218097
-0.11021692 0.060747813 1.325 4281152303
-0.1084058 0.061022896 1.3310001 4281152303
-0.10040779 0.060381033 1.317 4281020719
-0.098419897 0.060564417 1.3210001 4280954926
-0.09649089 0.060793657 1.3260001 4281086513
-0.094686575 0.061114587 1.3330001 4281152307
-0.15809926 0.06379278 1.3410001 4281481273
-0.15553938 0.063697644 1.3390001 4281547064
-0.15355855 0.063840359 1.342 4281481270
-0.14889993 0.063840359 1.342 4281481272
-0.14613377 0.063650072 1.3380001 4281415736
-0.14338148 0.063459791 1.3340001 4281153077
-0.14074881 0.063317075 1.3310001 4281153077
-0.1376065 0.062936507 1.3230001 4281153075
-0.13510562 0.062841363 1.3210001 4281349684
-0.13241062 0.062651083 1.317 4281086510
-0.13002588 0.062603511 1.3160001 4283718230
-0.12783878 0.062651083 1.317 4284310367
-0.12574352 0.062746227 1.319 4287797396
-0.12364133 0.062841363 1.3210001 4285494641
-0.12144033 0.062888935 1.322 4284310367
-0.11878524 0.062698647 1.3180001 4282599751
-0.1163208 0.062603511 1.3160001 4281349684
-0.11369002 0.062413223 1.312 4281349685
-0.11132786 0.062365655 1.3110001 4281218097
-0.108886 0.062270511 1.309 4281086510
-0.10017908 0.062508367 1.314 4280889133
-0.098345399 0.062793791 1.3200001 4281086512
-0.09634535 0.062984072 1.3240001 4281152307
-0.094757609 0.063459791 1.3340001 4281547065
-0.16385095 0.065611251 1.3310001 4281217847
-0.16154073 0.065611251 1.3310001 4281546811
-0.15946978 0.065709837 1.3330001 4281481018
-0.15739189 0.06580843 1.335 4281547065
-0.15495858 0.065759137 1.3340001 4281547065
-0.15264316 0.065759137 1.3340001 4281349686
-0.14558767 0.065709837 1.3330001 4281350200
-0.14284405 0.065512665 1.3290001 4281218870
-0.13969134 0.065118305 1.3210001 4281153077
-0.13677441 0.064822532 1.3150001 4281087283
-0.1343897 0.064773247 1.314 4281284661
-0.13190791 0.064674653 1.312 4282403142
-0.12953188 0.06462536 1.3110001 4283257936
-0.12735343 0.064674653 1.312 4283586644
-0.12526686 0.064773247 1.314 4287073673
-0.12317334 0.064871833 1.3160001 4284441953
-0.12116475 0.065019719 1.319 4284376160
-0.11869512 0.064921126 1.317 4281020719
-0.11614404 0.064773247 1.314 4281283891
-0.11325675 0.064428173 1.307 4281283891
-0.11064852 0.064231001 1.3030001 4281086510
-0.10847008 0.064280294 1.304 4281152303
-0.10612529 0.064231001 1.3030001 4281020717
-0.10410281 0.064378887 1.3060001 4281020717
-0.1000266 0.064674653 1.312 4280954926
-0.098345399 0.065069012 1.3200001 4281020719
-0.09627258 0.065216891 1.3230001 4280954927
-0.094828643 0.06580843 1.335 4281283893
-0.16348162 0.067752376 1.3280001 4281349690
-0.16117662 0.067752376 1.3280001 4281415482
-0.15911089 0.067854412 1.33 4281415225
-0.15692031 0.067905433 1.3310001 4281349432
-0.1546101 0.067905433 1.3310001 4281546809
-0.15241431 0.067956448 1.332 4281349686
-0.14558767 0.068007462 1.3330001 4281284406
-0.14273657 0.067752376 1.3280001 4281153077
-0.13937409 0.06724219 1.3180001 4281284662
-0.13656639 0.066987097 1.3130001 4281350454
-0.13418515 0.066936083 1.312 4281415733
-0.13170682 0.06683404 1.3100001 4284047195
-0.12943307 0.06683404 1.3100001 4282665542
-0.12725636 0.066885069 1.3110001 4282533956
-0.12517153 0.066987097 1.3130001 4284441953
-0.12307975 0.067089133 1.3150001 4284705125
-0.12116475 0.067293212 1.319 4282336577
-0.11887536 0.067293212 1.319 4281218097
-0.1164092 0.067191176 1.317 4281415477
-0.11343005 0.066783026 1.309 4281283891
-0.11064852 0.066476919 1.3030001 4281020719
-0.10830372 0.066425905 1.302 4281086512
-0.10612529 0.066476919 1.3030001 4281020719
-0.10394338 0.066527933 1.304 4280954925
-0.10214788 0.06683404 1.3100001 4280889133
-0.098345399 0.067344226 1.3200001 4280889133
-0.09634535 0.067548297 1.3240001 4281086512
-0.16286612 0.069777675 1.3230001 4281284153
-0.16044842 0.069724932 1.322 4281415226
-0.15827346 0.069777675 1.3230001 4281283639
-0.15644872 0.069988638 1.327 4281283639
-0.15402928 0.069935903 1.3260001 4281415480
-0.15195659 0.070041388 1.3280001 4281218100
-0.14526001 0.070146866 1.33 4281349942
-0.14198419 0.06967219 1.3210001 4281284148
-0.13852812 0.069092028 1.3100001 4281415989
-0.13604634 0.068986543 1.3080001 4281415733
-0.13367376 0.0689338 1.307 4282599748
-0.13130467 0.068881057 1.3060001 4283323727
-0.12913665 0.0689338 1.307 4284968296
-0.12696517 0.068986543 1.3080001 4285692275
-0.1250762 0.069197513 1.312 4284047450
-0.12307975 0.069355734 1.3150001 4284310367
-0.12134848 0.06967219 1.3210001 4280954924
-0.11914574 0.069724932 1.322 4281349684
-0.11676276 0.06967219 1.3210001 4281283892
-0.11369002 0.069197513 1.312 4281218099
-0.11030884 0.068511866 1.299 4281086512
-0.10797098 0.068459123 1.2980001 4281086512
-0.10588095 0.068564609 1.3000001 4281020719
-0.10378396 0.068670094 1.302 4280954926
-0.10214788 0.069092028 1.3100001 4280823340
-0.098345399 0.069619447 1.3200001 4280954926
-0.09627258 0.069777675 1.3230001 4281283891
-0.16237369 0.071840204 1.319 4281218103
-0.15996295 0.071785733 1.3180001 4281283640
-0.15791456 0.071894668 1.3200001 4281217846
-0.15609503 0.07211253 1.3240001 4281152053
-0.1536808 0.072058067 1.3230001 4281086514
-0.15127005 0.072003603 1.322 4280954928
-0.14897545 0.072003603 1.322 4281218100
-0.14601514 0.071676806 1.3160001 4281349686
-0.14351253 0.071567871 1.314 4281349684
-0.14069441 0.071295545 1.309 4281283891
-0.13789363 0.071023211 1.304 4281481268
-0.13563029 0.071023211 1.304 4281283889
-0.13326466 0.070968747 1.3030001 4283652436
-0.13110359 0.071023211 1.304 4283784277
-0.12893905 0.071077682 1.3050001 4286547329
-0.12696517 0.071241081 1.3080001 4284376160
-0.1253622 0.071622334 1.3150001 4284836711
-0.12345413 0.071840204 1.319 4281876026
-0.1215322 0.072058067 1.3230001 4281349682
-0.11923587 0.072058067 1.3230001 4281152305
-0.11685114 0.072003603 1.322 4281152306
-0.11394998 0.071622334 1.3150001 4281218100
-0.11013901 0.070641957 1.2970001 4281086512
-0.10763826 0.070478559 1.294 4280954926
-0.10571805 0.070696421 1.2980001 4281086512
-0.10386367 0.070968747 1.3030001 4281086512
-0.10222585 0.071404479 1.3110001 4280954926
-0.098792426 0.072221458 1.3260001 4281086512
-0.16249681 0.074169889 1.3200001 4281087031
-0.16020569 0.074169889 1.3200001 4281152053
-0.15779492 0.074113697 1.319 4281217846
-0.15562345 0.074169889 1.3200001 4281086260
-0.1531 0.074057505 1.3180001 4281020721
-0.15069793 0.07400132 1.317 4281086514
