# .PCD v0.7 - Point Cloud Data file format
VERSION 0.7
FIELDS x y z rgba
SIZE 4 4 4 4
TYPE F F F U
COUNT 1 1 1 1
WIDTH 1079
HEIGHT 1
VIEWPOINT 0 0 0 1 0 0 0
POINTS 1079
DATA ascii
-0.031025032 -0.0057234904 1.383 4293586933
-0.02837619 -0.005673829 1.3710001 4294508031
-0.025901739 -0.0056531369 1.3660001 4278257164
-0.023444645 -0.0056324443 1.3610001 4278454543
-0.021004908 -0.0056117517 1.3560001 4282401869
-0.018637545 -0.0056076138 1.355 4294639359
-0.016261637 -0.0055993367 1.353 4294705151
-0.013851537 -0.0055745058 1.3470001 4286875793
-0.011479361 -0.0055579524 1.3430001 4278190603
-0.0091483183 -0.0055579524 1.3430001 4278980887
-0.0068223523 -0.0055620903 1.3440001 4282336330
-0.0044895737 -0.0055620903 1.3440001 4294705151
-0.002156795 -0.0055620903 1.3440001 4294573823
0.00017532884 -0.0055413982 1.3390001 4294705151
0.0024882292 -0.0055165673 1.3330001 4294705151
0.0047947103 -0.0055082906 1.3310001 4292007898
0.0070835724 -0.0054917368 1.327 4280033572
0.0093726963 -0.0054834597 1.325 4280757549
0.011716545 -0.0055041523 1.33 4280494375
0.013993388 -0.0054917368 1.327 4280494373
0.016296661 -0.0054917368 1.327 4280099615
0.018627964 -0.0055000135 1.3290001 4280033822
0.021013469 -0.0055207061 1.3340001 4279902236
0.023363866 -0.0055289827 1.3360001 4279639064
0.025548194 -0.0055000135 1.3290001 4279770650
0.028106447 -0.0055496753 1.3410001 4279836443
0.030524801 -0.0055662286 1.345 4279836697
0.032932606 -0.0055786446 1.348 4280297248
0.035324663 -0.0055869212 1.35 4279705111
0.037835266 -0.0056117517 1.3560001 4279441685
0.040248148 -0.0056200288 1.358 4279507478
0.042667974 -0.005628306 1.36 4279507478
0.045061633 -0.0056324443 1.3610001 4279770904
0.047423918 -0.0056324443 1.3610001 4279902490
0.049822785 -0.0056365826 1.3620001 4280099868
0.054911293 -0.005673829 1.3710001 4279639317
0.057667024 -0.0057110754 1.3800001 4279573524
0.060149338 -0.005719352 1.3820001 4279441938
0.062095482 -0.0056779673 1.3720001 4279705110
0.064476863 -0.0056779673 1.3720001 4279639318
0.067004427 -0.0056903828 1.3750001 4279441939
0.069542415 -0.0057027983 1.378 4279507732
0.071986407 -0.0057069366 1.3790001 4279507732
0.074326001 -0.0057027983 1.378 4279639318
0.076495096 -0.0056862445 1.3740001 4279573525
0.078765132 -0.0056779673 1.3720001 4279507732
0.08085078 -0.0056572752 1.3670001 4279375892
0.082919084 -0.0056365826 1.3620001 4279770650
0.085157871 -0.005628306 1.36 4279375894
0.087454066 -0.0056241676 1.3590001 4294310650
0.089945056 -0.0056324443 1.3610001 4294705151
0.092442989 -0.0056407209 1.363 4294508029
0.095017426 -0.0056531369 1.3660001 4294508029
0.097530976 -0.0056614135 1.368 4294442237
0.099832378 -0.0056572752 1.3670001 4294573822
0.10145742 -0.0056158905 1.3570001 4294639615
0.10358325 -0.005603475 1.3540001 4289310639
0.10546397 -0.0055786446 1.348 4280099617
0.10756377 -0.0055662286 1.345 4279046927
0.10932633 -0.0055372594 1.3380001 4279770646
0.11167119 -0.0054255216 1.3110001 4280231453
0.11333828 -0.0053965519 1.304 4280955683
0.11542432 -0.0053882753 1.302 4280364051
0.11813615 -0.0054089674 1.307 4279772162
-0.030957732 -0.0033324375 1.3800001 4282731086
-0.028438281 -0.0033179484 1.3740001 4294639615
-0.025958624 -0.0033058745 1.3690001 4290231490
-0.023444645 -0.0032865561 1.3610001 4278322957
-0.021004908 -0.003274482 1.3560001 4279441438
-0.018637545 -0.0032720673 1.355 4280099368
-0.01622558 -0.0032599932 1.35 4292797417
-0.013841255 -0.0032503339 1.3460001 4294639359
-0.011479361 -0.0032430894 1.3430001 4281744193
-0.0091483183 -0.0032430894 1.3430001 4280230954
-0.0068172761 -0.0032430894 1.3430001 4279046680
-0.0044795522 -0.0032382598 1.3410001 4279770401
-0.0021503761 -0.0032358449 1.34 4286086529
0.00017467413 -0.0032213561 1.3340001 4287007631
0.0024788959 -0.0032068673 1.3280001 4285954942
0.0047730962 -0.0031996227 1.325 4279770654
0.0070622205 -0.0031947934 1.3230001 4280296996
0.0093444018 -0.0031899638 1.3210001 4280231201
0.01162845 -0.0031875488 1.3200001 4280099615
0.013887936 -0.0031803043 1.317 4279836443
0.016173851 -0.0031803043 1.317 4279770904
0.018459765 -0.0031803043 1.317 4279704857
0.020777185 -0.0031851339 1.319 4279770650
0.023066571 -0.0031851339 1.319 4279441685
0.025471298 -0.0031996227 1.325 4279507478
0.032908175 -0.0032527489 1.3470001 4280231455
0.037751559 -0.0032672375 1.353 4279573525
0.040188875 -0.003274482 1.3560001 4279441939
0.042667974 -0.0032841412 1.36 4279376146
0.045061633 -0.0032865561 1.3610001 4279770904
0.04745876 -0.0032889708 1.3620001 4280231455
0.049822785 -0.0032889708 1.3620001 4279902489
0.054831192 -0.0033058745 1.3690001 4279705110
0.057541661 -0.003325193 1.3770001 4279573524
0.060105816 -0.0033348522 1.381 4279639317
0.062095482 -0.0033131188 1.3720001 4279705110
0.064476863 -0.0033131188 1.3720001 4279573524
0.067053162 -0.0033227783 1.376 4279639318
0.069491945 -0.003325193 1.3770001 4279573525
0.071829803 -0.0033227783 1.376 4279507732
0.074110247 -0.0033179484 1.3740001 4279507732
0.076328076 -0.0033107041 1.3710001 4279507732
0.078592904 -0.0033058745 1.3690001 4279441939
0.080732495 -0.0032962151 1.365 4279441939
0.082858197 -0.0032865561 1.3610001 4279573525
0.085157871 -0.0032841412 1.36 4279968029
0.087454066 -0.0032817263 1.3590001 4283060302
0.089812882 -0.0032817263 1.3590001 4284375908
0.092239521 -0.0032841412 1.36 4287271056
0.094739191 -0.0032889708 1.3620001 4287797146
0.097103208 -0.0032889708 1.3620001 4286810249
0.099394195 -0.0032865561 1.3610001 4284244322
0.10115836 -0.0032672375 1.353 4281152308
0.10335375 -0.0032624078 1.3510001 4279441686
0.10522925 -0.003247919 1.345 4280033820
0.10732385 -0.0032406745 1.342 4279705111
0.10899949 -0.0032213561 1.3340001 4279638804
0.11116011 -0.0031513267 1.3050001 4279771399
0.11325136 -0.0031464971 1.3030001 4281219349
0.11542432 -0.0031440821 1.302 4284048951
0.11813615 -0.0031561563 1.307 4289905283
-0.035825972 -0.00095587317 1.383 4278849299
-0.033377163 -0.00095449091 1.381 4281217847
-0.030890429 -0.00095172628 1.3770001 4279967780
-0.028438281 -0.00094965275 1.3740001 4292665829
-0.025977587 -0.00094688818 1.3700001 4294573823
-0.023444645 -0.00094066776 1.3610001 4278651922
-0.020989416 -0.00093652075 1.355 4280494126
-0.018610038 -0.00093513844 1.353 4280296747
-0.016201543 -0.00093168265 1.348 4279112473
-0.013851537 -0.00093099143 1.3470001 4279112473
-0.011496457 -0.00092960917 1.345 4278520334
-0.0091551309 -0.00092891802 1.3440001 4280165159
-0.0068172761 -0.0009282268 1.3430001 4280165159
-0.004476212 -0.00092615339 1.34 4280033572
-0.0021471665 -0.00092477107 1.3380001 4279638814
0.00017441226 -0.00092062406 1.332 4279967779
0.0024714293 -0.0009150948 1.3240001 4280033826
0.0047478797 -0.0009109478 1.3180001 4280823340
0.0070301923 -0.00091025676 1.317 4280757545
0.0093161063 -0.00091025676 1.317 4280494373
0.011610831 -0.0009109478 1.3180001 4280494373
0.013898482 -0.0009109478 1.3180001 4280428580
0.016173851 -0.00091025676 1.317 4280428580
0.018431732 -0.00090887438 1.3150001 4280494373
0.020698423 -0.00090818328 1.314 4280560166
0.022996619 -0.00090887438 1.3150001 4279902236
0.025336735 -0.0009109478 1.3180001 4279573271
0.027687261 -0.00091302139 1.3210001 4279441939
0.029980121 -0.00091302139 1.3210001 4280099869
0.035219993 -0.00093030039 1.3460001 4279770904
0.037639949 -0.0009323738 1.3490001 4279507732
0.04254248 -0.00093721191 1.3560001 4279573525
0.044995412 -0.00093928538 1.3590001 4280165662
0.047319382 -0.00093859417 1.358 4279902490
0.049639881 -0.00093790313 1.3570001 4279573524
0.054751087 -0.00094481464 1.3670001 4279507731
0.057458092 -0.00095034391 1.3750001 4279639317
0.060062289 -0.00095379975 1.3800001 4279705110
0.062502816 -0.00095449091 1.381 4279639317
0.069391012 -0.00095034391 1.3750001 4279573525
0.071725391 -0.00094965275 1.3740001 4279441939
0.073948428 -0.00094757928 1.3710001 4279441939
0.076216727 -0.00094619702 1.3690001 4279507732
0.078592904 -0.00094619702 1.3690001 4279507732
0.08085078 -0.00094481464 1.3670001 4279507732
0.083040841 -0.00094274117 1.3640001 4279639318
0.085345715 -0.00094205001 1.363 4280165407
0.087647125 -0.00094135891 1.3620001 4280362787
0.089945056 -0.00094066776 1.3610001 4280494375
0.092307337 -0.00094066776 1.3610001 4279573273
0.094600067 -0.00093997654 1.36 4280494376
0.096818022 -0.00093859417 1.358 4279441686
0.098882988 -0.00093582965 1.3540001 4280428582
0.10093406 -0.0009330649 1.35 4280165411
0.10312425 -0.00093168265 1.348 4280296994
0.10499454 -0.00092753564 1.342 4279770903
0.10700396 -0.00092477107 1.3380001 4279704855
0.10703848 -0.00090541854 1.3100001 4280099607
0.10914536 -0.00090403628 1.3080001 4280034572
0.11107493 -0.00090127165 1.304 4289574801
0.11325136 -0.00090058043 1.3030001 4292339117
0.11542432 -0.00089988927 1.302 4291747483
0.11804575 -0.00090265402 1.3060001 4290826631
-0.038115881 0.0014238055 1.3790001 4294047482
-0.035696451 0.0014227729 1.378 4278980885
-0.033232152 0.0014196755 1.3750001 4281020468
-0.030778265 0.001416578 1.3720001 4280099366
-0.028355494 0.001414513 1.3700001 4282533707
-0.025901739 0.0014103831 1.3660001 4294508543
-0.02337574 0.0014010906 1.3570001 4288192675
-0.020911966 0.0013938632 1.35 4279244827
-0.018486245 0.0013876683 1.3440001 4280559917
-0.016153466 0.0013876683 1.3440001 4282138949
-0.013820688 0.0013876683 1.3440001 4291876312
-0.011496457 0.0013887007 1.345 4287533974
-0.0091619426 0.0013887007 1.345 4280165412
-0.0068223523 0.0013876683 1.3440001 4280033826
-0.0044795522 0.0013845707 1.3410001 4279968033
-0.0021487712 0.0013825059 1.3390001 4280296998
0.00017454319 0.0013763108 1.3330001 4280560168
0.0024751625 0.0013690834 1.3260001 4280954926
0.0047442773 0.0013597909 1.317 4281020717
0.0070195161 0.0013577261 1.3150001 4280889131
0.0093019595 0.0013577261 1.3150001 4280757545
0.011619641 0.001361856 1.319 4280494373
0.013940662 0.0013649534 1.322 4280231201
0.016210694 0.0013628885 1.3200001 4280296994
0.018445749 0.0013587585 1.3160001 4280494373
0.020698423 0.0013566935 1.314 4280625959
0.022961643 0.001355661 1.3130001 4280691752
0.025202168 0.0013535961 1.3110001 4280296994
0.027540546 0.0013566935 1.314 4280165408
0.029866643 0.0013587585 1.3160001 4280099869
0.032199685 0.0013608235 1.3180001 4279968283
0.065639973 0.0013907658 1.3470001 4279507732
0.073894493 0.001414513 1.3700001 4279573525
0.076272406 0.001414513 1.3700001 4279441939
0.078592904 0.0014134805 1.3690001 4279507732
0.080969073 0.0014134805 1.3690001 4279507732
0.083223477 0.0014114155 1.3670001 4279573525
0.085596181 0.0014114155 1.3670001 4279836697
0.087840177 0.0014093505 1.365 4279968284
0.090143315 0.0014083181 1.3640001 4280034077
0.092510812 0.0014083181 1.3640001 4280099869
0.094669625 0.0014052206 1.3610001 4280297248
0.096818022 0.0014021231 1.358 4280165662
0.098882988 0.0013979931 1.3540001 4280099869
0.10085929 0.0013928306 1.3490001 4279968283
0.10297125 0.0013897332 1.3460001 4279770904
0.10679335 0.0013494662 1.307 4279639560
0.10889502 0.0013474011 1.3050001 4285430098
0.11098974 0.0013453361 1.3030001 4291878566
0.11351211 0.0013484336 1.3060001 4291023246
0.11613354 0.0013525636 1.3100001 4290036347
0.11922079 0.001361856 1.319 4289905272
0.12215503 0.0013690834 1.3260001 4289905275
0.12723607 0.0013742459 1.3310001 4289640604
-0.038060598 0.0037952075 1.3770001 4294573823
-0.035592832 0.0037869387 1.3740001 4278849298
-0.033135474 0.0037786702 1.3710001 4280888881
-0.030710965 0.003773158 1.3690001 4281020467
-0.028272701 0.0037648894 1.3660001 4279113241
-0.025844853 0.0037566214 1.363 4294443007
-0.023324063 0.0037318161 1.3540001 4294574079
-0.020819023 0.0037042545 1.3440001 4279245340
-0.018431226 0.00369323 1.34 4280560687
-0.016105391 0.00369323 1.34 4279902756
-0.013800121 0.0036987422 1.342 4293587184
-0.01148791 0.0037042545 1.3440001 4293587184
-0.0091619426 0.0037070108 1.345 4280823340
-0.0068223523 0.0037042545 1.3440001 4280231203
-0.0044795522 0.003695986 1.3410001 4279968031
-0.0021487712 0.0036904737 1.3390001 4280099615
0.00017467413 0.003676693 1.3340001 4280296994
0.0024770293 0.0036573999 1.327 4280691752
0.0047442773 0.0036298388 1.317 4280625959
0.0070195161 0.0036243265 1.3150001 4280494373
0.0093019595 0.0036243265 1.3150001 4280494373
0.01162845 0.0036381069 1.3200001 4280231201
0.013982843 0.0036546439 1.3260001 4280494373
0.016247537 0.0036463754 1.3230001 4280954924
0.018459765 0.0036298388 1.317 4281152303
0.020714177 0.0036243265 1.3150001 4281020717
0.022944156 0.003616058 1.312 4280560166
0.025163721 0.0036077895 1.309 4280560166
0.02745671 0.0036105458 1.3100001 4280494373
0.02979856 0.0036188143 1.3130001 4280033822
0.032101963 0.0036215703 1.314 4279770650
0.065445058 0.0037014983 1.3430001 4279441939
0.073786624 0.0037704022 1.368 4279507732
0.076216727 0.003773158 1.3690001 4279507732
0.078592904 0.003773158 1.3690001 4279441939
0.08090993 0.0037704022 1.368 4279376145
0.083223477 0.0037676457 1.3670001 4279507731
0.085596181 0.0037676457 1.3670001 4279639317
0.087904528 0.0037648894 1.3660001 4279639317
0.090143315 0.0037593772 1.3640001 4279705110
0.092510812 0.0037593772 1.3640001 4279705111
0.094739191 0.0037538649 1.3620001 4279770903
0.096818022 0.0037428406 1.358 4279770904
0.098809958 0.0037290598 1.353 4279770903
0.10070976 0.003712523 1.3470001 4279639572
0.10274174 0.0037014983 1.3430001 4279507732
0.10662994 0.003596765 1.3050001 4279902978
0.10872813 0.0035912527 1.3030001 4291351965
0.11098974 0.0035912527 1.3030001 4290628231
0.11368594 0.0036050335 1.3080001 4289049196
0.11622218 0.0036133016 1.3110001 4288851815
0.11922079 0.0036353511 1.319 4289707378
0.12233929 0.0036601562 1.3280001 4289707894
0.12742727 0.0036739369 1.3330001 4288588165
-0.049756654 0.0061373156 1.3700001 4280165158
-0.047447912 0.006146275 1.3720001 4281152053
-0.045165077 0.006159714 1.3750001 4281086514
-0.042747378 0.0061552348 1.3740001 4280559914
-0.040303778 0.006146275 1.3720001 4294508029
-0.0377842 0.0061238762 1.3670001 4294639615
-0.03530788 0.0061059571 1.363 4280099365
-0.032893784 0.0060969973 1.3610001 4280625709
-0.030486636 0.0060880375 1.3590001 4280954674
-0.028127821 0.0060880375 1.3590001 4279179033
-0.025731083 0.0060790777 1.3570001 4283850336
-0.023117349 0.0060118814 1.342 4294443007
-0.020741571 0.0059984415 1.3390001 4280758065
-0.018389963 0.0059894822 1.337 4280297768
-0.016069334 0.0059894822 1.337 4280166182
-0.013779555 0.0060029216 1.34 4279705629
-0.011479361 0.0060163606 1.3430001 4280165410
-0.0091551309 0.0060208407 1.3440001 4280889131
-0.0068172761 0.0060163606 1.3430001 4280889131
-0.004476212 0.0060029216 1.34 4280494373
-0.0021487712 0.0059984415 1.3390001 4280099617
0.00017506696 0.0059894822 1.337 4280165410
0.0024844958 0.0059626037 1.3310001 4280296994
0.0047803009 0.0059446841 1.327 4280560166
0.0070248544 0.0058954065 1.3160001 4280625959
0.0093019595 0.0058909268 1.3150001 4280296994
0.011646069 0.0059222854 1.322 4279968029
0.016370343 0.005971563 1.3330001 4280823338
0.018726081 0.0059850025 1.3360001 4280954924
0.020714177 0.0058909268 1.3150001 4281020717
0.022961643 0.0058819675 1.3130001 4280954924
0.025163721 0.0058640479 1.309 4280362787
0.027393831 0.0058550886 1.307 4280494375
0.029662389 0.0058550886 1.307 4280691754
0.03195538 0.0058595682 1.3080001 4280033824
0.034225672 0.0058595682 1.3080001 4279573271
0.036523867 0.0058640479 1.309 4280099615
0.038795896 0.0058640479 1.309 4280362787
0.041005179 0.0058550886 1.307 4280165408
0.06898728 0.0061238762 1.3670001 4279573525
0.071412191 0.0061283559 1.368 4279441939
0.073840559 0.0061328355 1.3690001 4279441938
0.076272406 0.0061373156 1.3700001 4279441938
0.078650311 0.0061373156 1.3700001 4279441938
0.080969073 0.0061328355 1.3690001 4279376145
0.083284363 0.0061283559 1.368 4279376145
0.085658804 0.0061283559 1.368 4279376145
0.088033237 0.0061283559 1.368 4279441938
0.090275496 0.0061193961 1.3660001 4279441938
0.092646457 0.0061193961 1.3660001 4279507731
0.094808742 0.0061059571 1.363 4279507731
0.096889324 0.0060880375 1.3590001 4279639317
0.098663896 0.0060521993 1.3510001 4279573524
0.10033593 0.0060118814 1.342 4279442193
0.10228273 0.0059894822 1.337 4279507731
0.10444482 0.0058506089 1.3060001 4279245061
0.1063031 0.0058282097 1.3010001 4284575295
0.10856125 0.0058282097 1.3010001 4291089296
0.11107493 0.0058416491 1.304 4289115499
0.11385978 0.005868528 1.3100001 4288457313
0.1163995 0.0058819675 1.3130001 4288654949
0.11931117 0.0059133256 1.3200001 4289247852
0.12233929 0.0059491643 1.3280001 4289444978
0.12733167 0.0059670829 1.332 4287272812
0.1302276 0.0059939623 1.3380001 4291614146
-0.049429782 0.0084428852 1.3610001 4280231721
-0.047067497 0.0084428852 1.3610001 4281086514
-0.044738062 0.0084490888 1.3620001 4280823342
-0.042374041 0.0084490888 1.3620001 4279902240
-0.039951269 0.0084366817 1.36 4280560168
-0.037480153 0.0084118675 1.3560001 4280625963
-0.035022929 0.0083870543 1.3520001 4281020721
-0.032676268 0.0083870543 1.3520001 4280889135
-0.030307172 0.0083808508 1.3510001 4280296744
-0.027982939 0.0083870543 1.3520001 4280362537
-0.025655236 0.0083932579 1.353 4280100135
-0.023100125 0.0083188172 1.3410001 4280823858
-0.020741571 0.0083064102 1.3390001 4280824369
-0.018403718 0.0083002057 1.3380001 4280560940
-0.016081354 0.0083002057 1.3380001 4280429352
-0.013779555 0.0083126137 1.34 4280231973
-0.011470814 0.0083250199 1.342 4281086510
-0.0091483183 0.0083312234 1.3430001 4281020717
-0.0068122 0.0083250199 1.342 4280823338
-0.004476212 0.0083126137 1.34 4280296994
-0.0021487712 0.0083064102 1.3390001 4280033822
0.00017545978 0.0083126137 1.34 4279902236
0.0025031622 0.0083188172 1.3410001 4280033822
0.0048343358 0.0083250199 1.342 4280165408
0.014067204 0.0082753925 1.3340001 4280099615
0.016394906 0.008281596 1.335 4280362787
0.018754112 0.0083002057 1.3380001 4280560166
0.021076476 0.0083002057 1.3380001 4280823338
0.025202168 0.0081327129 1.3110001 4281086510
0.027393831 0.0081078997 1.307 4280362787
0.029639693 0.0081016961 1.3060001 4280428580
0.031833224 0.0080830855 1.3030001 4280428580
0.034042507 0.0080706785 1.3010001 4280296994
0.036300648 0.0080706785 1.3010001 4280362787
0.038588431 0.008076882 1.302 4280231201
0.040879682 0.0080830855 1.3030001 4279902236
0.043240625 0.0081016961 1.3060001 4279639318
0.045611981 0.0081203068 1.309 4279639318
0.047920592 0.0081265094 1.3100001 4279441938
0.061642893 0.0084490888 1.3620001 4279507732
0.064100899 0.0084614959 1.3640001 4279507732
0.066565856 0.0084739029 1.3660001 4279310353
0.06903775 0.00848631 1.368 4279441938
0.07146439 0.0084925136 1.3690001 4279376145
0.073948428 0.0085049197 1.3710001 4279376145
0.076328076 0.0085049197 1.3710001 4279441938
0.078707717 0.0085049197 1.3710001 4279310352
0.081028216 0.0084987162 1.3700001 4279441938
0.083406121 0.0084987162 1.3700001 4279573524
0.085721418 0.0084925136 1.3690001 4279441938
0.088033237 0.00848631 1.368 4279441938
0.090341583 0.0084801065 1.3670001 4279376145
0.09271428 0.0084801065 1.3670001 4279441938
0.094878301 0.0084614959 1.3640001 4279507985
0.096960619 0.0084366817 1.36 4279507731
0.098736919 0.0083870543 1.3520001 4279507986
0.10014068 0.0081203068 1.309 4279573778
0.102178 0.0081016961 1.3060001 4279968788
0.10412493 0.008076882 1.302 4278916609
0.1063031 0.0080706785 1.3010001 4289905287
0.10856125 0.0080706785 1.3010001 4289444725
0.11124529 0.0081016961 1.3060001 4288523361
0.1140336 0.0081389165 1.312 4288522850
0.1165768 0.0081575271 1.3150001 4288654693
0.11940157 0.0081947474 1.3210001 4289115501
0.12215503 0.0082257651 1.3260001 4289313139
0.124832 0.0082505783 1.33 4286944343
0.13003294 0.0082877995 1.3360001 4290891176
-0.049175553 0.010733284 1.3540001 4281087284
-0.046860002 0.010741211 1.355 4280955696
-0.044573825 0.010757065 1.3570001 4280296996
-0.042249594 0.010764993 1.358 4279968031
-0.039833762 0.010749138 1.3560001 4279639064
-0.037397236 0.010725357 1.353 4280560168
-0.03494522 0.010693649 1.3490001 4281086512
-0.032603759 0.010693649 1.3490001 4280889135
-0.030262304 0.010693649 1.3490001 4280494377
-0.027920846 0.010693649 1.3490001 4281349686
-0.025598351 0.010701576 1.35 4281349686
-0.023100125 0.010630232 1.3410001 4281810237
-0.020757062 0.010622305 1.34 4281218870
-0.018403718 0.01060645 1.3380001 4280495145
-0.016093371 0.010614377 1.3390001 4280166180
-0.013779555 0.010622305 1.34 4280625959
-0.011470814 0.010638159 1.342 4281020717
-0.0091483183 0.010646086 1.3430001 4280823338
-0.0068071238 0.010630232 1.3410001 4280757545
-0.0044728713 0.010614377 1.3390001 4280296994
-0.0021487712 0.010614377 1.3390001 4279968029
0.00017559071 0.010630232 1.3410001 4279968029
0.0025068955 0.010646086 1.3430001 4280099615
0.0048379381 0.010646086 1.3430001 4280165408
0.014088294 0.010590597 1.3360001 4280757547
0.016431747 0.01060645 1.3380001 4280823340
0.018796163 0.010630232 1.3410001 4280560168
0.021107981 0.010622305 1.34 4280494375
0.025202168 0.010392419 1.3110001 4281283891
0.027414791 0.010368638 1.3080001 4281152305
0.029639693 0.010352784 1.3060001 4280494373
0.031808794 0.010321075 1.302 4280296994
0.034016337 0.010305221 1.3000001 4280296994
0.036244847 0.010297294 1.299 4280362787
0.038529154 0.010305221 1.3000001 4280231201
0.040911056 0.01033693 1.304 4279770904
0.045577139 0.010368638 1.3080001 4279639318
0.047920592 0.010384492 1.3100001 4279441938
0.061507113 0.01077292 1.3590001 4279441938
0.064006917 0.010796701 1.3620001 4279441938
0.066565856 0.010828409 1.3660001 4279507731
0.069088221 0.010852191 1.3690001 4279441938
0.07146439 0.010852191 1.3690001 4279441938
0.073948428 0.010868045 1.3710001 4279507731
0.076328076 0.010868045 1.3710001 4279376145
0.078707717 0.010868045 1.3710001 4279310352
0.081028216 0.010860117 1.3700001 4279507731
0.083345242 0.010852191 1.3690001 4279573524
0.085721418 0.010852191 1.3690001 4279507731
0.088033237 0.010844263 1.368 4279441938
0.090341583 0.010836337 1.3670001 4279376145
0.092578635 0.010820482 1.365 4279441939
0.094808742 0.010804628 1.363 4279376145
0.096889324 0.01077292 1.3590001 4279441938
0.098736919 0.01071743 1.3520001 4279442193
0.10014068 0.010376565 1.309 4279771153
0.102178 0.010352784 1.3060001 4279311109
0.10404496 0.010313148 1.3010001 4284246840
0.1063031 0.010313148 1.3010001 4290365829
0.10864469 0.010321075 1.302 4288655208
0.11124529 0.010352784 1.3060001 4288391521
0.1140336 0.010400346 1.312 4288259420
0.1165768 0.010424127 1.3150001 4288786022
0.11931117 0.010463763 1.3200001 4289115246
0.12206291 0.010503398 1.325 4289312885
0.12455043 0.010519253 1.327 4286681166
0.12964362 0.010558888 1.332 4290825882
-0.10253067 0.013597898 1.409 4281152823
-0.099942997 0.013578597 1.4070001 4281876801
-0.097362272 0.013559295 1.4050001 4282468937
-0.095126301 0.013588247 1.4080001 4282600523
-0.092748269 0.013597898 1.409 4282402374
-0.090302669 0.013597898 1.409 4282270788
-0.084441572 0.013443486 1.393 4282204995
-0.081905976 0.013424185 1.391 4282534474
-0.079434477 0.013414534 1.3900001 4282403144
-0.076966442 0.013404883 1.3890001 4282271558
-0.07450188 0.013395232 1.388 4281876800
-0.068528883 0.013173264 1.365 4280757549
-0.066208124 0.013182916 1.3660001 4280363561
-0.063790426 0.013173264 1.365 4280560940
-0.061376207 0.013163615 1.3640001 4280495147
-0.059051968 0.013173264 1.365 4280363561
-0.056309011 0.013086408 1.3560001 4280495147
-0.053836033 0.013057456 1.353 4280692526
-0.051297363 0.013009203 1.348 4280955696
-0.048957642 0.013009203 1.348 4281021489
-0.046652503 0.013018853 1.3490001 4280823340
-0.044409588 0.013047805 1.3520001 4280428582
-0.042094033 0.013057456 1.353 4280625961
-0.039716259 0.013047805 1.3520001 4281415475
-0.037286676 0.013018853 1.3490001 4281152303
-0.034893408 0.012999551 1.3470001 4280823340
-0.032531254 0.012989901 1.3460001 4280560170
-0.03017257 0.012980251 1.345 4280494377
-0.02787945 0.012999551 1.3470001 4281415479
-0.025560427 0.013009203 1.348 4281810237
-0.023220707 0.013009203 1.348 4282073409
-0.020803533 0.012960949 1.3430001 4281283893
-0.018458735 0.012951298 1.342 4280165410
-0.016129429 0.012951298 1.342 4280099617
-0.013810405 0.012960949 1.3430001 4280296994
-0.011479361 0.012960949 1.3430001 4281349682
-0.0091483183 0.012960949 1.3430001 4281020717
-0.0067969714 0.012922346 1.3390001 4280757545
-0.0044661905 0.012903045 1.337 4280494373
-0.002143957 0.012893394 1.3360001 4280165408
0.00017532884 0.012922346 1.3390001 4280428580
0.0025050289 0.012951298 1.342 4280296994
0.0048343358 0.012951298 1.342 4280296996
0.0071529672 0.012931997 1.34 4280231203
0.0094788028 0.012931997 1.34 4280362789
0.011804638 0.012931997 1.34 4280297766
0.014141019 0.012941647 1.3410001 4280692524
0.016480872 0.012951298 1.342 4280955696
0.018810179 0.012951298 1.342 4280824110
0.021139488 0.012951298 1.342 4280560168
0.023346378 0.012883743 1.335 4280428582
0.025605865 0.012854791 1.332 4280625961
0.031906515 0.012603871 1.3060001 4280691752
0.034068674 0.012565268 1.302 4280231201
0.036272746 0.012545967 1.3000001 4280362787
0.038529154 0.012545967 1.3000001 4280428580
0.040848311 0.012565268 1.302 4280034076
0.043207519 0.012594221 1.3050001 4279836696
0.045542292 0.012613522 1.307 4279573524
0.050232671 0.012652125 1.3110001 4279311120
0.068936817 0.013182916 1.3660001 4279310352
0.071359985 0.013192567 1.3670001 4279376145
0.073894493 0.013221518 1.3700001 4279244559
0.076383755 0.013240821 1.3720001 4279244559
0.078765132 0.013240821 1.3720001 4279310352
0.081146508 0.013240821 1.3720001 4279441938
0.083466999 0.013231169 1.3710001 4279507731
0.085784025 0.013221518 1.3700001 4279507731
0.087968878 0.013192567 1.3670001 4279441938
0.090143315 0.013163615 1.3640001 4279376145
0.092510812 0.013163615 1.3640001 4279376145
0.094600067 0.013125011 1.36 4279441938
0.096318968 0.013038155 1.3510001 4279376145
0.1007527 0.012710029 1.317 4280100373
0.102178 0.012603871 1.3060001 4279311616
0.10412493 0.012565268 1.302 4289247357
0.10646652 0.012574919 1.3030001 4289510776
0.10889502 0.012594221 1.3050001 4288194658
0.11150083 0.012632824 1.309 4287996508
0.11412053 0.012671427 1.3130001 4288588386
0.1165768 0.012690728 1.3150001 4289114730
0.1191304 0.012719681 1.3180001 4289049195
0.12169442 0.012748633 1.3210001 4289444209
0.12417499 0.012767934 1.3230001 4289313133
0.12666252 0.012787235 1.325 4289839732
0.12964362 0.012854791 1.332 4291155600
0.13477153 0.012903045 1.337 4292534998
-0.11956494 0.016015148 1.4080001 4280627249
-0.11728744 0.016037896 1.4100001 4281613887
-0.11500299 0.016060645 1.4120001 4282074182
-0.1125522 0.016060645 1.4120001 4281218616
-0.10994543 0.016037896 1.4100001 4280889651
-0.10749809 0.016037896 1.4100001 4280955444
-0.10482725 0.016003773 1.4070001 4281087284
-0.10202128 0.0159469 1.4020001 4281482042
-0.099445768 0.015924152 1.4000001 4282271557
-0.097085088 0.015935525 1.401 4282468935
-0.094923623 0.015981024 1.4050001 4282139970
-0.092419133 0.015969649 1.404 4282074176
-0.08966177 0.015912777 1.399 4281942589
-0.083592914 0.01568529 1.3790001 4281811004
-0.081140503 0.015673915 1.378 4282205763
-0.078691565 0.015662542 1.3770001 4281745212
-0.076246098 0.015651166 1.376 4281218868
-0.073911451 0.015662542 1.3770001 4280889904
-0.070742294 0.015491925 1.3620001 4280231975
-0.068227656 0.015457802 1.3590001 4280429354
-0.065771908 0.015435053 1.3570001 4280758317
-0.063323103 0.015412304 1.355 4280692524
-0.061061222 0.015435053 1.3570001 4280824110
-0.058705881 0.015435053 1.3570001 4280626733
-0.056184433 0.015389556 1.353 4280363561
-0.053756457 0.015366807 1.3510001 4280495147
-0.051297363 0.015332684 1.348 4280692524
-0.048921321 0.015321309 1.3470001 4281087282
-0.046617921 0.015332684 1.348 4280495145
-0.044376742 0.015366807 1.3510001 4280757547
-0.042062923 0.015378181 1.3520001 4281612856
-0.039716259 0.015378181 1.3520001 4281678647
-0.037286676 0.015344058 1.3490001 4281152303
-0.034919314 0.015332684 1.348 4280560168
-0.032579593 0.015332684 1.348 4280362789
-0.030217437 0.015321309 1.3470001 4280428582
-0.027858755 0.015309935 1.3460001 4281415477
-0.025522506 0.015309935 1.3460001 4281612856
-0.023186255 0.015309935 1.3460001 4281678649
-0.020819023 0.015287186 1.3440001 4281086512
-0.018472489 0.015275812 1.3430001 4280296996
-0.016141446 0.015275812 1.3430001 4280362787
-0.013810405 0.015275812 1.3430001 4281020717
-0.011479361 0.015275812 1.3430001 4281349682
-0.0091415066 0.015264437 1.342 4281218096
-0.0067918953 0.01521894 1.3380001 4281020717
-0.004456169 0.015173442 1.3340001 4280691752
-0.0021391427 0.015162067 1.3330001 4280691752
0.00017467413 0.015173442 1.3340001 4280625959
0.002493829 0.015196191 1.3360001 4280560166
0.0048163245 0.015207564 1.337 4280428582
0.0071316147 0.015196191 1.3360001 4280296996
0.0094575817 0.015207564 1.337 4280429352
0.01179583 0.015230314 1.3390001 4280692524
0.014130474 0.015241687 1.34 4280693037
0.016444029 0.015230314 1.3390001 4280626733
0.018754112 0.01521894 1.3380001 4280758317
0.021013469 0.015173442 1.3340001 4280758317
0.023328891 0.015173442 1.3340001 4280363557
0.025605865 0.015150692 1.332 4280296994
0.027813017 0.01509382 1.327 4280428580
0.03002551 0.015048324 1.3230001 4280954924
0.032101963 0.014945953 1.314 4281020717
0.034199506 0.014866334 1.307 4280560420
0.036412258 0.014843585 1.3050001 4280231455
0.038618069 0.014820836 1.3030001 4280297248
0.040848311 0.014809462 1.302 4280297248
0.043174408 0.01483221 1.304 4280099868
0.045507446 0.014854958 1.3060001 4279705110
0.047884014 0.014889081 1.309 4279508499
0.05027099 0.014923205 1.312 4279047946
0.052628331 0.014945953 1.314 4278982409
0.054909036 0.014945953 1.314 4278982409
0.073786624 0.015560171 1.368 4279244559
0.076216727 0.015571546 1.3690001 4279441938
0.078707717 0.015594295 1.3710001 4279376145
0.081087358 0.015594295 1.3710001 4279441938
0.083345242 0.015571546 1.3690001 4279441938
0.085596181 0.015548796 1.3670001 4279376145
0.087711476 0.015503298 1.363 4279573524
0.089945056 0.015480551 1.3610001 4279507731
0.092307337 0.015480551 1.3610001 4279376146
0.10014068 0.014889081 1.309 4279705614
0.10225623 0.014866334 1.307 4285101644
0.10452479 0.014866334 1.307 4291352482
0.10695677 0.014889081 1.309 4289049976
0.10931224 0.014900457 1.3100001 4288063075
0.11175637 0.014923205 1.312 4288325989
0.11420743 0.014945953 1.314 4288786023
0.11666545 0.014968703 1.3160001 4288983398
0.11904001 0.014980077 1.317 4289180775
0.12132592 0.014980077 1.317 4289575531
0.1237057 0.014991452 1.3180001 4289773166
0.12628013 0.015025575 1.3210001 4290892160
0.12915698 0.01509382 1.327 4291681424
0.13195556 0.015150692 1.332 4290825875
-0.11905543 0.018363459 1.4020001 4281284922
-0.11695471 0.01841585 1.406 4282008645
-0.11459576 0.01842895 1.4070001 4281613631
-0.11231306 0.018455144 1.409 4280889651
-0.10978948 0.018442048 1.4080001 4280692527
-0.10726938 0.01842895 1.4070001 4280824113
-0.10460374 0.018389653 1.404 4281021491
-0.10187574 0.018337263 1.4000001 4281745214
-0.099374734 0.018324163 1.399 4282271556
-0.097154386 0.018363459 1.4020001 4281679419
-0.094923623 0.018402753 1.4050001 4281547833
-0.092287488 0.018363459 1.4020001 4281745211
-0.08940541 0.018271772 1.3950001 4281416245
-0.083229207 0.017983615 1.373 4282271554
-0.08072833 0.017957419 1.3710001 4281745210
-0.078348681 0.017957419 1.3710001 4281087280
-0.07602445 0.017970517 1.3720001 4280560938
-0.073643073 0.017970517 1.3720001 4280297766
-0.070742294 0.017839536 1.3620001 4280034594
-0.068077043 0.017760949 1.3560001 4280560938
-0.065578036 0.017721655 1.353 4281087282
-0.063276365 0.017734753 1.3540001 4280889903
-0.06097123 0.017747849 1.355 4280824110
-0.058619361 0.017747849 1.355 4280560938
-0.056225959 0.017734753 1.3540001 4280955696
-0.053796243 0.017708557 1.3520001 4281021489
-0.051335417 0.017669262 1.3490001 4280758317
-0.048957642 0.017656164 1.348 4280626731
-0.046652503 0.017669262 1.3490001 4280429352
-0.044376742 0.017695459 1.3510001 4280823340
-0.042031813 0.017695459 1.3510001 4281744442
-0.039686885 0.017695459 1.3510001 4281349682
-0.037314314 0.01768236 1.35 4281152305
-0.034971122 0.01768236 1.35 4280296996
-0.032627929 0.01768236 1.35 4280099617
-0.030262304 0.017669262 1.3490001 4280691754
-0.027858755 0.017629968 1.3460001 4281481270
-0.025484581 0.017603772 1.3440001 4281349684
-0.023134576 0.017590676 1.3430001 4281349684
-0.020788042 0.017577576 1.342 4281152305
-0.018431226 0.017551379 1.34 4280889133
-0.016105391 0.017551379 1.34 4281020717
-0.013779555 0.017551379 1.34 4281349682
-0.011462267 0.017564477 1.3410001 4281481268
-0.0091346959 0.017564477 1.3410001 4281349682
-0.0067969714 0.017538281 1.3390001 4281152303
-0.004456169 0.017472791 1.3340001 4281086510
-0.0021359331 0.017433498 1.3310001 4280955178
0.00017441226 0.017446594 1.332 4280823338
0.0024900958 0.017472791 1.3340001 4280691752
0.0048091197 0.017485889 1.335 4280560168
0.007120939 0.017472791 1.3340001 4280362789
0.0094363606 0.017472791 1.3340001 4280362789
0.011769401 0.017498989 1.3360001 4280495145
0.014088294 0.017498989 1.3360001 4280495145
0.016382625 0.017472791 1.3340001 4280560938
0.018655997 0.017433498 1.3310001 4280626731
0.020918954 0.017394204 1.3280001 4280692522
0.023241449 0.017407302 1.3290001 4280757545
0.025548194 0.017407302 1.3290001 4280362787
0.027792059 0.017368007 1.3260001 4280231201
0.030048206 0.017341811 1.3240001 4280428580
0.032175254 0.017250124 1.317 4280757545
0.034278005 0.017158439 1.3100001 4280889131
0.036468063 0.017119145 1.307 4280757799
0.038647708 0.017079849 1.304 4280231455
0.040879682 0.017066753 1.3030001 4280231455
0.043174408 0.017079849 1.304 4280428833
0.045472603 0.017092949 1.3050001 4280232222
0.047810853 0.017119145 1.307 4280429601
0.050156042 0.017145339 1.309 4282601024
0.052468125 0.017158439 1.3100001 4283390540
0.054741889 0.017158439 1.3100001 4283258954
0.073624812 0.01787883 1.365 4279310352
0.075994037 0.01787883 1.365 4279376145
0.07836327 0.01787883 1.365 4279376145
0.080791637 0.01789193 1.3660001 4279376145
0.083040841 0.017865732 1.3640001 4279376145
0.085345715 0.017852634 1.363 4279441938
0.087389715 0.017787144 1.358 4279376145
0.089548528 0.017747849 1.355 4279507731
0.092036046 0.017774047 1.3570001 4279507986
0.10006418 0.017132243 1.3080001 4279968281
0.10233448 0.017132243 1.3080001 4280692505
0.10476471 0.017158439 1.3100001 4283917120
0.1072836 0.017197732 1.3130001 4287996787
0.10964602 0.01721083 1.314 4288720759
0.11192673 0.01721083 1.314 4288983668
0.11429435 0.01722393 1.3150001 4288523368
0.1165768 0.01722393 1.3150001 4288917609
0.11894963 0.017237026 1.3160001 4289312363
0.12123381 0.017237026 1.3160001 4289773423
0.12361184 0.017250124 1.317 4290826106
0.12608895 0.017276321 1.319 4291878794
0.12896232 0.017354909 1.325 4291352454
0.13175744 0.0174204 1.33 4290431366
-0.12599528 0.02072073 1.3980001 4281942852
-0.12339199 0.020691086 1.396 4281021750
-0.1208823 0.020676265 1.3950001 4280890164
-0.11837608 0.020661443 1.3940001 4281613886
-0.11620606 0.020705909 1.3970001 4282139972
-0.11402563 0.020750374 1.4000001 4281679165
-0.11199421 0.020824483 1.4050001 4280955698
-0.10955556 0.020824483 1.4050001 4280955698
-0.10688818 0.020780018 1.4020001 4281021490
-0.10423122 0.020735551 1.399 4281284661
-0.10107529 0.020587334 1.3890001 4282008384
-0.09866441 0.020587334 1.3890001 4282139970
-0.094720937 0.020780018 1.4020001 4281218868
-0.092221662 0.020765195 1.401 4281153074
-0.088444062 0.020453939 1.3800001 4281416245
-0.085674673 0.020365009 1.3740001 4281811003
-0.082865492 0.020261258 1.3670001 4282074175
-0.080433905 0.020246437 1.3660001 4281547831
-0.078005798 0.020231614 1.365 4280758315
-0.075747393 0.020261258 1.3670001 4280495143
-0.073482044 0.020290902 1.3690001 4280626731
-0.070742294 0.020187149 1.3620001 4281086512
-0.068026848 0.020083396 1.355 4281810235
-0.06552957 0.020038931 1.3520001 4281415477
-0.063182905 0.020038931 1.3520001 4280757547
-0.060881231 0.020053754 1.353 4280691754
-0.058619361 0.020083396 1.355 4280625961
-0.056309011 0.020098219 1.3560001 4281349684
-0.053955402 0.020098219 1.3560001 4281283893
-0.051487632 0.020053754 1.353 4280691756
-0.049030278 0.020009289 1.35 4280494377
-0.046652503 0.019994467 1.3490001 4280296996
-0.044278201 0.019979646 1.348 4280757547
-0.04193848 0.019979646 1.348 4281481270
-0.039628133 0.019994467 1.3490001 4281415477
-0.037341956 0.020024111 1.3510001 4281086512
-0.035048835 0.020053754 1.353 4280757547
-0.032724604 0.020068575 1.3540001 4280560168
-0.030329604 0.020038931 1.3520001 4281152305
-0.027838057 0.01993518 1.345 4281481270
-0.025351848 0.019816605 1.337 4281349684
-0.02303122 0.019816605 1.337 4281283891
-0.020695101 0.019801784 1.3360001 4281020717
-0.018362453 0.019786961 1.335 4281020717
-0.016045295 0.019786961 1.335 4280954924
-0.013717855 0.01977214 1.3340001 4281349682
-0.011428077 0.019816605 1.337 4281612854
-0.0091210706 0.019846249 1.3390001 4281547061
-0.0067918953 0.019831428 1.3380001 4281152303
-0.004456169 0.01977214 1.3340001 4281218096
-0.0021359331 0.019727677 1.3310001 4281086510
0.00017428132 0.019727677 1.3310001 4281020717
0.0024863624 0.019742498 1.332 4280889131
0.004801915 0.019757319 1.3330001 4280757545
0.0070995865 0.019712856 1.33 4280560168
0.0093868449 0.019668389 1.327 4280494375
0.011698926 0.019683212 1.3280001 4280428582
0.013982843 0.019653568 1.3260001 4280296996
0.01628438 0.019653568 1.3260001 4280297764
0.018543866 0.019609103 1.3230001 4280626729
0.020792937 0.019564638 1.3200001 4280758315
0.023084059 0.019564638 1.3200001 4280823338
0.02537518 0.019564638 1.3200001 4280823338
0.027687261 0.019579459 1.3210001 4280625959
0.03002551 0.019609103 1.3230001 4280362787
0.032297406 0.01959428 1.322 4280362787
0.0345135 0.019549815 1.319 4280560166
0.036747083 0.019520171 1.317 4281020717
0.038884807 0.019446064 1.312 4280889385
0.041099299 0.019416422 1.3100001 4280428834
0.043273736 0.019371957 1.307 4280165661
0.045507446 0.019357134 1.3060001 4280100638
0.047737692 0.019342313 1.3050001 4280363808
0.050002776 0.019342313 1.3050001 4280692773
0.052267864 0.019342313 1.3050001 4282140473
0.054449372 0.019312669 1.3030001 4283851091
0.056710988 0.019312669 1.3030001 4283456079
0.059063122 0.019342313 1.3050001 4279311120
0.061563179 0.019416422 1.3100001 4279507731
0.07996361 0.020038931 1.3520001 4279441938
0.091469921 0.019490529 1.3150001 4279639317
0.093823656 0.01950535 1.3160001 4279968282
0.095888741 0.019460887 1.3130001 4280033821
0.098018184 0.019431243 1.3110001 4279770904
0.10006418 0.019386778 1.3080001 4280034077
0.10256919 0.019431243 1.3110001 4280099867
0.10736532 0.019475708 1.314 4280034832
0.11031357 0.01959428 1.322 4282008872
0.11252299 0.019579459 1.3210001 4286417250
0.11464202 0.019549815 1.319 4288786301
0.1171087 0.019579459 1.3210001 4288983672
0.11931117 0.019564638 1.3200001 4289115252
0.12151018 0.019549815 1.319 4289641846
0.12379956 0.019549815 1.319 4291089539
0.12618454 0.019564638 1.3200001 4291089535
0.12896232 0.019638747 1.325 4290366072
0.13165838 0.019698033 1.3290001 4290102653
-0.12878922 0.023196574 1.4020001 4281416507
-0.12590514 0.023113849 1.3970001 4281877057
-0.12286165 0.022998031 1.3900001 4281547835
-0.12018907 0.022948395 1.3870001 4281350456
-0.11761181 0.022915304 1.3850001 4282139972
-0.11520787 0.022915304 1.3850001 4282271558
-0.11264104 0.022882212 1.383 4281416249
-0.11095797 0.023031121 1.3920001 4281087284
-0.10822997 0.022964939 1.388 4281613627
-0.10582082 0.022964939 1.388 4281745212
-0.10311366 0.02289876 1.3840001 4281876796
-0.10034761 0.022816032 1.3790001 4282337347
-0.09795408 0.022816032 1.3790001 4282336836
-0.096114933 0.022948395 1.3870001 4281415734
-0.094315566 0.023097303 1.396 4280757804
-0.091036804 0.022882212 1.383 4280955181
-0.088379972 0.022816032 1.3790001 4281349682
-0.085612319 0.022716759 1.373 4282204991
-0.082865492 0.022617487 1.3670001 4281810233
-0.080433905 0.022600943 1.3660001 4281284146
-0.078005798 0.022584397 1.365 4280955696
-0.075691983 0.022600943 1.3660001 4280692524
-0.073428363 0.022634031 1.368 4281021491
-0.070794232 0.022551306 1.363 4282073409
-0.068127252 0.022452034 1.3570001 4282862925
-0.065578036 0.022385854 1.353 4281744444
-0.063182905 0.022369307 1.3520001 4280494377
-0.060836241 0.022369307 1.3520001 4280362791
-0.058576096 0.022402398 1.3540001 4280560170
-0.056392062 0.022468578 1.358 4281678651
-0.054154355 0.022518216 1.3610001 4281349686
-0.051639851 0.022452034 1.3570001 4280823342
-0.049066599 0.022352763 1.3510001 4280362791
-0.046652503 0.022319671 1.3490001 4280560170
-0.044179656 0.022253489 1.345 4281152305
-0.041782919 0.022220399 1.3430001 4281547063
-0.039510626 0.022253489 1.345 4281415477
-0.037231393 0.022286581 1.3470001 4281218098
-0.034971122 0.022336217 1.35 4281020719
-0.032627929 0.022336217 1.35 4280889131
-0.030127706 0.022220399 1.3430001 4281020717
-0.027796661 0.022220399 1.3430001 4281218096
-0.025294963 0.02207149 1.3340001 4281283889
-0.022945089 0.0220384 1.332 4281349936
-0.020633139 0.0220384 1.332 4281415729
-0.018307434 0.022021854 1.3310001 4281349936
-0.01599722 0.022021854 1.3310001 4281152557
-0.013707573 0.022054946 1.3330001 4281218096
-0.011402434 0.02207149 1.3340001 4281218096
-0.0090938238 0.022088036 1.335 4281218096
-0.0067817429 0.022104582 1.3360001 4280954924
-0.0044528288 0.022054946 1.3330001 4281020717
-0.0021359331 0.022021854 1.3310001 4280823338
0.00017428132 0.022021854 1.3310001 4280889131
0.0024882292 0.022054946 1.3330001 4280757545
0.0048055174 0.02207149 1.3340001 4280757545
0.0071049249 0.022021854 1.3310001 4280494373
0.0093868449 0.021955673 1.327 4280494373
0.011663687 0.021906037 1.3240001 4280428580
0.013951208 0.021889493 1.3230001 4280296994
0.016259817 0.021906037 1.3240001 4280362787
0.018543866 0.021889493 1.3230001 4280560166
0.020777185 0.021823311 1.319 4280823338
0.023049084 0.021806765 1.3180001 4280889131
0.025279064 0.02175713 1.3150001 4280691752
0.027582465 0.021773675 1.3160001 4280889131
0.029934729 0.021823311 1.319 4280823338
0.032370698 0.021922583 1.325 4280494373
0.034748998 0.021972219 1.3280001 4280362787
0.037026104 0.021955673 1.327 4280362787
0.039181188 0.021872947 1.322 4280691752
0.041350286 0.021806765 1.3180001 4280626213
0.043538611 0.02175713 1.3150001 4280560420
0.045716517 0.021707492 1.312 4280231454
0.047847435 0.021641312 1.3080001 4280231454
0.050041091 0.02160822 1.3060001 4280034843
0.05222781 0.021575131 1.304 4280298015
0.054407585 0.021542041 1.302 4280363808
0.056623939 0.021525495 1.3010001 4280495394
0.058927346 0.021542041 1.302 4279771673
0.061234217 0.021558585 1.3030001 4279639317
0.063983135 0.02172404 1.3130001 4279441938
0.066211641 0.021707492 1.312 4279244559
0.071736999 0.02200531 1.33 4279244559
0.073878452 0.021955673 1.327 4279244559
0.084365182 0.021690948 1.3110001 4279376145
0.086706772 0.021707492 1.312 4279507731
0.088984005 0.021707492 1.312 4279836697
0.091191687 0.021690948 1.3110001 4280165661
0.093324594 0.021657856 1.309 4280165915
0.095523596 0.021641312 1.3080001 4279968282
0.097793892 0.021641312 1.3080001 4280099870
0.10014068 0.021657856 1.309 4280099869
0.10272565 0.02172404 1.3130001 4280099869
0.10532453 0.021790219 1.317 4280231453
0.10842753 0.021955673 1.327 4280100123
0.11139835 0.022088036 1.335 4280034329
0.11388586 0.022121126 1.337 4279771154
0.11603267 0.022088036 1.335 4280955931
0.11808387 0.0220384 1.332 4284114496
0.12030543 0.022021854 1.3310001 4288062326
0.12197079 0.021906037 1.3240001 4289247102
0.12426885 0.021906037 1.3240001 4289642362
0.12656692 0.021906037 1.3240001 4289906038
0.12925431 0.021972219 1.3280001 4290037621
0.13195556 0.0220384 1.332 4290103161
0.13791247 0.022253489 1.345 4290364076
-0.12906481 0.025667939 1.4050001 4281679678
-0.12590514 0.025521789 1.3970001 4281942593
-0.12277325 0.025375636 1.3890001 4282074177
-0.12010241 0.025320828 1.386 4282337092
-0.11735706 0.025247753 1.3820001 4282403143
-0.11487515 0.025229482 1.381 4282139970
-0.11247814 0.025229482 1.381 4281350455
-0.11055941 0.025339099 1.3870001 4281482040
-0.10799605 0.025302559 1.3850001 4281613625
-0.10551587 0.02528429 1.3840001 4281745211
-0.10289014 0.025229482 1.381 4282074175
-0.10034761 0.025192946 1.3790001 4282468933
-0.098025113 0.025211215 1.3800001 4282337094
-0.095976338 0.025302559 1.3850001 4281087282
-0.093910202 0.025393905 1.3900001 4281021232
-0.090970971 0.025247753 1.3820001 4280955439
-0.088251792 0.025156409 1.3770001 4281482040
-0.085549958 0.025065063 1.3720001 4282402372
-0.082865492 0.024973718 1.3670001 4281876028
-0.080433905 0.02495545 1.3660001 4281415477
-0.078005798 0.024937179 1.365 4281086512
-0.075691983 0.02495545 1.3660001 4280889133
-0.073428363 0.024991985 1.368 4281283892
-0.070794232 0.024900641 1.363 4282336581
-0.068177454 0.024809295 1.358 4282797132
-0.065626502 0.02473622 1.3540001 4281415479
-0.063182905 0.024699682 1.3520001 4279902240
-0.060836241 0.024699682 1.3520001 4279902240
-0.058532834 0.024717953 1.353 4280757549
-0.056392062 0.024809295 1.358 4281678651
-0.054194145 0.024882372 1.3620001 4281218100
-0.051715963 0.024827566 1.3590001 4280889135
-0.049066599 0.024681414 1.3510001 4280823342
-0.046652503 0.024644876 1.3490001 4281218100
-0.044113964 0.024535263 1.3430001 4281810237
-0.041720696 0.024498723 1.3410001 4281678651
-0.039422501 0.024516992 1.342 4281546811
-0.037176114 0.024571799 1.345 4281349684
-0.034841597 0.024571799 1.345 4281152303
-0.032482915 0.02455353 1.3440001 4280889131
-0.030037971 0.024462186 1.3390001 4281152305
-0.027651779 0.024407379 1.3360001 4281349684
-0.025276002 0.024352573 1.3330001 4281415475
-0.022927864 0.024316033 1.3310001 4281481268
-0.020617649 0.024316033 1.3310001 4281678901
-0.018307434 0.024316033 1.3310001 4281415728
-0.015985202 0.024297766 1.33 4281086763
-0.013707573 0.024352573 1.3330001 4280823338
-0.01141098 0.024389109 1.335 4280889131
-0.0090938238 0.024389109 1.335 4281020717
-0.0067715906 0.02437084 1.3340001 4280889385
-0.0044494881 0.024334302 1.332 4280757547
-0.0021359331 0.024316033 1.3310001 4280625959
0.00017428132 0.024316033 1.3310001 4280560166
0.0024919624 0.024389109 1.335 4280494373
0.0048127221 0.024407379 1.3360001 4280560166
0.0071262773 0.024389109 1.335 4280560166
0.0094222128 0.024334302 1.332 4280362787
0.011725354 0.024316033 1.3310001 4280362787
0.013972297 0.02420642 1.325 4280296994
0.016296661 0.024242958 1.327 4280362787
0.018585915 0.024224689 1.3260001 4280428580
0.020808689 0.024133343 1.3210001 4280691752
0.023066571 0.024096806 1.319 4280823592
0.025279064 0.02402373 1.3150001 4280626213
0.027582465 0.024041999 1.3160001 4280625959
0.029934729 0.024096806 1.319 4280889131
0.032370698 0.02420642 1.325 4280757545
0.034748998 0.024261227 1.3280001 4280231202
0.037054006 0.024261227 1.3280001 4280362787
0.039240465 0.02418815 1.3240001 4280296994
0.04144441 0.024133343 1.3210001 4280428580
0.043637939 0.024078537 1.3180001 4280428580
0.045821052 0.02402373 1.3150001 4280428834
0.048066914 0.02400546 1.314 4280428833
0.050117727 0.023895847 1.3080001 4280297247
0.052307915 0.023859309 1.3060001 4280099868
0.054407585 0.023786234 1.302 4280231454
0.056623939 0.023767963 1.3010001 4280231454
0.058882087 0.023767963 1.3010001 4280363040
0.061187223 0.023786234 1.302 4280363040
0.063739486 0.023895847 1.3080001 4280494626
0.066009782 0.023895847 1.3080001 4280231454
0.071359426 0.024169883 1.3230001 4279639318
0.073544413 0.024133343 1.3210001 4279507732
0.084043421 0.023859309 1.3060001 4280363041
0.086376332 0.023877578 1.307 4280231455
0.088712715 0.023895847 1.3080001 4280363039
0.090983011 0.023895847 1.3080001 4280231455
0.093182005 0.023877578 1.307 4280231454
0.095523596 0.023895847 1.3080001 4280297247
0.097868651 0.023914116 1.309 4280231454
0.10029369 0.023950653 1.3110001 4280231455
0.10296037 0.024041999 1.3160001 4280363040
0.1054045 0.024078537 1.3180001 4280297247
0.10850924 0.024261227 1.3280001 4280363040
0.11156525 0.024425648 1.337 4280428833
0.11405624 0.024462186 1.3390001 4280428833
0.11638033 0.024462186 1.3390001 4280034330
0.11843848 0.024407379 1.3360001 4279771407
