# .PCD v0.7 - Point Cloud Data file format
VERSION 0.7
FIELDS x y z rgba
SIZE 4 4 4 4
TYPE F F F U
COUNT 1 1 1 1
WIDTH 1095
HEIGHT 1
VIEWPOINT 0 0 0 1 0 0 0
POINTS 1095
DATA ascii
0.038766261 0.050950263 1.3080001 4280428834
0.040973805 0.050872359 1.3060001 4280494629
0.043141298 0.050755501 1.3030001 4280757798
0.045402911 0.050755501 1.3030001 4280626465
0.047664527 0.050755501 1.3030001 4280429086
0.049926143 0.050755501 1.3030001 4279639569
0.05222781 0.050794456 1.304 4279245317
0.054532949 0.050833404 1.3050001 4280759053
0.056841556 0.050872359 1.3060001 4285760077
0.05910838 0.050872359 1.3060001 4289444733
0.061563179 0.05102817 1.3100001 4290102661
0.064031869 0.051183984 1.314 4290102411
0.066413507 0.051261887 1.3160001 4288062073
0.069063097 0.051534556 1.3230001 4282469424
0.074045472 0.051807228 1.33 4279836950
0.076468766 0.051885132 1.332 4280165659
0.078958154 0.05200199 1.335 4280099868
0.08182323 0.052352563 1.3440001 4280692005
0.084218629 0.052391518 1.345 4280955178
0.086874902 0.052586284 1.35 4280626469
0.089680709 0.052858952 1.3570001 4280428835
0.092375167 0.053053714 1.3620001 4280560168
-0.088707983 0.053408183 1.3130001 4279638814
-0.086231537 0.053286154 1.3100001 4279967779
-0.083829582 0.053204797 1.3080001 4280296998
-0.081372231 0.053082768 1.3050001 4280428584
-0.078985907 0.053001419 1.3030001 4280494375
-0.076665409 0.052960739 1.302 4281086512
-0.074119799 0.05275736 1.2970001 4281612854
-0.071702361 0.052635331 1.294 4280494373
-0.069456369 0.052635331 1.294 4280165663
-0.067106493 0.052553974 1.2920001 4279705112
-0.06481377 0.052513301 1.291 4279639318
-0.062427577 0.052391272 1.2880001 4280034076
-0.060051791 0.052269239 1.2850001 4280099869
-0.057596438 0.05206586 1.2800001 4280428834
-0.05524496 0.051943831 1.2770001 4280494373
-0.052986946 0.051903151 1.276 4280428580
-0.050692614 0.051821802 1.274 4280362787
-0.04844328 0.051781122 1.273 4280757545
-0.046197418 0.051740445 1.2720001 4281283889
-0.04398961 0.051740445 1.2720001 4281415475
-0.041781802 0.051740445 1.2720001 4281481268
-0.039605103 0.051781122 1.273 4281415475
-0.037395559 0.051781122 1.273 4280823338
-0.035158377 0.051740445 1.2720001 4280625959
-0.032950569 0.051740445 1.2720001 4280757545
-0.030718593 0.051699772 1.271 4281283889
-0.028490085 0.051659096 1.2700001 4281152303
-0.026244354 0.051577743 1.268 4281283891
-0.024024526 0.051537067 1.2670001 4281415477
-0.021842623 0.051577743 1.268 4281349684
-0.019657249 0.051618416 1.2690001 4281283889
-0.0174684 0.051659096 1.2700001 4281283889
-0.015264063 0.051659096 1.2700001 4281284143
-0.013070011 0.051699772 1.271 4281086764
-0.010863937 0.051699772 1.271 4280955178
-0.008685112 0.051862478 1.2750001 4280757799
-0.0065025543 0.052106537 1.281 4280692006
-0.0042924867 0.052269239 1.2850001 4280363041
-0.0020733476 0.052553974 1.2920001 4280231455
0.00016996029 0.052798036 1.2980001 4280231455
0.0024266301 0.052879389 1.3000001 4280231455
0.0046974472 0.053042095 1.304 4280165662
0.00698215 0.053204797 1.3080001 4280099869
0.009252443 0.053204797 1.3080001 4280165662
0.011513928 0.053164124 1.307 4280165662
0.01377194 0.053123448 1.3060001 4280165662
0.016051043 0.053164124 1.307 4280099869
0.018389683 0.053367503 1.312 4280099869
0.020777185 0.053652242 1.319 4280165662
0.023119034 0.053774271 1.322 4280231455
0.025432851 0.053814948 1.3230001 4280165662
0.027645344 0.053652242 1.319 4280099869
0.029912036 0.053611562 1.3180001 4280099869
0.032101963 0.05344886 1.314 4280231454
0.034356505 0.053408183 1.3130001 4280297248
0.036523867 0.053245477 1.309 4280363040
0.038706981 0.053123448 1.3060001 4280494626
0.040911056 0.053042095 1.304 4280560420
0.043141298 0.053001419 1.3030001 4280692259
0.045368068 0.052960739 1.302 4279837202
0.047627948 0.052960739 1.302 4279376902
0.049964461 0.053042095 1.304 4280232708
0.052267864 0.053082768 1.3050001 4285957201
0.054574735 0.053123448 1.3060001 4289049721
0.056885079 0.053164124 1.307 4289707903
0.059198901 0.053204797 1.3080001 4290168457
0.061657172 0.053367503 1.312 4290233747
0.064178064 0.053570889 1.317 4284969553
0.066564903 0.053652242 1.319 4279771151
0.069219701 0.053936977 1.3260001 4279705109
0.074156813 0.054181036 1.332 4280165662
0.076583587 0.054262388 1.3340001 4280231455
0.079017304 0.054343741 1.3360001 4280692006
0.082188517 0.054913212 1.35 4280823592
0.084594324 0.054953884 1.3510001 4280692006
0.087067954 0.055035241 1.353 4280560165
0.089878969 0.055319976 1.36 4280625959
-0.095835969 0.055840936 1.317 4278256904
-0.093407989 0.055756133 1.3150001 4279309849
-0.091194846 0.055798534 1.3160001 4282336327
-0.088707983 0.055671334 1.3130001 4282862926
-0.085968234 0.055374533 1.3060001 4281020721
-0.08363732 0.055332132 1.3050001 4280691754
-0.081060462 0.055120133 1.3000001 4280625961
-0.078500956 0.05490813 1.2950001 4280757545
-0.076135464 0.054823332 1.2930001 4280625959
-0.073434025 0.054484129 1.2850001 4280296994
-0.071203656 0.054484129 1.2850001 4280297249
-0.069026962 0.05452653 1.286 4279968283
-0.066742912 0.054484129 1.2850001 4279573525
-0.064663157 0.054611333 1.2880001 4279376145
-0.062379107 0.054568931 1.2870001 4280165662
-0.060051791 0.054484129 1.2850001 4280955178
-0.057641435 0.054314531 1.281 4280889385
-0.05524496 0.05414493 1.2770001 4280494627
-0.052986946 0.054102529 1.276 4280363041
-0.050692614 0.05401773 1.274 4280165408
-0.048367172 0.05389053 1.271 4280362787
-0.046124779 0.053848129 1.2700001 4281218096
-0.043885861 0.053805731 1.2690001 4281349682
-0.04168326 0.053805731 1.2690001 4281415475
-0.03948066 0.053805731 1.2690001 4281481268
-0.037278056 0.053805731 1.2690001 4281349682
-0.035075456 0.053805731 1.2690001 4280954924
-0.032872856 0.053805731 1.2690001 4281152303
-0.030646086 0.05376333 1.268 4281152303
-0.028445221 0.05376333 1.268 4281152303
-0.026223656 0.053720929 1.2670001 4281349682
-0.024024526 0.053720929 1.2670001 4281218096
-0.021842623 0.05376333 1.268 4281349684
-0.019688228 0.05389053 1.271 4281415475
-0.017509665 0.053975329 1.273 4281349682
-0.015324159 0.054060131 1.2750001 4280955179
-0.013121427 0.054102529 1.276 4280757799
-0.010915224 0.05414493 1.2770001 4280428834
-0.0087123597 0.054229729 1.279 4280165662
-0.0065177828 0.054441731 1.284 4280231455
-0.0042991675 0.054568931 1.2870001 4280165662
-0.0020765571 0.054865733 1.294 4280165662
0.00017009124 0.055077732 1.299 4280165662
0.0024266301 0.055120133 1.3000001 4280297248
0.0047010495 0.055332132 1.3050001 4280363041
0.0069874879 0.055501733 1.309 4280297248
0.0092595164 0.055501733 1.309 4280428834
0.011531546 0.055501733 1.309 4280428834
0.01379303 0.055459332 1.3080001 4280363041
0.016063323 0.055459332 1.3080001 4280363041
0.01836165 0.055544134 1.3100001 4280363041
0.020635415 0.055544134 1.3100001 4280428834
0.022874204 0.055459332 1.3080001 4280560420
0.027247116 0.055120133 1.3000001 4280494627
0.029548915 0.055204932 1.302 4280626212
0.031857654 0.055289734 1.304 4280560419
0.034094837 0.055247333 1.3030001 4280757798
0.036328554 0.055204932 1.302 4280758053
0.038588431 0.055204932 1.302 4280823587
0.040816937 0.055162534 1.3010001 4280363543
0.043108191 0.055204932 1.302 4279640325
0.045402911 0.055247333 1.3030001 4280890889
0.047701109 0.055289734 1.304 4285891658
0.050041091 0.055374533 1.3060001 4288852340
0.052347966 0.055416934 1.307 4289576319
0.054658312 0.055459332 1.3080001 4289839492
0.05701565 0.055544134 1.3100001 4289839241
0.059334677 0.055586535 1.3110001 4286483040
0.061751164 0.055713736 1.314 4281153308
0.064275518 0.055925734 1.319 4279442187
0.066665843 0.056010537 1.3210001 4280165660
0.071629114 0.056307334 1.3280001 4280165662
0.074323833 0.056604136 1.335 4280165662
0.076813221 0.056731336 1.3380001 4280428835
0.079608746 0.057070538 1.3460001 4280626215
0.082310274 0.057324938 1.3520001 4280692008
0.084719561 0.057367336 1.353 4280823338
0.087132305 0.057409741 1.3540001 4280691753
0.089746788 0.057579339 1.358 4280691753
-0.097823873 0.057934485 1.3130001 4279704607
-0.095472127 0.057890363 1.312 4279178518
-0.093265928 0.057934485 1.3130001 4279836448
-0.091125548 0.058022734 1.3150001 4283323476
-0.088572852 0.057846241 1.3110001 4283126097
-0.085770756 0.057493251 1.3030001 4280889134
-0.08331687 0.05736088 1.3000001 4280428582
-0.080686338 0.057096139 1.294 4280560166
-0.078137249 0.056875516 1.289 4280428580
-0.075369991 0.056478404 1.2800001 4280494373
-0.073034003 0.056390159 1.2780001 4280494627
-0.070704952 0.056301907 1.276 4280494627
-0.068543881 0.056346033 1.2770001 4280231455
-0.066327393 0.056346033 1.2770001 4279770903
-0.064361922 0.056566656 1.2820001 4280428833
-0.062233701 0.056654897 1.284 4281152557
-0.060005065 0.056654897 1.284 4281415729
-0.057641435 0.056522526 1.281 4281152557
-0.055288218 0.056390159 1.2780001 4280494627
-0.053028472 0.056346033 1.2770001 4279968283
-0.050692614 0.056213662 1.274 4279902236
-0.048329115 0.056037165 1.2700001 4279968029
-0.046088461 0.055993043 1.2690001 4280889131
-0.043816693 0.055904794 1.2670001 4281547061
-0.041617565 0.055904794 1.2670001 4281349682
-0.03944955 0.055948921 1.268 4281415730
-0.037248682 0.055948921 1.268 4281547059
-0.035075456 0.055993043 1.2690001 4281152558
-0.032872856 0.055993043 1.2690001 4281218094
-0.030646086 0.055948921 1.268 4281152303
-0.028467653 0.055993043 1.2690001 4281283889
-0.026244354 0.055948921 1.268 4281415475
-0.024043487 0.055948921 1.268 4281349682
-0.021877075 0.056037165 1.2700001 4281283889
-0.019734699 0.056213662 1.274 4281152301
-0.017564684 0.056346033 1.2770001 4280889385
-0.015372234 0.056434281 1.279 4280494627
-0.013172843 0.056522526 1.281 4280297248
-0.010949414 0.056522526 1.281 4280099869
-0.0087327957 0.056566656 1.2820001 4280231455
-0.006522859 0.056699026 1.2850001 4280297248
-0.0042991675 0.056787267 1.2870001 4280428834
-0.0020717429 0.056963768 1.291 4280494627
0.00016969841 0.057184387 1.296 4280494627
0.0024210301 0.057228509 1.2970001 4280560420
0.0046866401 0.057405002 1.3010001 4280626213
0.0069661359 0.057581499 1.3050001 4280626213
0.0092453705 0.057669744 1.307 4280692006
0.011531546 0.057757992 1.309 4280626213
0.01379303 0.05771387 1.3080001 4280560420
0.016051043 0.057669744 1.307 4280560420
0.018291567 0.057581499 1.3050001 4280757799
0.02052515 0.057493251 1.3030001 4280626213
0.022769278 0.057449128 1.302 4280692006
0.024971485 0.057316758 1.299 4280823592
0.027184239 0.057228509 1.2970001 4280889384
0.029435441 0.057228509 1.2970001 4280889384
0.031686641 0.057228509 1.2970001 4280889384
0.033937842 0.057228509 1.2970001 4280758049
0.036244847 0.057316758 1.299 4280166163
0.038529154 0.05736088 1.3000001 4279640326
0.040785562 0.05736088 1.3000001 4281746196
0.043108191 0.057449128 1.302 4286878809
0.045472603 0.057581499 1.3050001 4289642110
0.04777427 0.057625622 1.3060001 4289905282
0.050194357 0.057802115 1.3100001 4289970821
0.052468125 0.057802115 1.3100001 4289707652
0.054783672 0.057846241 1.3110001 4288259451
0.057102699 0.057890363 1.312 4281943080
0.059425194 0.057934485 1.3130001 4279442443
0.061798155 0.058022734 1.3150001 4279771155
0.064178064 0.058110986 1.317 4280034329
0.06651444 0.058155105 1.3180001 4280099869
0.069115303 0.058419846 1.3240001 4280099869
0.074212492 0.058816962 1.3330001 4280362787
0.076698408 0.058949333 1.3360001 4280362787
0.07937216 0.059214082 1.342 4280625959
0.082127638 0.059522942 1.3490001 4280823339
0.084594324 0.059611194 1.3510001 4280757547
0.087067954 0.059699435 1.353 4280757547
0.089482442 0.059743565 1.3540001 4280954926
-0.1000266 0.060151793 1.312 4282270789
-0.097749367 0.060151793 1.312 4280889135
-0.095472127 0.060151793 1.312 4280494377
-0.093336955 0.060243491 1.314 4280428583
-0.09105625 0.060243491 1.314 4281415478
-0.088437736 0.060014252 1.309 4281152305
-0.085639097 0.059647471 1.3010001 4280231203
-0.083188683 0.059509929 1.2980001 4279836443
-0.080623984 0.059280697 1.2930001 4280296994
-0.078016013 0.059005607 1.2870001 4280428580
-0.075311102 0.058638833 1.279 4280494373
-0.072862558 0.058455437 1.2750001 4280494629
-0.070649549 0.058455437 1.2750001 4280560420
-0.068436533 0.058455437 1.2750001 4280494627
-0.066171572 0.058409594 1.274 4280757799
-0.064161114 0.058592979 1.2780001 4281218350
-0.062136758 0.058776375 1.2820001 4281218350
-0.059911594 0.058776375 1.2820001 4281284143
-0.057641435 0.05873052 1.281 4281349937
-0.055331483 0.058638833 1.279 4281020716
-0.053069998 0.058592979 1.2780001 4280033823
-0.050692614 0.058409594 1.274 4279836443
-0.048329115 0.058226205 1.2700001 4279902236
-0.046052143 0.058134507 1.268 4281218098
-0.043816693 0.058088657 1.2670001 4281744439
-0.041650414 0.058134507 1.268 4281284143
-0.03948066 0.058180355 1.2690001 4281481269
-0.037307434 0.058226205 1.2700001 4281415474
-0.035103094 0.058226205 1.2700001 4281349681
-0.032898758 0.058226205 1.2700001 4281481522
-0.030694421 0.058226205 1.2700001 4281152556
-0.028490085 0.058226205 1.2700001 4280954924
-0.026285747 0.058226205 1.2700001 4281218094
-0.024081411 0.058226205 1.2700001 4281020971
-0.021911526 0.058317896 1.2720001 4280691754
-0.019765681 0.058501288 1.276 4280691751
-0.017592192 0.058638833 1.279 4280494627
-0.015396273 0.05873052 1.281 4280165662
-0.013172843 0.05873052 1.281 4280231455
-0.010949414 0.05873052 1.281 4280297248
-0.0087327957 0.058776375 1.2820001 4280363041
-0.0065177828 0.058868065 1.284 4280363041
-0.0042924867 0.058913916 1.2850001 4280297248
-0.002070138 0.059143148 1.2900001 4280428834
0.00016943653 0.059326541 1.294 4280494626
0.0024172969 0.059372388 1.2950001 4280494627
0.004675833 0.059509929 1.2980001 4280560420
0.0069554597 0.059739169 1.3030001 4280626212
0.0092382962 0.05987671 1.3060001 4280823592
0.011531546 0.060014252 1.309 4280823592
0.013803575 0.060014252 1.309 4280757799
0.016063323 0.059968404 1.3080001 4280692005
0.01827755 0.059785012 1.304 4280889385
0.020477893 0.059601624 1.3000001 4280889385
0.022734301 0.059601624 1.3000001 4281020971
0.024952261 0.059509929 1.2980001 4281086763
0.027184239 0.059464082 1.2970001 4280955177
0.029435441 0.059464082 1.2970001 4280889637
0.031711068 0.059509929 1.2980001 4279968788
0.033964004 0.059509929 1.2980001 4279771909
0.036244847 0.05955578 1.299 4281812245
0.038529154 0.059601624 1.3000001 4286615636
0.040816937 0.059647471 1.3010001 4289839743
0.043174408 0.059785012 1.304 4290102914
0.045542292 0.059922554 1.307 4290168452
0.047884014 0.060014252 1.309 4290102154
0.050232671 0.06010595 1.3110001 4289443724
0.052548226 0.060151793 1.312 4282732596
0.054825462 0.060151793 1.312 4279639820
0.057146221 0.060197636 1.3130001 4279836948
0.059425194 0.060197636 1.3130001 4280034331
0.061798155 0.060289335 1.3150001 4280099869
0.06412933 0.060335185 1.3160001 4280099869
0.066413507 0.060335185 1.3160001 4280231455
0.069010898 0.060610272 1.322 4280297248
0.073989794 0.060931198 1.3290001 4280363044
0.076411359 0.061022896 1.3310001 4280625960
0.079135589 0.061343826 1.3380001 4280889131
0.081944995 0.061710607 1.3460001 4280691753
0.084469095 0.061848149 1.3490001 4280691754
-0.10160206 0.061985083 1.3030001 4281612858
-0.099416681 0.062032651 1.304 4281678650
-0.097153328 0.062032651 1.304 4281415478
-0.094962746 0.062080227 1.3050001 4281152305
-0.092768699 0.062127795 1.3060001 4280691754
-0.090709768 0.062270511 1.309 4280494375
-0.084454238 0.061033662 1.2830001 4279836445
-0.082355514 0.061128806 1.2850001 4279902236
-0.080125146 0.061128806 1.2850001 4279836443
-0.07759168 0.06089095 1.2800001 4279968029
-0.075075574 0.060653094 1.2750001 4280296994
-0.072633974 0.06046281 1.271 4280494373
-0.070427902 0.06046281 1.271 4280625959
-0.068168148 0.060415242 1.2700001 4280560420
-0.065963812 0.060415242 1.2700001 4280494627
-0.063960291 0.060605522 1.274 4280757799
-0.06194289 0.060795806 1.2780001 4281284143
-0.059771396 0.060843382 1.279 4281152557
-0.057596438 0.06089095 1.2800001 4281218350
-0.055331483 0.060843382 1.279 4281152303
-0.053069998 0.060795806 1.2780001 4280625959
-0.050652824 0.060557954 1.273 4280428580
-0.048291065 0.060367666 1.2690001 4281152303
-0.046052143 0.060320098 1.268 4281744442
-0.043816693 0.060272522 1.2670001 4281744440
-0.04168326 0.060367666 1.2690001 4281547314
-0.03951177 0.060415242 1.2700001 4281481268
-0.037307434 0.060415242 1.2700001 4281415730
-0.035103094 0.060415242 1.2700001 4281349935
-0.032924663 0.06046281 1.271 4281152809
-0.030742761 0.060510378 1.2720001 4281086762
-0.028557384 0.060557954 1.273 4280692260
-0.026347842 0.060557954 1.273 4280757799
-0.024138298 0.060557954 1.273 4280626213
-0.021928754 0.060557954 1.273 4280362786
-0.01978117 0.060748238 1.2770001 4280297247
-0.017592192 0.060843382 1.279 4280297248
-0.015408292 0.060986094 1.2820001 4280231455
-0.013203693 0.061081231 1.284 4280165662
-0.010975056 0.061081231 1.284 4280231455
-0.0087600434 0.061176375 1.286 4280231455
-0.0065431637 0.061319087 1.289 4280231455
-0.0043125292 0.061414231 1.291 4280099869
-0.0020797667 0.06165209 1.296 4280165662
0.00016982935 0.061699659 1.2970001 4280034075
0.0024191635 0.06165209 1.296 4280034075
0.0046614236 0.061556946 1.294 4280297247
0.0069180937 0.06165209 1.296 4280297248
0.0091817062 0.061747227 1.2980001 4280560420
0.011452261 0.061842371 1.3000001 4280692006
0.013719214 0.061889939 1.3010001 4280757799
0.015965076 0.061842371 1.3000001 4280955178
0.018179435 0.061699659 1.2970001 4281020971
0.02038338 0.061556946 1.294 4280955178
0.022629375 0.061556946 1.294 4280889384
0.024875367 0.061556946 1.294 4280626465
0.02714232 0.061604515 1.2950001 4279705613
0.029390048 0.061604515 1.2950001 4279442948
0.031711068 0.061747227 1.2980001 4282733348
0.033964004 0.061747227 1.2980001 4287470942
0.036272746 0.061842371 1.3000001 4289971328
0.038618069 0.061985083 1.3030001 4290102909
0.040911056 0.062032651 1.304 4289839994
0.043273736 0.062175367 1.307 4290102660
0.045716517 0.062413223 1.312 4289838988
0.048103496 0.062555939 1.3150001 4284509003
0.050385941 0.062555939 1.3150001 4280495128
0.052548226 0.062413223 1.312 4279771154
0.054783672 0.062365655 1.3110001 4280231706
0.057102699 0.062413223 1.312 4280034329
0.059425194 0.062460791 1.3130001 4280165661
0.061798155 0.062555939 1.3150001 4280165662
0.06412933 0.062603511 1.3160001 4280231455
0.066363044 0.062555939 1.3150001 4280099869
0.068802088 0.062698647 1.3180001 4280231455
0.071413368 0.062984072 1.3240001 4280560420
0.073822774 0.063079216 1.3260001 4280889388
0.078839868 0.063412212 1.3330001 4280823338
0.081701472 0.063840359 1.342 4281020719
0.084281243 0.06403064 1.3460001 4281086512
-0.10661397 0.064526767 1.309 4282797131
-0.10394338 0.064280294 1.304 4281876028
-0.10121217 0.063984528 1.2980001 4281283891
-0.098730519 0.063836642 1.2950001 4280625961
-0.096408293 0.063787349 1.294 4280099617
-0.0941623 0.063787349 1.294 4279968031
-0.091774233 0.063688755 1.2920001 4279770652
-0.089323826 0.063540876 1.289 4279573273
-0.086613581 0.063195817 1.2820001 4279639066
-0.084125116 0.06299863 1.2780001 4280099617
-0.081778705 0.062900044 1.276 4280231202
-0.07956396 0.062900044 1.276 4279573272
-0.077349208 0.062900044 1.276 4279704857
-0.07495781 0.062752165 1.273 4280757545
-0.072519675 0.062554978 1.2690001 4280625959
-0.070317075 0.062554978 1.2690001 4280362787
-0.068114474 0.062554978 1.2690001 4280494373
-0.065911867 0.062554978 1.2690001 4280231457
-0.063910089 0.062752165 1.273 4280494627
-0.061894421 0.062949337 1.2770001 4281152557
-0.059677932 0.062949337 1.2770001 4281415729
-0.057461444 0.062949337 1.2770001 4280955178
-0.055158436 0.062850744 1.2750001 4281086510
-0.052903894 0.062801458 1.274 4280954924
-0.050613035 0.062702864 1.2720001 4280954924
-0.048367172 0.062653571 1.271 4281283889
-0.046124779 0.062604278 1.2700001 4281612854
-0.043885861 0.062554978 1.2690001 4281744694
-0.04168326 0.062554978 1.2690001 4281284143
-0.03948066 0.062554978 1.2690001 4281547314
-0.037278056 0.062554978 1.2690001 4281481772
-0.035103094 0.062604278 1.2700001 4280693009
-0.032924663 0.062653571 1.271 4286285413
-0.030791098 0.062801458 1.274 4282402871
-0.028624682 0.062900044 1.276 4280692005
-0.026430631 0.062949337 1.2770001 4280692006
-0.024176219 0.062850744 1.2750001 4280297502
-0.021963205 0.062850744 1.2750001 4280297247
-0.01981215 0.063047931 1.279 4280231455
-0.017619703 0.063146517 1.281 4280363041
-0.015408292 0.063195817 1.2820001 4280297248
-0.0088349739 0.063935235 1.2970001 4280428833
-0.0065939249 0.064033821 1.299 4280297247
-0.0043425937 0.064083114 1.3000001 4280297247
-0.0020893952 0.064181708 1.302 4280034075
0.00017022218 0.064083114 1.3000001 4279902489
0.0024210301 0.063935235 1.2970001 4279968282
0.0046614236 0.063787349 1.294 4280099869
0.0069020796 0.063738056 1.2930001 4280165662
0.0091463374 0.063738056 1.2930001 4280231455
0.011390595 0.063738056 1.2930001 4280363040
0.013634853 0.063738056 1.2930001 4280560674
0.015879111 0.063738056 1.2930001 4280757796
0.018123368 0.063738056 1.2930001 4280758050
0.020351876 0.063688755 1.2920001 4280363291
0.022594398 0.063688755 1.2920001 4279574025
0.024856143 0.063738056 1.2930001 4279442947
0.027100401 0.063738056 1.2930001 4285101893
0.029390048 0.063836642 1.2950001 4288918134
0.031711068 0.063984528 1.2980001 4289971330
0.034016337 0.064083114 1.3000001 4289642359
0.036356453 0.064231001 1.3030001 4289379445
0.038736619 0.064428173 1.307 4289905535
0.041067924 0.064526767 1.309 4290168202
0.043505497 0.064773247 1.314 4285430609
0.04596043 0.065019719 1.319 4280824347
0.048359558 0.065167606 1.322 4279376396
0.05046257 0.064921126 1.317 4280034328
0.052468125 0.06457606 1.3100001 4280099867
0.054700099 0.064526767 1.309 4280231710
0.057102699 0.064674653 1.312 4280297247
0.059470456 0.064773247 1.314 4280363041
0.061892148 0.064921126 1.317 4280297248
0.064178064 0.064921126 1.317 4280165663
0.066413507 0.064871833 1.3160001 4280297250
0.06874989 0.064921126 1.317 4280560422
0.071251556 0.065118305 1.3210001 4280692008
0.073767103 0.065315485 1.325 4280823338
0.076468766 0.065660544 1.332 4280823339
0.081518829 0.06600561 1.3390001 4281152304
0.084093399 0.06620279 1.3430001 4281283891
-0.10628818 0.066578954 1.3050001 4281415475
-0.10378396 0.066425905 1.302 4280889131
-0.10097825 0.066068769 1.2950001 4280165408
-0.098501801 0.065915711 1.2920001 4280099615
-0.096184783 0.065864697 1.291 4279836445
-0.093943991 0.065864697 1.291 4279704859
-0.091490112 0.06571164 1.2880001 4279573273
-0.089046635 0.06555859 1.2850001 4279770652
-0.086410895 0.065252475 1.279 4280099617
-0.083861813 0.064997382 1.274 4280231203
-0.081650533 0.064997382 1.274 4280428582
-0.079501607 0.065048404 1.2750001 4280428582
-0.077349208 0.065099426 1.276 4281020719
-0.075016692 0.064997382 1.274 4281086512
-0.072633974 0.064844333 1.271 4280757547
-0.070372485 0.064793311 1.2700001 4280428582
-0.068168148 0.064793311 1.2700001 4280231202
-0.06601575 0.064844333 1.271 4280099615
-0.063960291 0.064997382 1.274 4280033822
-0.061845947 0.065099426 1.276 4280625959
-0.059584469 0.065048404 1.2750001 4281349681
-0.057326455 0.064997382 1.274 4281284145
-0.055071913 0.064946368 1.273 4281152303
-0.052862369 0.064946368 1.273 4280954924
-0.050613035 0.064895347 1.2720001 4281020719
-0.048405226 0.064895347 1.2720001 4281020717
-0.0461611 0.064844333 1.271 4281415729
-0.043955028 0.064844333 1.271 4281678647
-0.041748956 0.064844333 1.271 4281219120
-0.03951177 0.064793311 1.2700001 4281087529
-0.037307434 0.064793311 1.2700001 4280562193
-0.035103094 0.064793311 1.2700001 4284444220
-0.032950569 0.064895347 1.2720001 4291285931
-0.030815266 0.065048404 1.2750001 4280297750
-0.028647117 0.06515044 1.2770001 4280560420
-0.026451327 0.065201454 1.2780001 4280428835
-0.024214145 0.06515044 1.2770001 4280428831
-0.021997657 0.06515044 1.2770001 4280231201
-0.019827642 0.065303497 1.2800001 4280362786
-0.017660966 0.065507568 1.284 4280297248
-0.01543233 0.065507568 1.284 4280363041
-0.0088690333 0.066425905 1.302 4280297248
-0.0066193058 0.066527933 1.304 4280034075
-0.0043559554 0.066527933 1.304 4280034075
-0.0020893952 0.066425905 1.302 4280099868
0.00017009124 0.066272847 1.299 4280165661
0.0024210301 0.066170804 1.2970001 4280099868
0.004665026 0.066068769 1.2950001 4280099869
0.0069074174 0.066017754 1.294 4280297248
0.0091534108 0.066017754 1.294 4280165662
0.011399405 0.066017754 1.294 4280034329
0.013645398 0.066017754 1.294 4279968535
0.015891394 0.066017754 1.294 4279639565
0.018123368 0.06596674 1.2930001 4279508484
0.020367626 0.06596674 1.2930001 4280101123
0.022594398 0.065915711 1.2920001 4285957200
0.024856143 0.06596674 1.2930001 4288720754
0.027121361 0.066017754 1.294 4289708157
0.029412745 0.06611979 1.296 4289510777
0.031759929 0.066323861 1.3000001 4289116021
0.034042507 0.066374876 1.3010001 4290036616
0.036412258 0.066578954 1.3050001 4290233492
0.038855169 0.066885069 1.3110001 4286548583
0.041224793 0.067038119 1.314 4281219104
0.043671045 0.067293212 1.319 4279705360
0.046099812 0.067497283 1.3230001 4279968536
0.048469301 0.067599326 1.325 4280165661
0.050194357 0.06683404 1.3100001 4280099870
0.05242807 0.066783026 1.309 4280165662
0.054700099 0.066783026 1.309 4280494627
0.057146221 0.066987097 1.3130001 4280363041
0.059470456 0.067038119 1.314 4280362786
0.061939143 0.06724219 1.3180001 4280296737
0.064275518 0.067293212 1.319 4280560167
0.06651444 0.06724219 1.3180001 4280954926
0.068802088 0.06724219 1.3180001 4280823340
0.071305491 0.067446269 1.322 4280823339
0.073767103 0.067599326 1.325 4281020719
0.076468766 0.067956448 1.332 4281283889
0.081579715 0.068364598 1.34 4281152559
-0.11265017 0.068564609 1.3000001 4280758317
-0.11013901 0.068406381 1.2970001 4280560937
-0.10797098 0.068459123 1.2980001 4280429351
-0.10555516 0.068353646 1.296 4280297250
-0.10314627 0.068248153 1.294 4280165408
-0.10058837 0.068037182 1.2900001 4280296994
-0.098044366 0.067826219 1.286 4280428580
-0.095737748 0.067773476 1.2850001 4280494374
-0.093434617 0.067720734 1.284 4280296995
-0.090992883 0.067562506 1.281 4280165410
-0.088630855 0.067457028 1.279 4279836445
-0.085870408 0.067035094 1.271 4280296996
-0.083598509 0.066982351 1.2700001 4280494376
-0.081458263 0.067035094 1.271 4280691755
-0.079376899 0.067140579 1.273 4280560169
-0.077227972 0.067193314 1.274 4281218099
-0.075016692 0.067193314 1.274 4281152306
-0.072691113 0.067087829 1.2720001 4280889133
-0.070427902 0.067035094 1.271 4280625961
-0.068275496 0.067087829 1.2720001 4280165409
-0.066067688 0.067087829 1.2720001 4279968030
-0.063910089 0.067140579 1.273 4280296994
-0.061749015 0.067193314 1.274 4281020718
-0.059491001 0.067140579 1.273 4281349682
-0.057146464 0.066982351 1.2700001 4281349682
-0.054898866 0.066929601 1.2690001 4281218096
-0.052737791 0.066982351 1.2700001 4281152558
-0.050613035 0.067087829 1.2720001 4281086512
-0.04844328 0.067140579 1.273 4281086515
-0.046233736 0.067140579 1.273 4281218098
-0.04398961 0.067087829 1.2720001 4281218096
-0.041781802 0.067087829 1.2720001 4281087271
-0.039542884 0.067035094 1.271 4280298254
-0.037336811 0.067035094 1.271 4284246835
-0.035130739 0.067035094 1.271 4291089557
-0.032976471 0.067140579 1.273 4290825634
-0.030887771 0.067404285 1.2780001 4279508235
-0.028714417 0.06750977 1.2800001 4280429090
-0.02653412 0.067615256 1.2820001 4280363042
-0.024289992 0.067562506 1.281 4280494625
-0.022101013 0.067667991 1.2830001 4280428834
-0.019920582 0.067826219 1.286 4280428579
-0.017702229 0.067878962 1.2870001 4280428834
-0.013357941 0.068511866 1.299 4280297247
-0.011128912 0.068670094 1.302 4280099868
-0.0088622216 0.068617344 1.3010001 4280100123
-0.0065685445 0.068248153 1.294 4280231454
-0.0043292316 0.068353646 1.296 4280231200
-0.0020797667 0.068353646 1.296 4280429347
0.00016943653 0.068248153 1.294 4280495396
0.0024154303 0.068248153 1.294 4280561189
0.004665026 0.068300895 1.2950001 4280298018
0.0069127553 0.068300895 1.2950001 4280363554
0.0091604851 0.068300895 1.2950001 4279640082
0.011408214 0.068300895 1.2950001 4279311109
0.013645398 0.068248153 1.294 4279442946
0.015891394 0.068248153 1.294 4282799140
0.018123368 0.068195418 1.2930001 4288457841
0.02038338 0.068248153 1.294 4289642366
0.022629375 0.068248153 1.294 4290234243
0.024894591 0.068300895 1.2950001 4289510777
0.027163278 0.068353646 1.296 4289247350
0.029435441 0.068406381 1.2970001 4289905283
0.031784363 0.068617344 1.3010001 4289510025
0.034094837 0.068722837 1.3030001 4284969553
0.036495965 0.068986543 1.3080001 4281219105
0.038973723 0.069355734 1.3150001 4279771409
0.041350286 0.069513962 1.3180001 4279968537
0.043803483 0.069777675 1.3230001 4280297247
0.046169501 0.06988316 1.325 4280231454
0.048469301 0.06988316 1.325 4280231455
0.050156042 0.069039285 1.309 4280560420
0.05238802 0.068986543 1.3080001 4280428835
0.054658312 0.068986543 1.3080001 4280231201
0.057059176 0.069144771 1.3110001 4280296739
0.059470456 0.069302998 1.314 4280691497
0.061939143 0.069513962 1.3180001 4281020206
0.064275518 0.069566712 1.319 4281217585
0.06651444 0.069513962 1.3180001 4281152049
0.068906493 0.069619447 1.3200001 4281086511
0.071413368 0.06983041 1.3240001 4281086512
0.073822774 0.069935903 1.3260001 4281152305
0.076411359 0.070199609 1.3310001 4281283891
0.081336193 0.070463315 1.3360001 4281283888
0.083717704 0.070516065 1.337 4281349682
-0.12574352 0.071840204 1.319 4281152308
-0.12345413 0.071840204 1.319 4281284406
-0.12088916 0.071676806 1.3160001 4282337349
-0.11779386 0.07118661 1.307 4282600521
-0.11437624 0.070478559 1.294 4281876798
-0.11178363 0.070260696 1.2900001 4280429351
-0.10928982 0.070097297 1.2870001 4280560936
-0.10705598 0.070097297 1.2870001 4280495143
-0.10482214 0.070097297 1.2870001 4280362787
-0.10250858 0.070042834 1.286 4279968029
-0.10012052 0.069933899 1.284 4280165408
-0.097739406 0.069824971 1.2820001 4280362787
-0.095514238 0.069824971 1.2820001 4280494373
-0.093216307 0.0697705 1.281 4280625959
-0.090850808 0.06966158 1.279 4280757545
-0.088492259 0.069552645 1.2770001 4280889133
-0.085802846 0.069171384 1.2700001 4280691754
-0.083598509 0.069171384 1.2700001 4280625963
-0.081394173 0.069171384 1.2700001 4280560170
-0.079314537 0.069280311 1.2720001 4280428584
-0.077227972 0.069389246 1.274 4281349686
-0.075075574 0.06944371 1.2750001 4281415479
-0.072805412 0.069389246 1.274 4281020719
-0.070538722 0.069334783 1.273 4281086512
-0.068329178 0.069334783 1.273 4280625959
-0.066067688 0.069280311 1.2720001 4280494373
-0.06385988 0.069280311 1.2720001 4281283889
-0.06155514 0.069171384 1.2700001 4281678647
-0.059257336 0.069062456 1.268 4281547061
-0.056966472 0.068953522 1.266 4281349682
-0.054812342 0.069007985 1.2670001 4281415475
-0.052654739 0.069062456 1.268 4281415729
-0.050613035 0.069280311 1.2720001 4281218096
-0.048481338 0.069389246 1.274 4281086511
-0.046233736 0.069334783 1.273 4281020973
-0.04398961 0.069280311 1.2720001 4280823847
-0.041781802 0.069280311 1.2720001 4280429587
-0.039542884 0.069225848 1.271 4281811989
-0.037366185 0.069280311 1.2720001 4290563467
-0.035186015 0.069334783 1.273 4290431879
-0.033028282 0.06944371 1.2750001 4289838739
-0.030936111 0.069716036 1.2800001 4279573775
-0.028736848 0.0697705 1.281 4280428835
-0.026575513 0.069933899 1.284 4280494629
-0.024365839 0.06998837 1.2850001 4280363041
-0.022169918 0.070097297 1.2870001 4280494627
-0.017798511 0.070478559 1.294 4280099868
-0.015588576 0.070641957 1.2970001 4280099868
-0.013347658 0.070696421 1.2980001 4280165662
-0.011077627 0.070587493 1.296 4280231456
-0.0087941019 0.07031516 1.291 4280363040
-0.0065380875 0.070151769 1.2880001 4280428833
-0.0043025082 0.070151769 1.2880001 4280626213
-0.0020685333 0.070206232 1.289 4280758056
0.00016904371 0.07031516 1.291 4280758565
0.0024116968 0.070369624 1.2920001 4280495645
0.0046614236 0.070478559 1.294 4279772177
0.0069234315 0.070641957 1.2970001 4279311879
0.0091746319 0.070641957 1.2970001 4279969796
0.011425832 0.070641957 1.2970001 4284378170
0.013666488 0.070587493 1.296 4289444222
0.015903674 0.070533022 1.2950001 4290300295
0.018165419 0.070587493 1.296 4289839739
0.020446388 0.070696421 1.2980001 4289444979
0.022716813 0.070750892 1.299 4289510776
0.024990708 0.070805356 1.3000001 4290168711
0.027247116 0.070805356 1.3000001 4290167952
0.029526219 0.07085982 1.3010001 4285430358
0.031857654 0.071023211 1.304 4280363539
0.034147173 0.071077682 1.3050001 4279902738
0.03655177 0.071350008 1.3100001 4280363293
0.038944084 0.071567871 1.314 4280429089
0.041318912 0.071731269 1.317 4280494627
0.043704156 0.071894668 1.3200001 4280494627
0.046064965 0.072003603 1.322 4280560420
0.048359558 0.072003603 1.322 4280757544
0.050424255 0.071676806 1.3160001 4280428579
0.052468125 0.071350008 1.3100001 4280231201
0.054741889 0.071350008 1.3100001 4280428581
0.057102699 0.071458943 1.312 4280691754
0.059470456 0.071567871 1.314 4281020720
0.061939143 0.071785733 1.3180001 4281086257
0.064324245 0.071894668 1.3200001 4281086257
0.066615373 0.071894668 1.3200001 4281086513
0.069010898 0.072003603 1.322 4281152305
0.07157518 0.072275922 1.327 4281152305
0.073934123 0.072330393 1.3280001 4281349684
0.076353952 0.07243932 1.33 4281283890
0.078662433 0.07243932 1.33 4281283889
0.080849148 0.072330393 1.3280001 4281349682
0.083342001 0.072493792 1.3310001 4281481268
-0.12555286 0.07400132 1.317 4281941821
-0.12326695 0.07400132 1.317 4282073919
-0.12070546 0.07383275 1.314 4282271555
-0.11779386 0.073439419 1.307 4282337347
-0.11428785 0.07265278 1.2930001 4281942589
-0.11143702 0.072259448 1.286 4280560936
-0.10903507 0.072147064 1.284 4280429350
-0.10672325 0.072090879 1.2830001 4280495143
-0.10449634 0.072090879 1.2830001 4280428837
-0.10226945 0.072090879 1.2830001 4280033822
-0.10004254 0.072090879 1.2830001 4280165408
-0.097815648 0.072090879 1.2830001 4280165408
-0.095588744 0.072090879 1.2830001 4280231201
-0.09328907 0.072034694 1.2820001 4280889131
-0.090921842 0.07192231 1.2800001 4281415475
-0.088561557 0.071809933 1.2780001 4281810234
-0.085870408 0.071416609 1.271 4281218098
-0.083664335 0.071416609 1.271 4280494377
-0.081458263 0.071416609 1.271 4280362791
-0.079376899 0.071528994 1.273 4280165412
-0.07728859 0.071641363 1.2750001 4280823342
-0.075193338 0.071753748 1.2770001 4281678650
-0.07297685 0.071753748 1.2770001 4281283891
-0.070594132 0.071585178 1.274 4281086512
-0.068275496 0.071472794 1.2720001 4281218096
-0.066067688 0.071472794 1.2720001 4281283889
-0.063759476 0.071360424 1.2700001 4281547061
-0.061458204 0.07124804 1.268 4281678647
-0.059163868 0.071135662 1.266 4281612854
-0.056921482 0.071079478 1.2650001 4281547061
-0.054812342 0.071191847 1.2670001 4281481268
-0.052696265 0.071304232 1.2690001 4281415476
-0.050652824 0.071528994 1.273 4281415731
-0.048519388 0.071641363 1.2750001 4281152556
-0.046233736 0.071528994 1.273 4280757797
-0.04398961 0.071472794 1.2720001 4281021217
-0.041781802 0.071472794 1.2720001 4280758538
-0.039573994 0.071472794 1.2720001 4289510267
-0.037395559 0.071528994 1.273 4289576820
-0.035213657 0.071585178 1.274 4289050224
-0.033054184 0.071697555 1.276 4289444231
-0.030911943 0.071866125 1.279 4279902994
-0.028736848 0.071978502 1.281 4280626214
-0.026575513 0.072147064 1.284 4280560166
-0.024384798 0.072259448 1.286 4280494372
-0.022187144 0.072371826 1.2880001 4280297248
-0.020013526 0.07259658 1.2920001 4280297247
-0.017784758 0.07265278 1.2930001 4280231454
-0.015552518 0.072708964 1.294 4280297502
-0.013296243 0.07265278 1.2930001 4280494626
-0.011034888 0.072540395 1.291 4280692007
-0.0087736668 0.072371826 1.2880001 4280823592
-0.0065279352 0.072259448 1.286 4280692005
-0.0042958269 0.072259448 1.286 4280692260
-0.0020685333 0.072428018 1.289 4279968530
0.00016917466 0.07259658 1.2920001 4279771910
0.0024135634 0.07265278 1.2930001 4281220112
0.004665026 0.072765149 1.2950001 4284641341
0.0069287694 0.072933719 1.2980001 4287865448
0.0091746319 0.072877534 1.2970001 4289049974
0.011434643 0.072933719 1.2980001 4289773948
0.013687579 0.072933719 1.2980001 4289576568
0.015940515 0.072933719 1.2980001 4289379190
0.018207468 0.072989911 1.299 4289510778
0.020493645 0.073102288 1.3010001 4289971330
0.022769278 0.07315848 1.302 4289510020
0.025048379 0.073214665 1.3030001 4286154081
0.027330954 0.073270857 1.304 4281284641
0.029594304 0.073270857 1.304 4279837204
0.031930946 0.073439419 1.307 4280231708
0.034225672 0.073495612 1.3080001 4280363040
0.03655177 0.073607989 1.3100001 4280626213
0.038884807 0.073720373 1.312 4280823592
0.041224793 0.07383275 1.314 4280889385
0.043637939 0.074057505 1.3180001 4280889386
0.045995276 0.074169889 1.3200001 4280692008
0.048286397 0.074169889 1.3200001 4280428580
0.05046257 0.07400132 1.317 4280428580
0.052628331 0.07383275 1.314 4280625960
0.054909036 0.07383275 1.314 4281020719
0.057189748 0.07383275 1.314 4281020720
0.059560969 0.073945127 1.3160001 4281020720
0.061939143 0.074057505 1.3180001 4281086514
0.064372987 0.074226074 1.3210001 4281283893
0.066716306 0.074282266 1.322 4281283893
0.069115303 0.074394643 1.3240001 4281283893
0.07157518 0.074563205 1.327 4281152306
0.073989794 0.07467559 1.3290001 4281283891
0.076296538 0.07467559 1.3290001 4281349683
0.07854414 0.074619405 1.3280001 4281481268
0.08078827 0.074563205 1.327 4281415475
0.083342001 0.074787967 1.3310001 4281415475
-0.13120413 0.07557641 1.3050001 4282665546
-0.12913665 0.075692229 1.307 4281547063
-0.12725636 0.07592389 1.3110001 4282204993
-0.12498087 0.07592389 1.3110001 4282468164
-0.12261176 0.075865969 1.3100001 4281810233
-0.12024614 0.075808063 1.309 4281481268
-0.11752348 0.075518496 1.304 4281942076
-0.11393429 0.074649803 1.289 4282205504
-0.11100375 0.074186496 1.281 4281876283
-0.10852556 0.074012756 1.2780001 4280823338
-0.10597461 0.07378111 1.274 4280757545
-0.10376333 0.07378111 1.274 4280494373
-0.10163176 0.073839016 1.2750001 4280296994
-0.099574693 0.073954843 1.2770001 4280099615
-0.097510688 0.074070677 1.279 4280099615
-0.095365234 0.074128583 1.2800001 4280757545
-0.093216307 0.074186496 1.281 4281612854
-0.090921842 0.074128583 1.2800001 4281810234
-0.088630855 0.074070677 1.279 4281941821
-0.086208209 0.073896937 1.276 4281481272
-0.08379598 0.073723197 1.273 4280296998
-0.081650533 0.07378111 1.274 4279968033
-0.079501607 0.073839016 1.2750001 4279836447
-0.077409826 0.073954843 1.2770001 4280494375
-0.075252227 0.074012756 1.2780001 4281810235
-0.07297685 0.073954843 1.2770001 4281349684
-0.070649549 0.073839016 1.2750001 4281152304
-0.068168148 0.073549457 1.2700001 4281349682
-0.065911867 0.073491544 1.2690001 4281481268
-0.063558653 0.073317803 1.266 4281876028
-0.061264329 0.073201977 1.2640001 4281810235
-0.059023671 0.073144063 1.263 4281941821
-0.056921482 0.07325989 1.2650001 4281876027
-0.054898866 0.073491544 1.2690001 4281415475
-0.052779317 0.07360737 1.271 4281086512
-0.050732404 0.073839016 1.2750001 4281086509
-0.048519388 0.073839016 1.2750001 4280823591
-0.046233736 0.073723197 1.273 4280691997
-0.04398961 0.073665284 1.2720001 4280561167
-0.041814648 0.073723197 1.273 4287799400
-0.039605103 0.073723197 1.273 4290102655
-0.037424937 0.07378111 1.274 4289181548
-0.035241298 0.073839016 1.2750001 4288589414
-0.033054184 0.073896937 1.276 4288786552
-0.030887771 0.074012756 1.2780001 4279837450
-0.028691985 0.074070677 1.279 4280560674
-0.02651342 0.074186496 1.281 4280626212
-0.024327913 0.074302323 1.2830001 4280692005
-0.022135466 0.07441815 1.2850001 4280560419
-0.019936074 0.074533977 1.2870001 4280626466
-0.017702229 0.074533977 1.2870001 4280757798
-0.015468386 0.074533977 1.2870001 4280823847
-0.013224259 0.074476063 1.286 4280560673
-0.010992152 0.074476063 1.286 4280100120
-0.0087532317 0.07441815 1.2850001 4279902992
-0.006522859 0.07441815 1.2850001 4279705863
-0.0042958269 0.074476063 1.286 4281351448
-0.0020685333 0.074649803 1.289 4285299271
0.0001693056 0.074881457 1.2930001 4288128619
0.0024154303 0.07493937 1.294 4289576315
0.0046722307 0.075113103 1.2970001 4290037374
0.0069341077 0.075228937 1.299 4289642613
0.0091887806 0.075228937 1.299 4289708151
0.011461071 0.075344756 1.3010001 4289379188
0.013729759 0.07540267 1.302 4289379702
0.015989639 0.07540267 1.302 4290168453
0.018291567 0.07557641 1.3050001 4289312895
0.02060391 0.07575015 1.3080001 4285496399
0.022891691 0.075808063 1.309 4280627219
0.025163721 0.075808063 1.309 4279968787
0.027414791 0.07575015 1.3080001 4280560673
0.029707778 0.075808063 1.309 4280758054
0.032028668 0.07592389 1.3110001 4280428579
0.034356505 0.076039709 1.3130001 4280296994
0.036635477 0.076039709 1.3130001 4280363043
0.038884807 0.075981796 1.312 4280494627
0.041162044 0.075981796 1.312 4280494627
0.043472391 0.076039709 1.3130001 4280296994
0.045890741 0.076271363 1.317 4280494374
0.04821324 0.076329276 1.3180001 4280757545
0.050539203 0.076387197 1.319 4281020717
0.052828588 0.076387197 1.319 4281218097
0.055117976 0.076387197 1.319 4281152304
0.057407361 0.076387197 1.319 4281086512
0.059742004 0.076445103 1.3200001 4281086514
0.062033128 0.076445103 1.3200001 4281283893
0.064421713 0.076560929 1.322 4281283893
0.066817239 0.076676756 1.3240001 4281283892
0.069219701 0.076792583 1.3260001 4281218098
0.07157518 0.076850489 1.327 4281218097
0.073878452 0.076850489 1.327 4281218096
0.07612431 0.076792583 1.3260001 4281415475
0.078307562 0.076676756 1.3240001 4281415475
0.080605626 0.076676756 1.3240001 4281349682
-0.13490222 0.077348679 1.2970001 4281415738
-0.13275328 0.077408314 1.2980001 4282994511
-0.1306009 0.077467956 1.299 4282797132
-0.12834622 0.077467956 1.299 4282007614
-0.12638275 0.077646866 1.302 4282007614
-0.12421821 0.077706501 1.3030001 4282270785
-0.121863 0.077646866 1.302 4282139198
-0.11960312 0.077646866 1.302 4281283889
-0.11716299 0.07752759 1.3000001 4281152303
-0.11366912 0.076692678 1.286 4282402370
-0.11065713 0.076155946 1.2770001 4282139453
-0.10810097 0.075917408 1.273 4281415475
-0.10555869 0.075678855 1.2690001 4280691752
-0.10327465 0.075619221 1.268 4280362787
-0.10115349 0.075678855 1.2690001 4280560166
-0.099028863 0.075738497 1.2700001 4280296994
-0.097053245 0.075917408 1.273 4280625960
-0.094918206 0.075977042 1.274 4281283891
-0.092779703 0.076036677 1.2750001 4281678648
-0.090708748 0.076155946 1.2770001 4281941821
-0.088561557 0.07621558 1.2780001 4281744442
-0.086410895 0.076275222 1.279 4282139200
-0.084125116 0.07621558 1.2780001 4280757550
-0.081906892 0.07621558 1.2780001 4279638812
-0.079688668 0.07621558 1.2780001 4280165411
-0.077531062 0.076275222 1.279 4281283891
-0.075252227 0.07621558 1.2780001 4281810235
-0.072862558 0.076036677 1.2750001 4281481269
-0.070483305 0.075857766 1.2720001 4281086510
-0.0680608 0.075619221 1.268 4281020717
-0.065807991 0.075559579 1.2670001 4281415475
-0.063458249 0.075380668 1.2640001 4281744442
-0.061215855 0.075321034 1.263 4282007614
-0.059070405 0.075380668 1.2640001 4281941821
-0.057011474 0.075559579 1.2670001 4281349684
-0.055028651 0.075857766 1.2720001 4280889132
-0.05294542 0.076036677 1.2750001 4280691752
-0.050772194 0.076096311 1.276 4280757542
-0.048519388 0.076036677 1.2750001 4280560675
-0.046270058 0.075977042 1.274 4280363028
-0.044024192 0.075917408 1.273 4284048948
-0.041814648 0.075917408 1.273 4289641849
-0.039605103 0.075917408 1.273 4289115503
-0.037424937 0.075977042 1.274 4288589157
-0.035268936 0.076096311 1.276 4288194655
-0.03308009 0.076155946 1.2770001 4288654955
-0.030887771 0.07621558 1.2780001 4285825363
-0.028669549 0.07621558 1.2780001 4279574024
-0.026472025 0.076275222 1.279 4280165912
-0.024289992 0.076394491 1.281 4280166169
-0.022101013 0.076513767 1.2830001 4280692005
-0.019905094 0.076633044 1.2850001 4280100120
-0.017674722 0.076633044 1.2850001 4280034580
-0.015456366 0.076692678 1.286 4279639818
-0.013224259 0.076692678 1.286 4279574278
-0.010992152 0.076692678 1.286 4280759057
-0.0087600434 0.076692678 1.286 4284114742
-0.0065330113 0.076752312 1.2870001 4288655217
-0.0043025082 0.076811954 1.2880001 4289839489
-0.0020733476 0.0770505 1.2920001 4290102912
0.00016943653 0.077169769 1.294 4289510772
0.0024191635 0.077289045 1.296 4289313649
0.0046830378 0.07752759 1.3000001 4289576821
0.0069501218 0.077646866 1.302 4289576820
0.0092170751 0.077706501 1.3030001 4289905788
0.011496308 0.077825777 1.3050001 4290037123
0.013782485 0.077945046 1.307 4289115270
0.016063323 0.078004688 1.3080001 4285232723
0.018389683 0.078243226 1.312 4281219355
0.020698423 0.078362502 1.314 4280166163
0.022961643 0.07830286 1.3130001 4280692258
0.025202168 0.078183591 1.3110001 4280823846
0.02743575 0.078064322 1.309 4280955178
0.029730475 0.078123957 1.3100001 4280692007
0.032077532 0.07830286 1.3130001 4280560420
0.034408838 0.078422137 1.3150001 4280691751
0.036719181 0.078481779 1.3160001 4280823338
0.03891445 0.07830286 1.3130001 4280362786
0.041162044 0.078243226 1.312 4280165663
0.043472391 0.07830286 1.3130001 4280363042
0.045855895 0.078481779 1.3160001 4280954923
0.048176657 0.078541413 1.317 4281218096
0.050577521 0.078720324 1.3200001 4281284146
0.052988797 0.078899235 1.3230001 4281086767
0.055285126 0.078899235 1.3230001 4281218097
0.057537932 0.0788396 1.322 4281218098
0.059742004 0.078720324 1.3200001 4281283891
0.062033128 0.078720324 1.3200001 4281218099
0.064372987 0.078779958 1.3210001 4281283891
0.066867702 0.079018511 1.325 4281152305
0.069219701 0.079078145 1.3260001 4281152305
0.073767103 0.079018511 1.325 4281283889
0.075952083 0.078899235 1.3230001 4281152303
0.078248411 0.078899235 1.3230001 4280823337
0.08054474 0.078899235 1.3230001 4280757544
-0.13469419 0.07946153 1.2950001 4280955444
-0.13254875 0.0795229 1.296 4282271558
-0.13050035 0.079645611 1.2980001 4282666059
-0.12824741 0.079645611 1.2980001 4282204995
-0.12618862 0.079768337 1.3000001 4281810236
-0.12383688 0.079706982 1.299 4281744443
-0.12148861 0.079645611 1.2980001 4281941821
-0.11951125 0.079829693 1.3010001 4281481269
-0.11707287 0.079706982 1.299 4281283890
-0.11358073 0.078847937 1.2850001 4281876027
-0.11057048 0.078295693 1.276 4282139199
-0.10801604 0.078050248 1.2720001 4281547062
-0.10547552 0.077804811 1.268 4280757545
-0.10327465 0.077804811 1.268 4280494373
-0.10107378 0.077804811 1.268 4280625959
-0.098950885 0.077866167 1.2690001 4280757545
-0.096900769 0.077988885 1.271 4280691752
-0.094769195 0.078050248 1.2720001 4281547063
-0.092634156 0.078111611 1.273 4281941821
-0.090566687 0.07823433 1.2750001 4281679162
-0.088492259 0.078357048 1.2770001 4281810750
-0.086546019 0.078602485 1.281 4282139715
-0.084388413 0.078663856 1.2820001 4282007616
-0.082099162 0.078602485 1.281 4281612858
-0.07987573 0.078602485 1.281 4281678650
-0.077531062 0.078479774 1.279 4281876028
-0.075193338 0.078357048 1.2770001 4281876028
-0.072805412 0.078172967 1.274 4281481268
-0.070483305 0.078050248 1.2720001 4281152303
-0.068114474 0.077866167 1.2690001 4281283889
-0.065859936 0.077804811 1.268 4281547061
-0.063558653 0.077682085 1.266 4281810235
-0.061312798 0.07762073 1.2650001 4281547063
-0.059117138 0.07762073 1.2650001 4281086512
-0.057101466 0.077866167 1.2690001 4280625961
-0.055115175 0.078172967 1.274 4280625959
-0.053028472 0.078357048 1.2770001 4280625961
-0.050851773 0.078418411 1.2780001 4280560420
-0.048519388 0.07823433 1.2750001 4280363545
-0.046306375 0.07823433 1.2750001 4281350677
-0.044058777 0.078172967 1.274 4289246842
-0.041814648 0.078111611 1.273 4288852075
-0.039605103 0.078111611 1.273 4288852071
-0.037454311 0.07823433 1.2750001 4288457056
-0.035296578 0.078357048 1.2770001 4288325725
-0.03308009 0.078357048 1.2770001 4288260447
-0.030911943 0.078479774 1.279 4288852338
-0.028714417 0.07854113 1.2800001 4287075427
-0.02651342 0.078602485 1.281 4283719990
-0.024327913 0.078725211 1.2830001 4281943580
-0.022118239 0.078786567 1.284 4282140705
-0.019920582 0.078909293 1.286 4282996269
-0.017688474 0.078909293 1.286 4285167432
-0.015468386 0.078970648 1.2870001 4287273315
-0.013244825 0.079032011 1.2880001 4288720758
-0.011009246 0.079032011 1.2880001 4289839490
-0.0087668542 0.078970648 1.2870001 4290168959
-0.0065431637 0.079093374 1.289 4289906038
