# .PCD v0.7 - Point Cloud Data file format
VERSION 0.7
FIELDS x y z rgba
SIZE 4 4 4 4
TYPE F F F U
COUNT 1 1 1 1
WIDTH 1073
HEIGHT 1
VIEWPOINT 0 0 0 1 0 0 0
POINTS 1073
DATA ascii
-0.13936983 -0.10401964 1.212 4279987374
-0.13583109 -0.10384799 1.21 4279855787
-0.13241281 -0.10376216 1.2090001 4279986860
-0.12900001 -0.10367634 1.2080001 4279986603
-0.12580077 -0.10376216 1.2090001 4279855017
-0.12239343 -0.10367634 1.2080001 4279855017
-0.11918873 -0.10376216 1.2090001 4280051626
-0.1158827 -0.10376216 1.2090001 4280051113
-0.11266979 -0.10384799 1.21 4279919527
-0.10918028 -0.10367634 1.2080001 4279853734
-0.10578933 -0.10359051 1.207 4279985574
-0.10240387 -0.10350469 1.2060001 4279722400
-0.099270418 -0.10367634 1.2080001 4279853216
-0.095967129 -0.10367634 1.2080001 4279919779
-0.092740543 -0.10376216 1.2090001 4280050847
-0.089508496 -0.10384799 1.21 4279919261
-0.086270981 -0.10393381 1.2110001 4279984540
-0.083027996 -0.10401964 1.212 4279984028
-0.079647996 -0.10393381 1.2110001 4280049306
-0.076273464 -0.10384799 1.21 4279983511
-0.072964713 -0.10384799 1.21 4280048793
-0.069598392 -0.10376216 1.2090001 4279917461
-0.066237532 -0.10367634 1.2080001 4279983254
-0.062777951 -0.10341887 1.205 4280048018
-0.059532233 -0.10350469 1.2060001 4280179602
-0.0563743 -0.10376216 1.2090001 4280572819
-0.053112168 -0.10384799 1.21 4280573069
-0.049762256 -0.10376216 1.2090001 4280637581
-0.046417806 -0.10367634 1.2080001 4280834699
-0.043221593 -0.10393381 1.2110001 4280834185
-0.040140793 -0.10453459 1.2180001 4281228164
-0.037142601 -0.10547866 1.2290001 4281881981
-0.034249175 -0.10693768 1.2460001 4282073962
-0.031188512 -0.10813923 1.2600001 4282337644
-0.027941193 -0.10891166 1.2690001 4282403689
-0.024606088 -0.10951243 1.276 4282272871
-0.021232698 -0.1101132 1.2830001 4282338663
-0.017848656 -0.11088562 1.2920001 4283457657
-0.014437552 -0.1118297 1.3030001 4283391864
-0.010966288 -0.11277377 1.314 4283720568
-0.0074909776 -0.11457609 1.335 4283917428
-0.19359474 -0.1068541 1.286 4278190080
-0.18475714 -0.10386284 1.25 4281096844
-0.17916295 -0.1026165 1.235 4279847806
-0.17550115 -0.10245031 1.233 4280243338
-0.17212951 -0.10245031 1.233 4280112528
-0.16862099 -0.10236721 1.2320001 4279850387
-0.16484967 -0.10211795 1.2290001 4279917207
-0.16083196 -0.1017025 1.2240001 4280180639
-0.15709893 -0.10145323 1.2210001 4280839600
-0.15350825 -0.10128704 1.2190001 4280774066
-0.14980529 -0.10103777 1.2160001 4280381361
-0.14623919 -0.10087159 1.2140001 4280052653
-0.14256632 -0.10062232 1.2110001 4280184240
-0.13925484 -0.10062232 1.2110001 4280053167
-0.13549432 -0.10028996 1.207 4279987374
-0.13219376 -0.10028996 1.207 4279921581
-0.12878643 -0.10020687 1.2060001 4279921581
-0.12569672 -0.10037305 1.2080001 4279855788
-0.12219079 -0.10020687 1.2060001 4279723689
-0.11879439 -0.10012379 1.205 4279723689
-0.11559515 -0.10020687 1.2060001 4279855017
-0.11229733 -0.10020687 1.2060001 4279985833
-0.10890914 -0.10012379 1.205 4279656868
-0.10561405 -0.10012379 1.205 4279854247
-0.10240387 -0.10020687 1.2060001 4279920038
-0.099188231 -0.10028996 1.207 4279920038
-0.095808238 -0.10020687 1.2060001 4279920292
-0.092433713 -0.10012379 1.205 4280116388
-0.089212604 -0.10020687 1.2060001 4280247972
-0.085914783 -0.10020687 1.2060001 4280247713
-0.082753971 -0.10037305 1.2080001 4279918748
-0.079253368 -0.10012379 1.205 4280115869
-0.076021329 -0.10020687 1.2060001 4279852697
-0.072723508 -0.10020687 1.2060001 4279787415
-0.069368117 -0.10012379 1.205 4280050076
-0.066018201 -0.10004069 1.2040001 4280115099
-0.062673755 -0.0999576 1.2030001 4280245656
-0.059581593 -0.10028996 1.207 4280311190
-0.056187782 -0.10012379 1.205 4280376981
-0.052892696 -0.10012379 1.205 4280639125
-0.049638774 -0.10020687 1.2060001 4280769680
-0.04637938 -0.10028996 1.207 4280703889
-0.043364353 -0.10095468 1.215 4281097356
-0.040470358 -0.10203485 1.228 4281621121
-0.037626147 -0.10344739 1.245 4281943403
-0.03457902 -0.10452756 1.258 4282140519
-0.031337027 -0.10519228 1.266 4282338666
-0.028029267 -0.10577393 1.273 4282207078
-0.024702506 -0.10643864 1.281 4282404457
-0.021315444 -0.10702027 1.2880001 4283326072
-0.017917728 -0.10776809 1.2970001 4282734962
-0.014481872 -0.10859899 1.307 4282932341
-0.010982979 -0.10934681 1.3160001 4284312964
-0.0075078113 -0.11117478 1.3380001 4284181370
-0.19449799 -0.10381965 1.2920001 4280633982
-0.18534838 -0.10076613 1.2540001 4283662003
-0.17988831 -0.099641144 1.24 4283334065
-0.17621285 -0.099480435 1.238 4283859898
-0.17254831 -0.099319719 1.2360001 4280901266
-0.16903159 -0.099239372 1.235 4280439177
-0.16552034 -0.099159017 1.2340001 4280112781
-0.16175176 -0.098917939 1.2310001 4279981714
-0.15774226 -0.098516174 1.2260001 4279850134
-0.15388604 -0.098194748 1.222 4279326870
-0.15005168 -0.09787333 1.2180001 4279655837
-0.14648013 -0.097712614 1.2160001 4280248744
-0.14291951 -0.097551897 1.2140001 4280709554
-0.13936983 -0.097391188 1.212 4280643250
-0.13538206 -0.096909046 1.2060001 4280250032
-0.13197473 -0.096828699 1.205 4280053167
-0.12846605 -0.096667983 1.2030001 4280118960
-0.12517644 -0.096667983 1.2030001 4279987374
-0.12158287 -0.096426919 1.2 4279790509
-0.11820288 -0.096346565 1.199 4279856302
-0.1149242 -0.096346565 1.199 4280052654
-0.11173864 -0.096426919 1.2 4279723689
-0.10836685 -0.096346565 1.199 4280052141
-0.10500052 -0.096266203 1.1980001 4279920038
-0.10163967 -0.096185848 1.197 4279985831
-0.098612994 -0.096426919 1.2 4279854247
-0.095252141 -0.096346565 1.199 4280051874
-0.091820039 -0.096185848 1.197 4279920292
-0.088620812 -0.096266203 1.1980001 4279920292
-0.085344866 -0.096266203 1.1980001 4279985572
-0.082137428 -0.096346565 1.199 4280182181
-0.078792982 -0.096266203 1.1980001 4280050593
-0.075643107 -0.096426919 1.2 4279918750
-0.072301395 -0.096346565 1.199 4279918748
-0.068965152 -0.096266203 1.1980001 4279984028
-0.065634377 -0.096185848 1.197 4279918490
-0.062413268 -0.096266203 1.1980001 4279984283
-0.059334777 -0.096587628 1.202 4280180633
-0.056001268 -0.096507281 1.2010001 4280378010
-0.052673228 -0.096426919 1.2 4280508058
-0.049432978 -0.096507281 1.2010001 4280442776
-0.046302531 -0.096828699 1.205 4281294736
-0.04354281 -0.098034032 1.22 4282406784
-0.04079992 -0.099480435 1.238 4281811552
-0.037837703 -0.10060542 1.2520001 4282074724
-0.034661479 -0.10132861 1.261 4282337894
-0.031386536 -0.10189112 1.268 4282207078
-0.028073305 -0.1024536 1.2750001 4282338664
-0.02472179 -0.10301609 1.2820001 4282930801
-0.021348543 -0.10365894 1.2900001 4282931571
-0.017931543 -0.10430179 1.2980001 4282669682
-0.014481872 -0.10502499 1.307 4283131000
-0.010982979 -0.10574819 1.3160001 4284711058
-0.007524645 -0.10775708 1.3410001 4283784815
-0.19600338 -0.10106288 1.302 4280437625
-0.18623522 -0.097802788 1.2600001 4280832906
-0.18075874 -0.096716084 1.2460001 4280767109
-0.17678219 -0.096405603 1.2420001 4280766588
-0.17324632 -0.096327975 1.2410001 4281425544
-0.16971594 -0.096250355 1.24 4284648123
-0.16645928 -0.096327975 1.2410001 4284514991
-0.16267155 -0.096095115 1.238 4282079889
-0.15877157 -0.095784634 1.2340001 4281094025
-0.15464161 -0.095318899 1.228 4280045696
-0.15091404 -0.095086038 1.225 4280244365
-0.14732334 -0.09493079 1.223 4280178574
-0.14386132 -0.094853178 1.222 4279982223
-0.14005978 -0.094542697 1.2180001 4279785621
-0.13628012 -0.094232202 1.2140001 4280311966
-0.13274138 -0.094076961 1.212 4280774059
-0.12910679 -0.093844101 1.2090001 4280642734
-0.12548861 -0.093611233 1.2060001 4280314539
-0.12178551 -0.093300745 1.202 4280183982
-0.11830146 -0.093145512 1.2 4280250032
-0.1151159 -0.093223132 1.2010001 4280118447
-0.11164553 -0.093067884 1.199 4280052654
-0.10809571 -0.092835024 1.1960001 4280184491
-0.10473758 -0.092757404 1.1950001 4282816450
-0.10146984 -0.092757404 1.1950001 4280908453
-0.098448634 -0.092990264 1.1980001 4280051874
-0.09509325 -0.092912637 1.197 4280183460
-0.091666616 -0.092757404 1.1950001 4280183203
-0.088324912 -0.092679776 1.194 4280051874
-0.084988669 -0.092602156 1.1930001 4280249255
-0.081863411 -0.092757404 1.1950001 4280051878
-0.078595668 -0.092757404 1.1950001 4279920038
-0.075390965 -0.092835024 1.1960001 4280116388
-0.07206019 -0.092757404 1.1950001 4280050595
-0.068792455 -0.092757404 1.1950001 4280050593
-0.065469876 -0.092679776 1.194 4279919007
-0.062309071 -0.092835024 1.1960001 4280115869
-0.059038598 -0.092835024 1.1960001 4280247455
-0.055768125 -0.092835024 1.1960001 4280378269
-0.052497651 -0.092835024 1.1960001 4280574623
-0.049474135 -0.093300745 1.202 4280901785
-0.046648361 -0.094232202 1.2140001 4282278022
-0.044113863 -0.095939867 1.2360001 4281417821
-0.041195396 -0.097026572 1.25 4282074464
-0.038109697 -0.097880401 1.261 4282468967
-0.034798916 -0.098268509 1.266 4282272870
-0.031510297 -0.098811865 1.273 4282404970
-0.02813936 -0.099199958 1.2780001 4282602095
-0.024760358 -0.099665694 1.284 4282932343
-0.021381641 -0.10028666 1.2920001 4282340465
-0.017959174 -0.10090763 1.3000001 4283063677
-0.014481872 -0.10145099 1.307 4283329668
-0.010991326 -0.10222719 1.317 4284776587
-0.0075695347 -0.10471108 1.3490001 4282928732
-0.19780986 -0.098401181 1.314 4278190080
-0.18697424 -0.094731741 1.2650001 4281620102
-0.18090379 -0.093383774 1.2470001 4284116124
-0.17692453 -0.093084231 1.243 4283461791
-0.17310673 -0.092859559 1.24 4280110976
-0.16971594 -0.092859559 1.24 4280766596
-0.16645928 -0.092934452 1.2410001 4280371578
-0.16280295 -0.09278468 1.2390001 4281751685
-0.15890023 -0.092485137 1.235 4284909231
-0.1550194 -0.092185579 1.2310001 4284710320
-0.15128364 -0.091960922 1.228 4284841914
-0.14768472 -0.09181115 1.2260001 4281359248
-0.14409676 -0.091661379 1.2240001 4280374409
-0.14040476 -0.091436721 1.2210001 4280047756
-0.13672915 -0.091212064 1.2180001 4279982225
-0.13306995 -0.090987392 1.215 4279850645
-0.12953395 -0.090837628 1.2130001 4279786135
-0.12590481 -0.090612955 1.21 4279984543
-0.1222921 -0.090388298 1.207 4280511146
-0.1186958 -0.090163641 1.2040001 4280709297
-0.11540344 -0.090163641 1.2040001 4280315568
-0.11173864 -0.089864098 1.2 4280249775
-0.10800532 -0.089489661 1.1950001 4280381872
-0.10456229 -0.08933989 1.1930001 4280316079
-0.10113019 -0.089190118 1.1910001 4280579501
-0.09803775 -0.08933989 1.1930001 4281434799
-0.094616592 -0.089190118 1.1910001 4282882495
-0.091283083 -0.089115225 1.1900001 4282223037
-0.087881066 -0.088965453 1.1880001 4280644266
-0.084561229 -0.088890567 1.187 4280117669
-0.081383869 -0.088965453 1.1880001 4280117671
-0.078201048 -0.089040339 1.189 4279656609
-0.075012751 -0.089115225 1.1900001 4280181668
-0.071758687 -0.089115225 1.1900001 4280116388
-0.068447046 -0.089040339 1.189 4279920292
-0.065195717 -0.089040339 1.189 4280051363
-0.061996486 -0.089115225 1.1900001 4280182433
-0.058742419 -0.089115225 1.1900001 4280379041
-0.055534977 -0.089190118 1.1910001 4280313248
-0.052497651 -0.089564547 1.1960001 4280837023
-0.049679931 -0.090388298 1.207 4281819278
-0.047147889 -0.091886029 1.2270001 4281154651
-0.044470772 -0.093308888 1.2460001 4282009184
-0.041393135 -0.094057754 1.256 4282337381
-0.038139921 -0.094507068 1.2620001 4282535528
-0.034881379 -0.095031284 1.2690001 4282273384
-0.031535048 -0.095405713 1.274 4282273384
-0.02813936 -0.095705256 1.2780001 4283063157
-0.024798928 -0.096304357 1.286 4282472053
-0.021381641 -0.096753672 1.2920001 4282604407
-0.017959174 -0.097352766 1.3000001 4283196540
-0.014548353 -0.098326296 1.3130001 4283986824
-0.011108166 -0.099674255 1.3310001 4283919220
-0.19976689 -0.095746018 1.327 4278190080
-0.18771327 -0.091633335 1.2700001 4287273141
-0.18162917 -0.090334602 1.2520001 4287534514
-0.17749387 -0.089973837 1.2470001 4285298581
-0.17394434 -0.089901686 1.2460001 4287138994
-0.17026341 -0.089757375 1.2440001 4281815161
-0.16672753 -0.089685231 1.243 4280437371
-0.16306575 -0.089540921 1.2410001 4281027450
-0.15941489 -0.089396618 1.2390001 4281159802
-0.15577498 -0.089252315 1.2370001 4280831354
-0.15202281 -0.089035861 1.2340001 4280831353
-0.14828704 -0.088819399 1.2310001 4281490826
-0.14492086 -0.088819399 1.2310001 4282215829
-0.14120969 -0.088602945 1.228 4282150283
-0.1376272 -0.088458642 1.2260001 4281690245
-0.13383661 -0.088170029 1.222 4280900747
-0.13028145 -0.088025726 1.22 4280506246
-0.1266332 -0.087809272 1.217 4280309645
-0.12320398 -0.087737121 1.2160001 4279916432
-0.11958306 -0.087520659 1.2130001 4280048277
-0.1160744 -0.087376356 1.2110001 4279786134
-0.11229733 -0.087015599 1.2060001 4280510372
-0.10854761 -0.086654834 1.2010001 4280906156
-0.10491288 -0.086366229 1.197 4280578222
-0.10130002 -0.086077616 1.1930001 4279988654
-0.09803775 -0.086077616 1.1930001 4280185267
-0.094616592 -0.085933313 1.1910001 4280250033
-0.091283083 -0.085861161 1.1900001 4280841142
-0.087881066 -0.085716859 1.1880001 4280908466
-0.084561229 -0.085644707 1.187 4282354631
-0.08124686 -0.085572548 1.1860001 4281629619
-0.078069508 -0.085644707 1.187 4284848323
-0.074886672 -0.085716859 1.1880001 4287081686
-0.071638077 -0.085716859 1.1880001 4284189364
-0.068389483 -0.085716859 1.1880001 4281033628
-0.065086052 -0.085644707 1.187 4280116388
-0.061840191 -0.085644707 1.187 4280445353
-0.058693051 -0.08578901 1.189 4280510376
-0.05562824 -0.086077616 1.1930001 4280641184
-0.05280491 -0.086799137 1.2030001 4282408846
-0.05025617 -0.088097885 1.2210001 4281745246
-0.04760899 -0.089396618 1.2390001 4281942876
-0.044684913 -0.090334602 1.2520001 4282074722
-0.041623827 -0.091128275 1.263 4282338149
-0.038351472 -0.091561191 1.2690001 4282207077
-0.034963842 -0.091777645 1.2720001 4282141798
-0.031584557 -0.092066251 1.276 4282734710
-0.02822743 -0.092499174 1.2820001 4282472053
-0.02487606 -0.093076386 1.2900001 4282407034
-0.021464387 -0.093581453 1.2970001 4282735752
-0.018055877 -0.094302975 1.307 4283393919
-0.014636994 -0.095313102 1.3210001 4284906633
-0.01115824 -0.09646754 1.337 4283325545
-0.20097122 -0.092672661 1.335 4278190080
-0.1883045 -0.088438183 1.274 4284773276
-0.18177423 -0.08698041 1.253 4285168284
-0.17777854 -0.086702742 1.2490001 4287468461
-0.17408395 -0.0865639 1.2470001 4286349727
-0.17026341 -0.086355649 1.2440001 4285630891
-0.1665934 -0.086216815 1.2420001 4285435323
-0.16306575 -0.086147398 1.2410001 4283000982
-0.15941489 -0.086008564 1.2390001 4282936727
-0.15577498 -0.08586973 1.2370001 4283595687
-0.152146 -0.085730888 1.235 4280242047
-0.14852795 -0.085592054 1.233 4280503939
-0.14492086 -0.08545322 1.2310001 4280700546
-0.14143968 -0.085383803 1.23 4280964482
-0.13773945 -0.085175551 1.2270001 4281293183
-0.13405564 -0.084967293 1.2240001 4282347146
-0.13038824 -0.084759042 1.2210001 4282479759
-0.12694535 -0.084689625 1.22 4281361296
-0.12350793 -0.084620208 1.2190001 4280638094
-0.11997739 -0.084481373 1.217 4280244112
-0.1162661 -0.084203698 1.2130001 4279981710
-0.11257668 -0.08392603 1.2090001 4279981971
-0.10890914 -0.083648361 1.205 4279981720
-0.10535111 -0.08344011 1.202 4279194514
-0.10172457 -0.083162434 1.1980001 4279918496
-0.098202094 -0.082954183 1.1950001 4280840113
-0.094616592 -0.082676515 1.1910001 4280381872
-0.091206379 -0.082537681 1.189 4280512177
-0.087807097 -0.082398839 1.187 4280118959
-0.084489986 -0.082329422 1.1860001 4280185000
-0.08117836 -0.082260005 1.1850001 4280118436
-0.077937968 -0.082260005 1.1850001 4280973217
-0.074697569 -0.082260005 1.1850001 4284454070
-0.071336567 -0.082121171 1.1830001 4283991211
-0.068101645 -0.082121171 1.1830001 4285766339
-0.064811893 -0.082051754 1.182 4286687958
-0.061735995 -0.082260005 1.1850001 4283994056
-0.058742419 -0.08260709 1.1900001 4280445345
-0.055908006 -0.083231851 1.199 4281819537
-0.053375535 -0.084411956 1.2160001 4281351519
-0.051202852 -0.086355649 1.2440001 4282205017
-0.048070095 -0.086841576 1.251 4282206048
-0.044863369 -0.087258086 1.2570001 4282141284
-0.041656785 -0.087744005 1.2640001 4282338149
-0.03829103 -0.087952256 1.2670001 4282207590
-0.034908868 -0.088160515 1.2700001 4282471020
-0.031535048 -0.088438183 1.274 4282801018
-0.028183395 -0.088854693 1.2800001 4282340982
-0.02481821 -0.089340612 1.2870001 4282538620
-0.021480937 -0.090104207 1.2980001 4283064463
-0.018097321 -0.09093722 1.3100001 4284314257
-0.014681316 -0.091978483 1.325 4282866019
-0.01115824 -0.092811503 1.337 4283521895
-0.20187445 -0.089422189 1.3410001 4278190080
-0.18933915 -0.085421205 1.281 4281554299
-0.1824996 -0.083887488 1.258 4281354360
-0.17820555 -0.083487384 1.2520001 4281290875
-0.17450275 -0.083354019 1.25 4281158525
-0.17094773 -0.083287343 1.2490001 4280962940
-0.1673982 -0.083220653 1.248 4282212237
-0.16385414 -0.083153971 1.2470001 4283396762
-0.15992954 -0.08288724 1.243 4282871194
-0.15615277 -0.082687192 1.24 4282344850
-0.15239239 -0.082487136 1.2370001 4281288817
-0.14900981 -0.082487136 1.2370001 4288786631
-0.14539176 -0.082353771 1.235 4286619067
-0.14178465 -0.082220405 1.233 4280173950
-0.1381885 -0.08208704 1.2310001 4280504960
-0.13449374 -0.081886984 1.228 4280438662
-0.1308154 -0.081686944 1.225 4280439943
-0.12725751 -0.081553578 1.223 4280832642
-0.12391321 -0.081553578 1.223 4281426321
-0.12037174 -0.081420206 1.2210001 4280900496
-0.11664949 -0.081153475 1.217 4280374411
-0.11294914 -0.080886737 1.2130001 4280636045
-0.10927065 -0.080620006 1.2090001 4280243601
-0.10570169 -0.080419958 1.2060001 4280112528
-0.10223405 -0.080286592 1.2040001 4279916178
-0.098777346 -0.080153227 1.202 4279719314
-0.095252141 -0.079953179 1.199 4279588755
-0.091743335 -0.079753123 1.1960001 4279721111
-0.088250943 -0.079553075 1.1930001 4280247974
-0.084846184 -0.07941971 1.1910001 4280773294
-0.081520885 -0.079353027 1.1900001 4280905653
-0.078135274 -0.079219662 1.1880001 4280053936
-0.07482364 -0.079152979 1.187 4280118960
-0.071336567 -0.078886241 1.1830001 4279986860
-0.067871384 -0.07861951 1.179 4280119727
-0.064757057 -0.078752875 1.1810001 4281828027
-0.06178809 -0.079086296 1.1860001 4280970406
-0.059137326 -0.079886489 1.1980001 4282276992
-0.057679906 -0.082487136 1.2370001 4281744216
-0.054560684 -0.08288724 1.243 4282139226
-0.051326327 -0.083153971 1.2470001 4282140255
-0.048185375 -0.083620749 1.2540001 4282403681
-0.04500613 -0.084087536 1.261 4282075745
-0.041722696 -0.084420957 1.266 4282600808
-0.038351472 -0.084620997 1.2690001 4282405482
-0.034991328 -0.084887736 1.273 4282998136
-0.031634063 -0.085221149 1.2780001 4282209398
-0.02822743 -0.08548788 1.2820001 4282341758
-0.024856776 -0.085954666 1.289 4282867086
-0.021563685 -0.086888231 1.3030001 4282998914
-0.018194024 -0.087821797 1.317 4282997356
-0.014703478 -0.088488631 1.327 4283062373
-0.01115824 -0.089155458 1.337 4283587175
-0.18993035 -0.082174093 1.2850001 4282799728
-0.1824996 -0.080447473 1.258 4281615728
-0.1783479 -0.080127731 1.253 4280369262
-0.17436314 -0.079871938 1.2490001 4281290877
-0.17094773 -0.079871938 1.2490001 4281027965
-0.1673982 -0.079807989 1.248 4281093245
-0.16385414 -0.079744034 1.2470001 4280765309
-0.15992954 -0.07948824 1.243 4280831615
-0.1562787 -0.079360344 1.2410001 4280896895
-0.15276198 -0.079296395 1.24 4280960879
-0.14913025 -0.079168499 1.238 4288656581
-0.14515629 -0.078848757 1.233 4290696425
-0.14155467 -0.07872086 1.2310001 4285235624
-0.13796398 -0.078592964 1.2290001 4282474134
-0.13471279 -0.078656904 1.23 4280109951
-0.13102897 -0.078465067 1.2270001 4280176001
-0.12767373 -0.078465067 1.2270001 4280570500
-0.12401453 -0.078273214 1.2240001 4280832391
-0.12037174 -0.078081369 1.2210001 4280570502
-0.11664949 -0.077825576 1.217 4280504455
-0.11313538 -0.077697679 1.215 4280373898
-0.1095418 -0.077505834 1.212 4280374413
-0.10605228 -0.077377938 1.21 4280243084
-0.10265861 -0.077313982 1.2090001 4279980429
-0.099188231 -0.077186085 1.207 4279980942
-0.095569909 -0.076930292 1.2030001 4280047507
-0.092050165 -0.076738447 1.2 4279785105
-0.088546835 -0.076546602 1.197 4279654549
-0.085202388 -0.076482654 1.1960001 4279326611
-0.081863411 -0.076418705 1.1950001 4279195284
-0.078332581 -0.076162912 1.1910001 4280774318
-0.074886672 -0.07597106 1.1880001 4280776889
-0.071336567 -0.075651318 1.1830001 4280251313
-0.06769868 -0.07520368 1.176 4280118959
-0.065689214 -0.07661055 1.1980001 4280446636
-0.063663617 -0.078145318 1.222 4282085027
-0.060815677 -0.078784801 1.2320001 4281417561
-0.057679906 -0.07910455 1.2370001 4282270551
-0.054516789 -0.079424292 1.2420001 4282468191
-0.051408648 -0.079871938 1.2490001 4282600290
-0.048262224 -0.080319576 1.256 4282338149
-0.044970445 -0.080575369 1.2600001 4282272871
-0.041590873 -0.080703266 1.2620001 4281945445
-0.038260806 -0.080959067 1.266 4282669171
-0.034991328 -0.081406705 1.273 4282341235
-0.031634063 -0.081726447 1.2780001 4282209144
-0.028249452 -0.082046196 1.2830001 4282736009
-0.024914628 -0.082621723 1.2920001 4282801293
-0.021613332 -0.083517015 1.3060001 4283128443
-0.018166395 -0.08409255 1.3150001 4282536545
-0.014648075 -0.084540188 1.322 4283192163
-0.011124857 -0.085243627 1.3330001 4283981418
-0.19111282 -0.079149954 1.2930001 4286086545
-0.18351509 -0.077435955 1.2650001 4290168013
-0.17891724 -0.076946244 1.2570001 4289839826
-0.17492156 -0.076701388 1.253 4287473087
-0.17149521 -0.076701388 1.253 4281684352
-0.16793473 -0.076640174 1.2520001 4281224833
-0.16451113 -0.076640174 1.2520001 4280830586
-0.16070153 -0.076456532 1.2490001 4280634232
-0.15703428 -0.076334104 1.2470001 4281028479
-0.15337795 -0.076211676 1.245 4281158778
-0.1496121 -0.076028034 1.2420001 4281487474
-0.14527403 -0.075538322 1.2340001 4285104551
-0.14166966 -0.075415887 1.2320001 4283983760
-0.13830075 -0.075415887 1.2320001 4286944184
-0.13504136 -0.075477101 1.233 4286554054
-0.13156292 -0.075415887 1.2320001 4286818237
-0.12798588 -0.075293459 1.23 4284976546
-0.12421717 -0.075048603 1.2260001 4281423739
-0.12066749 -0.074926175 1.2240001 4280437373
-0.11712875 -0.074803747 1.222 4280569732
-0.11350783 -0.074620105 1.2190001 4280831110
-0.1099937 -0.074497677 1.217 4280964490
-0.10631522 -0.074252822 1.2130001 4280570502
-0.10291335 -0.074191608 1.212 4280570761
-0.099516936 -0.074130394 1.2110001 4280307591
-0.096046567 -0.074007966 1.2090001 4280373900
-0.092587121 -0.073885538 1.207 4280111241
-0.08906465 -0.073701896 1.2040001 4280111501
-0.085629821 -0.073579468 1.202 4280046476
-0.082205929 -0.07345704 1.2 4279915921
-0.078727208 -0.073273391 1.197 4279718799
-0.075264893 -0.073089749 1.194 4279587216
-0.071999885 -0.073089749 1.194 4279390864
-0.068907581 -0.073273391 1.197 4281363365
-0.066292368 -0.074007966 1.2090001 4281815928
-0.064132497 -0.075354673 1.2310001 4282008921
-0.060865045 -0.075477101 1.233 4282074712
-0.057726536 -0.075783178 1.238 4282468700
-0.054604582 -0.076150462 1.2440001 4282468702
-0.051573288 -0.076701388 1.253 4282469220
-0.048339073 -0.077007458 1.258 4282273124
-0.04500613 -0.0771911 1.261 4282141284
-0.041590873 -0.077252313 1.2620001 4282339434
-0.03829103 -0.077558383 1.2670001 4282537842
-0.034991328 -0.077925675 1.273 4282209395
-0.031658817 -0.078292958 1.279 4282407549
-0.028337523 -0.07878267 1.2870001 4282801291
-0.02503033 -0.079456031 1.2980001 4282997884
-0.021679528 -0.080190599 1.3100001 4282405470
-0.018166395 -0.080496669 1.3150001 4283192928
-0.014636994 -0.080863953 1.3210001 4283916138
-0.19214743 -0.076023594 1.3000001 4290363860
-0.18409538 -0.074210726 1.2690001 4290299092
-0.17934425 -0.073684402 1.2600001 4287733163
-0.17520076 -0.073392011 1.2550001 4287339686
-0.17149521 -0.073275052 1.253 4288391352
-0.16766648 -0.073099606 1.25 4281355892
-0.16424833 -0.073099606 1.25 4280764790
-0.16057287 -0.072982647 1.248 4281027962
-0.15703428 -0.072924167 1.2470001 4281224572
-0.15337795 -0.072807208 1.245 4281355390
-0.14973256 -0.072690248 1.243 4281355387
-0.14562722 -0.072339371 1.2370001 4281158525
-0.14166966 -0.072046973 1.2320001 4280831611
-0.1381885 -0.071988493 1.2310001 4280568179
-0.13493183 -0.072046973 1.2320001 4281026422
-0.13145612 -0.071988493 1.2310001 4283658392
-0.12798588 -0.071930014 1.23 4286357429
-0.12431848 -0.071754575 1.2270001 4287211717
-0.12066749 -0.071579136 1.2240001 4285566393
-0.11693705 -0.071345218 1.22 4281881985
-0.11360095 -0.071345218 1.22 4280632956
-0.11026485 -0.071345218 1.22 4284315560
-0.10675345 -0.071228258 1.2180001 4281553794
-0.10325299 -0.071111299 1.2160001 4281226890
-0.099681295 -0.07093586 1.2130001 4280768140
-0.096205443 -0.070818901 1.2110001 4280242312
-0.092663839 -0.070643462 1.2080001 4280241798
-0.089212604 -0.070526503 1.2060001 4280176519
-0.085772298 -0.070409544 1.2040001 4280243084
-0.082411446 -0.070351064 1.2030001 4279980683
-0.079187602 -0.070409544 1.2040001 4279850126
-0.075706147 -0.070234105 1.2010001 4279718540
-0.072180793 -0.070000187 1.197 4279980940
-0.069137856 -0.070234105 1.2010001 4280832642
-0.066511691 -0.07093586 1.2130001 4281285976
-0.0640283 -0.071871534 1.2290001 4282139735
-0.060815677 -0.072046973 1.2320001 4282074197
-0.057726536 -0.072397858 1.238 4282206300
-0.054604582 -0.072748728 1.2440001 4282535265
-0.051532123 -0.073216565 1.2520001 4282338145
-0.048262224 -0.073450483 1.256 4282141284
-0.044970445 -0.073684402 1.2600001 4282470762
-0.041557916 -0.073742889 1.261 4282603376
-0.038260806 -0.074035287 1.266 4282341235
-0.034881379 -0.074210726 1.2690001 4282078069
-0.031609308 -0.074678555 1.2770001 4282603912
-0.028337523 -0.075263359 1.2870001 4282932869
-0.025088182 -0.076082073 1.3010001 4282668389
-0.021646431 -0.07649143 1.3080001 4282668383
-0.018124949 -0.076725349 1.312 4283192930
-0.014625915 -0.077193186 1.3200001 4284771702
-0.19332989 -0.07291469 1.3080001 4278190080
-0.18511087 -0.071130849 1.276 4289969609
-0.17991361 -0.070461906 1.2640001 4287864233
-0.17575917 -0.07018318 1.2590001 4287798440
-0.17190582 -0.070015945 1.256 4289443783
-0.16806887 -0.069848709 1.253 4282868866
-0.16464253 -0.069848709 1.253 4281027965
-0.16070153 -0.069625728 1.2490001 4280830586
-0.15690833 -0.069458492 1.2460001 4280830584
-0.15325475 -0.069347002 1.2440001 4281026939
-0.14985302 -0.069347002 1.2440001 4284184738
-0.14609812 -0.069179766 1.2410001 4281158779
-0.14235961 -0.06901253 1.238 4280698997
-0.13863751 -0.068845294 1.235 4280635517
-0.13504136 -0.068733804 1.233 4280896377
-0.13156292 -0.068678059 1.2320001 4281092985
-0.128194 -0.068678059 1.2320001 4281159287
-0.12462244 -0.068566568 1.23 4280632684
-0.12096324 -0.068399332 1.2270001 4283195020
-0.11732044 -0.068232097 1.2240001 4285039018
-0.1139734 -0.068232097 1.2240001 4280698740
-0.11053599 -0.068176351 1.223 4282076279
-0.10710404 -0.068120606 1.222 4288657612
-0.10350773 -0.067953371 1.2190001 4283922847
-0.10001001 -0.06784188 1.217 4282278548
-0.09644378 -0.067674644 1.2140001 4281819026
-0.092970669 -0.067563154 1.212 4280964490
-0.089434519 -0.067395918 1.2090001 4280439175
-0.086342223 -0.067563154 1.212 4280177034
-0.08289098 -0.067451663 1.21 4280111498
-0.079450682 -0.067340173 1.2080001 4279914890
-0.07589525 -0.067117192 1.2040001 4280046476
-0.072421998 -0.066949956 1.2010001 4280177030
-0.06925299 -0.067061447 1.2030001 4281226369
-0.066511691 -0.067618899 1.2130001 4280693069
-0.063976206 -0.068455078 1.228 4282337114
-0.060963769 -0.068845294 1.235 4282272091
-0.05791305 -0.069235511 1.2420001 4282469725
-0.054824051 -0.069625728 1.2490001 4282337884
-0.051614448 -0.069904454 1.2540001 4282338399
-0.048339073 -0.070127435 1.258 4282207842
-0.045113206 -0.070461906 1.2640001 4282602346
-0.041755654 -0.070629142 1.2670001 4282537585
-0.038381696 -0.070796378 1.2700001 4282143602
-0.034936354 -0.070852116 1.271 4282341245
-0.031683568 -0.07135383 1.2800001 4282867086
-0.028403576 -0.071911275 1.2900001 4282669422
-0.025068898 -0.072468735 1.3000001 4282339675
-0.021613332 -0.072803199 1.3060001 4282799452
-0.018138764 -0.073193423 1.3130001 4283916650
-0.014659157 -0.073750868 1.3230001 4284706167
-0.19392112 -0.069549993 1.312 4278190080
-0.18525594 -0.067694619 1.2770001 4289378497
-0.17977126 -0.066952474 1.263 4287733163
-0.17575917 -0.066740431 1.2590001 4288325298
-0.17176895 -0.066528387 1.2550001 4289047992
-0.16780061 -0.066316344 1.251 4286747818
-0.16424833 -0.066263333 1.25 4281289594
-0.16044421 -0.0661043 1.2470001 4281092215
-0.15653054 -0.065892257 1.243 4281355639
-0.15288517 -0.065786235 1.2410001 4281355380
-0.14973256 -0.065892257 1.243 4285104810
-0.14621584 -0.065839253 1.2420001 4289050825
-0.1425896 -0.065733232 1.24 4288656065
-0.13886203 -0.065574192 1.2370001 4286815921
-0.13515088 -0.065415166 1.2340001 4281682535
-0.1316697 -0.065362155 1.233 4280764018
-0.12829804 -0.065362155 1.233 4281027962
-0.12472377 -0.065256134 1.2310001 4281093243
-0.12106183 -0.065097101 1.228 4280831353
-0.11732044 -0.064885058 1.2240001 4280896893
-0.11415964 -0.064991079 1.2260001 4280895606
-0.11062636 -0.064885058 1.2240001 4285960371
-0.10719168 -0.064832047 1.223 4288657363
-0.10350773 -0.064620003 1.2190001 4284907432
-0.099927828 -0.06446097 1.2160001 4283067286
-0.096364334 -0.064301938 1.2130001 4283397027
-0.092893958 -0.064195916 1.2110001 4283397540
-0.089804389 -0.064354949 1.2140001 4281029508
-0.086413458 -0.064301938 1.2130001 4280569730
-0.082959488 -0.064195916 1.2110001 4280307330
-0.079450682 -0.064036891 1.2080001 4280439173
-0.07608436 -0.063983873 1.207 4280439173
-0.0725426 -0.063771829 1.2030001 4280374152
-0.06925299 -0.063771829 1.2030001 4281094272
-0.066347197 -0.064142905 1.21 4280561483
-0.063872002 -0.064991079 1.2260001 4282337114
-0.060963769 -0.065468177 1.235 4282403162
-0.058052938 -0.065998279 1.245 4282206553
-0.054824051 -0.06621033 1.2490001 4282272606
-0.051532123 -0.066369355 1.2520001 4282206813
-0.048262224 -0.066581398 1.256 4282273633
-0.04507751 -0.066952474 1.263 4282406248
-0.041722696 -0.067111507 1.266 4282078314
-0.038351472 -0.06727054 1.2690001 4282143862
-0.034991328 -0.067482576 1.273 4282736781
-0.031733073 -0.067959674 1.2820001 4282603902
-0.028469633 -0.068542793 1.2930001 4282404957
-0.025068898 -0.06891387 1.3000001 4282864990
-0.021613332 -0.069231935 1.3060001 4284114799
-0.018097321 -0.069443978 1.3100001 4284442484
-0.18583624 -0.064403757 1.281 4284576126
-0.17991361 -0.063549064 1.2640001 4289445313
-0.17603837 -0.063398235 1.261 4290169034
-0.17204268 -0.063197128 1.2570001 4285300360
-0.16833714 -0.063096583 1.2550001 4281551465
-0.16464253 -0.06299603 1.253 4281420921
-0.1608302 -0.0628452 1.25 4280961397
-0.15703428 -0.062694363 1.2470001 4281093234
-0.15325475 -0.062543541 1.2440001 4281157747
-0.14973256 -0.062493261 1.243 4281027703
-0.14621584 -0.062442988 1.2420001 4280959851
-0.14270459 -0.062392712 1.2410001 4281354859
-0.13931106 -0.062392712 1.2410001 4284511626
-0.13569848 -0.062292159 1.2390001 4288461005
-0.13199006 -0.062141333 1.2360001 4287935440
-0.12829804 -0.061990503 1.233 4281158779
-0.12462244 -0.061839674 1.23 4280896377
-0.121259 -0.061839674 1.23 4280831100
-0.1177997 -0.061789397 1.2290001 4280831354
-0.11443899 -0.061789397 1.2290001 4280765307
-0.11080713 -0.061638568 1.2260001 4281816708
-0.10727932 -0.061538015 1.2240001 4281487741
-0.10359264 -0.061336912 1.22 4282147465
-0.10001001 -0.061186086 1.217 4282476689
-0.096840993 -0.061286639 1.2190001 4282739350
-0.093277499 -0.06113581 1.2160001 4282936729
-0.089878365 -0.06108553 1.215 4281291905
-0.0864847 -0.061035257 1.2140001 4280765568
-0.083165005 -0.061035257 1.2140001 4280503937
-0.079647996 -0.060884424 1.2110001 4280504709
-0.076210432 -0.060783874 1.2090001 4280701318
-0.072723508 -0.060633048 1.2060001 4280635010
-0.069368117 -0.060582768 1.205 4281552767
-0.066402033 -0.060884424 1.2110001 4280430669
-0.0640283 -0.061789397 1.2290001 4282271323
-0.061210584 -0.062342439 1.24 4282402907
-0.058239456 -0.062794924 1.2490001 4282468700
-0.054911841 -0.062895477 1.251 4282272604
-0.051614448 -0.063046299 1.2540001 4282075741
-0.048415925 -0.063347958 1.2600001 4282603111
-0.045148898 -0.063599341 1.2650001 4282603625
-0.041788608 -0.06375017 1.268 4281946736
-0.038442139 -0.063951276 1.2720001 4282407547
-0.03510128 -0.064202651 1.2770001 4282670988
-0.031856839 -0.064705417 1.2870001 4282472051
-0.028535688 -0.065157898 1.296 4282405211
-0.025088182 -0.06540928 1.3010001 4284048239
-0.021613332 -0.065660663 1.3060001 4284048239
-0.018111136 -0.065912038 1.3110001 4283652968
-0.18612637 -0.060995936 1.2830001 4282273394
-0.17977126 -0.060045101 1.263 4281484646
-0.17589878 -0.059902474 1.2600001 4281287528
-0.17204268 -0.059759852 1.2570001 4286222769
-0.16820301 -0.059617225 1.2540001 4285828272
-0.16451113 -0.059522144 1.2520001 4281223793
-0.16095886 -0.059474602 1.251 4281093235
-0.15728612 -0.059379522 1.2490001 4281027703
-0.15337795 -0.059189349 1.245 4281027701
-0.14973256 -0.059094265 1.243 4280699251
-0.14609812 -0.058999185 1.2410001 4280830326
-0.14247461 -0.0589041 1.2390001 4280830071
-0.13919881 -0.058951646 1.24 4281158008
-0.13558897 -0.058856562 1.238 4280894836
-0.13199006 -0.058761477 1.2360001 4281026422
-0.12808995 -0.05852377 1.2310001 4280896119
-0.12431848 -0.058333602 1.2270001 4280830583
-0.12106183 -0.05838114 1.228 4280831354
-0.11770386 -0.05838114 1.228 4281027962
-0.11443899 -0.058428686 1.2290001 4281224571
-0.11062636 -0.058190975 1.2240001 4281225082
-0.10710404 -0.058095895 1.222 4280764018
-0.10384738 -0.058143437 1.223 4281160827
-0.10050307 -0.058143437 1.223 4281620867
-0.096840993 -0.057953272 1.2190001 4282015627
-0.093277499 -0.057810646 1.2160001 4282541201
-0.089804389 -0.057715561 1.2140001 4281356928
-0.086555935 -0.0577631 1.215 4280765820
-0.083165005 -0.057715561 1.2140001 4280503164
-0.079582222 -0.057525396 1.21 4280700545
-0.076147392 -0.057430312 1.2080001 4280634752
-0.072783805 -0.05738277 1.207 4281028228
-0.069540821 -0.057430312 1.2080001 4281486976
-0.066566527 -0.057715561 1.2140001 4280234062
-0.064184591 -0.058571309 1.2320001 4282075227
-0.061309312 -0.059046727 1.2420001 4282272091
-0.058239456 -0.059379522 1.2490001 4282206298
-0.054867942 -0.05942706 1.25 4282075995
-0.051573288 -0.059569687 1.253 4282536805
-0.048339073 -0.05980739 1.258 4282077031
-0.04507751 -0.060045101 1.263 4282012781
-0.041755654 -0.060235269 1.2670001 4282143605
-0.038442139 -0.060472976 1.2720001 4282735239
-0.035183739 -0.06085331 1.2800001 4282800765
-0.031881589 -0.06123364 1.2880001 4282338915
-0.028535688 -0.061613973 1.296 4282731361
-0.025107468 -0.061899226 1.302 4283125859
-0.021629881 -0.062136933 1.307 4283520617
-0.18685172 -0.057711594 1.2880001 4282340214
-0.1803406 -0.056770645 1.2670001 4281617261
-0.17673638 -0.056725841 1.266 4281551725
-0.17272702 -0.056546606 1.2620001 4281485934
-0.16900781 -0.056456994 1.2600001 4281552238
-0.16516812 -0.056322575 1.2570001 4281552240
-0.16147351 -0.056232959 1.2550001 4281224051
-0.15791579 -0.056188151 1.2540001 4280830322
-0.15387072 -0.05596412 1.2490001 4280896115
-0.15009394 -0.055829696 1.2460001 4281027701
-0.14621584 -0.055650465 1.2420001 4280961910
-0.14281958 -0.055650465 1.2420001 4281225082
-0.13964783 -0.055740081 1.2440001 4281027705
-0.13602705 -0.055650465 1.2420001 4280830324
-0.13220364 -0.055471238 1.238 4280896630
-0.12808995 -0.055157587 1.2310001 4280765560
-0.12452112 -0.055067975 1.2290001 4280765560
-0.121259 -0.055112779 1.23 4280831353
-0.11808725 -0.055202391 1.2320001 4281027703
-0.11462522 -0.055157587 1.2310001 4280961399
-0.11125904 -0.055157587 1.2310001 4283526295
-0.10771756 -0.055067975 1.2290001 4284446627
-0.10435685 -0.055067975 1.2290001 4283394193
-0.10083178 -0.054978359 1.2270001 4281618552
-0.097238205 -0.054843936 1.2240001 4281159030
-0.093661048 -0.054709516 1.2210001 4281093498
-0.090174258 -0.054619905 1.2190001 4281093755
-0.086769655 -0.054575093 1.2180001 4280962686
-0.083302014 -0.054485481 1.2160001 4280962686
-0.079713769 -0.054306254 1.212 4280633982
-0.076336503 -0.054261442 1.2110001 4280634236
-0.072904408 -0.05417183 1.2090001 4280896895
-0.069771089 -0.054306254 1.212 4281093755
-0.066840686 -0.054619905 1.2190001 4280103503
-0.06449718 -0.055471238 1.238 4281812571
-0.061556127 -0.0558745 1.2470001 4282074973
-0.058332711 -0.056053732 1.251 4282075227
-0.054999627 -0.056143347 1.253 4282207581
-0.051737927 -0.056322575 1.2570001 4282405221
-0.048454348 -0.056501802 1.261 4282340706
-0.045148898 -0.056681029 1.2650001 4281946726
-0.041854523 -0.056905068 1.2700001 4282539137
-0.038563024 -0.057173908 1.276 4282997643
-0.035348665 -0.057621978 1.286 4282601584
-0.031955849 -0.057846017 1.291 4282404190
-0.028535688 -0.058070049 1.296 4282666079
-0.025107468 -0.058338895 1.302 4282797148
-0.18714188 -0.054273691 1.2900001 4283261057
-0.18062529 -0.053390164 1.2690001 4283130500
-0.17659678 -0.053221874 1.2650001 4282538620
-0.17259015 -0.053053584 1.261 4281420139
-0.1686054 -0.052885294 1.2570001 4281289066
-0.16490532 -0.052801151 1.2550001 4281421424
-0.16134486 -0.052759074 1.2540001 4281290097
-0.15791579 -0.052759074 1.2540001 4280961134
-0.15399392 -0.052590784 1.25 4280961648
-0.15033486 -0.052506641 1.248 4281224820
-0.14645129 -0.052338351 1.2440001 4281093235
-0.14304957 -0.052338351 1.2440001 4281093235
-0.13953558 -0.052296277 1.243 4281093237
-0.13591753 -0.05221213 1.2410001 4280961908
-0.13231044 -0.052127987 1.2390001 4280830837
-0.12850615 -0.051959697 1.235 4280896630
-0.12502773 -0.051917627 1.2340001 4280699767
-0.12145617 -0.051833477 1.2320001 4280830583
-0.1181831 -0.05187555 1.233 4281093496
-0.11462522 -0.051791407 1.2310001 4281289333
-0.11116865 -0.05174933 1.23 4283525779
-0.10771756 -0.05170726 1.2290001 4283853203
-0.10427194 -0.051665187 1.228 4283064966
-0.10083178 -0.051623117 1.2270001 4283722383
-0.097238205 -0.051496897 1.2240001 4284775845
-0.093737751 -0.05141275 1.222 4284053150
-0.090248235 -0.051328607 1.22 4281224823
-0.086769655 -0.05124446 1.2180001 4281027962
-0.08289098 -0.05090788 1.21 4280765561
-0.079582222 -0.05090788 1.21 4280765307
-0.076273464 -0.05090788 1.21 4280765307
-0.072904408 -0.050865807 1.2090001 4280831613
-0.069713525 -0.05094995 1.2110001 4280896376
-0.066895522 -0.051328607 1.22 4280234060
-0.064392984 -0.052001771 1.2360001 4282008921
-0.061408043 -0.052338351 1.2440001 4282337116
-0.058286082 -0.052590784 1.25 4281943639
-0.054955732 -0.052674931 1.2520001 4282536292
-0.051696766 -0.052843221 1.256 4282076765
-0.048339073 -0.052927364 1.258 4281880680
-0.04507751 -0.053137731 1.263 4282341245
-0.041821565 -0.053390164 1.2690001 4282735749
-0.038593248 -0.053726744 1.2770001 4282734710
-0.035431124 -0.054231621 1.289 4282273633
-0.032005355 -0.054399908 1.2930001 4282338137
-0.18133697 -0.050116766 1.274 4283261054
-0.17687598 -0.049841397 1.2670001 4283130751
-0.17300075 -0.049723387 1.2640001 4283328389
-0.1694102 -0.049684044 1.263 4282999424
-0.16569372 -0.04960537 1.261 4282473340
-0.16211684 -0.049566027 1.2600001 4281487215
-0.15841949 -0.049487352 1.258 4281224045
-0.15460989 -0.049369343 1.2550001 4281290095
-0.15105763 -0.04933 1.2540001 4281290097
-0.14703992 -0.049133312 1.2490001 4281158511
-0.14362451 -0.049133312 1.2490001 4281224304
-0.13987234 -0.049015295 1.2460001 4281027442
-0.13635562 -0.048975956 1.245 4280961649
-0.1326308 -0.048857946 1.2420001 4281027444
-0.12913048 -0.048818603 1.2410001 4280830322
-0.12553431 -0.048739929 1.2390001 4280896117
-0.12194909 -0.048661251 1.2370001 4280830324
-0.1181831 -0.048503902 1.233 4281093237
-0.11471833 -0.048464559 1.2320001 4281158258
-0.11134942 -0.048464559 1.2320001 4282869131
-0.10789286 -0.048425224 1.2310001 4282605444
-0.10444175 -0.048385885 1.23 4282275448
-0.10091396 -0.048307206 1.228 4282999171
-0.097397096 -0.048228532 1.2260001 4283985555
-0.093967877 -0.048189197 1.225 4282671239
-0.090470158 -0.048110522 1.223 4281223794
-0.086983368 -0.048031844 1.2210001 4280961399
-0.083233505 -0.047795814 1.215 4280895864
-0.079845309 -0.047756478 1.2140001 4280897147
-0.076588646 -0.047795814 1.215 4280568182
-0.073025011 -0.047638461 1.2110001 4280831354
-0.069828652 -0.047717135 1.2130001 4281094009
-0.066895522 -0.047992505 1.22 4280299080
-0.064392984 -0.048621915 1.2360001 4281942356
-0.061408043 -0.04893662 1.2440001 4281943128
-0.058239456 -0.049133312 1.2490001 4282601569
-0.054999627 -0.049290664 1.253 4282075995
-0.051737927 -0.049448017 1.2570001 4282471271
-0.048415925 -0.049566027 1.2600001 4282077293
-0.045113206 -0.049723387 1.2640001 4282407036
-0.041854523 -0.049959414 1.2700001 4282669448
-0.03865369 -0.05031345 1.279 4282471022
-0.035431124 -0.050706837 1.289 4282207581
-0.032030109 -0.050903525 1.294 4282534493
-0.18133697 -0.046632998 1.274 4283524478
-0.17659678 -0.046303567 1.2650001 4283195772
-0.17272702 -0.046193752 1.2620001 4282999676
-0.16914193 -0.046157151 1.261 4283394182
-0.16556232 -0.046120547 1.2600001 4282934145
-0.16198817 -0.046083946 1.2590001 4283131524
-0.15854542 -0.046083946 1.2590001 4282736512
-0.15473309 -0.045974132 1.256 4281618033
-0.15117809 -0.045937531 1.2550001 4281486447
-0.14739309 -0.045827717 1.2520001 4281288555
-0.14362451 -0.04571791 1.2490001 4281354348
-0.13998461 -0.045644697 1.2470001 4280894826
-0.13635562 -0.045571491 1.245 4281092205
-0.13273758 -0.045498285 1.243 4280961134
-0.12923454 -0.045461684 1.2420001 4281092465
-0.12553431 -0.04535187 1.2390001 4281092467
-0.12204768 -0.045315269 1.238 4281224051
-0.11827895 -0.045168854 1.2340001 4281026672
-0.11462522 -0.045059044 1.2310001 4281092720
-0.11125904 -0.045059044 1.2310001 4282539651
-0.10780521 -0.045022435 1.23 4282473858
-0.10444175 -0.045022435 1.23 4282933378
-0.10091396 -0.04494923 1.228 4282670206
-0.097555988 -0.04494923 1.228 4283525517
-0.094044589 -0.044876024 1.2260001 4282999686
-0.090396181 -0.044729609 1.222 4282802823
-0.08684089 -0.044619799 1.2190001 4282737032
-0.083302014 -0.044509988 1.2160001 4282605704
-0.079845309 -0.044436783 1.2140001 4281224823
-0.076462574 -0.044400178 1.2130001 4280764272
-0.072964713 -0.044290368 1.21 4281353847
-0.069713525 -0.044326972 1.2110001 4281747825
-0.066840686 -0.044619799 1.2190001 4280168005
-0.064236693 -0.04513225 1.233 4282008919
-0.061259951 -0.045425076 1.2410001 4282337884
-0.058099568 -0.045608096 1.2460001 4282667364
-0.054867942 -0.045754511 1.25 4281944159
-0.051573288 -0.045864325 1.253 4282471022
-0.048339073 -0.046047337 1.258 4282209144
-0.045113206 -0.046266966 1.2640001 4282472837
-0.041920435 -0.046559792 1.2720001 4282538360
-0.038744356 -0.046925828 1.2820001 4282207838
-0.035403639 -0.047145449 1.2880001 4282404443
-0.18204863 -0.043318577 1.279 4283852415
-0.17701559 -0.042946018 1.268 4283327099
-0.17341135 -0.042912148 1.2670001 4283064440
-0.1698126 -0.042878281 1.266 4283065469
-0.16621931 -0.042844411 1.2650001 4282604920
-0.1626315 -0.042810541 1.2640001 4282012783
-0.15879728 -0.042708933 1.261 4281946990
-0.15497948 -0.04260733 1.258 4282736253
-0.15129854 -0.042539589 1.256 4283196804
-0.14751083 -0.042437982 1.253 4282801792
-0.14396949 -0.042404111 1.2520001 4282012278
-0.14043362 -0.042370241 1.251 4281092205
-0.13679372 -0.042302504 1.2490001 4281092205
-0.13305794 -0.042200897 1.2460001 4281092207
-0.12965074 -0.042200897 1.2460001 4281092465
-0.12614223 -0.04216703 1.245 4281026672
-0.12263919 -0.04213316 1.2440001 4281158258
-0.11885405 -0.041997686 1.24 4281092720
-0.11499768 -0.041828338 1.235 4281158511
-0.11143979 -0.041760601 1.233 4282869129
-0.1079805 -0.041726731 1.2320001 4283197581
-0.10461158 -0.041726731 1.2320001 4282604928
-0.10107831 -0.041658994 1.23 4282670208
-0.097794317 -0.04169286 1.2310001 4283393931
-0.094198003 -0.041591253 1.228 4282933893
-0.090618104 -0.04148965 1.225 4282670721
-0.08705461 -0.041388039 1.222 4283197067
-0.083576031 -0.041320302 1.22 4282933641
-0.080108389 -0.041252565 1.2180001 4282276481
-0.076714724 -0.041218694 1.217 4282539653
-0.073205918 -0.041117087 1.2140001 4284182683
-0.069828652 -0.041083217 1.2130001 4281945976
-0.066785857 -0.041252565 1.2180001 4280365125
-0.064288788 -0.041794468 1.2340001 4281877848
-0.061506767 -0.042200897 1.2460001 4282798948
-0.058286082 -0.042336375 1.25 4281878875
-0.054955732 -0.042404111 1.2520001 4282405482
-0.051614448 -0.042471848 1.2540001 4281945707
-0.048377499 -0.042641196 1.2590001 4282341243
-0.045220278 -0.042912148 1.2670001 4282670208
-0.042085215 -0.04325084 1.2770001 4282208366
-0.18219098 -0.039852276 1.2800001 4283523450
-0.1771552 -0.039509792 1.2690001 4283261305
-0.1732745 -0.039416391 1.266 4283327098
-0.16967846 -0.039385255 1.2650001 4283064440
-0.16595653 -0.039322987 1.263 4282867575
-0.1626315 -0.039354123 1.2640001 4282735991
-0.15867136 -0.039229583 1.2600001 4282933370
-0.15485629 -0.039136179 1.2570001 4283196544
-0.15081671 -0.038980506 1.2520001 4282143602
-0.14762856 -0.039042775 1.2540001 4281946224
-0.14408448 -0.039011639 1.253 4282341495
-0.14043362 -0.03894937 1.251 4281552238
-0.13679372 -0.038887102 1.2490001 4281289068
-0.13316473 -0.038824834 1.2470001 4281157484
-0.12985885 -0.038855966 1.248 4281157998
-0.12624355 -0.038793698 1.2460001 4281092207
-0.12273777 -0.038762566 1.245 4281158513
-0.11894991 -0.038638026 1.2410001 4281092718
-0.11527703 -0.038544621 1.238 4281157998
-0.11162056 -0.038451217 1.235 4281223791
-0.1081558 -0.038420085 1.2340001 4281421424
-0.1046965 -0.038388949 1.233 4282144377
-0.10124267 -0.038357813 1.2320001 4282933893
-0.097794317 -0.038326681 1.2310001 4282539135
-0.094274715 -0.038264412 1.2290001 4282736514
-0.090692081 -0.038171008 1.2260001 4282999686
-0.08684089 -0.037953064 1.2190001 4283065479
-0.083439022 -0.037921932 1.2180001 4282933895
-0.079976849 -0.03785966 1.2160001 4282604930
-0.076462574 -0.037766259 1.2130001 4282473860
-0.073025011 -0.037703987 1.2110001 4281156205
-0.069771089 -0.037735123 1.212 4281156969
-0.066840686 -0.037953064 1.2190001 4281023316
-0.064236693 -0.038388949 1.233 4282273381
-0.061408043 -0.03873143 1.2440001 4282009948
-0.058192823 -0.038855966 1.248 4281945179
-0.054824051 -0.038887102 1.2490001 4282208877
-0.051573288 -0.039011639 1.253 4282209395
-0.048377499 -0.039198451 1.2590001 4282604930
-0.045291658 -0.039509792 1.2690001 4282670206
-0.17757399 -0.036124904 1.2720001 4283326584
-0.17354822 -0.036011301 1.268 4283063926
-0.17008087 -0.036011301 1.268 4283392891
-0.16648211 -0.035982899 1.2670001 4283458685
-0.16301748 -0.035982899 1.2670001 4283196026
-0.15904915 -0.0358693 1.263 4283393151
-0.15547226 -0.035840902 1.2620001 4282998393
-0.1517804 -0.035784103 1.2600001 4282801016
-0.14821717 -0.035755701 1.2590001 4283064958
-0.14454445 -0.035698902 1.2570001 4282670200
-0.14088266 -0.035642099 1.2550001 4282275701
-0.13734134 -0.035613701 1.2540001 4281551979
-0.13380547 -0.035585299 1.253 4281485932
-0.13037913 -0.035585299 1.253 4281222760
-0.12664883 -0.035500098 1.25 4281222764
-0.12303352 -0.035443299 1.248 4281288555
-0.1193333 -0.035358101 1.245 4281289068
-0.11555637 -0.035244502 1.2410001 4281486447
-0.11180133 -0.035130899 1.2370001 4281091689
-0.10833108 -0.035102498 1.2360001 4281158250
-0.10495123 -0.035102498 1.2360001 4280960873
-0.1014892 -0.0350741 1.235 4281158252
-0.097873755 -0.034988899 1.2320001 4281158511
-0.094351418 -0.034932099 1.23 4282079354
-0.090987973 -0.034932099 1.23 4281421424
-0.086912133 -0.034648098 1.22 4281289584
-0.083576031 -0.034648098 1.22 4282012793
-0.080108389 -0.034591299 1.2180001 4282144126
-0.076588646 -0.034506097 1.215 4282999435
-0.073085316 -0.034420896 1.212 4281946233
-0.069886222 -0.034477696 1.2140001 4281420141
-0.066950351 -0.034676496 1.2210001 4280762201
-0.064445086 -0.035130899 1.2370001 4282471273
-0.061506767 -0.035386499 1.2460001 4282009685
-0.058192823 -0.035443299 1.248 4281945948
-0.054867942 -0.035500098 1.25 4281880680
-0.051655605 -0.035642099 1.2550001 4282340991
-0.048454348 -0.035812501 1.261 4282669707
-0.045398731 -0.036124904 1.2720001 4282340730
-0.1736851 -0.03256961 1.2690001 4282011239
-0.17008087 -0.032543942 1.268 4282405997
-0.1668763 -0.032595273 1.2700001 4282734964
-0.16314615 -0.032543942 1.268 4282603378
-0.15904915 -0.032415617 1.263 4282142827
-0.15547226 -0.03238995 1.2620001 4282669171
-0.15190086 -0.032364286 1.261 4283261054
