# .PCD v0.7 - Point Cloud Data file format
VERSION 0.7
FIELDS x y z rgba
SIZE 4 4 4 4
TYPE F F F U
COUNT 1 1 1 1
WIDTH 1099
HEIGHT 1
VIEWPOINT 0 0 0 1 0 0 0
POINTS 1099
DATA ascii
-0.1013319 -0.18562029 1.3210001 4279321213
-0.09742371 -0.18505822 1.317 4281561255
-0.093893602 -0.18519875 1.3180001 4281358222
-0.090563536 -0.1857608 1.322 4285034118
-0.088263921 -0.18857111 1.342 4278190080
-0.22521189 -0.18586585 1.3490001 4282355124
-0.22004512 -0.18462583 1.34 4282156725
-0.21621941 -0.18448806 1.3390001 4282489027
-0.21287538 -0.1847636 1.3410001 4280508816
-0.20920841 -0.1847636 1.3410001 4282221752
-0.20508161 -0.18435027 1.3380001 4282948557
-0.20097122 -0.18393692 1.335 4279722901
-0.19658162 -0.18324803 1.33 4282421953
-0.19236442 -0.18269691 1.3260001 4282289592
-0.18831146 -0.18228355 1.3230001 4280317088
-0.18483332 -0.18242134 1.3240001 4281045946
-0.18134969 -0.18255912 1.325 4278210428
-0.17732406 -0.18214577 1.322 4278210940
-0.17318344 -0.18159467 1.3180001 4282159544
-0.1690647 -0.18104354 1.314 4279514466
-0.16534562 -0.18090576 1.3130001 4280564581
-0.1621248 -0.1813191 1.3160001 4280367465
-0.15852618 -0.1813191 1.3160001 4279384685
-0.1550453 -0.18145688 1.317 4282290106
-0.15132895 -0.1813191 1.3160001 4282219177
-0.1478426 -0.18145688 1.317 4278861935
-0.14435077 -0.18159467 1.3180001 4280444567
-0.1405331 -0.1813191 1.3160001 4280447914
-0.13662234 -0.18090576 1.3130001 4281168037
-0.13272797 -0.1804924 1.3100001 4279449451
-0.12914576 -0.1804924 1.3100001 4279520129
-0.12575525 -0.18076797 1.312 4281825456
-0.12226069 -0.18090576 1.3130001 4279187314
-0.11894142 -0.1813191 1.3160001 4279450489
-0.11525516 -0.18118131 1.3150001 4281497253
-0.11157437 -0.18104354 1.314 4280509079
-0.1077347 -0.18063019 1.3110001 4281429930
-0.10422919 -0.18076797 1.312 4281430182
-0.10064152 -0.18076797 1.312 4280178321
-0.09712781 -0.18090576 1.3130001 4281625765
-0.093608648 -0.18104354 1.314 4281754776
-0.090084001 -0.18118131 1.3150001 4280298580
-0.087211594 -0.18269691 1.3260001 4278190080
-0.22890075 -0.18217699 1.3490001 4279781237
-0.22003654 -0.17799057 1.3180001 4283142846
-0.21577559 -0.17745039 1.314 4278204263
-0.21185949 -0.17718029 1.312 4281175479
-0.20827182 -0.17718029 1.312 4282160062
-0.20421611 -0.17677516 1.309 4278208379
-0.20109646 -0.17718029 1.312 4281700800
-0.19735824 -0.17704526 1.3110001 4278204520
-0.19392112 -0.17718029 1.312 4281961916
-0.18989822 -0.17677516 1.309 4282420413
-0.18603408 -0.17650507 1.307 4279264917
-0.18273927 -0.17677516 1.309 4280717757
-0.17943352 -0.17704526 1.3110001 4281702340
-0.17571446 -0.17691021 1.3100001 4280190382
-0.17160666 -0.17637002 1.3060001 4282161856
-0.16764939 -0.17596489 1.3030001 4279448673
-0.16408633 -0.17596489 1.3030001 4280499051
-0.16113925 -0.17664011 1.3080001 4280630633
-0.15780342 -0.17691021 1.3100001 4279778412
-0.15375032 -0.17637002 1.3060001 4281960112
-0.15017904 -0.17637002 1.3060001 4282219436
-0.14672002 -0.17650507 1.307 4278531948
-0.14347459 -0.17691021 1.3100001 4278862966
-0.13957201 -0.17650507 1.307 4279198348
-0.13568586 -0.17609993 1.304 4282748613
-0.1318161 -0.17569479 1.3010001 4279253369
-0.12835708 -0.17582984 1.302 4278861685
-0.12498846 -0.17609993 1.304 4282023348
-0.12170199 -0.17650507 1.307 4279124085
-0.11830875 -0.17677516 1.309 4279516282
-0.11464164 -0.17664011 1.3080001 4280968605
-0.11089507 -0.17637002 1.3060001 4281363875
-0.10707727 -0.17596489 1.3030001 4279191679
-0.10359365 -0.17609993 1.304 4281429930
-0.10010456 -0.17623498 1.3050001 4281229469
-0.096683964 -0.17650507 1.307 4280966808
-0.093109958 -0.17650507 1.307 4282150045
-0.089535959 -0.17650507 1.307 4280103770
-0.08648812 -0.17758544 1.3150001 4294311167
-0.22703426 -0.17703271 1.3380001 4280106601
-0.21870096 -0.173328 1.3100001 4278925158
-0.21495454 -0.17319569 1.309 4279255669
-0.21121357 -0.17306337 1.3080001 4280909742
-0.20731935 -0.17279875 1.3060001 4283082707
-0.20312405 -0.17226951 1.302 4278274940
-0.19971699 -0.17240183 1.3030001 4285972208
-0.19675609 -0.17293108 1.307 4278268774
-0.19347769 -0.17319569 1.309 4287218914
-0.18975314 -0.17306337 1.3080001 4286757599
-0.1857494 -0.17266645 1.3050001 4280575120
-0.18232046 -0.17279875 1.3060001 4283936978
-0.17888606 -0.17293108 1.307 4278206573
-0.17517793 -0.17279875 1.3060001 4283544023
-0.17094967 -0.1721372 1.3010001 4285772767
-0.1668774 -0.17160796 1.2970001 4279449447
-0.16333075 -0.17160796 1.2970001 4280040810
-0.16003048 -0.17187257 1.299 4281027190
-0.15671928 -0.1721372 1.3010001 4281159289
-0.15292622 -0.17187257 1.299 4279193207
-0.14960408 -0.1721372 1.3010001 4283015625
-0.14604649 -0.1721372 1.3010001 4279127163
-0.14259841 -0.17226951 1.302 4282417326
-0.13893129 -0.1721372 1.3010001 4281828526
-0.13516559 -0.17187257 1.299 4282880700
-0.13161346 -0.17187257 1.299 4280243852
-0.12796275 -0.17174026 1.2980001 4282150311
-0.1247009 -0.1721372 1.3010001 4282149793
-0.12123642 -0.17226951 1.302 4282018459
-0.11785686 -0.17253412 1.304 4282606997
-0.11411576 -0.17226951 1.302 4281224833
-0.11047052 -0.1721372 1.3010001 4281421699
-0.10658421 -0.17160796 1.2970001 4280893548
-0.10295811 -0.17147563 1.296 4282406784
-0.099490888 -0.17160796 1.2970001 4282404475
-0.096240133 -0.1721372 1.3010001 4281946244
-0.092896253 -0.17253412 1.304 4282998924
-0.089330442 -0.17253412 1.304 4280759131
-0.086159267 -0.173328 1.3100001 4292337393
-0.084026888 -0.17637117 1.3330001 4278190080
-0.22703426 -0.17337394 1.3380001 4280568181
-0.21769927 -0.16896832 1.304 4284455109
-0.2133124 -0.16832045 1.299 4280443538
-0.20943733 -0.16806129 1.2970001 4280450474
-0.20620814 -0.16832045 1.299 4283212752
-0.20218799 -0.16793171 1.296 4278273396
-0.19879735 -0.16806129 1.2970001 4283803599
-0.19525068 -0.16806129 1.2970001 4278991981
-0.19229525 -0.16857959 1.3010001 4286232029
-0.18873766 -0.16857959 1.3010001 4287679729
-0.18503772 -0.16845001 1.3000001 4282874787
-0.18148285 -0.16845001 1.3000001 4288730110
-0.17792799 -0.16845001 1.3000001 4280635776
-0.17410487 -0.16819087 1.2980001 4280243585
-0.17002988 -0.16767256 1.294 4287347689
-0.16623409 -0.1674134 1.2920001 4279910509
-0.16232331 -0.16702467 1.289 4280239216
-0.15867533 -0.16689509 1.2880001 4282145674
-0.15527375 -0.16702467 1.289 4281884039
-0.15198441 -0.16728382 1.291 4279650676
-0.14856917 -0.1674134 1.2920001 4279522174
-0.14503618 -0.1674134 1.2920001 4279190900
-0.14139366 -0.16728382 1.291 4279519354
-0.13797019 -0.1674134 1.2920001 4279848065
-0.13454126 -0.16754298 1.2930001 4280044415
-0.13100554 -0.16754298 1.2930001 4280044156
-0.12746982 -0.16754298 1.2930001 4280502396
-0.12412581 -0.16780213 1.2950001 4284115863
-0.12077084 -0.16806129 1.2970001 4286219178
-0.1171338 -0.16793171 1.296 4285958577
-0.11341458 -0.16767256 1.294 4283987610
-0.10970631 -0.1674134 1.2920001 4285367469
-0.10600896 -0.16715425 1.2900001 4282211467
-0.10240201 -0.16702467 1.289 4281618552
-0.099107347 -0.1674134 1.2920001 4282932102
-0.095722303 -0.16767256 1.294 4281751428
-0.092397571 -0.16806129 1.2970001 4281421432
-0.088850915 -0.16806129 1.2970001 4281814390
-0.085698873 -0.16883875 1.3030001 4286679456
-0.0828292 -0.1702641 1.314 4278190080
-0.22771299 -0.17022254 1.342 4280042613
-0.21719843 -0.165022 1.3010001 4281757856
-0.21265556 -0.16426094 1.2950001 4282222259
-0.20911437 -0.16426094 1.2950001 4282285742
-0.20604941 -0.16464147 1.2980001 4279979394
-0.20218799 -0.16438779 1.296 4279190389
-0.1984908 -0.16426094 1.2950001 4280309127
-0.19479907 -0.16413411 1.294 4279978622
-0.19140841 -0.16426094 1.2950001 4279911542
-0.18801229 -0.16438779 1.296 4279518065
-0.18461071 -0.16451463 1.2970001 4279648109
-0.18134324 -0.16476832 1.299 4279516782
-0.17751738 -0.16451463 1.2970001 4279846001
-0.17370246 -0.16426094 1.2950001 4280174966
-0.16976708 -0.16388042 1.2920001 4280043378
-0.16610542 -0.16375357 1.291 4280174966
-0.16232331 -0.16349989 1.289 4280174966
-0.15867533 -0.16337305 1.2880001 4280174453
-0.15527375 -0.16349989 1.289 4280305269
-0.15198441 -0.16375357 1.291 4280305271
-0.14845416 -0.16375357 1.291 4280305787
-0.14469941 -0.16349989 1.289 4280174459
-0.14095557 -0.1632462 1.2870001 4280108666
-0.13754304 -0.16337305 1.2880001 4280240765
-0.13412505 -0.16349989 1.289 4280240765
-0.13070159 -0.16362675 1.2900001 4280306558
-0.12707549 -0.16349989 1.289 4280438144
-0.12393411 -0.16400726 1.2930001 4280371838
-0.12049149 -0.16413411 1.294 4280175744
-0.11686266 -0.16400726 1.2930001 4280044415
-0.11297636 -0.16349989 1.289 4280044669
-0.10928174 -0.1632462 1.2870001 4280109948
-0.10576243 -0.1632462 1.2870001 4280568957
-0.10224312 -0.1632462 1.2870001 4280504190
-0.098953925 -0.16362675 1.2900001 4280373631
-0.095574364 -0.16388042 1.2920001 4280569470
-0.092112616 -0.16400726 1.2930001 4280832644
-0.088576891 -0.16400726 1.2930001 4280635010
-0.085106939 -0.16413411 1.294 4280959592
-0.082072772 -0.16514884 1.302 4294047231
-0.22737361 -0.16630462 1.34 4280239217
-0.21669759 -0.16109209 1.2980001 4279911542
-0.21167028 -0.15997511 1.289 4279780214
-0.20830698 -0.16009922 1.2900001 4279780218
-0.20493819 -0.16022332 1.291 4280240256
-0.20140794 -0.16022332 1.291 4280371840
-0.19772443 -0.16009922 1.2900001 4279912572
-0.19344419 -0.15947868 1.2850001 4279911289
-0.18993035 -0.15947868 1.2850001 4280108409
-0.18656158 -0.15960279 1.286 4279977080
-0.18332967 -0.159851 1.2880001 4280370810
-0.17994723 -0.15997511 1.289 4280306300
-0.17601185 -0.15960279 1.286 4280240507
-0.17236114 -0.15947868 1.2850001 4280240507
-0.1685845 -0.15923046 1.2830001 4280240507
-0.16520478 -0.15935457 1.284 4280109432
-0.16144182 -0.15910636 1.2820001 4280241018
-0.15805936 -0.15923046 1.2830001 4280108921
-0.15479191 -0.15947868 1.2850001 4280306300
-0.15127806 -0.15947868 1.2850001 4280372093
-0.14764923 -0.15935457 1.284 4280569472
-0.14380135 -0.15898225 1.281 4280437631
-0.14007939 -0.15873402 1.279 4280503424
-0.13668874 -0.15885814 1.2800001 4280503424
-0.13350073 -0.15923046 1.2830001 4280306560
-0.12989104 -0.15910636 1.2820001 4280372353
-0.12638539 -0.15910636 1.2820001 4280307330
-0.12307145 -0.15935457 1.284 4280307330
-0.11983968 -0.15972689 1.2870001 4280439427
-0.11623 -0.15960279 1.286 4280373380
-0.11253812 -0.15935457 1.284 4280373380
-0.1089421 -0.15923046 1.2830001 4280373380
-0.10543372 -0.15923046 1.2830001 4280439427
-0.10192534 -0.15923046 1.2830001 4280504709
-0.098647095 -0.15960279 1.286 4280242564
-0.095130518 -0.15960279 1.286 4280570502
-0.091542698 -0.15947868 1.2850001 4280702086
-0.087891839 -0.15923046 1.2830001 4280570500
-0.084515005 -0.15947868 1.2850001 4280828012
-0.081442416 -0.16034743 1.2920001 4294441727
-0.079778768 -0.16419478 1.3230001 4278190080
-0.22720394 -0.16251899 1.3390001 4280305269
-0.21686453 -0.15766406 1.299 4280305788
-0.21167028 -0.15645033 1.289 4280305788
-0.20830698 -0.1565717 1.2900001 4280174972
-0.20446196 -0.15632895 1.2880001 4280043388
-0.20093991 -0.15632895 1.2880001 4280240252
-0.19680478 -0.15584347 1.284 4280044158
-0.19299257 -0.15560071 1.2820001 4280109951
-0.18904352 -0.15523659 1.279 4280044158
-0.18583624 -0.15547934 1.281 4280109951
-0.18247566 -0.15560071 1.2820001 4280044415
-0.17938882 -0.15596484 1.2850001 4280044415
-0.17546438 -0.15560071 1.2820001 4280044415
-0.17209287 -0.15572208 1.2830001 4280307076
-0.1681903 -0.15535797 1.2800001 4280109697
-0.16456147 -0.15523659 1.279 4279978622
-0.16081215 -0.15499385 1.2770001 4280373380
-0.15756659 -0.15523659 1.279 4280110980
-0.1541896 -0.15535797 1.2800001 4280176773
-0.1505717 -0.15523659 1.279 4280242566
-0.14707427 -0.15523659 1.279 4280110980
-0.14346457 -0.15511522 1.2780001 4280373382
-0.13996987 -0.15511522 1.2780001 4280307587
-0.13658196 -0.15523659 1.279 4280241796
-0.13329262 -0.15547934 1.281 4280308359
-0.1296884 -0.15535797 1.2800001 4280439691
-0.12608965 -0.15523659 1.279 4280243338
-0.12287976 -0.15560071 1.2820001 4280243338
-0.11946723 -0.15572208 1.2830001 4280112268
-0.11595885 -0.15572208 1.2830001 4280309647
-0.11209989 -0.15523659 1.279 4280375438
-0.10868736 -0.15535797 1.2800001 4280046986
-0.10510501 -0.15523659 1.279 4280112779
-0.10168701 -0.15535797 1.2800001 4280178062
-0.098340265 -0.15560071 1.2820001 4280375438
-0.094908595 -0.15572208 1.2830001 4280572819
-0.091400221 -0.15572208 1.2830001 4280572303
-0.087754831 -0.15547934 1.281 4280637583
-0.084251925 -0.15547934 1.281 4281423241
-0.080938123 -0.15584347 1.284 4290562013
-0.078331538 -0.15766406 1.299 4278190080
-0.22703426 -0.15873885 1.3380001 4280437633
-0.21586286 -0.15340009 1.2930001 4280372351
-0.21019237 -0.15185779 1.2800001 4280241537
-0.20685367 -0.15197644 1.281 4280373123
-0.20287454 -0.15162051 1.2780001 4280438662
-0.1989118 -0.15126459 1.2750001 4280176003
-0.19511874 -0.15102732 1.273 4280110210
-0.19163771 -0.15102732 1.273 4280241796
-0.18815668 -0.15102732 1.273 4279979394
-0.18482073 -0.15114595 1.274 4279782015
-0.18147931 -0.15126459 1.2750001 4279913601
-0.1781324 -0.15138324 1.276 4280045444
-0.17436942 -0.15114595 1.274 4279979651
-0.17075154 -0.15102732 1.273 4280176519
-0.1670077 -0.15079004 1.271 4279782274
-0.16353214 -0.15079004 1.271 4280045959
-0.15980473 -0.15055276 1.2690001 4280045959
-0.15658101 -0.15079004 1.271 4279980682
-0.15298501 -0.15067141 1.2700001 4279783303
-0.14951217 -0.15067141 1.2700001 4279914889
-0.14603935 -0.15067141 1.2700001 4280045705
-0.14279103 -0.15090868 1.2720001 4280111498
-0.13931274 -0.15090868 1.2720001 4280308620
-0.13572764 -0.15079004 1.271 4280440463
-0.13225208 -0.15079004 1.271 4280308877
-0.12887785 -0.15090868 1.2720001 4280309647
-0.12539956 -0.15090868 1.2720001 4280441491
-0.12211295 -0.15114595 1.274 4280309905
-0.11881542 -0.15138324 1.276 4280244367
-0.11532619 -0.15138324 1.276 4280113551
-0.11148637 -0.15090868 1.2720001 4280179344
-0.10809298 -0.15102732 1.273 4279916172
-0.10452978 -0.15090868 1.2720001 4280113551
-0.10113092 -0.15102732 1.273 4280179344
-0.097726591 -0.15114595 1.274 4280245137
-0.094316795 -0.15126459 1.2750001 4280179344
-0.090901546 -0.15138324 1.276 4280572819
-0.087412313 -0.15138324 1.276 4280704403
-0.083857305 -0.15126459 1.2750001 4280834449
-0.080370806 -0.15126459 1.2750001 4286353060
-0.077306412 -0.15209508 1.2820001 4278190080
-0.21519506 -0.14940076 1.289 4280438916
-0.20920709 -0.14766219 1.274 4280439173
-0.20572332 -0.14766219 1.274 4280504966
-0.20176332 -0.14731447 1.271 4280570761
-0.19813174 -0.14719857 1.2700001 4280110980
-0.19450566 -0.14708267 1.2690001 4280111239
-0.19148718 -0.14743039 1.2720001 4280111239
-0.18756548 -0.14708267 1.2690001 4280111239
-0.18424043 -0.14719857 1.2700001 4280309131
-0.18062529 -0.14708267 1.2690001 4280045959
-0.17729479 -0.14719857 1.2700001 4279783301
-0.17382196 -0.14719857 1.2700001 4279718538
-0.17021501 -0.14708267 1.2690001 4280047505
-0.1666135 -0.14696677 1.268 4279981712
-0.16301748 -0.14685087 1.2670001 4279916178
-0.15955286 -0.14685087 1.2670001 4279850385
-0.15621144 -0.14696677 1.268 4279850898
-0.15262362 -0.14685087 1.2670001 4279916691
-0.149159 -0.14685087 1.2670001 4279850898
-0.14569438 -0.14685087 1.2670001 4279850385
-0.14267877 -0.14731447 1.271 4280047507
-0.13920321 -0.14731447 1.271 4280047764
-0.13562086 -0.14719857 1.2700001 4280047764
-0.13193992 -0.14696677 1.268 4280245145
-0.12837125 -0.14685087 1.2670001 4280311451
-0.12490663 -0.14685087 1.2670001 4280114072
-0.12163371 -0.14708267 1.2690001 4279983000
-0.11834984 -0.14731447 1.271 4279917461
-0.11487427 -0.14731447 1.271 4279851668
-0.11104813 -0.14685087 1.2670001 4279983254
-0.1074986 -0.14673495 1.266 4279983254
-0.10395452 -0.14661907 1.2650001 4280114840
-0.10065426 -0.14685087 1.2670001 4280114840
-0.097266339 -0.14696677 1.268 4280180633
-0.093946934 -0.14719857 1.2700001 4280180379
-0.090687826 -0.14754629 1.273 4280245658
-0.087275296 -0.14766219 1.274 4280180379
-0.083659992 -0.14743039 1.2720001 4280639903
-0.080118656 -0.14731447 1.271 4280961912
-0.077004902 -0.14800991 1.2770001 4293324024
-0.21419337 -0.14519696 1.2830001 4280242314
-0.20789339 -0.14327307 1.266 4280177292
-0.2044315 -0.14327307 1.266 4280046476
-0.20065212 -0.14304674 1.2640001 4280112528
-0.19672768 -0.14270721 1.261 4279850126
-0.19343272 -0.14282039 1.2620001 4279981712
-0.19058394 -0.14327307 1.266 4280179091
-0.18697424 -0.14315991 1.2650001 4279981712
-0.18337002 -0.14304674 1.2640001 4279982225
-0.17977126 -0.14293356 1.263 4279850385
-0.17617796 -0.14282039 1.2620001 4279850898
-0.17259015 -0.14270721 1.261 4279916691
-0.16900781 -0.14259405 1.2600001 4279916691
-0.16582511 -0.14282039 1.2620001 4280048277
-0.1622455 -0.14270721 1.261 4279916691
-0.15892321 -0.14282039 1.2620001 4279850900
-0.15534906 -0.14270721 1.261 4279851415
-0.1520213 -0.14282039 1.2620001 4279719828
-0.14845264 -0.14270721 1.261 4279785621
-0.14500442 -0.14270721 1.261 4279785875
-0.14178072 -0.14293356 1.263 4279917461
-0.13832703 -0.14293356 1.263 4279983254
-0.13465977 -0.14270721 1.261 4279983254
-0.13121155 -0.14270721 1.261 4280114586
-0.12756069 -0.14248088 1.2590001 4280115100
-0.12421653 -0.14259405 1.2600001 4280115100
-0.12077105 -0.14259405 1.2600001 4279918235
-0.11741868 -0.14270721 1.261 4279984028
-0.11406084 -0.14282039 1.2620001 4280115614
-0.11052225 -0.14270721 1.261 4279984283
-0.10707403 -0.14270721 1.261 4280050076
-0.10362582 -0.14270721 1.261 4280050074
-0.10009816 -0.14259405 1.2600001 4279984283
-0.096806087 -0.14282039 1.2620001 4280115869
-0.093281165 -0.14270721 1.261 4280115869
-0.090117902 -0.14315991 1.2650001 4280247455
-0.086727254 -0.14327307 1.266 4279918747
-0.083199598 -0.14315991 1.2650001 4280180893
-0.07967741 -0.14304674 1.2640001 4281094276
-0.076522492 -0.14361258 1.2690001 4293521403
-0.074836969 -0.14712085 1.3000001 4278190080
-0.21369253 -0.14135727 1.2800001 4280243601
-0.20723653 -0.13936944 1.2620001 4280244112
-0.20378558 -0.13936944 1.2620001 4279981714
-0.2001759 -0.139259 1.261 4279981971
-0.19657166 -0.13914858 1.2600001 4279981971
-0.19312619 -0.13914858 1.2600001 4280047764
-0.18983124 -0.139259 1.261 4280179350
-0.18623522 -0.13914858 1.2600001 4280114070
-0.18278973 -0.13914858 1.2600001 4280049047
-0.17934425 -0.13914858 1.2600001 4279851925
-0.17575917 -0.13903813 1.2590001 4279983511
-0.17217955 -0.1389277 1.258 4279917718
-0.16873954 -0.1389277 1.258 4279917720
-0.16556232 -0.13914858 1.2600001 4279917721
-0.16198817 -0.13903813 1.2590001 4279917721
-0.15854542 -0.13903813 1.2590001 4279852442
-0.15497948 -0.1389277 1.258 4279983514
-0.15153947 -0.1389277 1.258 4279983514
-0.14821717 -0.13903813 1.2590001 4279917721
-0.14477444 -0.13903813 1.2590001 4279984028
-0.14133169 -0.13903813 1.2590001 4279918235
-0.13788894 -0.13903813 1.2590001 4279984028
-0.13444619 -0.13903813 1.2590001 4279852955
-0.13100344 -0.13903813 1.2590001 4279853214
-0.12735806 -0.13881727 1.2570001 4280116129
-0.12392078 -0.13881727 1.2570001 4279984543
-0.1204835 -0.13881727 1.2570001 4279984802
-0.11704622 -0.13881727 1.2570001 4280049825
-0.11360895 -0.13881727 1.2570001 4280116388
-0.11017167 -0.13881727 1.2570001 4280181668
-0.10690421 -0.13903813 1.2590001 4280247974
-0.10354364 -0.13914858 1.2600001 4280182183
-0.10009816 -0.13914858 1.2600001 4280050597
-0.096575961 -0.13903813 1.2590001 4280247972
-0.092911288 -0.13870683 1.256 4280247455
-0.089761712 -0.13914858 1.2600001 4280050597
-0.086453237 -0.13936944 1.2620001 4280247972
-0.083068058 -0.13947988 1.263 4280511397
-0.079614371 -0.13947988 1.263 4281296800
-0.076341592 -0.13981117 1.266 4287734460
-0.073743209 -0.14146772 1.281 4278190080
-0.21302474 -0.1374263 1.276 4279917207
-0.20641547 -0.13537998 1.2570001 4279786135
-0.20297819 -0.13537998 1.2570001 4279851676
-0.19922343 -0.13516459 1.2550001 4279852444
-0.1953236 -0.13484149 1.2520001 4279983262
-0.19189999 -0.13484149 1.2520001 4279721371
-0.18847638 -0.13484149 1.2520001 4279787164
-0.18520057 -0.13494918 1.253 4279787164
-0.18191931 -0.13505688 1.2540001 4279853214
-0.1783479 -0.13494918 1.253 4279787423
-0.17492156 -0.13494918 1.253 4279919009
-0.17108461 -0.13462608 1.25 4279853216
-0.16766648 -0.13462608 1.25 4279853218
-0.16451113 -0.13484149 1.2520001 4279853218
-0.1612162 -0.13494918 1.253 4279919011
-0.15778986 -0.13494918 1.253 4279919011
-0.15424031 -0.13484149 1.2520001 4279787941
-0.15081671 -0.13484149 1.2520001 4279656355
-0.14751083 -0.13494918 1.253 4279787425
-0.1438545 -0.13473378 1.251 4279853988
-0.14032137 -0.13462608 1.25 4279656609
-0.13690324 -0.13462608 1.25 4279788195
-0.13359189 -0.13473378 1.251 4279984800
-0.13027507 -0.13484149 1.2520001 4280050593
-0.12675014 -0.13473378 1.251 4280050593
-0.12332927 -0.13473378 1.251 4280182179
-0.1197167 -0.13451837 1.2490001 4280116640
-0.1163013 -0.13451837 1.2490001 4280379301
-0.11288589 -0.13451837 1.2490001 4280248226
-0.10964578 -0.13473378 1.251 4280247713
-0.10639475 -0.13494918 1.253 4280445605
-0.10313275 -0.13516459 1.2550001 4280051874
-0.099542059 -0.13494918 1.253 4280182432
-0.096039005 -0.13484149 1.2520001 4280510107
-0.092393473 -0.13451837 1.2490001 4280838045
-0.089191794 -0.13484149 1.2520001 4280838559
-0.085836694 -0.13494918 1.253 4281168806
-0.08254189 -0.13516459 1.2550001 4284391893
-0.079110086 -0.13516459 1.2550001 4281036451
-0.075859174 -0.13548769 1.258 4282734196
-0.072822139 -0.1362416 1.2650001 4278190080
-0.21285781 -0.1338321 1.2750001 4280114848
-0.20575862 -0.13152283 1.253 4279852192
-0.20233227 -0.13152283 1.253 4280049057
-0.19858845 -0.13131291 1.251 4279852703
-0.19485557 -0.13110296 1.2490001 4279983778
-0.19144017 -0.13110296 1.2490001 4279918500
-0.18802476 -0.13110296 1.2490001 4279918498
-0.18460935 -0.13110296 1.2490001 4279853218
-0.18104887 -0.13099802 1.248 4279984804
-0.17763621 -0.13099802 1.248 4279985574
-0.17436314 -0.13110296 1.2490001 4279919781
-0.17081088 -0.13099802 1.248 4279788452
-0.16726407 -0.13089305 1.2470001 4280051624
-0.16398554 -0.13099802 1.248 4280051626
-0.16070153 -0.13110296 1.2490001 4279920040
-0.15728612 -0.13110296 1.2490001 4279985833
-0.15387072 -0.13110296 1.2490001 4279920040
-0.15045533 -0.13110296 1.2490001 4279920040
-0.14703992 -0.13110296 1.2490001 4279788454
-0.14339454 -0.13089305 1.2470001 4279854247
-0.13987234 -0.13078807 1.2460001 4280051626
-0.13668419 -0.13099802 1.248 4279986603
-0.13348511 -0.13120794 1.25 4280051624
-0.13006696 -0.13120794 1.25 4280051363
-0.12644619 -0.13099802 1.248 4280052644
-0.12293494 -0.13089305 1.2470001 4279987364
-0.11942915 -0.13078807 1.2460001 4279789725
-0.11611507 -0.13089305 1.2470001 4280314789
-0.11270513 -0.13089305 1.2470001 4280907438
-0.10938285 -0.13099802 1.248 4281104304
-0.10614 -0.13120794 1.25 4281760952
-0.10280404 -0.13131291 1.251 4282022067
-0.09930373 -0.13120794 1.25 4283006640
-0.095732175 -0.13099802 1.248 4285569981
-0.092245534 -0.13089305 1.2470001 4285572551
-0.088978082 -0.13110296 1.2490001 4283337919
-0.085699685 -0.13131291 1.251 4282945718
-0.082344577 -0.13141789 1.2520001 4282946231
-0.078857943 -0.13131291 1.251 4282353340
-0.075617976 -0.1316278 1.2540001 4281096066
-0.07247673 -0.13215263 1.2590001 4293455612
-0.23008853 -0.13862638 1.3560001 4278190080
-0.21202305 -0.12983444 1.2700001 4280050344
-0.20477334 -0.12748311 1.2470001 4280444065
-0.20120193 -0.12738088 1.2460001 4281685641
-0.19763599 -0.12727864 1.245 4285035157
-0.19391951 -0.12707418 1.243 4286351017
-0.19036724 -0.12697195 1.2420001 4285828020
-0.18697096 -0.12697195 1.2420001 4281098144
-0.18372253 -0.12707418 1.243 4280247465
-0.18017845 -0.12697195 1.2420001 4279985321
-0.17678219 -0.12697195 1.2420001 4279592362
-0.17352553 -0.12707418 1.243 4279788971
-0.17012653 -0.12707418 1.243 4279855275
-0.1665934 -0.12697195 1.2420001 4280052654
-0.16319714 -0.12697195 1.2420001 4279724201
-0.15967222 -0.12686971 1.2410001 4279855787
-0.1562787 -0.12686971 1.2410001 4279855787
-0.15288517 -0.12686971 1.2410001 4279987374
-0.14973256 -0.12707418 1.243 4279921581
-0.14621584 -0.12697195 1.2420001 4279789995
-0.1425896 -0.12676749 1.24 4279855788
-0.13908654 -0.12666526 1.2390001 4279921581
-0.13602705 -0.12697195 1.2420001 4279921581
-0.13273758 -0.12707418 1.243 4279921580
-0.12944265 -0.1271764 1.2440001 4279986860
-0.12583826 -0.12697195 1.2420001 4283143636
-0.12244201 -0.12697195 1.2420001 4282749130
-0.11894991 -0.12686971 1.2410001 4281433782
-0.1157426 -0.12707418 1.243 4280908463
-0.11243399 -0.1271764 1.2440001 4281105585
-0.10903227 -0.1271764 1.2440001 4280646321
-0.10563053 -0.1271764 1.2440001 4280776626
-0.10222881 -0.1271764 1.2440001 4280709295
-0.09890651 -0.12727864 1.245 4280840111
-0.095502049 -0.12727864 1.245 4280840109
-0.09209758 -0.12727864 1.245 4280709293
-0.08869312 -0.12727864 1.245 4280644013
-0.085220151 -0.1271764 1.2440001 4280578990
-0.081818424 -0.1271764 1.2440001 4280381357
-0.078479722 -0.12727864 1.245 4280840879
-0.075135566 -0.12738088 1.2460001 4281757604
-0.071843497 -0.12758535 1.248 4292930815
-0.069253311 -0.12911882 1.263 4278190080
-0.22924012 -0.13442089 1.3510001 4278190080
-0.21118832 -0.12586413 1.2650001 4280180389
-0.20411649 -0.12367519 1.243 4283464624
-0.20039453 -0.12347619 1.2410001 4289905380
-0.19715975 -0.12357569 1.2420001 4289179085
-0.19360748 -0.12347619 1.2410001 4288787152
-0.19021395 -0.12347619 1.2410001 4289446111
-0.18682042 -0.12347619 1.2410001 4287080919
-0.1834269 -0.12347619 1.2410001 4280182953
-0.17974323 -0.1232772 1.2390001 4279790509
-0.17635518 -0.1232772 1.2390001 4279921581
-0.17310673 -0.12337669 1.24 4280184242
-0.16998966 -0.12357569 1.2420001 4279987374
-0.16632515 -0.12337669 1.24 4279987374
-0.16280295 -0.1232772 1.2390001 4280053166
-0.15915757 -0.1230782 1.2370001 4279921580
-0.15577498 -0.1230782 1.2370001 4279987373
-0.15263878 -0.1232772 1.2390001 4279921581
-0.14949164 -0.12347619 1.2410001 4280118959
-0.14609812 -0.12347619 1.2410001 4279986860
-0.14247461 -0.1232772 1.2390001 4280118189
-0.13919881 -0.12337669 1.24 4280184239
-0.13613658 -0.12367519 1.243 4280184493
-0.13284437 -0.12377468 1.2440001 4279921068
-0.12944265 -0.12377468 1.2440001 4280184240
-0.12593959 -0.12367519 1.243 4280185267
-0.12254059 -0.12367519 1.243 4280185267
-0.11914159 -0.12367519 1.243 4280710573
-0.11583573 -0.12377468 1.2440001 4280645034
-0.11252437 -0.12387418 1.245 4280906923
-0.10903227 -0.12377468 1.2440001 4280579500
-0.10563053 -0.12377468 1.2440001 4280644266
-0.10222881 -0.12377468 1.2440001 4281300400
-0.09890651 -0.12387418 1.245 4281497522
-0.095502049 -0.12387418 1.245 4281299373
-0.09209758 -0.12387418 1.245 4281233580
-0.088764362 -0.12397368 1.2460001 4280642211
-0.08542566 -0.12407318 1.2470001 4280970406
-0.081949964 -0.12397368 1.2460001 4280509598
-0.078542762 -0.12397368 1.2460001 4280640414
-0.075075261 -0.12387418 1.245 4280704657
-0.071843497 -0.12417268 1.248 4289510865
-0.06881465 -0.12486915 1.2550001 4278190080
-0.22924012 -0.13072658 1.3510001 4278190080
-0.21018665 -0.1218244 1.2590001 4280509858
-0.20329542 -0.11979238 1.238 4287610600
-0.19942565 -0.11950209 1.235 4285242567
-0.19652477 -0.11979238 1.238 4285043396
-0.19298345 -0.11969561 1.2370001 4283862218
-0.18960087 -0.11969561 1.2370001 4281497782
-0.18576665 -0.11940533 1.2340001 4279922348
-0.18239227 -0.11940533 1.2340001 4279922095
-0.17872773 -0.11921179 1.2320001 4280184753
-0.1756435 -0.11940533 1.2340001 4280184240
-0.17254831 -0.11959884 1.2360001 4280511665
-0.16944219 -0.11979238 1.238 4280577457
-0.16592275 -0.11969561 1.2370001 4280512945
-0.16240875 -0.11959884 1.2360001 4280579249
-0.15890023 -0.11950209 1.235 4280644015
-0.15552312 -0.11950209 1.235 4281036977
-0.15226918 -0.11959884 1.2360001 4280971438
-0.14888933 -0.11959884 1.2360001 4280840109
-0.14550948 -0.11959884 1.2360001 4280839339
-0.14224462 -0.11969561 1.2370001 4281168302
-0.13886203 -0.11969561 1.2370001 4280708264
-0.13580802 -0.11998589 1.24 4280772776
-0.1326308 -0.12017943 1.2420001 4280115616
-0.12944265 -0.12037295 1.2440001 4280049307
-0.12604092 -0.12037295 1.2440001 4279983001
-0.12273777 -0.12046971 1.245 4279917207
-0.1193333 -0.12046971 1.245 4279456657
-0.11592884 -0.12046971 1.245 4279588496
-0.11243399 -0.12037295 1.2440001 4279391117
-0.10911991 -0.12046971 1.245 4279653006
-0.10571544 -0.12046971 1.245 4279785105
-0.10239315 -0.12056648 1.2460001 4279521420
-0.099065401 -0.12066324 1.2470001 4279980944
-0.095732175 -0.12076001 1.248 4279586954
-0.092245534 -0.12066324 1.2470001 4279849356
-0.088835597 -0.12066324 1.2470001 4280112526
-0.08542566 -0.12066324 1.2470001 4279849609
-0.082081504 -0.12076001 1.248 4280045959
-0.078731872 -0.12085676 1.2490001 4280308105
-0.075316466 -0.12085676 1.2490001 4280304239
-0.072073765 -0.12114706 1.2520001 4293916671
-0.068869486 -0.12153411 1.256 4278190080
-0.2096858 -0.11809956 1.256 4280250033
-0.20280278 -0.11612497 1.235 4280513197
-0.19910271 -0.11593691 1.233 4280841130
-0.19588982 -0.11603094 1.2340001 4281037741
-0.19251542 -0.11603094 1.2340001 4281169844
-0.18929429 -0.11612497 1.235 4280776117
-0.18576665 -0.11603094 1.2340001 4280644790
-0.18224445 -0.11593691 1.233 4280775349
-0.17872773 -0.11584288 1.2320001 4280380332
-0.17550115 -0.11593691 1.233 4280182181
-0.17254831 -0.11621899 1.2360001 4279984289
-0.16930534 -0.11631303 1.2370001 4279852957
-0.16605687 -0.11640705 1.238 4279458197
-0.16280295 -0.11650109 1.2390001 4279655063
-0.15954356 -0.1165951 1.24 4279523477
-0.15640461 -0.11678316 1.2420001 4279457167
-0.15288517 -0.11668914 1.2410001 4279456910
-0.14949164 -0.11668914 1.2410001 4279587215
-0.14621584 -0.11678316 1.2420001 4279521420
-0.14293456 -0.1168772 1.243 4279587213
-0.13953558 -0.1168772 1.243 4279784331
-0.1362461 -0.11697122 1.2440001 4279719564
-0.13316473 -0.11725331 1.2470001 4279586956
-0.12985885 -0.11734734 1.248 4279850126
-0.12644619 -0.11734734 1.248 4279718542
-0.1231321 -0.11744136 1.2490001 4279718542
-0.11981256 -0.11753539 1.25 4279718538
-0.11639442 -0.11753539 1.25 4279652747
-0.11288589 -0.11744136 1.2490001 4279783563
-0.10938285 -0.11734734 1.248 4279784333
-0.10605509 -0.11744136 1.2490001 4279718538
-0.10272187 -0.11753539 1.25 4279717768
-0.099462613 -0.11772345 1.2520001 4279652745
-0.096039005 -0.11772345 1.2520001 4279717768
-0.092541426 -0.11762942 1.251 4279849096
-0.089120559 -0.11762942 1.251 4280111498
-0.085768186 -0.11772345 1.2520001 4280243338
-0.08241035 -0.11781748 1.253 4280242312
-0.079047047 -0.1179115 1.2540001 4280372869
-0.075738579 -0.11809956 1.256 4281948294
-0.07247673 -0.11838165 1.2590001 4294047743
-0.069362983 -0.11894582 1.2650001 4292863728
-0.22618584 -0.12169465 1.3330001 4278190080
-0.20868412 -0.11411726 1.25 4281104564
-0.20263858 -0.11265656 1.2340001 4280446636
-0.19894122 -0.11247396 1.2320001 4279986334
-0.19588982 -0.11265656 1.2340001 4279984279
-0.19251542 -0.11265656 1.2340001 4279851928
-0.18929429 -0.11274786 1.235 4279457170
-0.18576665 -0.11265656 1.2340001 4279326353
-0.18239227 -0.11265656 1.2340001 4279587215
-0.17887281 -0.11256526 1.233 4279718801
-0.17578584 -0.11274786 1.235 4279784335
-0.17282753 -0.11302173 1.238 4279849609
-0.16971594 -0.11320432 1.24 4280111750
-0.16632515 -0.11320432 1.24 4280110980
-0.16319714 -0.11338691 1.2420001 4280176522
-0.15992954 -0.1134782 1.243 4279848069
-0.15665649 -0.11356949 1.2440001 4280176003
-0.15313154 -0.1134782 1.243 4280439426
-0.14973256 -0.1134782 1.243 4280439426
-0.14645129 -0.11356949 1.2440001 4280373372
-0.14316455 -0.11366078 1.245 4280701821
-0.13976009 -0.11366078 1.245 4280964982
-0.13646515 -0.11375208 1.2460001 4281491324
-0.13316473 -0.11384337 1.2470001 4281097354
-0.12996291 -0.11402596 1.2490001 4280175752
-0.1265475 -0.11402596 1.2490001 4280044165
-0.12332927 -0.11420855 1.251 4280373384
-0.12000425 -0.11429985 1.2520001 4280176003
-0.11648753 -0.11420855 1.251 4280110980
-0.11306666 -0.11420855 1.251 4280243077
-0.10955814 -0.11411726 1.25 4280176771
-0.10630982 -0.11429985 1.2520001 4280241794
-0.10288621 -0.11429985 1.2520001 4280045185
-0.099621505 -0.11448243 1.2540001 4279979392
-0.096269131 -0.11457372 1.2550001 4279979905
-0.092837319 -0.11457372 1.2550001 4280110978
-0.089334272 -0.11448243 1.2540001 4280176001
-0.085905202 -0.11448243 1.2540001 4280373380
-0.082607664 -0.11466502 1.256 4280504709
-0.079299189 -0.1148476 1.258 4280438914
-0.075919479 -0.1149389 1.2590001 4281816706
-0.072591864 -0.11512148 1.261 4293521403
-0.069417812 -0.11557795 1.266 4292995314
-0.070592634 -0.1237031 1.355 4292995312
-0.20885107 -0.11078768 1.251 4279850128
-0.20313121 -0.10954785 1.2370001 4279980429
-0.19958715 -0.10945928 1.2360001 4280111752
-0.19636604 -0.10954785 1.2370001 4279587203
-0.19313945 -0.10963641 1.238 4279914638
-0.1899074 -0.10972497 1.2390001 4280111241
-0.18651935 -0.10972497 1.2390001 4280373123
-0.18313129 -0.10972497 1.2390001 4280438916
-0.17959815 -0.10963641 1.238 4279780214
-0.17635518 -0.10972497 1.2390001 4280044156
-0.17324632 -0.10990208 1.2410001 4280503687
-0.17012653 -0.11007921 1.243 4280570502
-0.16699581 -0.11025632 1.245 4281096844
-0.16372274 -0.11034488 1.2460001 4281689494
-0.16044421 -0.11043344 1.2470001 4281164169
-0.15703428 -0.11043344 1.2470001 4282083976
-0.15374753 -0.110522 1.248 4282281605
-0.15045533 -0.11061055 1.2490001 4282544774
-0.14727537 -0.11078768 1.251 4281623675
-0.1438545 -0.11078768 1.251 4281952386
-0.14043362 -0.11078768 1.251 4281163893
-0.13701276 -0.11078768 1.251 4280637549
-0.13359189 -0.11078768 1.251 4280833921
-0.13027507 -0.11087624 1.2520001 4279847554
-0.12685145 -0.11087624 1.2520001 4280109961
-0.12342785 -0.11087624 1.2520001 4280110212
-0.1201001 -0.11096479 1.253 4280176003
-0.11667377 -0.11096479 1.253 4280241796
-0.11342818 -0.11114191 1.2550001 4280440454
-0.10990873 -0.11105336 1.2540001 4280242564
-0.10664947 -0.11123048 1.256 4280308355
-0.10329711 -0.11131903 1.2570001 4280440707
-0.099939272 -0.11140759 1.258 4280768906
-0.096422553 -0.11131903 1.2570001 4280241794
-0.092985272 -0.11131903 1.2570001 4280176771
-0.089619234 -0.11140759 1.258 4280373380
-0.086179219 -0.11140759 1.258 4280373380
-0.082804978 -0.11149615 1.2590001 4280438144
-0.079425268 -0.11158472 1.2600001 4280504707
-0.076040082 -0.11167327 1.261 4281619581
-0.072764568 -0.11193895 1.2640001 4292599533
-0.069691971 -0.11255886 1.271 4292929517
-0.071113609 -0.12088344 1.365 4293061105
-0.22448902 -0.11354619 1.3230001 4278190080
-0.20935191 -0.10762428 1.2540001 4280241798
-0.20345964 -0.10633691 1.2390001 4283857590
-0.19991009 -0.10625108 1.238 4282869668
-0.19684227 -0.10642273 1.24 4284123070
-0.19360748 -0.10650855 1.2410001 4284123581
-0.19036724 -0.10659438 1.2420001 4283595689
-0.18682042 -0.10650855 1.2410001 4285105838
-0.1834269 -0.10650855 1.2410001 4284712103
-0.18017845 -0.10659438 1.2420001 4285170350
-0.17692453 -0.10668021 1.243 4284511398
-0.17380473 -0.10685185 1.245 4284247457
-0.17053713 -0.10693768 1.2460001 4281815434
-0.16726407 -0.10702351 1.2470001 4281292683
-0.16385414 -0.10702351 1.2470001 4280503679
-0.16057287 -0.10710934 1.248 4280767103
-0.15716021 -0.10710934 1.248 4280832636
-0.15399392 -0.10728098 1.25 4280635514
-0.15057579 -0.10728098 1.25 4280831611
-0.14727537 -0.10736681 1.251 4280503418
-0.1438545 -0.10736681 1.251 4280699516
-0.14054589 -0.10745264 1.2520001 4280634485
-0.13723181 -0.10753845 1.253 4280635257
-0.13369867 -0.10745264 1.2520001 4280502648
-0.13017102 -0.10736681 1.251 4280241535
-0.12685145 -0.10745264 1.2520001 4280372355
-0.12342785 -0.10745264 1.2520001 4280896895
-0.12019596 -0.10762428 1.2540001 4287865788
-0.11676688 -0.10762428 1.2540001 4285034894
-0.11342818 -0.10771011 1.2550001 4284311953
-0.10990873 -0.10762428 1.2540001 4283654282
-0.10664947 -0.10779593 1.256 4283131798
-0.10321493 -0.10779593 1.256 4282936987
-0.099939272 -0.10796758 1.258 4281490572
-0.096499257 -0.10796758 1.258 4280438399
-0.093133211 -0.1080534 1.2590001 4280306813
-0.089761712 -0.10813923 1.2600001 4280306558
-0.086316228 -0.10813923 1.2600001 4280503424
-0.082936518 -0.10822505 1.261 4280766338
-0.0794883 -0.10822505 1.261 4280635265
-0.076100387 -0.10831088 1.2620001 4281421434
-0.072822139 -0.10856836 1.2650001 4290231504
-0.069746807 -0.10916913 1.2720001 4292995314
-0.070280045 -0.11577763 1.3490001 4292995312
-0.22720394 -0.11125787 1.3390001 4278190080
-0.21085444 -0.10494301 1.263 4280109179
-0.20460914 -0.10353048 1.2460001 4280832902
-0.20071749 -0.10328121 1.243 4280634752
-0.19747724 -0.1033643 1.2440001 4279978362
-0.19423153 -0.10344739 1.245 4279846777
-0.19067377 -0.1033643 1.2440001 4280242048
-0.18742259 -0.10344739 1.245 4280241794
-0.18387032 -0.1033643 1.2440001 4280438916
-0.18061367 -0.10344739 1.245 4280176003
-0.17735153 -0.10353048 1.2460001 4280372606
-0.17436314 -0.10377975 1.2490001 4280699516
-0.17094773 -0.10377975 1.2490001 4281686413
-0.16766648 -0.10386284 1.25 4280371840
-0.16411693 -0.10377975 1.2490001 4280568190
-0.16095886 -0.10394593 1.251 4280437371
-0.157538 -0.10394593 1.251 4280437371
-0.1544867 -0.1041952 1.2540001 4280568960
-0.15093717 -0.10411211 1.253 4280436093
-0.14762856 -0.1041952 1.2540001 4279911542
-0.14431447 -0.1042783 1.2550001 4280173174
-0.14110717 -0.10444447 1.2570001 4280369775
-0.13766989 -0.10444447 1.2570001 4280632434
-0.13412583 -0.10436139 1.256 4280827503
-0.13037913 -0.10411211 1.253 4280896630
-0.12715542 -0.1042783 1.2550001 4281423237
-0.12382219 -0.10436139 1.256 4281092986
-0.1204835 -0.10444447 1.2570001 4284310397
-0.11704622 -0.10444447 1.2570001 4289507015
-0.11369932 -0.10452756 1.258 4286284711
-0.11017167 -0.10444447 1.2570001 4284771732
-0.10681929 -0.10452756 1.258 4282998924
-0.10346146 -0.10461066 1.2590001 4283396510
-0.1001776 -0.10477683 1.261 4283002269
-0.096806087 -0.10485993 1.2620001 4280503677
-0.093429118 -0.10494301 1.263 4280372091
-0.090046667 -0.10502611 1.2640001 4280503679
-0.086590245 -0.10502611 1.2640001 4280437886
-0.083133832 -0.10502611 1.2640001 4280634236
-0.079740442 -0.1051092 1.2650001 4280634752
-0.076462187 -0.10535847 1.268 4281421181
-0.073167533 -0.10560774 1.271 4288126389
-0.070075803 -0.10618936 1.2780001 4292929521
-0.070436344 -0.11233805 1.3520001 4292929519
-0.2294098 -0.10864099 1.3520001 4278190080
-0.21185613 -0.10197147 1.2690001 4280307587
-0.20510177 -0.10036435 1.2490001 4280504455
-0.20104045 -0.10004292 1.245 4280635263
-0.19763599 -0.10004292 1.245 4280898946
-0.19454354 -0.10020364 1.2470001 4282674840
-0.19098035 -0.10012329 1.2460001 4281556112
-0.18772367 -0.10020364 1.2470001 4280109179
-0.18416594 -0.10012329 1.2460001 4280503166
-0.18075874 -0.10012329 1.2460001 4281293453
-0.17763621 -0.100284 1.248 4280239992
-0.17450275 -0.1004447 1.25 4283199648
-0.17094773 -0.10036435 1.2490001 4283331488
-0.16766648 -0.1004447 1.25 4280238447
-0.16411693 -0.10036435 1.2490001 4289838814
-0.16108753 -0.10060542 1.2520001 4289509071
-0.15766391 -0.10060542 1.2520001 4282997115
-0.15436351 -0.10068577 1.253 4286025402
-0.15093717 -0.10068577 1.253 4286223292
-0.14751083 -0.10068577 1.253 4286290367
-0.14431447 -0.10084648 1.2550001 4286748343
-0.14099491 -0.10092685 1.256 4286750387
-0.13777941 -0.10108755 1.258 4286816181
-0.13412583 -0.10092685 1.256 4287077559
-0.13058724 -0.10084648 1.2550001 4285826983
-0.12715542 -0.10084648 1.2550001 4282934671
-0.12401936 -0.10108755 1.258 4280829297
-0.12077105 -0.10124826 1.2600001 4288259258
-0.11732557 -0.10124826 1.2600001 4288259006
-0.1137897 -0.10116791 1.2590001 4281748077
-0.11025931 -0.10108755 1.258 4283064964
-0.10673439 -0.10100719 1.2570001 4282736779
-0.10337929 -0.10108755 1.258 4282147724
-0.10001871 -0.10116791 1.2590001 4281621897
-0.096806087 -0.10140897 1.2620001 4280635002
-0.093503088 -0.10156969 1.2640001 4280569211
-0.090117902 -0.10165004 1.2650001 4280437371
-0.086727254 -0.1017304 1.266 4280503164
-0.083265364 -0.1017304 1.266 4280765822
-0.079866514 -0.10181075 1.2670001 4280765309
-0.076582797 -0.10205182 1.2700001 4281158778
-0.073225103 -0.10221253 1.2720001 4286746025
-0.070075803 -0.10269466 1.2780001 4292930034
-0.070957318 -0.10944455 1.3620001 4293061105
-0.23127629 -0.10579778 1.363 4278190080
-0.21335864 -0.099199958 1.2780001 4280173432
-0.20608705 -0.09741468 1.2550001 4280633723
-0.20168637 -0.096948944 1.2490001 4283327635
-0.1984297 -0.097026572 1.25 4284311953
-0.19516757 -0.097104192 1.251 4284577946
-0.19174671 -0.097104192 1.251 4285498531
-0.18832584 -0.097104192 1.251 4286024097
-0.18460935 -0.096948944 1.2490001 4285238948
-0.18119396 -0.096948944 1.2490001 4284647078
-0.17820555 -0.097181819 1.2520001 4283199385
-0.17478195 -0.097181819 1.2520001 4282739350
-0.17135835 -0.097181819 1.2520001 4281489034
-0.16793473 -0.097181819 1.2520001 4280106348
-0.16451113 -0.097181819 1.2520001 4287933396
-0.16134486 -0.097337052 1.2540001 4289314012
-0.15791579 -0.097337052 1.2540001 4280764533
-0.15460989 -0.09741468 1.2550001 4281422202
-0.15141901 -0.097569913 1.2570001 4281092720
-0.14809945 -0.09764754 1.258 4280435564
-0.14477444 -0.09772516 1.2590001 4280370803
-0.14133169 -0.09772516 1.2590001 4280173170
-0.13799846 -0.097802788 1.2600001 4280568181
-0.13444619 -0.09772516 1.2590001 4280371062
-0.13100344 -0.09772516 1.2590001 4280306552
-0.12766202 -0.097802788 1.2600001 4280372342
-0.12431512 -0.097880401 1.261 4280633974
-0.12096275 -0.097958021 1.2620001 4281356157
-0.11760492 -0.098035648 1.263 4281684093
-0.11424161 -0.098113269 1.2640001 4282077819
-0.11069755 -0.098035648 1.263 4282013309
-0.10707403 -0.097880401 1.261 4281749884
-0.10370799 -0.097958021 1.2620001 4281356666
-0.10033649 -0.098035648 1.263 4281291388
-0.096959509 -0.098113269 1.2640001 4280568182
-0.093577057 -0.098190896 1.2650001 4280699768
-0.090117902 -0.098190896 1.2650001 4280633721
-0.086795762 -0.098346129 1.2670001 4280896379
-0.083396904 -0.098423757 1.268 4280962170
-0.080055624 -0.09857899 1.2700001 4280962169
-0.076703399 -0.098734237 1.2720001 4281422202
-0.073282674 -0.098811865 1.273 4285167246
-0.070240296 -0.099432833 1.281 4292798448
-0.21452726 -0.096229471 1.2850001 4280238195
-0.20657969 -0.094207525 1.258 4282801293
-0.20184784 -0.093608432 1.25 4285039007
-0.1984297 -0.093608432 1.25 4283854733
-0.19516757 -0.093683317 1.251 4286286505
-0.19189999 -0.093758211 1.2520001 4283328903
-0.18847638 -0.093758211 1.2520001 4281946746
-0.18490496 -0.093683317 1.251 4281290099
-0.18133901 -0.093608432 1.25 4281290873
-0.17820555 -0.093758211 1.2520001 4280502386
-0.17492156 -0.093833089 1.253 4280567928
-0.17135835 -0.093758211 1.2520001 4280503418
-0.16806887 -0.093833089 1.253 4280633725
-0.16464253 -0.093833089 1.253 4280633723
-0.16147351 -0.093982868 1.2550001 4280503164
-0.1580417 -0.093982868 1.2550001 4280633725
-0.15473309 -0.094057754 1.256 4280567928
-0.15141901 -0.094132632 1.2570001 4280568182
-0.14798173 -0.094132632 1.2570001 4280830332
-0.14465944 -0.094207525 1.258 4280436596
-0.14121942 -0.094207525 1.258 4280764793
-0.13788894 -0.094282411 1.2590001 4280502648
-0.13455299 -0.094357304 1.2600001 4280502389
-0.13121155 -0.094432183 1.261 4280764793
-0.12786464 -0.094507068 1.2620001 4280436595
-0.12451229 -0.094581962 1.263 4280830324
-0.12105861 -0.094581962 1.263 4280960370
-0.11769803 -0.094656847 1.2640001 4281025645
-0.11424161 -0.094656847 1.2640001 4280631140
-0.11078519 -0.094656847 1.2640001 4280763242
-0.10715894 -0.094507068 1.2620001 4280173672
-0.10379018 -0.094581962 1.263 4280895086
-0.10033649 -0.094581962 1.263 4281488254
-0.096959509 -0.094656847 1.2640001 4280698738
-0.093577057 -0.094731741 1.2650001 4280896119
-0.090117902 -0.094731741 1.2650001 4280896119
-0.086795762 -0.094881505 1.2670001 4280896119
-0.083396904 -0.094956398 1.268 4280698740
-0.080055624 -0.095106162 1.2700001 4281092983
-0.076643094 -0.095181055 1.271 4281355380
-0.073225103 -0.095255941 1.2720001 4282337886
-0.070185468 -0.095855035 1.2800001 4292074212
-0.21636368 -0.093509294 1.296 4280238446
-0.20756496 -0.091200426 1.2640001 4281224572
-0.20233227 -0.090406746 1.253 4283130767
-0.1987472 -0.090334602 1.2520001 4283986583
-0.1953236 -0.090334602 1.2520001 4281551737
-0.19220653 -0.090478905 1.2540001 4280962170
-0.18892801 -0.090551056 1.2550001 4280961659
-0.18534838 -0.090478905 1.2540001 4280568182
-0.18191931 -0.090478905 1.2540001 4280502135
-0.17849024 -0.090478905 1.2540001 4280502137
-0.17520076 -0.090551056 1.2550001 4280633975
-0.17204268 -0.090695359 1.2570001 4280764539
-0.16887367 -0.090839669 1.2590001 4280764282
-0.16529952 -0.09076751 1.258 4280829814
-0.16185951 -0.09076751 1.258 4280632435
-0.15841949 -0.09076751 1.258 4280566376
-0.15522587 -0.090911821 1.2600001 4280303718
-0.1517804 -0.090911821 1.2600001 4281746278
-0.14833491 -0.090911821 1.2600001 4282994276
-0.14488943 -0.090911821 1.2600001 4282669956
-0.14166845 -0.091056116 1.2620001 4280436596
-0.13832703 -0.091128275 1.263 4280502135
-0.13498013 -0.091200426 1.2640001 4280370549
-0.13173182 -0.091344729 1.266 4280436342
-0.12847257 -0.091489039 1.268 4280436596
-0.12490663 -0.09141688 1.2670001 4280698738
-0.1212503 -0.091272585 1.2650001 4284578467
-0.11779115 -0.091272585 1.2650001 4284447650
-0.11442237 -0.091344729 1.266 4284051350
-0.11113577 -0.091489039 1.268 4283525004
-0.10758351 -0.09141688 1.2670001 4283526032
-0.10411888 -0.09141688 1.2670001 4283394446
-0.1007337 -0.091489039 1.268 4283196554
-0.097266339 -0.091489039 1.268 4282012793
-0.094020903 -0.091705494 1.271 4281946747
-0.090402871 -0.091561191 1.2690001 4282209919
-0.08706978 -0.091705494 1.271 4282473091
-0.083594218 -0.091705494 1.271 4282802056
-0.080181696 -0.091777645 1.2720001 4283395220
-0.076763704 -0.091849796 1.273 4281881723
-0.0733978 -0.091994099 1.2750001 4281219407
-0.21769927 -0.09052071 1.304 4280435825
-0.20789339 -0.087882847 1.266 4281159551
-0.20233227 -0.08698041 1.253 4280697457
-0.1987472 -0.086910993 1.2520001 4280629865
-0.1956356 -0.087049827 1.2540001 4280694375
-0.19220653 -0.087049827 1.2540001 4281221230
-0.18907852 -0.087188661 1.256 4281024882
-0.18564399 -0.087188661 1.256 4280698225
-0.18220945 -0.087188661 1.256 4280699767
-0.17863256 -0.087119244 1.2550001 4280698998
-0.17534035 -0.087188661 1.256 4280502389
-0.17217955 -0.087327495 1.258 4280501619
-0.16900781 -0.087466329 1.2600001 4280632684
-0.16543092 -0.08739692 1.2590001 4288133837
-0.16185951 -0.087327495 1.258 4287606718
-0.15854542 -0.08739692 1.2590001 4287342276
-0.15522587 -0.087466329 1.2600001 4288526539
-0.1517804 -0.087466329 1.2600001 4287670967
-0.14821717 -0.08739692 1.2590001 4287930289
-0.14477444 -0.08739692 1.2590001 4288132811
-0.1415562 -0.087535754 1.261 4280830584
-0.13832703 -0.087674588 1.263 4280764280
-0.13508692 -0.087813422 1.2650001 4280633205
-0.13173182 -0.087882847 1.266 4280698998
-0.12837125 -0.087952256 1.2670001 4280698740
-0.12480804 -0.087882847 1.266 4280763502
-0.12134615 -0.087882847 1.266 4283064714
-0.11779115 -0.087813422 1.2650001 4283722383
-0.11451276 -0.087952256 1.2670001 4283129730
-0.11122343 -0.08809109 1.2690001 4283063937
-0.10775334 -0.08809109 1.2690001 4283064707
-0.10428324 -0.08809109 1.2690001 4282670208
-0.10089259 -0.088160515 1.2700001 4282538622
-0.097419761 -0.088160515 1.2700001 4282407036
-0.094168857 -0.088368766 1.273 4283064968
-0.090616591 -0.088299349 1.2720001 4282670210
-0.087206796 -0.088368766 1.273 4282999175
-0.083659992 -0.088299349 1.2720001 4283328140
-0.080307767 -0.088438183 1.274 4281881207
-0.076884307 -0.0885076 1.2750001 4281354096
-0.073455371 -0.088577017 1.276 4288521396
-0.2192018 -0.087555066 1.3130001 4280828012
-0.20887867 -0.084821053 1.2720001 4281093494
-0.20313968 -0.083887488 1.258 4286552247
-0.19954091 -0.083820805 1.2570001 4289705409
-0.19610363 -0.083820805 1.2570001 4290166734
-0.19266635 -0.083820805 1.2570001 4289443528
-0.1896807 -0.084020853 1.2600001 4287471531
-0.18623522 -0.084020853 1.2600001 4288721095
-0.18278973 -0.084020853 1.2600001 4280830322
-0.1792019 -0.08395417 1.2590001 4280502899
-0.17589878 -0.084020853 1.2600001 4280764278
-0.17272702 -0.084154218 1.2620001 4280567154
-0.16927606 -0.084154218 1.2620001 4281026422
