# .PCD v0.7 - Point Cloud Data file format
VERSION 0.7
FIELDS x y z rgba
SIZE 4 4 4 4
TYPE F F F U
COUNT 1 1 1 1
WIDTH 1068
HEIGHT 1
VIEWPOINT 0 0 0 1 0 0 0
POINTS 1068
DATA ascii
-0.17944215 -0.026317813 1.4680001 4281744959
-0.17901772 -0.026443304 1.475 4281810752
-0.17797865 -0.02647916 1.4770001 4281942339
-0.17681646 -0.026497088 1.478 4282073925
-0.17577131 -0.026532942 1.48 4282336841
-0.17601953 -0.026766002 1.493 4282468426
-0.17484088 -0.02678393 1.4940001 4282533707
-0.17366047 -0.026801858 1.4950001 4282862672
-0.17293951 -0.026891496 1.5000001 4283389016
-0.17186657 -0.02692735 1.5020001 4283652188
-0.17079018 -0.026963206 1.5040001 4283915360
-0.20783882 -0.024062833 1.4100001 4286086780
-0.20676169 -0.024079898 1.411 4286547331
-0.20568281 -0.024096964 1.4120001 4286876296
-0.20445742 -0.024096964 1.4120001 4287271052
-0.20323201 -0.024096964 1.4120001 4287468431
-0.20200661 -0.024096964 1.4120001 4287599760
-0.20063901 -0.024079898 1.411 4287665553
-0.19941448 -0.024079898 1.411 4287665553
-0.1983304 -0.024096964 1.4120001 4287599760
-0.19682582 -0.024062833 1.4100001 4286942341
-0.19546342 -0.024045767 1.409 4286679169
-0.18782566 -0.02481373 1.4540001 4280955696
-0.18656382 -0.02481373 1.4540001 4280955696
-0.18530196 -0.02481373 1.4540001 4281087283
-0.18429326 -0.024847861 1.4560001 4281416248
-0.18315537 -0.024864927 1.457 4281416249
-0.18201576 -0.024881992 1.4580001 4281350456
-0.18137029 -0.024967322 1.4630001 4281482043
-0.18034685 -0.025001455 1.465 4281613373
-0.1793199 -0.025035586 1.4670001 4281679167
-0.17877498 -0.025137981 1.473 4281744960
-0.17773764 -0.025172113 1.475 4281810497
-0.1765772 -0.025189178 1.4760001 4282073412
-0.17541501 -0.025206244 1.4770001 4282402121
-0.17590165 -0.025462231 1.4920001 4282467914
-0.17472385 -0.025479298 1.493 4282533707
-0.17342815 -0.025479298 1.493 4282862672
-0.17270891 -0.025564628 1.498 4283389016
-0.17163773 -0.025598759 1.5000001 4283717981
-0.17056306 -0.02563289 1.5020001 4283981153
-0.23707607 -0.024208795 1.4940001 4283785058
-0.23499042 -0.024127776 1.4890001 4283785057
-0.23307039 -0.024062959 1.485 4283587678
-0.23068906 -0.023949532 1.478 4283127127
-0.22894076 -0.023900921 1.475 4282798164
-0.22580852 -0.023706473 1.4630001 4282469198
-0.22423188 -0.023674063 1.4610001 4282468170
-0.22250612 -0.02362545 1.4580001 4282336327
-0.2201786 -0.023512023 1.4510001 4282007617
-0.2186176 -0.023479616 1.4490001 4281941824
-0.21706007 -0.023447208 1.447 4281810751
-0.21535689 -0.023398595 1.4440001 4281942336
-0.21425198 -0.0234148 1.4450001 4282073408
-0.20619503 -0.023074515 1.424 4283849817
-0.2049592 -0.023074515 1.424 4284310367
-0.20358032 -0.023058312 1.4230001 4284704868
-0.20220317 -0.023042109 1.4220001 4284770661
-0.2009691 -0.023042109 1.4220001 4284770661
-0.19891971 -0.023090718 1.4250001 4283784277
-0.19796048 -0.023123128 1.427 4283257933
-0.19699776 -0.023155537 1.429 4282863175
-0.19644256 -0.023236556 1.434 4282073659
-0.1954703 -0.023268964 1.4360001 4281481522
-0.19435932 -0.023285167 1.437 4281613108
-0.19378416 -0.023366189 1.442 4281613109
-0.19266623 -0.023382392 1.4430001 4281547059
-0.19167922 -0.0234148 1.4450001 4281415475
-0.19095232 -0.023479616 1.4490001 4281415475
-0.1898257 -0.023495821 1.45 4281349940
-0.18856733 -0.023495821 1.45 4281613112
-0.18782566 -0.023560636 1.4540001 4281416247
-0.18669212 -0.023576841 1.455 4281416247
-0.18555684 -0.023593044 1.4560001 4281547834
-0.1845464 -0.02362545 1.4580001 4281482042
-0.1834068 -0.023641655 1.4590001 4281481785
-0.18226543 -0.02365786 1.46 4281481786
-0.18137029 -0.023706473 1.4630001 4281547325
-0.18034685 -0.02373888 1.465 4281678910
-0.17919767 -0.023755083 1.4660001 4281679167
-0.17841087 -0.023819901 1.47 4281744704
-0.17725565 -0.023836104 1.4710001 4281876033
-0.17609866 -0.023852307 1.4720001 4282073412
-0.17493995 -0.023868512 1.473 4282336585
-0.17436899 -0.023965735 1.4790001 4282402634
-0.1733195 -0.023998143 1.4810001 4282665550
-0.1723827 -0.024046756 1.4840001 4282862929
-0.17213245 -0.024192592 1.493 4283257687
-0.1710656 -0.024225 1.4950001 4283652445
-0.17010884 -0.024273613 1.498 4283849824
-0.23723476 -0.022936571 1.4950001 4283916390
-0.23530604 -0.022875203 1.4910001 4283850596
-0.23354125 -0.022829177 1.488 4283521629
-0.23068906 -0.022675755 1.478 4283127127
-0.22894076 -0.022629729 1.475 4282929748
-0.22580852 -0.022445623 1.4630001 4282666576
-0.22423188 -0.022414936 1.4610001 4282402377
-0.22265874 -0.022384252 1.4590001 4282270534
-0.22033034 -0.022276858 1.452 4282270534
-0.21891937 -0.022261515 1.4510001 4282138948
-0.21736009 -0.02223083 1.4490001 4281810238
-0.21565516 -0.022184804 1.4460001 4281612858
-0.21440025 -0.022184804 1.4460001 4281678651
-0.21329275 -0.022200147 1.447 4281678651
-0.20677422 -0.021908645 1.4280001 4281546807
-0.20553493 -0.021908645 1.4280001 4281612343
-0.20415258 -0.021893304 1.427 4281678391
-0.20262976 -0.021862619 1.4250001 4281809976
-0.20139308 -0.021862619 1.4250001 4281941562
-0.20015639 -0.021862619 1.4250001 4282007355
-0.19933848 -0.021908645 1.4280001 4281744694
-0.19837666 -0.021939328 1.4300001 4281678901
-0.19727348 -0.021954672 1.4310001 4281678901
-0.19671653 -0.022031382 1.4360001 4281547315
-0.19560643 -0.022046724 1.437 4281481522
-0.19449458 -0.022062067 1.4380001 4281349937
-0.19364975 -0.022108093 1.4410001 4281283889
-0.19266623 -0.022138778 1.4430001 4281678647
-0.19154657 -0.022154121 1.4440001 4281612854
-0.19082053 -0.022215487 1.4480001 4281678647
-0.18969479 -0.02223083 1.4490001 4281613368
-0.18856733 -0.022246175 1.45 4281547831
-0.18782566 -0.022307541 1.4540001 4281482040
-0.18669212 -0.022322884 1.455 4281482040
-0.18555684 -0.022338226 1.4560001 4281482040
-0.18479955 -0.022399595 1.46 4281547577
-0.18353249 -0.022399595 1.46 4281612858
-0.18239027 -0.022414936 1.4610001 4281612858
-0.18149427 -0.022460964 1.4640001 4281678397
-0.18034685 -0.022476306 1.465 4281744446
-0.17919767 -0.022491647 1.4660001 4281679167
-0.17841087 -0.022553017 1.47 4281679168
-0.17725565 -0.022568358 1.4710001 4281744961
-0.17597903 -0.022568358 1.4710001 4281942340
-0.17529625 -0.022645069 1.4760001 4282139719
-0.17425109 -0.022675755 1.478 4282402891
-0.17320247 -0.02270644 1.48 4282666063
-0.17215037 -0.022737123 1.4820001 4282863442
-0.17190187 -0.022875203 1.4910001 4283192407
-0.17095117 -0.022921229 1.4940001 4283521372
-0.16999528 -0.022967255 1.4970001 4283718751
-0.2377108 -0.021691585 1.498 4284179561
-0.23562171 -0.021619182 1.493 4283982182
-0.23369819 -0.021561259 1.4890001 4283587422
-0.23068906 -0.021401977 1.478 4282995542
-0.22894076 -0.021358537 1.475 4282732369
-0.22580852 -0.021184772 1.4630001 4282534990
-0.22423188 -0.02115581 1.4610001 4282337097
-0.22281136 -0.02114133 1.46 4282271304
-0.22048208 -0.021039966 1.4530001 4282205511
-0.21907023 -0.021025488 1.452 4282073925
-0.21751009 -0.020996528 1.45 4282007617
-0.21580429 -0.020953085 1.447 4282007616
-0.21469679 -0.020967565 1.4480001 4282007616
-0.21344015 -0.020967565 1.4480001 4281810237
-0.20735341 -0.02073588 1.432 4281415477
-0.2058228 -0.020706918 1.4300001 4281218098
-0.20458177 -0.020706918 1.4300001 4281217585
-0.20319854 -0.02069244 1.429 4281349171
-0.20181707 -0.020677958 1.4280001 4281678390
-0.20071822 -0.02069244 1.429 4281941563
-0.19975726 -0.0207214 1.4310001 4282007867
-0.19865409 -0.02073588 1.432 4281942074
-0.19754919 -0.020750361 1.4330001 4281942074
-0.19685352 -0.020808283 1.437 4281942074
-0.19560643 -0.020808283 1.437 4281810233
-0.19449458 -0.020822762 1.4380001 4281612854
-0.19364975 -0.020866202 1.4410001 4281678647
-0.19253272 -0.020880684 1.442 4281678647
-0.19141392 -0.020895163 1.4430001 4281678647
-0.19068874 -0.020953085 1.447 4281678647
-0.18956389 -0.020967565 1.4480001 4281678648
-0.18843728 -0.020982046 1.4490001 4281678648
-0.18782566 -0.021054449 1.4540001 4281547576
-0.18669212 -0.021068929 1.455 4281416247
-0.18555684 -0.021083409 1.4560001 4281350455
-0.18479955 -0.02114133 1.46 4281416248
-0.1836582 -0.02115581 1.4610001 4281547065
-0.18251511 -0.02117029 1.462 4281547065
-0.18161824 -0.021213733 1.465 4281612603
-0.18046995 -0.021228211 1.4660001 4281678652
-0.1793199 -0.021242693 1.4670001 4281613117
-0.1782895 -0.021271653 1.4690001 4281678910
-0.17713514 -0.021286134 1.47 4281744961
-0.17597903 -0.021300614 1.4710001 4281876547
-0.17505872 -0.021344054 1.4740001 4282073926
-0.1741332 -0.021387497 1.4770001 4282337098
-0.17308544 -0.021416457 1.4790001 4282600270
-0.17203422 -0.021445418 1.4810001 4282928978
-0.17178656 -0.021575741 1.4900001 4283323480
-0.17083675 -0.021619182 1.493 4283718494
-0.16988172 -0.021662625 1.4960001 4283981667
-0.22549981 -0.019896684 1.4610001 4282469197
-0.22407842 -0.019883066 1.46 4282271562
-0.22250612 -0.019855827 1.4580001 4282139719
-0.22078557 -0.019814974 1.455 4282008132
-0.21937199 -0.019801354 1.4540001 4281876546
-0.21796012 -0.019787734 1.4530001 4281875776
-0.21640086 -0.019760499 1.4510001 4281875776
-0.21514161 -0.019760499 1.4510001 4281876031
-0.21329275 -0.019706024 1.447 4281744445
-0.21174391 -0.019678788 1.4450001 4281612858
-0.21019852 -0.019651549 1.4430001 4281678651
-0.20836702 -0.019597076 1.439 4281678649
-0.20683032 -0.01956984 1.437 4281612856
-0.20544016 -0.019556221 1.4360001 4281547063
-0.20390953 -0.019528983 1.434 4281612856
-0.20266503 -0.019528983 1.434 4281875771
-0.20142053 -0.019528983 1.434 4282072894
-0.20045523 -0.019556221 1.4360001 4282073405
-0.19934772 -0.01956984 1.437 4282007612
-0.19823848 -0.019583456 1.4380001 4281941819
-0.19726449 -0.019610696 1.4400001 4282073405
-0.19601479 -0.019610696 1.4400001 4281810233
-0.19476508 -0.019610696 1.4400001 4281678647
-0.19351538 -0.019610696 1.4400001 4281810233
-0.19239919 -0.019624313 1.4410001 4281612854
-0.19128127 -0.019637931 1.442 4281612855
-0.19055696 -0.019692406 1.4460001 4281612855
-0.18943296 -0.019706024 1.447 4281612856
-0.18830724 -0.019719642 1.4480001 4281678649
-0.18769647 -0.019787734 1.4530001 4281612856
-0.18656382 -0.019801354 1.4540001 4281481528
-0.18555684 -0.019828591 1.4560001 4281415992
-0.18479955 -0.019883066 1.46 4281415992
-0.18353249 -0.019883066 1.46 4281547065
-0.18239027 -0.019896684 1.4610001 4281547065
-0.18137029 -0.019923922 1.4630001 4281612858
-0.18010063 -0.019923922 1.4630001 4281678395
-0.17883097 -0.019923922 1.4630001 4281678397
-0.17768267 -0.019937539 1.4640001 4281678654
-0.17641214 -0.019937539 1.4640001 4281810754
-0.17562014 -0.019992014 1.4680001 4282008133
-0.1744649 -0.020005632 1.4690001 4282205512
-0.17342582 -0.020032868 1.4710001 4282468427
-0.17238326 -0.020060107 1.473 4282665806
-0.22519113 -0.018612044 1.4590001 4282403150
-0.22377145 -0.018599287 1.4580001 4282402892
-0.22235352 -0.018586531 1.457 4282139719
-0.22063383 -0.01854826 1.4540001 4281942340
-0.21937199 -0.01854826 1.4540001 4281876547
-0.21811013 -0.01854826 1.4540001 4281744960
-0.21654999 -0.018522747 1.452 4281613118
-0.21514161 -0.01850999 1.4510001 4281744190
-0.21329275 -0.018458964 1.447 4281744190
-0.21174391 -0.01843345 1.4450001 4281678651
-0.21034418 -0.018420693 1.4440001 4281744444
-0.20807742 -0.018331397 1.437 4281744442
-0.20683032 -0.018331397 1.437 4281678649
-0.20544016 -0.01831864 1.4360001 4281547063
-0.20390953 -0.018293126 1.434 4281481270
-0.20266503 -0.018293126 1.434 4281678649
-0.20142053 -0.018293126 1.434 4281744442
-0.20045523 -0.01831864 1.4360001 4281941820
-0.19934772 -0.018331397 1.437 4282007613
-0.19823848 -0.018344153 1.4380001 4282007613
-0.19740148 -0.018382423 1.4410001 4282007613
-0.19601479 -0.018369667 1.4400001 4281810234
-0.19476508 -0.018369667 1.4400001 4281744440
-0.19364975 -0.018382423 1.4410001 4281810234
-0.19239919 -0.018382423 1.4410001 4281678648
-0.19128127 -0.01839518 1.442 4281612856
-0.19055696 -0.018446207 1.4460001 4281547063
-0.18943296 -0.018458964 1.447 4281547063
-0.18830724 -0.01847172 1.4480001 4281547064
-0.18769647 -0.018535502 1.4530001 4281481272
-0.18656382 -0.01854826 1.4540001 4281481272
-0.18542939 -0.018561017 1.455 4281547065
-0.1845464 -0.018599287 1.4580001 4281547065
-0.1834068 -0.018612044 1.4590001 4281547065
-0.1821406 -0.018612044 1.4590001 4281547065
-0.18099838 -0.018624801 1.46 4281547066
-0.17973132 -0.018624801 1.46 4281612859
-0.17858648 -0.018637557 1.4610001 4281744190
-0.17731856 -0.018637557 1.4610001 4281875776
-0.17617114 -0.018650314 1.462 4281942083
-0.17526124 -0.018688584 1.465 4282139462
-0.17422737 -0.018714098 1.4670001 4282336841
-0.17307213 -0.018726856 1.4680001 4282599756
-0.17203218 -0.018752368 1.47 4282796879
-0.22488244 -0.017330851 1.457 4282666322
-0.22346449 -0.017318955 1.4560001 4282534477
-0.2222009 -0.017318955 1.4560001 4282205512
-0.22063383 -0.017295167 1.4540001 4282073926
-0.21937199 -0.017295167 1.4540001 4282073926
-0.21811013 -0.017295167 1.4540001 4282007620
-0.21669912 -0.01728327 1.4530001 4281875777
-0.21528988 -0.017271377 1.452 4281809983
-0.21329275 -0.017211903 1.447 4281809983
-0.21159735 -0.017176218 1.4440001 4281678651
-0.21019852 -0.017164322 1.4430001 4281678651
-0.20807742 -0.017092954 1.437 4281678651
-0.20668639 -0.017081058 1.4360001 4281612858
-0.20529708 -0.017069163 1.4350001 4281547064
-0.20376733 -0.017045373 1.4330001 4281612856
-0.20252371 -0.017045373 1.4330001 4281612856
-0.20142053 -0.017057268 1.434 4281612856
-0.20045523 -0.017081058 1.4360001 4281744442
-0.19934772 -0.017092954 1.437 4281941821
-0.19837634 -0.017116742 1.439 4282007614
-0.19740148 -0.017140532 1.4410001 4281941821
-0.1961509 -0.017140532 1.4410001 4281876028
-0.19476508 -0.017128639 1.4400001 4281810235
-0.19364975 -0.017140532 1.4410001 4281744442
-0.19253272 -0.017152429 1.442 4281678649
-0.19128127 -0.017152429 1.442 4281678649
-0.19055696 -0.017200006 1.4460001 4281547063
-0.18943296 -0.017211903 1.447 4281547063
-0.18830724 -0.017223796 1.4480001 4281547063
-0.18756731 -0.017271377 1.452 4281415479
-0.18643549 -0.01728327 1.4530001 4281481272
-0.18542939 -0.017307062 1.455 4281547065
-0.18441983 -0.017330851 1.457 4281547065
-0.18315537 -0.017330851 1.457 4281612858
-0.18201576 -0.017342744 1.4580001 4281612602
-0.18075043 -0.017342744 1.4580001 4281612604
-0.17948511 -0.017342744 1.4580001 4281678397
-0.17821978 -0.017342744 1.4580001 4281809983
-0.17707583 -0.017354641 1.4590001 4281941569
-0.17580964 -0.017354641 1.4590001 4282073156
-0.17490235 -0.017390326 1.462 4282204742
-0.17387107 -0.017414115 1.4640001 4282336328
-0.17283633 -0.017437905 1.4660001 4282533707
-0.17168109 -0.0174498 1.4670001 4282599500
-0.22898971 -0.016097238 1.4590001 4284047976
-0.22741134 -0.016075172 1.457 4283455838
-0.22568125 -0.016042072 1.4540001 4282995287
-0.223802 -0.015997941 1.45 4282732115
-0.22254361 -0.015997941 1.45 4282600270
-0.22128524 -0.015997941 1.45 4282337098
-0.22002685 -0.015997941 1.45 4282139719
-0.21876848 -0.015997941 1.45 4282073926
-0.21751009 -0.015997941 1.45 4282073156
-0.21625172 -0.015997941 1.45 4281941570
-0.21484506 -0.015986906 1.4490001 4281875776
-0.21299794 -0.015942775 1.4450001 4281744190
-0.21145083 -0.015920708 1.4430001 4281809983
-0.20990717 -0.015898643 1.4410001 4281678397
-0.20807742 -0.015854511 1.437 4281612858
-0.20654245 -0.015832443 1.4350001 4281547065
-0.20515402 -0.015821412 1.434 4281678651
-0.20362513 -0.015799345 1.432 4281744444
-0.20252371 -0.015810378 1.4330001 4281744442
-0.20128009 -0.015810378 1.4330001 4281678650
-0.20031562 -0.015832443 1.4350001 4281678651
-0.199209 -0.015843477 1.4360001 4281876029
-0.19810063 -0.015854511 1.437 4281941822
-0.19712751 -0.015876576 1.439 4281941821
-0.19574253 -0.015865542 1.4380001 4281941821
-0.19449458 -0.015865542 1.4380001 4281876028
-0.1932466 -0.015865542 1.4380001 4281678649
-0.19199863 -0.015865542 1.4380001 4281678649
-0.19088332 -0.015876576 1.439 4281612856
-0.18937093 -0.015854511 1.437 4281481270
-0.18799292 -0.015843477 1.4360001 4281481270
-0.18778704 -0.015931742 1.4440001 4281547063
-0.18627553 -0.015909676 1.442 4281415479
-0.18489577 -0.015898643 1.4410001 4281481272
-0.18466474 -0.015986906 1.4490001 4281547065
-0.18328066 -0.015975874 1.4480001 4281612858
-0.18214971 -0.015986906 1.4490001 4281612858
-0.1808922 -0.015986906 1.4490001 4281612859
-0.17963469 -0.015986906 1.4490001 4281678397
-0.17837718 -0.015986906 1.4490001 4281809983
-0.17724189 -0.015997941 1.45 4281875777
-0.17610489 -0.016008973 1.4510001 4281941570
-0.17496614 -0.016020007 1.452 4282007363
-0.17418455 -0.016064137 1.4560001 4282073156
-0.17315848 -0.016086204 1.4580001 4282204742
-0.17201106 -0.016097238 1.4590001 4282336328
-0.22883277 -0.014829663 1.4580001 4283981670
-0.22709918 -0.014799151 1.455 4283323739
-0.22552602 -0.014778807 1.4530001 4283126360
-0.22349332 -0.01472795 1.4480001 4282994774
-0.22223668 -0.01472795 1.4480001 4282797649
-0.22098003 -0.01472795 1.4480001 4282468684
-0.21957164 -0.01471778 1.447 4282205512
-0.21831585 -0.01471778 1.447 4282008133
-0.21706007 -0.01471778 1.447 4282007363
-0.21580429 -0.01471778 1.447 4281941570
-0.21440025 -0.014707608 1.4460001 4281941569
-0.21270314 -0.014677094 1.4430001 4281809983
-0.21130429 -0.014666924 1.442 4281744190
-0.20990717 -0.014656752 1.4410001 4281678397
-0.20793262 -0.014605896 1.4360001 4281612858
-0.20654245 -0.014595725 1.4350001 4281678651
-0.20515402 -0.014585554 1.434 4281744444
-0.20376733 -0.014575382 1.4330001 4281876030
-0.20252371 -0.014575382 1.4330001 4281810237
-0.20128009 -0.014575382 1.4330001 4281744444
-0.20031562 -0.014595725 1.4350001 4281678651
-0.19907026 -0.014595725 1.4350001 4281744444
-0.19796276 -0.014605896 1.4360001 4281810237
-0.19685352 -0.014616068 1.437 4281876030
-0.1954703 -0.014605896 1.4360001 4281941821
-0.19408882 -0.014595725 1.4350001 4281876028
-0.19284345 -0.014595725 1.4350001 4281744442
-0.19173162 -0.014605896 1.4360001 4281612856
-0.19035272 -0.014595725 1.4350001 4281481270
-0.18910736 -0.014595725 1.4350001 4281415477
-0.18773109 -0.014585554 1.434 4281481270
-0.18726687 -0.014646582 1.4400001 4281547063
-0.18588799 -0.01463641 1.439 4281481272
-0.18451084 -0.014626238 1.4380001 4281481272
-0.18415497 -0.014697438 1.4450001 4281481272
-0.18290094 -0.014697438 1.4450001 4281481272
-0.1816469 -0.014697438 1.4450001 4281547066
-0.18051769 -0.014707608 1.4460001 4281612860
-0.17938673 -0.01471778 1.447 4281744190
-0.17813097 -0.01471778 1.447 4281809984
-0.17711966 -0.014738122 1.4490001 4281941570
-0.17598352 -0.014748294 1.45 4281941570
-0.17472513 -0.014748294 1.45 4281941570
-0.17406492 -0.014799151 1.455 4282007363
-0.17303972 -0.014819493 1.457 4282073156
-0.17201106 -0.014839835 1.4590001 4282073156
-0.22851884 -0.013554503 1.4560001 4283586912
-0.22694311 -0.013535884 1.4540001 4283060568
-0.22537081 -0.013517266 1.452 4283060567
-0.22318462 -0.013461409 1.4460001 4282994774
-0.22192971 -0.013461409 1.4460001 4282863186
-0.2206748 -0.013461409 1.4460001 4282600014
-0.21926816 -0.0134521 1.4450001 4282271305
-0.21786323 -0.01344279 1.4440001 4282139462
-0.21646005 -0.013433482 1.4430001 4282007620
-0.21520774 -0.013433482 1.4430001 4281941826
-0.21395543 -0.013433482 1.4430001 4282007362
-0.21255574 -0.013424171 1.442 4281941825
-0.21115775 -0.013414862 1.4410001 4281875776
-0.20976152 -0.013405553 1.4400001 4281744190
-0.20793262 -0.013368315 1.4360001 4281678908
-0.20654245 -0.013359006 1.4350001 4281613115
-0.20529708 -0.013359006 1.4350001 4281678651
-0.20376733 -0.013340387 1.4330001 4281744444
-0.20252371 -0.013340387 1.4330001 4281744444
-0.20128009 -0.013340387 1.4330001 4281744444
-0.20017605 -0.013349697 1.434 4281678650
-0.19907026 -0.013359006 1.4350001 4281678651
-0.1978249 -0.013359006 1.4350001 4281810237
-0.19657955 -0.013359006 1.4350001 4281941823
-0.19519806 -0.013349697 1.434 4282073407
-0.19381832 -0.013340387 1.4330001 4282007614
-0.19257468 -0.013340387 1.4330001 4281810236
-0.19133106 -0.013340387 1.4330001 4281612857
-0.19008744 -0.013340387 1.4330001 4281481271
-0.1888438 -0.013340387 1.4330001 4281415221
-0.18746924 -0.013331077 1.432 4281481015
-0.18687673 -0.013377625 1.437 4281546808
-0.18550046 -0.013368315 1.4360001 4281481273
-0.1841259 -0.013359006 1.4350001 4281481017
-0.18364519 -0.013414862 1.4410001 4281415480
-0.18252121 -0.013424171 1.442 4281481016
-0.18126976 -0.013424171 1.442 4281546811
-0.180268 -0.01344279 1.4440001 4281743933
-0.17901483 -0.01344279 1.4440001 4281875519
-0.17776166 -0.01344279 1.4440001 4281875519
-0.17675295 -0.013461409 1.4460001 4281875520
-0.17561941 -0.013470719 1.447 4281809984
-0.17460464 -0.013489338 1.4490001 4281875520
-0.17394529 -0.013535884 1.4540001 4281744191
-0.17292096 -0.013554503 1.4560001 4281809984
-0.17189316 -0.013573122 1.4580001 4281876034
-0.2283619 -0.012291238 1.455 4284376429
-0.22647485 -0.012257447 1.4510001 4283455327
-0.22474997 -0.012232105 1.4480001 4282731345
-0.22256725 -0.012181419 1.442 4282928467
-0.2213158 -0.012181419 1.442 4282862674
-0.21975914 -0.012164525 1.4400001 4282862674
-0.21805421 -0.012139182 1.437 4282533707
-0.21665624 -0.012130734 1.4360001 4282270536
-0.21526 -0.012122286 1.4350001 4282008133
-0.21401463 -0.012122286 1.4350001 4282007876
-0.21291755 -0.012130734 1.4360001 4281876546
-0.21167131 -0.012130734 1.4360001 4281942339
-0.21027854 -0.012122286 1.4350001 4281744960
-0.20888752 -0.012113839 1.434 4281613374
-0.20749822 -0.012105391 1.4330001 4281679165
-0.20611066 -0.012096943 1.432 4281613372
-0.20472483 -0.012088496 1.4310001 4281744444
-0.20334075 -0.012080049 1.4300001 4281744444
-0.20195839 -0.012071601 1.429 4281744444
-0.20071822 -0.012071601 1.429 4281744444
-0.19933848 -0.012063153 1.4280001 4281678650
-0.1980992 -0.012063153 1.4280001 4281744443
-0.19672206 -0.012054706 1.427 4281876030
-0.19534664 -0.012046258 1.4260001 4282007616
-0.19410908 -0.012046258 1.4260001 4282073409
-0.19273628 -0.012037811 1.4250001 4281876030
-0.19136521 -0.012029364 1.424 4281810237
-0.19026291 -0.012037811 1.4250001 4281612858
-0.18915887 -0.012046258 1.4260001 4281546809
-0.18792132 -0.012046258 1.4260001 4281415224
-0.1868147 -0.012054706 1.427 4281480761
-0.18583636 -0.012071601 1.429 4281414968
-0.1845962 -0.012071601 1.429 4281480761
-0.18335605 -0.012071601 1.429 4281414968
-0.18249822 -0.012096943 1.432 4281480761
-0.18125544 -0.012096943 1.432 4281546554
-0.18013841 -0.012105391 1.4330001 4281612091
-0.1792693 -0.012130734 1.4360001 4281809213
-0.17814703 -0.012139182 1.437 4281875005
-0.17702304 -0.01214763 1.4380001 4281743933
-0.17638625 -0.012189868 1.4430001 4281546811
-0.1752553 -0.012198315 1.4440001 4281546811
-0.17424314 -0.01221521 1.4460001 4281612348
-0.17382565 -0.012274344 1.4530001 4281612605
-0.17280219 -0.012291238 1.455 4282139205
-0.17189316 -0.012316581 1.4580001 4283257943
-0.22820495 -0.011029697 1.4540001 4287534491
-0.22647485 -0.011006939 1.4510001 4285429115
-0.22490518 -0.010991768 1.4490001 4283586397
-0.22241288 -0.010931082 1.4410001 4282928467
-0.22100884 -0.010923496 1.4400001 4282599502
-0.21930131 -0.010900739 1.437 4282665295
-0.21790247 -0.010893153 1.4360001 4282467916
-0.21650535 -0.010885567 1.4350001 4282204744
-0.21495999 -0.010870395 1.4330001 4282204743
-0.21371636 -0.010870395 1.4330001 4282138949
-0.212621 -0.010877982 1.434 4282007875
-0.2112291 -0.010870395 1.4330001 4281942082
-0.20983893 -0.01086281 1.432 4281810496
-0.20859617 -0.01086281 1.432 4281810496
-0.20706382 -0.010847638 1.4300001 4281744188
-0.20567885 -0.010840053 1.429 4281612859
-0.2044387 -0.010840053 1.429 4281809981
-0.20291416 -0.010824881 1.427 4281809981
-0.20167574 -0.010824881 1.427 4281809981
-0.20029685 -0.010817296 1.4260001 4281678652
-0.19905929 -0.010817296 1.4260001 4281678651
-0.19768302 -0.01080971 1.4250001 4281809981
-0.19630848 -0.010802125 1.424 4281876031
-0.19507267 -0.010802125 1.424 4281941824
-0.19370072 -0.010794538 1.4230001 4281876031
-0.19246577 -0.010794538 1.4230001 4281810238
-0.19123082 -0.010794538 1.4230001 4281810238
-0.18999587 -0.010794538 1.4230001 4281481273
-0.18889359 -0.010802125 1.424 4281546554
-0.18765776 -0.010802125 1.424 4281481018
-0.18655285 -0.01080971 1.4250001 4281414969
-0.18557627 -0.010824881 1.427 4281348919
-0.18420866 -0.010817296 1.4260001 4281414969
-0.18309943 -0.010824881 1.427 4281348919
-0.18211588 -0.010840053 1.429 4281480505
-0.1810023 -0.010847638 1.4300001 4281414712
-0.18001269 -0.01086281 1.432 4281283127
-0.1792693 -0.010893153 1.4360001 4281414456
-0.17814703 -0.010900739 1.437 4281348919
-0.17702304 -0.010908325 1.4380001 4281283382
-0.17638625 -0.010946253 1.4430001 4281283640
-0.1752553 -0.010953839 1.4440001 4282072899
-0.17424314 -0.01096901 1.4460001 4283059538
-0.17382565 -0.011022111 1.4530001 4283586395
-0.17292096 -0.011044868 1.4560001 4284639083
-0.17189316 -0.01106004 1.4580001 4285823357
-0.22820495 -0.0097766025 1.4540001 4289244596
-0.22647485 -0.009756431 1.4510001 4287862942
-0.22474997 -0.0097362595 1.4480001 4286415496
-0.22241288 -0.0096891914 1.4410001 4285560187
-0.22100884 -0.0096824681 1.4400001 4284441706
-0.2191487 -0.0096555715 1.4360001 4283060053
-0.21775071 -0.0096488483 1.4350001 4282270537
-0.21635449 -0.0096421242 1.434 4281941572
-0.21480997 -0.0096286759 1.432 4282073156
-0.21356721 -0.0096286759 1.432 4282204742
-0.21232446 -0.0096286759 1.432 4282007362
-0.21078689 -0.0096152285 1.4300001 4281941569
-0.20954587 -0.0096152285 1.4300001 4281941569
-0.20815916 -0.0096085044 1.429 4281941569
-0.20662943 -0.0095950561 1.427 4281612604
-0.205391 -0.0095950561 1.427 4281678397
-0.20415258 -0.0095950561 1.427 4281612604
-0.20262976 -0.0095816087 1.4250001 4281744190
-0.20125176 -0.0095748855 1.424 4281744190
-0.19987547 -0.0095681604 1.4230001 4281744190
-0.19864051 -0.0095681604 1.4230001 4281612604
-0.19740556 -0.0095681604 1.4230001 4281678397
-0.1958949 -0.009554713 1.4210001 4281744190
-0.19466169 -0.009554713 1.4210001 4282007362
-0.19342847 -0.009554713 1.4210001 4281875776
-0.19206001 -0.0095479889 1.4200001 4281941569
-0.19096205 -0.009554713 1.4210001 4281809727
-0.18972883 -0.009554713 1.4210001 4281678141
-0.18849562 -0.009554713 1.4210001 4281546555
-0.1873942 -0.0095614372 1.4220001 4281480505
-0.18616012 -0.0095614372 1.4220001 4281151541
-0.18518613 -0.0095748855 1.424 4281085748
-0.18395032 -0.0095748855 1.424 4281085491
-0.18284281 -0.0095816087 1.4250001 4281019698
-0.18198845 -0.0096017802 1.4280001 4281085234
-0.18087573 -0.0096085044 1.429 4281216820
-0.17976129 -0.0096152285 1.4300001 4281348920
-0.17914444 -0.0096488483 1.4350001 4281480506
-0.17802307 -0.0096555715 1.4360001 4281217334
-0.17689994 -0.0096622957 1.437 4281086005
-0.17626402 -0.0096959155 1.442 4282073156
-0.1752553 -0.0097093638 1.4440001 4284770413
-0.17424314 -0.0097228112 1.4460001 4286414981
-0.17382565 -0.0097698793 1.4530001 4286546824
-0.17292096 -0.0097900499 1.4560001 4286941838
-0.17189316 -0.0098034982 1.4580001 4287402132
-0.22241288 -0.0084473016 1.4410001 4288455079
-0.22100884 -0.0084414398 1.4400001 4288257700
-0.21884347 -0.0084062666 1.434 4285165429
-0.21744724 -0.0084004039 1.4330001 4282599502
-0.21605273 -0.0083945422 1.432 4282007365
-0.21435995 -0.0083769569 1.429 4282402121
-0.21297066 -0.0083710933 1.4280001 4282402121
-0.21158311 -0.0083652316 1.427 4281546812
-0.21004987 -0.0083535081 1.4250001 4281349433
-0.20866665 -0.0083476463 1.424 4281744190
-0.20743084 -0.0083476463 1.424 4281809983
-0.20590542 -0.008335921 1.4220001 4281744190
-0.20467134 -0.008335921 1.4220001 4281678397
-0.20315112 -0.0083241975 1.4200001 4281481018
-0.20191878 -0.0083241975 1.4200001 4281612604
-0.2005451 -0.0083183348 1.419 4281678397
-0.19917317 -0.0083124731 1.4180001 4281744190
-0.19794255 -0.0083124731 1.4180001 4281678397
-0.19657321 -0.0083066104 1.4170001 4281678397
-0.19534348 -0.0083066104 1.4170001 4281744191
-0.19411373 -0.0083066104 1.4170001 4281875776
-0.192884 -0.0083066104 1.4170001 4281941570
-0.19165425 -0.0083066104 1.4170001 4281941570
-0.1904245 -0.0083066104 1.4170001 4281809471
-0.18906125 -0.0083007487 1.416 4281612092
-0.18796502 -0.0083066104 1.4170001 4281348920
-0.18686706 -0.0083124731 1.4180001 4281085748
-0.18563645 -0.0083124731 1.4180001 4281085491
-0.18466593 -0.0083241975 1.4200001 4281151284
-0.18356277 -0.0083300592 1.4210001 4280953648
-0.18245786 -0.008335921 1.4220001 4280427304
-0.18160611 -0.0083535081 1.4250001 4280756269
-0.18049601 -0.0083593698 1.4260001 4282466887
-0.17950986 -0.0083710933 1.4280001 4284440934
-0.17889477 -0.0084004039 1.4330001 4284835692
-0.17789909 -0.0084121292 1.4350001 4284178019
-0.17677684 -0.008417991 1.4360001 4283322967
-0.17626402 -0.0084531633 1.442 4284441704
-0.17537668 -0.0084707495 1.4450001 4287468182
-0.17436363 -0.0084824748 1.447 4288323235
-0.22256725 -0.0072104111 1.442 4288849837
-0.22100884 -0.0072004111 1.4400001 4288981423
-0.21884347 -0.0071704094 1.434 4287139219
-0.21744724 -0.0071654087 1.4330001 4283060053
-0.21605273 -0.0071604084 1.432 4282862674
-0.21435995 -0.0071454081 1.429 4284968048
-0.21297066 -0.0071404073 1.4280001 4284836462
-0.21158311 -0.0071354071 1.427 4282007363
-0.21004987 -0.007125407 1.4250001 4281678398
-0.20866665 -0.0071204067 1.424 4282467913
-0.20743084 -0.0071204067 1.424 4282007362
-0.20590542 -0.0071104057 1.4220001 4281612604
-0.20467134 -0.0071104057 1.4220001 4281349433
-0.20315112 -0.0071004056 1.4200001 4281415225
-0.20191878 -0.0071004056 1.4200001 4281349432
-0.20068642 -0.0071004056 1.4200001 4281349432
-0.19917317 -0.0070904046 1.4180001 4281546811
-0.19794255 -0.0070904046 1.4180001 4281546812
-0.19671194 -0.0070904046 1.4180001 4281481019
-0.19534348 -0.0070854044 1.4170001 4281415226
-0.19411373 -0.0070854044 1.4170001 4281546812
-0.192884 -0.0070854044 1.4170001 4281744191
-0.19151901 -0.0070804046 1.416 4281875777
-0.19029012 -0.0070804046 1.416 4281743678
-0.18906125 -0.0070804046 1.416 4281217334
-0.18796502 -0.0070854044 1.4170001 4281217334
-0.18686706 -0.0070904046 1.4180001 4282270022
-0.18563645 -0.0070904046 1.4180001 4283716954
-0.18466593 -0.0071004056 1.4200001 4283782747
-0.18356277 -0.0071054059 1.4210001 4282861645
-0.18232955 -0.0071054059 1.4210001 4281019441
-0.18160611 -0.007125407 1.4250001 4282071872
-0.18062259 -0.0071354071 1.427 4285624695
-0.17950986 -0.0071404073 1.4280001 4287993499
-0.17889477 -0.0071654087 1.4330001 4288388514
-0.17789909 -0.0071754097 1.4350001 4287927963
-0.17677684 -0.00718041 1.4360001 4286678153
-0.17638625 -0.0072154123 1.4430001 4286744459
-0.17549804 -0.0072304127 1.4460001 4287994782
-0.17448413 -0.0072404137 1.4480001 4288323748
-0.22256725 -0.0059676599 1.442 4288323493
-0.22116232 -0.0059635211 1.4410001 4288915630
-0.21899608 -0.0059386906 1.4350001 4287139219
-0.21744724 -0.0059304135 1.4330001 4283060053
-0.21605273 -0.0059262747 1.432 4283454811
-0.21435995 -0.0059138597 1.429 4288126112
-0.21297066 -0.0059097214 1.4280001 4288849835
-0.21158311 -0.0059055826 1.427 4284375911
-0.20990248 -0.0058931671 1.424 4284112739
-0.20866665 -0.0058931671 1.424 4286415494
-0.20728517 -0.0058890292 1.4230001 4283783774
-0.20590542 -0.0058848904 1.4220001 4281020468
-0.20452739 -0.0058807521 1.4210001 4280954675
-0.20329419 -0.0058807521 1.4210001 4282402121
-0.20191878 -0.0058766133 1.4200001 4282204742
-0.20068642 -0.0058766133 1.4200001 4281152054
-0.19931363 -0.005872475 1.419 4280954675
-0.19794255 -0.0058683362 1.4180001 4281481019
-0.19671194 -0.0058683362 1.4180001 4282138949
-0.19534348 -0.0058641983 1.4170001 4281875777
-0.19397675 -0.00586006 1.416 4281086261
-0.19274788 -0.00586006 1.416 4281481019
-0.19151901 -0.00586006 1.416 4283125844
-0.19029012 -0.00586006 1.416 4283388503
-0.18919477 -0.0058641983 1.4170001 4281875264
-0.18796502 -0.0058641983 1.4170001 4282927952
-0.18686706 -0.0058683362 1.4180001 4286085759
-0.18563645 -0.0058683362 1.4180001 4287664534
-0.18466593 -0.0058766133 1.4200001 4287598741
-0.18356277 -0.0058807521 1.4210001 4286151295
-0.18232955 -0.0058807521 1.4210001 4283782747
-0.18160611 -0.0058973054 1.4250001 4285032301
-0.18062259 -0.0059055826 1.427 4287729814
-0.17950986 -0.0059097214 1.4280001 4287598228
-0.17889477 -0.0059304135 1.4330001 4287269520
-0.17789909 -0.0059386906 1.4350001 4288125342
-0.17689994 -0.0059469673 1.437 4288060062
-0.17650849 -0.0059759365 1.4440001 4287402389
-0.17561941 -0.005988352 1.447 4287600281
-0.17460464 -0.0059966287 1.4490001 4288258725
-0.22318462 -0.0047380142 1.4460001 4287467930
-0.22162275 -0.0047314609 1.4440001 4288784044
-0.2191487 -0.0047052475 1.4360001 4288060321
-0.21759897 -0.0046986942 1.434 4283981155
-0.21620362 -0.0046954178 1.4330001 4283586397
-0.21435995 -0.0046823113 1.429 4287797147
-0.21297066 -0.0046790349 1.4280001 4289639351
-0.21143483 -0.0046724817 1.4260001 4288915628
-0.20990248 -0.004665928 1.424 4288586663
-0.20852011 -0.0046626516 1.4230001 4289507765
-0.20728517 -0.0046626516 1.4230001 4286612873
-0.20576061 -0.0046560983 1.4210001 4281152054
-0.20452739 -0.0046560983 1.4210001 4281744191
-0.20329419 -0.0046560983 1.4210001 4285889150
-0.20206097 -0.0046560983 1.4210001 4286152322
-0.20068642 -0.0046528215 1.4200001 4282073156
-0.19945408 -0.0046528215 1.4200001 4280691503
-0.19808215 -0.0046495451 1.419 4281941570
-0.19685067 -0.0046495451 1.419 4285428599
-0.19534348 -0.0046429918 1.4170001 4285297013
-0.19411373 -0.0046429918 1.4170001 4282402121
-0.192884 -0.0046429918 1.4170001 4282467914
-0.19178949 -0.0046462682 1.4180001 4286744202
-0.1905589 -0.0046462682 1.4180001 4286941325
-0.18932828 -0.0046462682 1.4180001 4284901742
-0.18809767 -0.0046462682 1.4180001 4286283395
-0.18699884 -0.0046495451 1.419 4288586150
-0.18589829 -0.0046528215 1.4200001 4288388257
-0.18479598 -0.0046560983 1.4210001 4288059292
-0.18382113 -0.0046626516 1.4230001 4287598741
-0.18258618 -0.0046626516 1.4230001 4287269520
-0.18186101 -0.0046757581 1.427 4288124572
-0.18087573 -0.0046823113 1.429 4288190109
-0.17976129 -0.0046855882 1.4300001 4286545284
-0.1792693 -0.0047052475 1.4360001 4285624438
-0.178271 -0.0047118012 1.4380001 4287664791
-0.17726925 -0.0047183544 1.4400001 4288191392
-0.22349332 -0.0034966446 1.4480001 4285757312
-0.22192971 -0.0034918147 1.4460001 4288126114
-0.2191487 -0.0034676667 1.4360001 4288389286
-0.21775071 -0.003465252 1.4350001 4285428601
-0.21620362 -0.0034604224 1.4330001 4283717983
-0.21435995 -0.0034507629 1.429 4286415494
-0.21297066 -0.0034483483 1.4280001 4289507765
-0.21143483 -0.0034435187 1.4260001 4289836730
-0.20975506 -0.0034362741 1.4230001 4289705144
-0.20852011 -0.0034362741 1.4230001 4289902523
-0.20713951 -0.0034338594 1.4220001 4287928733
-0.20576061 -0.0034314445 1.4210001 4282336328
-0.20452739 -0.0034314445 1.4210001 4283652188
-0.20329419 -0.0034314445 1.4210001 4289441972
-0.20206097 -0.0034314445 1.4210001 4289836730
-0.20068642 -0.0034290296 1.4200001 4285231220
-0.19945408 -0.0034290296 1.4200001 4281283640
-0.19808215 -0.0034266151 1.419 4282533707
-0.19671194 -0.0034242002 1.4180001 4288849835
-0.19548133 -0.0034242002 1.4180001 4289507765
-0.19425072 -0.0034242002 1.4180001 4286481287
-0.19302011 -0.0034242002 1.4180001 4285625978
-0.19178949 -0.0034242002 1.4180001 4288849835
-0.1905589 -0.0034242002 1.4180001 4289178287
-0.18932828 -0.0034242002 1.4180001 4288322978
-0.18823032 -0.0034266151 1.419 4288717736
-0.18713063 -0.0034290296 1.4200001 4288322978
-0.18589829 -0.0034290296 1.4200001 4287401362
-0.18505608 -0.0034362741 1.4230001 4287335569
-0.18395032 -0.003438689 1.424 4287993499
-0.18271449 -0.003438689 1.424 4288716966
-0.18211588 -0.0034507629 1.429 4289111467
-0.1810023 -0.0034531779 1.4300001 4288585379
-0.17988698 -0.0034555928 1.4310001 4287203727
-0.17951897 -0.0034724963 1.4380001 4286546053
-0.17851895 -0.0034773259 1.4400001 4287598998
-0.17763856 -0.0034845704 1.4430001 4287533718
-0.21975914 -0.0022362976 1.4400001 4286876047
-0.2183577 -0.0022347446 1.439 4285231222
-0.21680711 -0.0022316386 1.437 4283257432
-0.21480997 -0.0022238737 1.432 4285231220
-0.21341808 -0.0022223208 1.4310001 4288455077
-0.21187964 -0.0022192148 1.429 4288520870
-0.21019727 -0.0022145559 1.4260001 4287731354
-0.20895971 -0.0022145559 1.4260001 4289047214
-0.2075765 -0.0022130029 1.4250001 4288257698
-0.20576061 -0.002206791 1.4210001 4285165427
-0.20452739 -0.002206791 1.4210001 4287007631
-0.20315112 -0.0022052377 1.4200001 4290231488
-0.20191878 -0.0022052377 1.4200001 4290692039
-0.20068642 -0.0022052377 1.4200001 4288652456
-0.19931363 -0.002203685 1.419 4283520602
-0.19808215 -0.002203685 1.419 4283454809
-0.19671194 -0.002202132 1.4180001 4288849835
-0.19548133 -0.002202132 1.4180001 4290099902
-0.19425072 -0.002202132 1.4180001 4289573558
-0.19302011 -0.002202132 1.4180001 4288718249
-0.19178949 -0.002202132 1.4180001 4289770937
-0.19069329 -0.002203685 1.419 4289836730
-0.18946181 -0.002203685 1.419 4289113007
-0.18836297 -0.0022052377 1.4200001 4289112494
-0.18713063 -0.0022052377 1.4200001 4288322978
-0.1860292 -0.002206791 1.4210001 4287335569
-0.1859664 -0.0022207678 1.4300001 4287598741
-0.18498373 -0.0022238737 1.432 4288388257
-0.18386929 -0.0022254267 1.4330001 4288388257
-0.18313543 -0.0022316386 1.437 4288125085
-0.18214148 -0.0022347446 1.439 4288256671
-0.18101835 -0.0022362976 1.4400001 4288125342
-0.18039285 -0.0022440625 1.4450001 4287730841
-0.17938673 -0.0022471684 1.447 4286809739
-0.17837718 -0.0022502744 1.4490001 4284901999
-0.17797531 -0.0022611453 1.4560001 4283520602
-0.17707583 -0.0022658044 1.4590001 4283586395
-0.17605063 -0.0022689102 1.4610001 4283586395
-0.21850944 -0.00099526928 1.4400001 4282862674
-0.21710886 -0.00099457812 1.439 4282665294
-0.21510999 -0.00099112233 1.434 4283389016
-0.21371636 -0.00099043117 1.4330001 4286152322
-0.21232446 -0.00098974002 1.432 4284902255
-0.21049209 -0.00098697538 1.4280001 4283323223
-0.20925279 -0.00098697538 1.4280001 4286810252
-0.20786785 -0.00098628423 1.427 4288257698
-0.20648462 -0.00098559307 1.4260001 4287994526
-0.20524706 -0.00098559307 1.4260001 4288849835
-0.20386645 -0.00098490191 1.4250001 4289836730
-0.20262976 -0.00098490191 1.4250001 4290165695
-0.20153441 -0.00098559307 1.4260001 4289376179
-0.20029685 -0.00098559307 1.4260001 4287270803
-0.19905929 -0.00098559307 1.4260001 4285625978
-0.19782174 -0.00098559307 1.4260001 4288520870
-0.19658419 -0.00098559307 1.4260001 4289705144
-0.19534664 -0.00098559307 1.4260001 4289047214
-0.19410908 -0.00098559307 1.4260001 4289113007
-0.1930068 -0.00098628423 1.427 4290165695
-0.19176838 -0.00098628423 1.427 4289770937
-0.19052996 -0.00098628423 1.427 4288389284
-0.18955682 -0.00098766654 1.429 4288125599
-0.18844846 -0.00098835758 1.4300001 4288322978
-0.18733834 -0.00098904886 1.4310001 4288191135
-0.18648659 -0.00099112233 1.434 4288256928
-0.18537126 -0.00099181349 1.4350001 4287993499
-0.18425423 -0.00099250465 1.4360001 4286151295
-0.18351775 -0.00099526928 1.4400001 4284506470
-0.18252121 -0.00099665171 1.442 4284769899
-0.18139547 -0.00099734275 1.4430001 4285493879
-0.18076737 -0.0010007985 1.4480001 4285362549
-0.17963469 -0.0010014897 1.4490001 4284112482
-0.17862339 -0.001002872 1.4510001 4282204742
-0.17809755 -0.0010070191 1.457 4281612605
-0.17707583 -0.0010084013 1.4590001 4281809984
-0.17605063 -0.0010097837 1.4610001 4282270535
-0.21881293 0.00024610039 1.442 4282007363
-0.21741061 0.00024592972 1.4410001 4281875777
-0.21541001 0.0002450764 1.4360001 4282007363
-0.21401463 0.00024490574 1.4350001 4282599500
-0.212621 0.00024473507 1.434 4282138949
-0.2109343 0.00024422308 1.4310001 4281744191
-0.20954587 0.0002440524 1.4300001 4283652188
-0.20830485 0.0002440524 1.4300001 4286744459
-0.20677422 0.00024371107 1.4280001 4287402389
-0.205391 0.0002435404 1.427 4288323491
-0.20415258 0.0002435404 1.427 4287994526
-0.20305635 0.00024371107 1.4280001 4287402389
-0.20181707 0.00024371107 1.4280001 4287928733
-0.20071822 0.00024388173 1.429 4288191905
-0.19947807 0.00024388173 1.429 4287468182
-0.19823791 0.00024388173 1.429 4288257698
-0.19699776 0.00024388173 1.429 4288455077
-0.1957576 0.00024388173 1.429 4286547080
-0.19451745 0.00024388173 1.429 4286547080
-0.19341256 0.0002440524 1.4300001 4288915628
-0.19217153 0.0002440524 1.4300001 4288652456
-0.1909305 0.0002440524 1.4300001 4285954687
-0.18995477 0.00024439374 1.432 4284967535
-0.1888438 0.00024456441 1.4330001 4286217602
-0.18773109 0.00024473507 1.434 4286941325
-0.18700677 0.00024541773 1.4380001 4286612360
-0.1857588 0.00024541773 1.4380001 4285559158
-0.18463916 0.0002455884 1.439 4283059281
-0.18390009 0.00024627105 1.4430001 4281217077
-0.18277435 0.00024644172 1.4440001 4281217333
-0.1816469 0.00024661238 1.4450001 4281743934
-0.18101704 0.00024746571 1.45 4281941570
-0.17988263 0.0002476364 1.4510001 4281941570
-0.17874649 0.00024780707 1.452 4282138949
-0.17821978 0.00024883106 1.4580001 4282336328
-0.1771972 0.00024917239 1.46 4282599500
-0.22534548 0.0015074372 1.46 4284573292
-0.22361797 0.0015043397 1.457 4284178532
-0.22189569 0.0015012424 1.4540001 4283849567
-0.21972337 0.0014950474 1.4480001 4282862672
-0.21801411 0.0014919499 1.4450001 4282599500
-0.21616003 0.0014878198 1.4410001 4282336328
-0.21476033 0.0014867875 1.4400001 4281875777
-0.21336235 0.001485755 1.439 4281415226
-0.21181871 0.0014836899 1.437 4281283640
-0.21057162 0.0014836899 1.437 4281744191
-0.20917885 0.0014826574 1.4360001 4283060051
-0.20764302 0.0014805924 1.434 4284046946
-0.20639852 0.0014805924 1.434 4284836462
-0.20501097 0.0014795599 1.4330001 4284244325
-0.20390953 0.0014805924 1.434 4282731086
-0.20266503 0.0014805924 1.434 4283849567
-0.20142053 0.0014805924 1.434 4285954943
-0.20031562 0.001481625 1.4350001 4286349701
-0.19907026 0.001481625 1.4350001 4286481287
-0.19768704 0.0014805924 1.434 4286020736
-0.19644256 0.0014805924 1.434 4283323223
-0.19519806 0.0014805924 1.434 4282928465
-0.19408882 0.001481625 1.4350001 4285099634
-0.19284345 0.001481625 1.4350001 4285297013
-0.19159809 0.001481625 1.4350001 4283125844
-0.19075067 0.0014847225 1.4380001 4281678141
-0.18963449 0.001485755 1.439 4282467401
-0.18851657 0.0014867875 1.4400001 4283191380
-0.18778704 0.0014909174 1.4440001 4283059538
-0.18666306 0.0014919499 1.4450001 4282204486
-0.18553732 0.0014929824 1.4460001 4281283384
-0.18479218 0.0014971122 1.45 4280954419
-0.18366039 0.0014981448 1.4510001 4280888626
-0.18252684 0.0014991773 1.452 4281020468
-0.18176608 0.0015033073 1.4560001 4281546812
-0.18062647 0.0015043397 1.457 4282533707
-0.17948511 0.0015053722 1.4580001 4283454809
-0.22519113 0.0027638078 1.4590001 4283981669
-0.22346449 0.0027581248 1.4560001 4284047203
-0.22189569 0.0027543362 1.4540001 4284178532
-0.21972337 0.0027429704 1.4480001 4284310118
-0.21801411 0.0027372874 1.4450001 4284507497
-0.21616003 0.00272971 1.4410001 4283915360
-0.21490946 0.00272971 1.4410001 4283191637
-0.21351062 0.0027278156 1.4400001 4282467914
-0.21196611 0.0027240273 1.4380001 4281875777
-0.21042508 0.0027202386 1.4360001 4281349433
-0.20917885 0.0027202386 1.4360001 4281217847
-0.20778781 0.0027183441 1.4350001 4281546812
-0.20639852 0.0027164498 1.434 4281612605
-0.20515402 0.0027164498 1.434 4281283640
-0.20390953 0.0027164498 1.434 4280954675
-0.20280635 0.0027183441 1.4350001 4281152054
-0.20156099 0.0027183441 1.4350001 4282336328
-0.20031562 0.0027183441 1.4350001 4283191637
-0.19907026 0.0027183441 1.4350001 4283191637
-0.19768704 0.0027164498 1.434 4282665293
-0.19644256 0.0027164498 1.434 4281546811
-0.19519806 0.0027164498 1.434 4281349432
-0.19395356 0.0027164498 1.434 4281809983
-0.19270907 0.0027164498 1.434 4282007362
-0.19159809 0.0027183441 1.4350001 4281744190
-0.19075067 0.0027240273 1.4380001 4281217846
-0.18963449 0.0027259216 1.439 4281152053
-0.18851657 0.0027278156 1.4400001 4281283639
-0.18778704 0.0027353929 1.4440001 4281217847
-0.18666306 0.0027372874 1.4450001 4281217847
-0.18553732 0.0027391817 1.4460001 4281415226
-0.18491963 0.0027486531 1.4510001 4281809984
-0.18378696 0.0027505476 1.452 4281809984
-0.18265253 0.0027524419 1.4530001 4281809984
-0.18189092 0.0027600192 1.457 4282270535
-0.18075043 0.0027619135 1.4580001 4283323223
-0.22331102 0.0040101861 1.455 4283587165
-0.22174306 0.004004674 1.4530001 4283784544
-0.21972337 0.0039908933 1.4480001 4284310375
-0.21816498 0.0039853808 1.4460001 4284968305
-0.21631005 0.0039743562 1.442 4285428599
-0.21490946 0.0039716004 1.4410001 4285297013
-0.21336235 0.0039660879 1.439 4284639083
-0.21181871 0.0039605754 1.437 4283454809
-0.21057162 0.0039605754 1.437 4282138949
-0.20932451 0.0039605754 1.437 4281744191
-0.20793262 0.0039578197 1.4360001 4281744191
-0.20654245 0.0039550634 1.4350001 4281612605
-0.20529708 0.0039550634 1.4350001 4281283640
-0.20405172 0.0039550634 1.4350001 4281217847
-0.20280635 0.0039550634 1.4350001 4281086261
-0.20156099 0.0039550634 1.4350001 4281283640
-0.20031562 0.0039550634 1.4350001 4281481019
-0.19893155 0.0039523076 1.434 4281678398
-0.19754919 0.0039495509 1.4330001 4281612604
-0.19630557 0.0039495509 1.4330001 4281415225
-0.19506194 0.0039495509 1.4330001 4281349432
-0.19381832 0.0039495509 1.4330001 4281546811
-0.19270907 0.0039523076 1.434 4281678397
-0.19146457 0.0039523076 1.434 4281744190
-0.19061802 0.0039605754 1.437 4281678397
-0.1895027 0.0039633317 1.4380001 4281678397
-0.18838567 0.0039660879 1.439 4281941570
-0.18778704 0.0039798687 1.4440001 4282402121
-0.18666306 0.003982625 1.4450001 4282862672
-0.18553732 0.0039853808 1.4460001 4283323223
-0.18491963 0.0039991615 1.4510001 4283586395
-0.18391353 0.004004674 1.4530001 4283257430
-0.18277825 0.0040074303 1.4540001 4282665293
-0.21706007 0.0052351984 1.447 4284441961
-0.21550603 0.0052279625 1.4450001 4284902512
-0.2141037 0.0052243443 1.4440001 4285099634
-0.21255574 0.0052171084 1.442 4284441704
-0.21130429 0.0052171084 1.442 4283586395
-0.20990717 0.0052134907 1.4410001 4283389016
-0.20836702 0.0052062543 1.439 4283520602
-0.20711818 0.0052062543 1.439 4283389016
-0.20572628 0.0052026366 1.4380001 4282994258
-0.20433612 0.0051990184 1.437 4282731086
-0.20308901 0.0051990184 1.437 4282073156
-0.20170146 0.0051954007 1.4360001 4281744191
-0.20045523 0.0051954007 1.4360001 4281809983
-0.19907026 0.0051917825 1.4350001 4281875776
-0.19754919 0.0051845466 1.4330001 4281875776
-0.19630557 0.0051845466 1.4330001 4282138948
-0.19506194 0.0051845466 1.4330001 4282533706
-0.19381832 0.0051845466 1.4330001 4282994257
-0.19270907 0.0051881648 1.434 4283191636
-0.19146457 0.0051881648 1.434 4283323222
-0.19061802 0.0051990184 1.437 4283323222
-0.1895027 0.0052026366 1.4380001 4283389015
-0.18851657 0.0052098725 1.4400001 4283652188
-0.18778704 0.0052243443 1.4440001 4284310118
-0.18679224 0.0052315802 1.4460001 4284836462
-0.18579395 0.0052388161 1.4480001 4284968048
-0.18530196 0.0052605239 1.4540001 4284639084
-0.21595344 0.006486739 1.4480001 4282797393
-0.21454851 0.0064822594 1.447 4283717981
-0.21285053 0.0064688199 1.4440001 4283586395
-0.21159735 0.0064688199 1.4440001 4283586395
-0.21019852 0.0064643403 1.4430001 4284441703
-0.20851181 0.0064509008 1.4400001 4285033841
-0.20726211 0.0064509008 1.4400001 4285231219
-0.20586935 0.0064464207 1.439 4285165427
-0.20433612 0.0064374614 1.437 4284639083
-0.20308901 0.0064374614 1.437 4283454809
-0.20184192 0.0064374614 1.437 4282665293
-0.20045523 0.0064329817 1.4360001 4282467913
-0.19907026 0.0064285016 1.4350001 4282336327
-0.19768704 0.0064240224 1.434 4282731085
-0.19644256 0.0064240224 1.434 4283717980
-0.19519806 0.0064240224 1.434 4284639082
-0.19395356 0.0064240224 1.434 4285099633
-0.19284345 0.0064285016 1.4350001 4285099633
-0.19159809 0.0064285016 1.4350001 4285033840
-0.19075067 0.0064419415 1.4380001 4284902254
-0.18963449 0.0064464207 1.439 4284704875
-0.18851657 0.0064509008 1.4400001 4284441704
-0.18804714 0.0064777792 1.4460001 4284441704
-0.1869214 0.0064822594 1.447 4284375911
-0.18592225 0.0064912187 1.4490001 4283981153
-0.21499333 0.0077453456 1.45 4282138948
-0.21329275 0.0077293199 1.447 4282138948
-0.21189043 0.0077239792 1.4460001 4282336327
-0.21048985 0.0077186371 1.4450001 4283257429
-0.20865661 0.0076972712 1.4410001 4284046945
