# .PCD v0.7 - Point Cloud Data file format
VERSION 0.7
FIELDS x y z rgba
SIZE 4 4 4 4
TYPE F F F U
COUNT 1 1 1 1
WIDTH 1076
HEIGHT 1
VIEWPOINT 0 0 0 1 0 0 0
POINTS 1076
DATA ascii
-0.2040095 -0.043999288 1.4260001 4291942359
-0.20305635 -0.044061001 1.4280001 4291876566
-0.20195839 -0.044091854 1.429 4291942359
-0.2008587 -0.044122711 1.4300001 4291876566
-0.20017605 -0.04424613 1.434 4291876566
-0.19893155 -0.04424613 1.434 4291942359
-0.1978249 -0.044276986 1.4350001 4291942359
-0.19307598 -0.04674539 1.5150001 4282204742
-0.19201432 -0.046807099 1.5170001 4282862672
-0.19082351 -0.046837956 1.5180001 4283060051
-0.2428271 -0.04307026 1.4360001 4290757832
-0.24090794 -0.042950287 1.432 4291942105
-0.2391631 -0.042860307 1.429 4291876312
-0.23775642 -0.042830314 1.4280001 4291876312
-0.2363515 -0.042800322 1.427 4291876568
-0.23461881 -0.042710342 1.424 4291744724
-0.233383 -0.042710342 1.424 4291810773
-0.23198417 -0.042680349 1.4230001 4291744980
-0.23058704 -0.042650353 1.4220001 4291810773
-0.22935295 -0.042650353 1.4220001 4291810773
-0.22811887 -0.042650353 1.4220001 4291744979
-0.22672524 -0.042620361 1.4210001 4291744978
-0.22549203 -0.042620361 1.4210001 4291876564
-0.22425881 -0.042620361 1.4210001 4291810771
-0.22302561 -0.042620361 1.4210001 4291810771
-0.22163631 -0.042590369 1.4200001 4291876564
-0.22055918 -0.042620361 1.4210001 4292008150
-0.21932596 -0.042620361 1.4210001 4292008150
-0.21809274 -0.042620361 1.4210001 4292008149
-0.21701215 -0.042650353 1.4220001 4292073941
-0.21592981 -0.042680349 1.4230001 4292073942
-0.21469486 -0.042680349 1.4230001 4292008150
-0.21360992 -0.042710342 1.424 4292008150
-0.21237411 -0.042710342 1.424 4291942357
-0.21113829 -0.042710342 1.424 4291942357
-0.20990248 -0.042710342 1.424 4291876564
-0.20881319 -0.042740334 1.4250001 4291876565
-0.2075765 -0.042740334 1.4250001 4291876566
-0.20633982 -0.042740334 1.4250001 4291942359
-0.20524706 -0.042770326 1.4260001 4292008151
-0.2040095 -0.042770326 1.4260001 4291942359
-0.20319854 -0.042860307 1.429 4291876566
-0.20195839 -0.042860307 1.429 4291942359
-0.2008587 -0.042890303 1.4300001 4291942359
-0.20031562 -0.043040268 1.4350001 4291876566
-0.199209 -0.04307026 1.4360001 4291810773
-0.19810063 -0.043100253 1.437 4292139738
-0.19294852 -0.045409732 1.5140001 4282731086
-0.19176118 -0.045439728 1.5150001 4282862672
-0.1906978 -0.045499709 1.5170001 4283060051
-0.24248888 -0.041774418 1.434 4287599767
-0.24090794 -0.041716151 1.432 4289770936
-0.2391631 -0.041628759 1.429 4291021003
-0.23775642 -0.041599628 1.4280001 4291613140
-0.2363515 -0.041570496 1.427 4291547603
-0.23461881 -0.041483104 1.424 4291679187
-0.233383 -0.041483104 1.424 4291810773
-0.23198417 -0.041453972 1.4230001 4291679187
-0.23058704 -0.041424841 1.4220001 4291613394
-0.22935295 -0.041424841 1.4220001 4291679185
-0.22811887 -0.041424841 1.4220001 4291613391
-0.2268848 -0.041424841 1.4220001 4291547598
-0.22565073 -0.041424841 1.4220001 4291613391
-0.22441664 -0.041424841 1.4220001 4291679183
-0.22302561 -0.041395709 1.4210001 4291679183
-0.22179238 -0.041395709 1.4210001 4291744976
-0.22055918 -0.041395709 1.4210001 4291810769
-0.21932596 -0.041395709 1.4210001 4291876562
-0.21824624 -0.041424841 1.4220001 4291876561
-0.21716475 -0.041453972 1.4230001 4291811023
-0.21592981 -0.041453972 1.4230001 4291876561
-0.21469486 -0.041453972 1.4230001 4291810770
-0.21360992 -0.041483104 1.424 4291876562
-0.21237411 -0.041483104 1.424 4291942355
-0.21113829 -0.041483104 1.424 4291876562
-0.21004987 -0.041512232 1.4250001 4291876562
-0.20881319 -0.041512232 1.4250001 4291942356
-0.2075765 -0.041512232 1.4250001 4291810771
-0.20633982 -0.041512232 1.4250001 4291942357
-0.20510313 -0.041512232 1.4250001 4291876564
-0.20386645 -0.041512232 1.4250001 4291679185
-0.20305635 -0.041599628 1.4280001 4291810771
-0.20209973 -0.041657891 1.4300001 4291679187
-0.20099916 -0.041687023 1.4310001 4292139738
-0.20045523 -0.041832682 1.4360001 4292139738
-0.19934772 -0.04186181 1.437 4292073945
-0.19837634 -0.041920073 1.439 4291942359
-0.1937492 -0.043988403 1.5100001 4282599500
-0.19269365 -0.044046666 1.5120001 4282665293
-0.19176118 -0.044134062 1.5150001 4282796879
-0.1905721 -0.04416319 1.516 4282862672
-0.23949781 -0.040453751 1.4310001 4288586662
-0.23808943 -0.040425483 1.4300001 4290034108
-0.23668279 -0.040397208 1.429 4290757830
-0.23511308 -0.040340673 1.427 4290955464
-0.23371078 -0.040312402 1.4260001 4291218636
-0.23231021 -0.040284131 1.4250001 4291350222
-0.23074922 -0.040227596 1.4230001 4291350221
-0.22951427 -0.040227596 1.4230001 4291416013
-0.22827932 -0.040227596 1.4230001 4291481806
-0.2268848 -0.040199324 1.4220001 4291350220
-0.22565073 -0.040199324 1.4220001 4291218633
-0.22441664 -0.040199324 1.4220001 4291218632
-0.22302561 -0.040171053 1.4210001 4291350218
-0.22179238 -0.040171053 1.4210001 4291481804
-0.22055918 -0.040171053 1.4210001 4291613390
-0.21948032 -0.040199324 1.4220001 4291613390
-0.21824624 -0.040199324 1.4220001 4291744976
-0.21716475 -0.040227596 1.4230001 4291679183
-0.21592981 -0.040227596 1.4230001 4291613390
-0.21469486 -0.040227596 1.4230001 4291679183
-0.21360992 -0.040255863 1.424 4291744976
-0.21252324 -0.040284131 1.4250001 4291810769
-0.21128656 -0.040284131 1.4250001 4291810769
-0.21019727 -0.040312402 1.4260001 4291744976
-0.20910627 -0.040340673 1.427 4291679185
-0.20772217 -0.040312402 1.4260001 4291744978
-0.20677422 -0.040368941 1.4280001 4292008150
-0.20567885 -0.040397208 1.429 4292073943
-0.20458177 -0.040425483 1.4300001 4292008150
-0.20376733 -0.040510289 1.4330001 4291810771
-0.20294769 -0.040595099 1.4360001 4292073943
-0.20184192 -0.040623367 1.437 4291876564
-0.20129278 -0.040764716 1.442 4291744980
-0.20018007 -0.040792987 1.4430001 4291547601
-0.19892776 -0.040792987 1.4430001 4290692292
-0.19955394 -0.041443188 1.4660001 4286415747
-0.19868743 -0.041527994 1.4690001 4285231473
-0.1969388 -0.04169761 1.475 4281481272
-0.19605668 -0.04178242 1.478 4281152053
-0.19530112 -0.041895501 1.4820001 4281415225
-0.19545503 -0.042206462 1.493 4281809983
-0.19441943 -0.042263005 1.4950001 4282336327
-0.19350952 -0.042347811 1.498 4282599500
-0.19323598 -0.04257397 1.506 4282796879
-0.19218387 -0.042630505 1.508 4282665293
-0.19112831 -0.042687047 1.5100001 4282665293
-0.19019498 -0.042771854 1.5130001 4282731086
-0.23949781 -0.039220478 1.4310001 4285428598
-0.23825592 -0.039220478 1.4310001 4286941837
-0.2368484 -0.039193071 1.4300001 4288389538
-0.23527785 -0.039138254 1.4280001 4289376432
-0.23387466 -0.039110847 1.427 4289771190
-0.23247322 -0.03908344 1.4260001 4290165948
-0.23074922 -0.039001219 1.4230001 4290494913
-0.22951427 -0.039001219 1.4230001 4290626497
-0.22827932 -0.039001219 1.4230001 4290692290
-0.2268848 -0.038973808 1.4220001 4290692290
-0.22565073 -0.038973808 1.4220001 4290692289
-0.22425881 -0.038946401 1.4210001 4290823874
-0.22302561 -0.038946401 1.4210001 4290889667
-0.22179238 -0.038946401 1.4210001 4291021253
-0.22055918 -0.038946401 1.4210001 4291284425
-0.21932596 -0.038946401 1.4210001 4291481804
-0.21824624 -0.038973808 1.4220001 4291547597
-0.21716475 -0.039001219 1.4230001 4291350218
-0.21592981 -0.039001219 1.4230001 4291218632
-0.21469486 -0.039001219 1.4230001 4291284425
-0.21360992 -0.039028626 1.424 4291416011
-0.21252324 -0.039056033 1.4250001 4291613390
-0.21128656 -0.039056033 1.4250001 4291744977
-0.21019727 -0.03908344 1.4260001 4291679185
-0.20910627 -0.039110847 1.427 4291810771
-0.20786785 -0.039110847 1.427 4291613392
-0.20706382 -0.039193071 1.4300001 4291679185
-0.20596673 -0.039220478 1.4310001 4291679185
-0.20486788 -0.039247885 1.432 4291679185
-0.20419392 -0.039357517 1.4360001 4291547599
-0.20323034 -0.039412331 1.4380001 4291350220
-0.2022633 -0.039467148 1.4400001 4290494911
-0.20157196 -0.03957678 1.4440001 4289573810
-0.20031878 -0.03957678 1.4440001 4288126365
-0.19906561 -0.03957678 1.4440001 4285626231
-0.20082621 -0.040179752 1.4660001 4283586648
-0.19969006 -0.040207159 1.4670001 4281218100
-0.19868743 -0.040261973 1.4690001 4281020721
-0.19707231 -0.040453829 1.4760001 4281218101
-0.19618931 -0.04053605 1.4790001 4281415225
-0.19530112 -0.040618274 1.4820001 4282073155
-0.19532411 -0.040892351 1.4920001 4282007362
-0.19428939 -0.040947165 1.4940001 4282402121
-0.19325116 -0.041001983 1.4960001 4282665293
-0.19297935 -0.041221242 1.5040001 4282599500
-0.19205643 -0.041303467 1.5070001 4282533708
-0.19100174 -0.041358285 1.5090001 4282665294
-0.18994355 -0.041413095 1.511 4282731087
-0.23966517 -0.038013753 1.432 4283652187
-0.23825592 -0.037987206 1.4310001 4284244324
-0.23701403 -0.037987206 1.4310001 4285560440
-0.23544262 -0.037934113 1.429 4287073677
-0.23403855 -0.037907567 1.4280001 4288323744
-0.23263624 -0.037881024 1.427 4289047467
-0.23091137 -0.037801385 1.424 4289442224
-0.22951427 -0.037774842 1.4230001 4289639602
-0.22827932 -0.037774842 1.4230001 4289573809
-0.22672524 -0.037721746 1.4210001 4289639602
-0.22549203 -0.037721746 1.4210001 4289705395
-0.22425881 -0.037721746 1.4210001 4289902774
-0.22302561 -0.037721746 1.4210001 4290100153
-0.22163631 -0.037695203 1.4200001 4290231739
-0.22055918 -0.037721746 1.4210001 4290363325
-0.21932596 -0.037721746 1.4210001 4290626497
-0.21824624 -0.037748292 1.4220001 4290758083
-0.21716475 -0.037774842 1.4230001 4290955462
-0.21592981 -0.037774842 1.4230001 4291087048
-0.21469486 -0.037774842 1.4230001 4291087048
-0.21360992 -0.037801385 1.424 4291218634
-0.21237411 -0.037801385 1.424 4291284427
-0.21128656 -0.037827931 1.4250001 4291218634
-0.21034469 -0.037881024 1.427 4291284427
-0.20910627 -0.037881024 1.427 4291350220
-0.2080135 -0.037907567 1.4280001 4291350220
-0.20720862 -0.037987206 1.4310001 4291087048
-0.20611066 -0.038013753 1.432 4290823876
-0.20515402 -0.038066845 1.434 4289968567
-0.20462051 -0.038199574 1.439 4289113258
-0.203513 -0.03822612 1.4400001 4287731605
-0.20254423 -0.038279209 1.442 4285889401
-0.20185116 -0.038385395 1.4460001 4284507748
-0.20059624 -0.038385395 1.4460001 4282731337
-0.19934133 -0.038385395 1.4460001 4281283893
-0.20068923 -0.038889766 1.465 4280954928
-0.19969006 -0.038942859 1.4670001 4280954928
-0.19868743 -0.038995951 1.4690001 4281086514
-0.19707231 -0.039181773 1.4760001 4281875776
-0.19618931 -0.039261412 1.4790001 4281875776
-0.19530112 -0.039341051 1.4820001 4281941570
-0.1951932 -0.039579961 1.4910001 4282073156
-0.19415933 -0.039633054 1.493 4282402121
-0.19312198 -0.039686147 1.4950001 4282665294
-0.19272272 -0.039871968 1.5020001 4282533708
-0.19180155 -0.039951608 1.5050001 4282533709
-0.19074859 -0.040004697 1.5070001 4282665038
-0.20870143 -0.037241932 1.45 4285560436
-0.20715693 -0.037190564 1.4480001 4284441955
-0.20575808 -0.037164882 1.447 4283126095
-0.20478496 -0.037216246 1.4490001 4281810235
-0.20352745 -0.037216246 1.4490001 4280823340
-0.2028283 -0.037318986 1.4530001 4280889133
-0.20184477 -0.03737035 1.455 4281086512
-0.20085776 -0.037421722 1.457 4281086512
-0.20055223 -0.037601508 1.4640001 4281086512
-0.19955394 -0.03765288 1.4660001 4281547065
-0.19868743 -0.03772993 1.4690001 4281810237
-0.19733936 -0.037961084 1.478 4281809983
-0.19645463 -0.038038138 1.4810001 4281875777
-0.1954329 -0.038089506 1.483 4281809984
-0.1951932 -0.038294978 1.4910001 4282073156
-0.19415933 -0.03834635 1.493 4282138949
-0.19299281 -0.038372032 1.4940001 4282336074
-0.19246611 -0.038526136 1.5000001 4282402123
-0.19154666 -0.03860319 1.503 4282598989
-0.19049543 -0.038654558 1.5050001 4282533196
-0.20927717 -0.036091574 1.4540001 4281218098
-0.20758612 -0.036017109 1.4510001 4280954926
-0.20618466 -0.035992287 1.45 4280757547
-0.20492628 -0.035992287 1.45 4280691754
-0.20380837 -0.036017109 1.4510001 4280889133
-0.2029679 -0.036091574 1.4540001 4280954926
-0.20184477 -0.036116395 1.455 4281349684
-0.20071989 -0.03614122 1.4560001 4281612856
-0.20041524 -0.036314975 1.4630001 4281678649
-0.19955394 -0.036389444 1.4660001 4281744443
-0.19855219 -0.036439087 1.4680001 4281876030
-0.19733936 -0.036687307 1.478 4281744190
-0.19645463 -0.036761776 1.4810001 4281744191
-0.1954329 -0.036811423 1.483 4281875777
-0.19532411 -0.037034821 1.4920001 4281941570
-0.19415933 -0.037059642 1.493 4282073156
-0.19299281 -0.037084464 1.4940001 4282270024
-0.19259441 -0.037258219 1.501 4282401610
-0.19154666 -0.037307866 1.503 4282533196
-0.19062202 -0.037382334 1.506 4282533196
-0.25352532 -0.036108382 1.5070001 4284310888
-0.25154799 -0.036012542 1.503 4283916129
-0.24974416 -0.035940662 1.5000001 4283521371
-0.24695171 -0.035725016 1.4910001 4283192405
-0.24516349 -0.035653133 1.488 4282797902
-0.20956501 -0.034886405 1.4560001 4281020719
-0.20815837 -0.03486244 1.455 4280954926
-0.20646906 -0.034790557 1.452 4280823340
-0.20520894 -0.034790557 1.452 4281283891
-0.20394883 -0.034790557 1.452 4281283891
-0.2029679 -0.034838479 1.4540001 4281283891
-0.20184477 -0.03486244 1.455 4281547063
-0.20071989 -0.034886405 1.4560001 4281612858
-0.20027825 -0.035030164 1.462 4281678651
-0.19955394 -0.035126008 1.4660001 4281612858
-0.19855219 -0.035173927 1.4680001 4281744444
-0.19733936 -0.03541353 1.478 4281678397
-0.19645463 -0.035485413 1.4810001 4281809984
-0.19556469 -0.035557292 1.4840001 4281875777
-0.19532411 -0.035748977 1.4920001 4281875778
-0.19415933 -0.035772938 1.493 4282007363
-0.19299281 -0.035796899 1.4940001 4282204231
-0.19246611 -0.035940662 1.5000001 4282335817
-0.19154666 -0.036012542 1.503 4282467403
-0.19062202 -0.036084425 1.506 4282533196
-0.25302061 -0.034740318 1.5040001 4284376681
-0.25138065 -0.03469412 1.5020001 4284113509
-0.24957766 -0.034624826 1.4990001 4283718750
-0.24678609 -0.034416936 1.4900001 4283323992
-0.24516349 -0.034370739 1.488 4282995027
-0.2420693 -0.034116656 1.4770001 4282665804
-0.24029841 -0.034047358 1.4740001 4282468167
-0.23869489 -0.03400116 1.4720001 4282270788
-0.2359658 -0.033793274 1.4630001 4282073409
-0.23453572 -0.033770174 1.462 4281876028
-0.23183095 -0.033562288 1.4530001 4281678649
-0.23041129 -0.033539187 1.452 4281612856
-0.22883552 -0.033492994 1.45 4281481270
-0.22726326 -0.033446796 1.4480001 4281744442
-0.22600661 -0.033446796 1.4480001 4282139200
-0.22474997 -0.033446796 1.4480001 4282270786
-0.22349332 -0.033446796 1.4480001 4282073407
-0.22239015 -0.033469893 1.4490001 4281547063
-0.22113264 -0.033469893 1.4490001 4281415477
-0.2201786 -0.03351609 1.4510001 4281218098
-0.2186176 -0.033469893 1.4490001 4281152305
-0.21736009 -0.033469893 1.4490001 4281283891
-0.21640086 -0.03351609 1.4510001 4281415477
-0.21528988 -0.033539187 1.452 4281612856
-0.21432458 -0.033585388 1.4540001 4281744442
-0.21335578 -0.033631586 1.4560001 4282007614
-0.21209219 -0.033631586 1.4560001 4282073407
-0.2108286 -0.033631586 1.4560001 4281941821
-0.20970896 -0.033654682 1.457 4281810235
-0.20844451 -0.033654682 1.457 4281349684
-0.20732224 -0.033677779 1.4580001 4281415477
-0.20577425 -0.033631586 1.4560001 4281481270
-0.2043702 -0.033608485 1.455 4281481270
-0.20310749 -0.033608485 1.455 4281284147
-0.20198348 -0.033631586 1.4560001 4281481527
-0.20085776 -0.033654682 1.457 4281547065
-0.20041524 -0.033793274 1.4630001 4281678651
-0.19955394 -0.033862572 1.4660001 4281678651
-0.19868743 -0.033931866 1.4690001 4281612858
-0.19747287 -0.034162853 1.4790001 4281809983
-0.19658726 -0.034232151 1.4820001 4281744191
-0.19556469 -0.034278344 1.4840001 4281744191
-0.1951932 -0.034440033 1.4910001 4281875778
-0.19402929 -0.034463137 1.4920001 4281875778
-0.19286363 -0.034486234 1.493 4282007109
-0.19246611 -0.034647923 1.5000001 4282335817
-0.19154666 -0.034717221 1.503 4282401610
-0.19062202 -0.034786515 1.506 4282598989
-0.25285238 -0.033421896 1.503 4284310888
-0.25121328 -0.03337742 1.501 4284179302
-0.24941115 -0.033310711 1.498 4283784544
-0.24678609 -0.033132818 1.4900001 4283455066
-0.24516349 -0.033088341 1.488 4283125844
-0.24223319 -0.032865975 1.478 4282731086
-0.24062447 -0.032821503 1.4760001 4282599499
-0.2390192 -0.03277703 1.4740001 4282467913
-0.2362884 -0.032576896 1.465 4282336327
-0.23485658 -0.03255466 1.4640001 4282270277
-0.23215006 -0.03235453 1.455 4282138691
-0.23072866 -0.032332294 1.4540001 4281875775
-0.22930899 -0.032310057 1.4530001 4281349686
-0.2274202 -0.032221109 1.4490001 4281218100
-0.22616269 -0.032221109 1.4490001 4281810237
-0.22490518 -0.032221109 1.4490001 4282204994
-0.22364765 -0.032221109 1.4490001 4282139200
-0.22239015 -0.032221109 1.4490001 4281547063
-0.22098003 -0.032198872 1.4480001 4281612856
-0.21987511 -0.032221109 1.4490001 4281810235
-0.2186176 -0.032221109 1.4490001 4281744442
-0.21736009 -0.032221109 1.4490001 4281876028
-0.21625172 -0.032243345 1.45 4282007614
-0.21514161 -0.032265581 1.4510001 4282139200
-0.21402976 -0.032287817 1.452 4282204993
-0.21320926 -0.03235453 1.455 4282139200
-0.21194653 -0.03235453 1.455 4282139200
-0.21068381 -0.03235453 1.455 4282007614
-0.20956501 -0.032376766 1.4560001 4281810235
-0.20844451 -0.032399002 1.457 4281481270
-0.20718004 -0.032399002 1.457 4281283891
-0.20577425 -0.032376766 1.4560001 4281349684
-0.20451066 -0.032376766 1.4560001 4281415477
-0.20324707 -0.032376766 1.4560001 4281218868
-0.20212223 -0.032399002 1.457 4281416247
-0.20099561 -0.032421239 1.4580001 4281678650
-0.20068923 -0.032576896 1.465 4281612857
-0.19969006 -0.032621372 1.4670001 4281678651
-0.19882269 -0.032688081 1.47 4281678651
-0.19747287 -0.032888215 1.4790001 4281744190
-0.19658726 -0.032954924 1.4820001 4281678398
-0.19556469 -0.032999396 1.4840001 4281744191
-0.19506228 -0.033132818 1.4900001 4281875777
-0.19402929 -0.033177294 1.4920001 4281744191
-0.19286363 -0.03319953 1.493 4281875779
-0.1923378 -0.033332951 1.4990001 4282204744
-0.19154666 -0.033421896 1.503 4282335817
-0.19062202 -0.033488605 1.506 4282598989
-0.25201121 -0.032019697 1.498 4284376681
-0.25037646 -0.031976949 1.4960001 4284179302
-0.24857868 -0.031912822 1.493 4283850337
-0.24628922 -0.031784572 1.4870001 4283323993
-0.24450444 -0.031720448 1.4840001 4282929235
-0.24256097 -0.031634949 1.48 4282797135
-0.24111353 -0.031613573 1.4790001 4282665292
-0.23950568 -0.031570822 1.4770001 4282533706
-0.2375787 -0.031485323 1.473 4282402120
-0.23613994 -0.031463947 1.4720001 4282270534
-0.23470291 -0.031442571 1.4710001 4282073155
-0.23104602 -0.031121951 1.4560001 4281809981
-0.22962461 -0.031100573 1.455 4281612858
-0.22773409 -0.031015074 1.4510001 4281612858
-0.22631876 -0.0309937 1.45 4281876030
-0.22490518 -0.030972322 1.4490001 4282073409
-0.22349332 -0.030950949 1.4480001 4282073409
-0.22223668 -0.030950949 1.4480001 4281941821
-0.22098003 -0.030950949 1.4480001 4281810235
-0.21972337 -0.030950949 1.4480001 4281678649
-0.21846673 -0.030950949 1.4480001 4281612856
-0.21721008 -0.030950949 1.4480001 4281876028
-0.21610259 -0.030972322 1.4490001 4282204993
-0.21499333 -0.0309937 1.45 4282204993
-0.21388236 -0.031015074 1.4510001 4282073407
-0.21306272 -0.031079199 1.4540001 4282073407
-0.21180087 -0.031079199 1.4540001 4282073407
-0.21053901 -0.031079199 1.4540001 4281941821
-0.20956501 -0.031121951 1.4560001 4281744442
-0.20830142 -0.031121951 1.4560001 4281481270
-0.20718004 -0.031143324 1.457 4281415477
-0.20591559 -0.031143324 1.457 4281349684
-0.20451066 -0.031121951 1.4560001 4281349684
-0.20324707 -0.031121951 1.4560001 4281218868
-0.20226094 -0.031164698 1.4580001 4281350454
-0.20113349 -0.031186076 1.4590001 4281547320
-0.2009632 -0.031357072 1.4670001 4281547063
-0.1998262 -0.031378448 1.4680001 4281547065
-0.19882269 -0.031421199 1.47 4281547065
-0.19720584 -0.031570822 1.4770001 4281744190
-0.19605668 -0.031592198 1.478 4281744191
-0.19503756 -0.031634949 1.48 4281809984
-0.19453862 -0.0317632 1.4860001 4281809984
-0.19337904 -0.031784572 1.4870001 4281678398
-0.19221774 -0.031805947 1.488 4281941572
-0.25167477 -0.030687658 1.4960001 4284442474
-0.25004175 -0.03064663 1.4940001 4284047716
-0.24841216 -0.030605607 1.4920001 4283718751
-0.24595794 -0.030462012 1.485 4283192407
-0.24433967 -0.030420987 1.483 4282929235
-0.24256097 -0.030359447 1.48 4282797649
-0.24111353 -0.030338936 1.4790001 4282600270
-0.23966783 -0.03031842 1.478 4282533963
-0.23773998 -0.030236367 1.4740001 4282336327
-0.23630036 -0.030215856 1.473 4282138948
-0.23486246 -0.030195341 1.4720001 4282007362
-0.23263288 -0.030072264 1.4660001 4281875776
-0.2312028 -0.030051749 1.465 4281678397
-0.22851884 -0.029867133 1.4560001 4281744188
-0.22694311 -0.029826105 1.4540001 4281876030
-0.22537081 -0.029785078 1.452 4282007616
-0.22364765 -0.029723538 1.4490001 4282007616
-0.22239015 -0.029723538 1.4490001 4281810237
-0.22113264 -0.029723538 1.4490001 4281744444
-0.21987511 -0.029723538 1.4490001 4281678651
-0.2186176 -0.029723538 1.4490001 4281612858
-0.21736009 -0.029723538 1.4490001 4281678650
-0.21640086 -0.029764565 1.4510001 4281876028
-0.21543814 -0.029805593 1.4530001 4282007614
-0.21432458 -0.029826105 1.4540001 4282139200
-0.21335578 -0.029867133 1.4560001 4282007614
-0.21223786 -0.029887645 1.457 4281876028
-0.21097341 -0.029887645 1.457 4281744442
-0.20985289 -0.029908158 1.4580001 4281612856
-0.20873064 -0.029928673 1.4590001 4281481270
-0.20746444 -0.029928673 1.4590001 4281481270
-0.20619825 -0.029928673 1.4590001 4281481270
-0.20479159 -0.029908158 1.4580001 4281481270
-0.20366587 -0.029928673 1.4590001 4281284404
-0.2025384 -0.029949185 1.46 4281284661
-0.20140919 -0.029969696 1.4610001 4281481270
-0.20082621 -0.030072264 1.4660001 4281481270
-0.1998262 -0.030113289 1.4680001 4281481272
-0.19868743 -0.030133804 1.4690001 4281481272
-0.1969388 -0.03025688 1.475 4281612604
-0.19605668 -0.03031842 1.478 4281744191
-0.19414589 -0.030420987 1.483 4281678398
-0.19311894 -0.030462012 1.485 4281875777
-0.19195938 -0.030482527 1.4860001 4282007365
-0.2513383 -0.029359063 1.4940001 4284245608
-0.249707 -0.029319763 1.4920001 4283916387
-0.24791269 -0.029260809 1.4890001 4283456092
-0.2456267 -0.029142899 1.483 4283126870
-0.24417493 -0.02912325 1.4820001 4282929235
-0.24256097 -0.029083945 1.48 4282731856
-0.24111353 -0.029064296 1.4790001 4282600270
-0.23966783 -0.029044641 1.478 4282533963
-0.2379013 -0.028985688 1.475 4282336328
-0.23646078 -0.028966038 1.4740001 4282138949
-0.23502202 -0.028946387 1.473 4282007362
-0.23295024 -0.028848128 1.4680001 4281875776
-0.23136061 -0.028808828 1.4660001 4281678397
-0.22851884 -0.028612316 1.4560001 4281547066
-0.22694311 -0.028573012 1.4540001 4281744444
-0.22552602 -0.028553361 1.4530001 4282007616
-0.223802 -0.028494406 1.45 4282007616
-0.22254361 -0.028494406 1.45 4281744444
-0.22128524 -0.028494406 1.45 4281678651
-0.22002685 -0.028494406 1.45 4281678651
-0.21876848 -0.028494406 1.45 4281547065
-0.21751009 -0.028494406 1.45 4281547065
-0.21669912 -0.028553361 1.4530001 4281744444
-0.21558642 -0.028573012 1.4540001 4281941822
-0.21447197 -0.028592661 1.455 4282007614
-0.21364886 -0.028651616 1.4580001 4282007614
-0.21238354 -0.028651616 1.4580001 4281941821
-0.21111821 -0.028651616 1.4580001 4281744442
-0.20999682 -0.02867127 1.4590001 4281678649
-0.20873064 -0.02867127 1.4590001 4281547063
-0.20760663 -0.028690919 1.46 4281547063
-0.20619825 -0.02867127 1.4590001 4281481270
-0.20493206 -0.02867127 1.4590001 4281349684
-0.20366587 -0.02867127 1.4590001 4281349684
-0.2025384 -0.028690919 1.46 4281349685
-0.20154706 -0.028730221 1.462 4281415479
-0.20082621 -0.028808828 1.4660001 4281415479
-0.19969006 -0.028828479 1.4670001 4281481273
-0.19855219 -0.028848128 1.4680001 4281547066
-0.19795011 -0.028946387 1.473 4281546811
-0.1969388 -0.028985688 1.475 4281546811
-0.19579136 -0.029005341 1.4760001 4281744191
-0.19516934 -0.029103596 1.4810001 4281875777
-0.19285886 -0.029142899 1.483 4282073156
-0.25049716 -0.027977549 1.4890001 4283982182
-0.24887021 -0.02793997 1.4870001 4283850851
-0.24574825 -0.027733285 1.4760001 4283521885
-0.2444673 -0.027733285 1.4760001 4283192664
-0.24318635 -0.027733285 1.4760001 4282929235
-0.24174152 -0.027714496 1.475 4282666063
-0.24029841 -0.027695706 1.4740001 4282534477
-0.2390192 -0.027695706 1.4740001 4282402634
-0.23741741 -0.027658129 1.4720001 4282467914
-0.23597953 -0.027639339 1.4710001 4282270534
-0.23454337 -0.02762055 1.47 4282007362
-0.2271063 -0.027188392 1.447 4281744445
-0.22585052 -0.027188392 1.447 4281810237
-0.22459474 -0.027188392 1.447 4281876030
-0.22349332 -0.027207179 1.4480001 4281941823
-0.22223668 -0.027207179 1.4480001 4281810237
-0.22098003 -0.027207179 1.4480001 4281612858
-0.21987511 -0.027225969 1.4490001 4281547065
-0.2186176 -0.027225969 1.4490001 4281481272
-0.21751009 -0.02724476 1.45 4281415479
-0.21654999 -0.027282339 1.452 4281612858
-0.21543814 -0.027301127 1.4530001 4281810235
-0.21432458 -0.027319917 1.4540001 4281810235
-0.21364886 -0.027395075 1.4580001 4281876028
-0.21238354 -0.027395075 1.4580001 4281876028
-0.21126302 -0.027413866 1.4590001 4281810235
-0.21014075 -0.027432654 1.46 4281744442
-0.20858756 -0.027395075 1.4580001 4281678649
-0.20703784 -0.027357496 1.4560001 4281481270
-0.20563293 -0.027338708 1.455 4281283891
-0.2043702 -0.027338708 1.455 4281152305
-0.20324707 -0.027357496 1.4560001 4281349686
-0.20212223 -0.027376287 1.457 4281415479
-0.20099561 -0.027395075 1.4580001 4281415479
-0.20014127 -0.027451443 1.4610001 4281415479
-0.19887333 -0.027451443 1.4610001 4281481018
-0.19774067 -0.027470233 1.462 4281612604
-0.19700941 -0.027545391 1.4660001 4281678397
-0.19587065 -0.027564181 1.4670001 4281678397
-0.19473018 -0.027582971 1.4680001 4281678398
-0.19424687 -0.027695706 1.4740001 4281941570
-0.19309857 -0.027714496 1.475 4282138950
-0.19207859 -0.027752075 1.4770001 4282073157
-0.25049716 -0.02669429 1.4890001 4283850596
-0.24887021 -0.026658436 1.4870001 4283587423
-0.24524875 -0.02640745 1.473 4283521885
-0.24397041 -0.02640745 1.473 4283390043
-0.24269207 -0.02640745 1.473 4282995028
-0.24108595 -0.026371593 1.4710001 4282797649
-0.23964633 -0.026353667 1.47 4282600270
-0.23837058 -0.026353667 1.47 4282402634
-0.23677225 -0.026317813 1.4680001 4282467914
-0.23533784 -0.026299883 1.4670001 4282204742
-0.2340647 -0.026299883 1.4670001 4281875776
-0.22679241 -0.025905475 1.4450001 4281810238
-0.22569445 -0.025923401 1.4460001 4281810237
-0.22443953 -0.025923401 1.4460001 4281744444
-0.22333896 -0.025941331 1.447 4281876030
-0.22208318 -0.025941331 1.447 4281810237
-0.2208274 -0.025941331 1.447 4281612858
-0.21972337 -0.025959257 1.4480001 4281547065
-0.21846673 -0.025959257 1.4480001 4281547065
-0.21721008 -0.025959257 1.4480001 4281481271
-0.21625172 -0.025995113 1.45 4281481270
-0.21514161 -0.026013041 1.4510001 4281678649
-0.21402976 -0.026030969 1.452 4281810235
-0.21320926 -0.026084753 1.455 4281744442
-0.21209219 -0.026102679 1.4560001 4281744442
-0.21097341 -0.026120607 1.457 4281744442
-0.20970896 -0.026120607 1.457 4281678649
-0.20815837 -0.026084753 1.455 4281612856
-0.20661125 -0.026048895 1.4530001 4281481270
-0.20520894 -0.026030969 1.452 4281283892
-0.20394883 -0.026030969 1.452 4281152306
-0.2028283 -0.026048895 1.4530001 4281349430
-0.20170605 -0.026066823 1.4540001 4281415479
-0.20058204 -0.026084753 1.455 4281481273
-0.19986729 -0.026156461 1.4590001 4281415480
-0.1986011 -0.026156461 1.4590001 4281415225
-0.19747016 -0.026174391 1.46 4281546811
-0.19660625 -0.026228173 1.4630001 4281744191
-0.19547009 -0.026246101 1.4640001 4281744191
-0.19446488 -0.026281955 1.4660001 4281744191
-0.1939833 -0.026389521 1.4720001 4281941570
-0.19296765 -0.026425377 1.4740001 4282073158
-0.19168845 -0.026425377 1.4740001 4282138695
-0.25049716 -0.025411034 1.4890001 4284574319
-0.24903756 -0.025393968 1.488 4283455581
-0.24474928 -0.025086783 1.47 4283521118
-0.24347354 -0.025086783 1.47 4283455581
-0.2421978 -0.025086783 1.47 4283192153
-0.24043037 -0.025035586 1.4670001 4282994773
-0.23915723 -0.025035586 1.4670001 4282731856
-0.23772195 -0.025018519 1.4660001 4282533964
-0.23612711 -0.024984388 1.4640001 4282336328
-0.23469613 -0.024967322 1.4630001 4282138948
-0.23326692 -0.024950257 1.462 4281941569
-0.22679241 -0.024660138 1.4450001 4281678652
-0.22553836 -0.024660138 1.4450001 4281744444
-0.22428432 -0.024660138 1.4450001 4281810237
-0.22318462 -0.024677202 1.4460001 4281810237
-0.22192971 -0.024677202 1.4460001 4281810235
-0.2206748 -0.024677202 1.4460001 4281678649
-0.2194199 -0.024677202 1.4460001 4281612856
-0.21831585 -0.02469427 1.447 4281612856
-0.21706007 -0.02469427 1.447 4281678649
-0.21595344 -0.024711333 1.4480001 4281678649
-0.21484506 -0.024728401 1.4490001 4281744442
-0.21358755 -0.024728401 1.4490001 4281810235
-0.21262312 -0.024762532 1.4510001 4281810235
-0.21165518 -0.024796663 1.4530001 4281810235
-0.21053901 -0.02481373 1.4540001 4281744442
-0.20913322 -0.024796663 1.4530001 4281547063
-0.20758612 -0.024762532 1.4510001 4281481272
-0.20604247 -0.024728401 1.4490001 4281349686
-0.20478496 -0.024728401 1.4490001 4281283893
-0.20352745 -0.024728401 1.4490001 4281283893
-0.20254911 -0.024762532 1.4510001 4281283639
-0.20142859 -0.024779599 1.452 4281349689
-0.20030633 -0.024796663 1.4530001 4281481018
-0.1994563 -0.024847861 1.4560001 4281415225
-0.19832885 -0.024864927 1.457 4281349433
-0.1970644 -0.024864927 1.457 4281546811
-0.19606872 -0.024899058 1.4590001 4281678398
-0.19506955 -0.024933189 1.4610001 4281744191
-0.19393428 -0.024950257 1.462 4281809984
-0.19345617 -0.025052652 1.4680001 4281941571
-0.19257492 -0.025103848 1.4710001 4281941572
-0.19155839 -0.025137981 1.473 4281875779
-0.24814191 -0.023900921 1.475 4286745490
-0.24635974 -0.023852307 1.4720001 4284310892
-0.2437503 -0.023722677 1.4640001 4283521118
-0.24231412 -0.023706473 1.4630001 4283521118
-0.2408797 -0.023690268 1.462 4283323739
-0.23911925 -0.023641655 1.4590001 4283060309
-0.23736396 -0.023593044 1.4560001 4282862672
-0.23593822 -0.023576841 1.455 4282665293
-0.23419164 -0.023528228 1.452 4282270535
-0.23293152 -0.023528228 1.452 4282073156
-0.23119274 -0.023479616 1.4490001 4282007362
-0.22961786 -0.023447208 1.447 4281876031
-0.22820428 -0.023431003 1.4460001 4281744444
-0.22632156 -0.023366189 1.442 4281678651
-0.22507012 -0.023366189 1.442 4281678651
-0.22381867 -0.023366189 1.442 4281744443
-0.22241288 -0.023349984 1.4410001 4281810235
-0.22116232 -0.023349984 1.4410001 4281810235
-0.21991174 -0.023349984 1.4410001 4281810235
-0.21881293 -0.023366189 1.442 4281744442
-0.21756148 -0.023366189 1.442 4281678649
-0.21631005 -0.023366189 1.442 4281612856
-0.21505861 -0.023366189 1.442 4281678649
-0.21380717 -0.023366189 1.442 4281810235
-0.21240832 -0.023349984 1.4410001 4281876028
-0.21101122 -0.02333378 1.4400001 4281810236
-0.20961586 -0.023317575 1.439 4281810236
-0.20822221 -0.02330137 1.4380001 4281678650
-0.20711818 -0.023317575 1.439 4281481271
-0.20601241 -0.02333378 1.4400001 4281415479
-0.2050471 -0.023366189 1.442 4281349687
-0.20379566 -0.023366189 1.442 4281349686
-0.20268469 -0.023382392 1.4430001 4281481272
-0.20185116 -0.023431003 1.4460001 4281218359
-0.20073496 -0.023447208 1.447 4281218360
-0.19947919 -0.023447208 1.447 4281480762
-0.19863437 -0.023495821 1.45 4281415225
-0.19751212 -0.023512023 1.4510001 4281415226
-0.19638813 -0.023528228 1.452 4281546555
-0.19553116 -0.023576841 1.455 4281612605
-0.19440195 -0.023593044 1.4560001 4281546556
-0.19340368 -0.02362545 1.4580001 4281612350
-0.19306083 -0.02373888 1.465 4281743936
-0.19218217 -0.023787493 1.4680001 4281743936
-0.19129831 -0.023836104 1.4710001 4281414971
-0.24797367 -0.022614386 1.4740001 4288916146
-0.24619238 -0.022568358 1.4710001 4287468699
-0.2437503 -0.022460964 1.4640001 4286087045
-0.24231412 -0.022445623 1.4630001 4284639599
-0.24055019 -0.022399595 1.46 4283323739
-0.23862755 -0.022338226 1.4560001 4282665551
-0.23720095 -0.022322884 1.455 4282862674
-0.23528959 -0.022261515 1.4510001 4282796880
-0.23386905 -0.022246175 1.45 4282533707
-0.23261067 -0.022246175 1.45 4282270535
-0.23087364 -0.022200147 1.447 4282007363
-0.22945918 -0.022184804 1.4460001 4281678398
-0.22788861 -0.022154121 1.4440001 4281546811
-0.22616459 -0.022108093 1.4410001 4281481273
-0.22491403 -0.022108093 1.4410001 4281612602
-0.22366346 -0.022108093 1.4410001 4281678651
-0.22225854 -0.022092752 1.4400001 4281941823
-0.22100884 -0.022092752 1.4400001 4281876029
-0.21975914 -0.022092752 1.4400001 4281941821
-0.21866117 -0.022108093 1.4410001 4281744443
-0.21741061 -0.022108093 1.4410001 4281547065
-0.21616003 -0.022108093 1.4410001 4281415479
-0.21490946 -0.022108093 1.4410001 4281678651
-0.2136589 -0.022108093 1.4410001 4281809982
-0.21211353 -0.02207741 1.439 4281875776
-0.21086469 -0.02207741 1.439 4281875776
-0.20947018 -0.022062067 1.4380001 4281875776
-0.20807742 -0.022046724 1.437 4281678397
-0.20697424 -0.022062067 1.4380001 4281481018
-0.20586935 -0.02207741 1.439 4281283640
-0.2049049 -0.022108093 1.4410001 4281349433
-0.20379566 -0.022123436 1.442 4281349432
-0.20240375 -0.022108093 1.4410001 4281415226
-0.20171157 -0.022169463 1.4450001 4281348920
-0.20059624 -0.022184804 1.4460001 4281414713
-0.19947919 -0.022200147 1.447 4281480506
-0.19863437 -0.022246175 1.45 4281480506
-0.19751212 -0.022261515 1.4510001 4281480506
-0.19625287 -0.022261515 1.4510001 4281480506
-0.19553116 -0.022322884 1.455 4281348920
-0.19453548 -0.022353569 1.457 4281085748
-0.19340368 -0.02236891 1.4580001 4281348920
-0.1931926 -0.022491647 1.4660001 4281677885
-0.19231309 -0.022537675 1.4690001 4281809471
-0.19129831 -0.022568358 1.4710001 4282138180
-0.24959108 -0.021373015 1.4760001 4291416280
-0.24763721 -0.021315094 1.4720001 4289705662
-0.24585763 -0.021271653 1.4690001 4289310903
-0.24358378 -0.021184772 1.4630001 4288981937
-0.24198288 -0.02115581 1.4610001 4286876561
-0.24055019 -0.02114133 1.46 4283981669
-0.23846366 -0.021068929 1.455 4282797138
-0.23703793 -0.021054449 1.4540001 4282796881
-0.23496528 -0.020982046 1.4490001 4282533708
-0.23370777 -0.020982046 1.4490001 4282270535
-0.23245025 -0.020982046 1.4490001 4282204742
-0.2307141 -0.020938605 1.4460001 4281941570
-0.2291418 -0.020909645 1.4440001 4281612604
-0.22773081 -0.020895163 1.4430001 4281481018
-0.22600766 -0.020851724 1.4400001 4281678397
-0.22475795 -0.020851724 1.4400001 4281678397
-0.22350825 -0.020851724 1.4400001 4281744188
-0.22210421 -0.020837242 1.439 4281810237
-0.22085537 -0.020837242 1.439 4282007616
-0.21960653 -0.020837242 1.439 4282007616
-0.2183577 -0.020837242 1.439 4281744444
-0.21725973 -0.020851724 1.4400001 4281678651
-0.21601003 -0.020851724 1.4400001 4281678651
-0.21476033 -0.020851724 1.4400001 4281809981
-0.21351062 -0.020851724 1.4400001 4281809726
-0.21196611 -0.020822762 1.4380001 4281875776
-0.21071814 -0.020822762 1.4380001 4281875776
-0.20932451 -0.020808283 1.437 4281809983
-0.20807742 -0.020808283 1.437 4281678397
-0.20683032 -0.020808283 1.437 4281481018
-0.20572628 -0.020822762 1.4380001 4281415226
-0.20476271 -0.020851724 1.4400001 4281283640
-0.203513 -0.020851724 1.4400001 4281349433
-0.20240375 -0.020866202 1.4410001 4281086261
-0.20157196 -0.020909645 1.4440001 4281019955
-0.20059624 -0.020938605 1.4460001 4281151541
-0.19947919 -0.020953085 1.447 4281151541
-0.19863437 -0.020996528 1.45 4281151541
-0.19751212 -0.021011006 1.4510001 4281348920
-0.19625287 -0.021011006 1.4510001 4281348920
-0.19553116 -0.021068929 1.455 4281743678
-0.19440195 -0.021083409 1.4560001 4281743678
-0.19340368 -0.021112369 1.4580001 4282533194
-0.1931926 -0.021228211 1.4660001 4283783261
-0.19231309 -0.021271653 1.4690001 4283980640
-0.19142835 -0.021315094 1.4720001 4284967535
-0.24341729 -0.019910302 1.462 4289310902
-0.24181725 -0.019883066 1.46 4287271319
-0.24022068 -0.019855827 1.4580001 4284376427
-0.23813589 -0.019787734 1.4530001 4284047205
-0.23638581 -0.019746881 1.45 4284770671
-0.23447882 -0.019692406 1.4460001 4283323224
-0.2330626 -0.019678788 1.4450001 4282007363
-0.23180856 -0.019678788 1.4450001 4281612605
-0.23007587 -0.019637931 1.442 4281875520
-0.22866575 -0.019624313 1.4410001 4281875521
-0.22725736 -0.019610696 1.4400001 4281809471
-0.22569375 -0.019583456 1.4380001 4281743677
-0.22444578 -0.019583456 1.4380001 4281875263
-0.22319782 -0.019583456 1.4380001 4281941056
-0.2217955 -0.01956984 1.437 4281941312
-0.22054841 -0.01956984 1.437 4282072898
-0.21930131 -0.01956984 1.437 4282072642
-0.21805421 -0.01956984 1.437 4281941312
-0.21695799 -0.019583456 1.4380001 4281941312
-0.21571001 -0.019583456 1.4380001 4281743677
-0.21446204 -0.019583456 1.4380001 4281743933
-0.21306582 -0.01956984 1.437 4281809726
-0.21167131 -0.019556221 1.4360001 4281875520
-0.21042508 -0.019556221 1.4360001 4281809984
-0.20903318 -0.019542601 1.4350001 4281744191
-0.20778781 -0.019542601 1.4350001 4281546812
-0.20654245 -0.019542601 1.4350001 4281480762
-0.20544016 -0.019556221 1.4360001 4281415226
-0.20462051 -0.019597076 1.439 4281152054
-0.20337167 -0.019597076 1.439 4281020468
-0.2022633 -0.019610696 1.4400001 4280691503
-0.20157196 -0.019665169 1.4440001 4280690990
-0.20045753 -0.019678788 1.4450001 4280625197
-0.19934133 -0.019692406 1.4460001 4280493611
-0.19863437 -0.019746881 1.45 4280559404
-0.197376 -0.019746881 1.45 4281283127
-0.19625287 -0.019760499 1.4510001 4283322710
-0.19553116 -0.019814974 1.455 4284967535
-0.19453548 -0.019842209 1.457 4284704363
-0.19353633 -0.019869447 1.4590001 4285362293
-0.19345617 -0.019992014 1.4680001 4287270290
-0.19270582 -0.020046487 1.4720001 4286941325
-0.19181849 -0.020087343 1.475 4287336083
-0.24341729 -0.018650314 1.462 4288784558
-0.24198288 -0.018637557 1.4610001 4287402905
-0.24038543 -0.018612044 1.4590001 4284902771
-0.23813589 -0.018535502 1.4530001 4285757823
-0.23638581 -0.018497234 1.45 4287928735
-0.23447882 -0.018446207 1.4460001 4285691771
-0.2330626 -0.01843345 1.4450001 4282994258
-0.23180856 -0.01843345 1.4450001 4282928209
-0.23007587 -0.01839518 1.442 4282401608
-0.22866575 -0.018382423 1.4410001 4281546299
-0.22725736 -0.018369667 1.4400001 4281283127
-0.22569375 -0.018344153 1.4380001 4281546042
-0.22444578 -0.018344153 1.4380001 4281546299
-0.22319782 -0.018344153 1.4380001 4281743164
-0.2217955 -0.018331397 1.437 4281940543
-0.22054841 -0.018331397 1.437 4282006335
-0.21930131 -0.018331397 1.437 4281874749
-0.21805421 -0.018331397 1.437 4281808957
-0.21695799 -0.018344153 1.4380001 4281940543
-0.21571001 -0.018344153 1.4380001 4281677885
-0.21446204 -0.018344153 1.4380001 4281546299
-0.21306582 -0.018331397 1.437 4281217334
-0.21167131 -0.01831864 1.4360001 4281019955
-0.21027854 -0.018305881 1.4350001 4281217334
-0.20903318 -0.018305881 1.4350001 4281414713
-0.20778781 -0.018305881 1.4350001 4281546299
-0.20668639 -0.01831864 1.4360001 4281283127
-0.20544016 -0.01831864 1.4360001 4280691247
-0.20462051 -0.01835691 1.439 4280428075
-0.203513 -0.018369667 1.4400001 4280823089
-0.2022633 -0.018369667 1.4400001 4282599500
-0.20157196 -0.018420693 1.4440001 4282796366
-0.20045753 -0.01843345 1.4450001 4283059538
-0.19934133 -0.018446207 1.4460001 4282204229
-0.19863437 -0.018497234 1.45 4281348920
-0.197376 -0.018497234 1.45 4283322710
-0.19625287 -0.01850999 1.4510001 4287730841
-0.19566554 -0.018573774 1.4560001 4288520357
-0.19466899 -0.018599287 1.4580001 4287467669
-0.19366898 -0.018624801 1.46 4287336083
-0.19371973 -0.018752368 1.47 4287796634
-0.19283673 -0.018790638 1.473 4287138704
-0.19194853 -0.018828908 1.4760001 4286941325
-0.24358378 -0.017402221 1.4630001 4288455593
-0.24198288 -0.017378431 1.4610001 4287928992
-0.24038543 -0.017354641 1.4590001 4286349703
-0.23813589 -0.01728327 1.4530001 4286349703
-0.23638581 -0.017247587 1.45 4288191907
-0.23447882 -0.017200006 1.4460001 4288652457
-0.2330626 -0.017188113 1.4450001 4288257698
-0.23180856 -0.017188113 1.4450001 4288717736
-0.23007587 -0.017152429 1.442 4285428086
-0.22866575 -0.017140532 1.4410001 4282072643
-0.22725736 -0.017128639 1.4400001 4281743678
-0.22569375 -0.017104847 1.4380001 4283059024
-0.22444578 -0.017104847 1.4380001 4282532680
-0.22319782 -0.017104847 1.4380001 4281611578
-0.2217955 -0.017092954 1.437 4281545785
-0.22054841 -0.017092954 1.437 4282269508
-0.21930131 -0.017092954 1.437 4282203715
-0.21805421 -0.017092954 1.437 4281414199
-0.21695799 -0.017104847 1.4380001 4281085234
-0.21571001 -0.017104847 1.4380001 4282072129
-0.21446204 -0.017104847 1.4380001 4282072129
-0.21306582 -0.017092954 1.437 4281414199
-0.21167131 -0.017081058 1.4360001 4281479992
-0.21027854 -0.017069163 1.4350001 4282467144
-0.20903318 -0.017069163 1.4350001 4283783261
-0.20778781 -0.017069163 1.4350001 4284243812
-0.20668639 -0.017081058 1.4360001 4283191124
-0.20544016 -0.017081058 1.4360001 4281283127
-0.20462051 -0.017116742 1.439 4281151541
-0.203513 -0.017128639 1.4400001 4283651932
-0.2022633 -0.017128639 1.4400001 4287467926
-0.20157196 -0.017176218 1.4440001 4288257185
-0.20045753 -0.017188113 1.4450001 4288125599
-0.19934133 -0.017200006 1.4460001 4286612360
-0.19863437 -0.017247587 1.45 4284112226
-0.197376 -0.017247587 1.45 4286743946
-0.19625287 -0.01725948 1.4510001 4288980908
-0.19566554 -0.017318955 1.4560001 4288849322
-0.19466899 -0.017342744 1.4580001 4287533462
-0.19380163 -0.017378431 1.4610001 4287665048
-0.19385152 -0.017497379 1.4710001 4288125599
-0.19296765 -0.017533064 1.4740001 4287270290
-0.19207859 -0.017568748 1.4770001 4286941326
-0.2437503 -0.016152402 1.4640001 4286942354
-0.24231412 -0.01614137 1.4630001 4287731613
-0.24071494 -0.016119303 1.4610001 4286612875
-0.23862755 -0.016064137 1.4560001 4286020738
-0.23671187 -0.016020007 1.452 4288191907
-0.23480313 -0.015975874 1.4480001 4289836731
-0.23338521 -0.015964841 1.447 4290428867
-0.231969 -0.015953807 1.4460001 4290428610
-0.23023543 -0.015920708 1.4430001 4287270290
-0.22882444 -0.015909676 1.442 4283125331
-0.22741517 -0.015898643 1.4410001 4284901742
-0.2258507 -0.015876576 1.439 4288388514
-0.22460188 -0.015876576 1.439 4285756537
-0.22335304 -0.015876576 1.439 4282137922
-0.22194985 -0.015865542 1.4380001 4281611578
-0.22070189 -0.015865542 1.4380001 4285295986
-0.21945392 -0.015865542 1.4380001 4286151295
-0.21820594 -0.015865542 1.4380001 4282532680
-0.21710886 -0.015876576 1.439 4281611578
-0.21586002 -0.015876576 1.439 4285098607
-0.21446204 -0.015865542 1.4380001 4286282881
-0.21321408 -0.015865542 1.4380001 4283651161
-0.21181871 -0.015854511 1.437 4284111712
-0.21071814 -0.015865542 1.4380001 4287796120
-0.20947018 -0.015865542 1.4380001 4288717222
-0.20836702 -0.015876576 1.439 4288322978
-0.20711818 -0.015876576 1.439 4287730584
-0.20601241 -0.015887611 1.4400001 4284506727
-0.2049049 -0.015898643 1.4410001 4284178019
-0.20393699 -0.015920708 1.4430001 4288191392
-0.20268469 -0.015920708 1.4430001 4288717736
-0.20185116 -0.015953807 1.4460001 4287665048
-0.2008737 -0.015975874 1.4480001 4287533462
-0.19975491 -0.015986906 1.4490001 4288322978
-0.19877137 -0.016008973 1.4510001 4287730841
-0.19764824 -0.016020007 1.452 4287467669
-0.19638813 -0.016020007 1.452 4288388771
-0.24391679 -0.014900862 1.465 4285757566
-0.24231412 -0.01488052 1.4630001 4285823359
-0.2408797 -0.014870348 1.462 4285428601
-0.23895535 -0.014829663 1.4580001 4285165429
-0.23736396 -0.014809321 1.4560001 4287599770
-0.23512743 -0.014748294 1.45 4289639351
-0.23370777 -0.014738122 1.4490001 4290099902
-0.23228984 -0.01472795 1.4480001 4289902267
-0.23039497 -0.014687266 1.4440001 4288059806
-0.22898312 -0.014677094 1.4430001 4285296500
-0.22773081 -0.014677094 1.4430001 4287928220
-0.22600766 -0.014646582 1.4400001 4290362047
-0.22475795 -0.014646582 1.4400001 4289440945
-0.22350825 -0.014646582 1.4400001 4283782747
-0.22210421 -0.01463641 1.439 4282335301
-0.22085537 -0.01463641 1.439 4287861913
-0.21960653 -0.01463641 1.439 4289967546
-0.2183577 -0.01463641 1.439 4287269776
-0.21695799 -0.014626238 1.4380001 4284967021
-0.21586002 -0.01463641 1.439 4288519843
-0.21461119 -0.01463641 1.439 4289769910
-0.21321408 -0.014626238 1.4380001 4288059292
-0.21211353 -0.01463641 1.439 4288059292
-0.21086469 -0.01463641 1.439 4288783015
-0.20961586 -0.01463641 1.439 4288256671
-0.20865661 -0.014656752 1.4410001 4288125085
-0.20740604 -0.014656752 1.4410001 4288059292
-0.20615546 -0.014656752 1.4410001 4287598741
-0.20518929 -0.014677094 1.4430001 4288125085
-0.20407832 -0.014687266 1.4440001 4289046701
-0.2029656 -0.014697438 1.4450001 4288125599
-0.20213035 -0.01472795 1.4480001 4285625465
-0.20101242 -0.014738122 1.4490001 4286086016
-0.19989276 -0.014748294 1.45 4288586150
-0.19904535 -0.014778807 1.4530001 4288520357
-0.19778436 -0.014778807 1.4530001 4287336083
-0.19638813 -0.014768636 1.452 4287796634
-0.24391679 -0.013638288 1.465 4285428601
-0.24247977 -0.013628978 1.4640001 4284178534
-0.24104446 -0.013619669 1.4630001 4283520604
-0.23928313 -0.01359174 1.46 4283586397
-0.23769003 -0.013573122 1.4580001 4285494394
-0.23528959 -0.013507956 1.4510001 4287139218
-0.23386905 -0.013498647 1.45 4286941838
-0.23245025 -0.013489338 1.4490001 4287533719
-0.2307141 -0.013461409 1.4460001 4288191392
-0.22930047 -0.0134521 1.4450001 4288388771
-0.22788861 -0.01344279 1.4440001 4289836217
-0.22616459 -0.013414862 1.4410001 4291085770
-0.22491403 -0.013414862 1.4410001 4290756805
-0.22366346 -0.013414862 1.4410001 4286677639
-0.22225854 -0.013405553 1.4400001 4283848540
-0.22085537 -0.013396244 1.439 4287401619
-0.21960653 -0.013396244 1.439 4290099389
-0.21820594 -0.013386934 1.4380001 4289967546
-0.21710886 -0.013396244 1.439 4288783015
-0.21586002 -0.013396244 1.439 4289704117
-0.21461119 -0.013396244 1.439 4290296254
-0.21336235 -0.013396244 1.439 4289440945
-0.21226092 -0.013405553 1.4400001 4289177773
-0.21101122 -0.013405553 1.4400001 4288717222
-0.20990717 -0.013414862 1.4410001 4287335569
-0.20894621 -0.013433482 1.4430001 4287467155
-0.2076939 -0.013433482 1.4430001 4288454050
-0.2064416 -0.013433482 1.4430001 4288914601
-0.20547369 -0.0134521 1.4450001 4289309359
-0.20436098 -0.013461409 1.4460001 4289112237
-0.20310606 -0.013461409 1.4460001 4288256671
-0.20240952 -0.013498647 1.45 4286480774
-0.20128988 -0.013507956 1.4510001 4287204497
-0.20016848 -0.013517266 1.452 4288586150
-0.19918235 -0.013535884 1.4540001 4288191392
-0.19792049 -0.013535884 1.4540001 4287204497
-0.19652337 -0.013526576 1.4530001 4287796634
-0.24043037 -0.012392609 1.4670001 4283060053
-0.23883119 -0.012375713 1.465 4283389018
-0.23723547 -0.012358819 1.4630001 4283454553
-0.23499806 -0.012308134 1.457 4283191124
-0.23341277 -0.012291238 1.455 4284638570
-0.23151183 -0.012257447 1.4510001 4287138704
-0.23009391 -0.012249 1.45 4289046444
-0.22867772 -0.012240552 1.4490001 4290164668
-0.22694935 -0.01221521 1.4460001 4290625219
-0.22569445 -0.01221521 1.4460001 4290296254
-0.22428432 -0.012206762 1.4450001 4288914601
-0.22287592 -0.012198315 1.4440001 4286677639
-0.22162275 -0.012198315 1.4440001 4288059292
-0.22006436 -0.012181419 1.442 4290033082
-0.21881293 -0.012181419 1.442 4290098875
-0.21771236 -0.012189868 1.4430001 4289506738
-0.21646005 -0.012189868 1.4430001 4290427840
-0.21535689 -0.012198315 1.4440001 4290625219
-0.2141037 -0.012198315 1.4440001 4289506225
-0.21299794 -0.012206762 1.4450001 4288914088
-0.21203697 -0.012223658 1.447 4288848808
-0.21092686 -0.012232105 1.4480001 4287993499
-0.20995981 -0.012249 1.45 4287927706
-0.20884536 -0.012257447 1.4510001 4288980394
-0.20758612 -0.012257447 1.4510001 4288980394
-0.20646906 -0.012265895 1.452 4288322464
-0.20535026 -0.012274344 1.4530001 4288191392
-0.20408928 -0.012274344 1.4530001 4288388771
-0.20310749 -0.012291238 1.455 4288059806
-0.20212223 -0.012308134 1.457 4288257185
-0.20099561 -0.012316581 1.4580001 4287730841
-0.20041524 -0.012358819 1.4630001 4285954430
-0.19941783 -0.012375713 1.465 4285296500
-0.19841692 -0.012392609 1.4670001 4286020223
-0.19835326 -0.012468638 1.4760001 4286020736
-0.1976064 -0.012502428 1.48 4284573290
-0.1954329 -0.01252777 1.483 4281415226
-0.24075815 -0.011143483 1.4690001 4283915362
-0.23932026 -0.011135898 1.4680001 4283060053
-0.23772195 -0.011120726 1.4660001 4282336072
-0.23564324 -0.011082797 1.4610001 4282138436
-0.23389405 -0.01106004 1.4580001 4282401608
-0.23183095 -0.011022111 1.4530001 4284178019
-0.23041129 -0.011014526 1.452 4286809482
