# .PCD v0.7 - Point Cloud Data file format
VERSION 0.7
FIELDS x y z rgba
SIZE 4 4 4 4
TYPE F F F U
COUNT 1 1 1 1
WIDTH 1109
HEIGHT 1
VIEWPOINT 0 0 0 1 0 0 0
POINTS 1109
DATA ascii
0.078721575 0.044963643 1.3310001 4284442737
0.081092671 0.044997424 1.332 4284376944
0.083342001 0.044963643 1.3310001 4284508787
0.085266106 0.04476095 1.325 4284377201
0.08749982 0.044727173 1.3240001 4284574580
0.089865707 0.04476095 1.325 4284508530
0.092582859 0.044963643 1.3310001 4284640115
0.095106959 0.045064989 1.3340001 4284705909
0.097641475 0.045166336 1.337 4284705907
0.0999621 0.045166336 1.337 4284771186
0.10205323 0.045064989 1.3340001 4284836977
0.1040557 0.044929862 1.33 4285034354
0.10612426 0.044828515 1.327 4284507754
0.10810069 0.044693388 1.3230001 4283191894
0.11014669 0.044592042 1.3200001 4291087053
0.11209708 0.044456914 1.3160001 4294704895
0.11412053 0.044355571 1.3130001 4294770431
0.1163995 0.044355571 1.3130001 4294835967
0.11849768 0.044288006 1.3110001 4294770175
0.12077319 0.044288006 1.3110001 4293125608
0.12314255 0.044321787 1.312 4283980642
0.12551539 0.044355571 1.3130001 4282993749
0.12808634 0.044456914 1.3160001 4283717473
0.13046958 0.044490699 1.317 4284375660
0.14405404 0.045166336 1.337 4283455583
0.14670311 0.045267679 1.34 4282337358
0.14925139 0.045335244 1.342 4281416255
0.15146774 0.04530146 1.3410001 4283850596
0.1537953 0.04530146 1.3410001 4285034872
0.15612288 0.04530146 1.3410001 4284837493
0.15856861 0.045335244 1.342 4284705394
0.16101781 0.045369025 1.3430001 4283915878
0.16383538 0.045504153 1.3470001 4282994776
0.16654345 0.045605499 1.35 4282797398
0.16963726 0.045808189 1.3560001 4283323743
0.17262505 0.045977097 1.3610001 4283915880
0.17774054 0.046078444 1.3640001 4283784807
0.18037212 0.046146009 1.3660001 4283850600
0.1826093 0.046112224 1.365 4283982186
0.18497854 0.046112224 1.365 4283982186
0.18748501 0.046146009 1.3660001 4284245358
0.19013396 0.046213571 1.368 4284442737
0.19602248 0.046483826 1.376 4283653221
0.19970855 0.046787862 1.3850001 4283587428
0.20255029 0.046889208 1.388 4283784549
0.20599309 0.047125682 1.3950001 4284113257
0.20871319 0.047193244 1.3970001 4284113256
0.21098682 0.047159463 1.396 4284178790
0.21126965 0.046686519 1.3820001 4283191637
0.21351378 0.046652734 1.381 4286480774
0.21606712 0.046686519 1.3820001 4292731106
0.21909818 0.046821646 1.386 4294573309
0.22182348 0.046889208 1.388 4291547088
0.22520193 0.047091898 1.3940001 4284901482
0.23136124 0.047362156 1.4020001 4293717485
0.23446171 0.047497284 1.406 4294835966
-0.056024492 0.049991746 1.4080001 4282073936
-0.053504519 0.049920734 1.406 4282139988
-0.051027808 0.049885228 1.4050001 4281088070
-0.048519988 0.049814221 1.4030001 4280890689
-0.046051957 0.049778711 1.4020001 4280824896
-0.043525171 0.049672198 1.399 4280759103
-0.041038178 0.049601182 1.3970001 4280889662
-0.038585767 0.04956568 1.396 4280954940
-0.030509068 0.048287481 1.36 4294639359
-0.028107122 0.04821647 1.358 4294376187
-0.02580693 0.048322987 1.3610001 4281020470
-0.023444645 0.048322987 1.3610001 4282467914
-0.021004908 0.048145458 1.3560001 4281612605
-0.018610038 0.048038945 1.353 4292534243
-0.01622558 0.047932427 1.35 4294639615
-0.013902954 0.048003439 1.3520001 4291086798
-0.0092573082 0.048251975 1.3590001 4282271305
-0.0069289515 0.04846501 1.365 4282271564
-0.0045697447 0.048571523 1.368 4282337359
-0.0021872853 0.048393998 1.363 4285692800
0.00017860233 0.0484295 1.3640001 4282929748
0.0073344605 0.048784558 1.3740001 4281810754
0.028085489 0.047577374 1.34 4281942340
0.030320544 0.047435351 1.3360001 4280691760
0.032541715 0.047293328 1.332 4293257706
0.034748998 0.047151305 1.3280001 4294639615
0.037081908 0.047186811 1.3290001 4294639615
0.039596118 0.047435351 1.3360001 4284639083
0.04200913 0.047541864 1.3390001 4283652188
0.04430012 0.047506358 1.3380001 4284573290
0.046413414 0.047293328 1.332 4285100404
0.048542462 0.047115799 1.327 4284968818
0.05061584 0.046902768 1.3210001 4282731856
0.052708432 0.04672524 1.3160001 4283060051
0.054867253 0.046618722 1.3130001 4291942103
0.057146221 0.046618722 1.3130001 4293126121
0.059425194 0.046618722 1.3130001 4292337119
0.061939143 0.046796247 1.3180001 4284508015
0.064372987 0.046902768 1.3210001 4283916391
0.066665843 0.046902768 1.3210001 4284179563
0.068854295 0.046831757 1.319 4284245613
0.071089745 0.046796247 1.3180001 4284837751
0.073377393 0.046796247 1.3180001 4285100667
0.075665042 0.046796247 1.3180001 4284903288
0.078070976 0.046867263 1.3200001 4284508787
0.08054474 0.04697378 1.3230001 4284442994
0.08302892 0.047080293 1.3260001 4284508787
0.085330456 0.047080293 1.3260001 4284574580
0.087631993 0.047080293 1.3260001 4284640373
0.090069175 0.047151305 1.3280001 4284705909
0.092582859 0.047257822 1.3310001 4284705909
0.095106959 0.047364339 1.3340001 4284705909
0.097349353 0.047328833 1.3330001 4284640116
0.099588268 0.047293328 1.332 4284640116
0.10167071 0.047186811 1.3290001 4284771700
0.10358627 0.047009286 1.3240001 4284968821
0.10572439 0.04693827 1.322 4285297785
0.10810069 0.04697378 1.3230001 4284442476
0.11048046 0.047009286 1.3240001 4283126101
0.11277853 0.047009286 1.3240001 4284704619
0.11446818 0.046760745 1.317 4290757317
0.11666545 0.04672524 1.3160001 4294770431
0.11867847 0.046618722 1.3130001 4294835967
0.12077319 0.046547715 1.3110001 4294835967
0.12295484 0.046512205 1.3100001 4293256938
0.1252286 0.046512205 1.3100001 4292006871
0.12750237 0.046512205 1.3100001 4290362304
0.12977614 0.046512205 1.3100001 4287138451
0.1322515 0.046583217 1.312 4282861906
0.13493888 0.04672524 1.3160001 4283980902
0.13743161 0.046796247 1.3180001 4285033846
0.1402493 0.04697378 1.3230001 4284902260
0.14286886 0.047080293 1.3260001 4284244586
0.14506093 0.047044788 1.325 4283981670
0.14914016 0.047612876 1.3410001 4283192409
0.15158069 0.047648381 1.342 4281810756
0.15391 0.047648381 1.342 4282666322
0.15612288 0.047612876 1.3410001 4284969077
0.15833229 0.047577374 1.34 4284705905
0.16053824 0.047541864 1.3390001 4284376427
0.16310559 0.047612876 1.3410001 4284508013
0.16567989 0.047683887 1.3430001 4284639600
0.16851135 0.04782591 1.3470001 4283521633
0.17161036 0.048038945 1.353 4283061082
0.17447305 0.048180968 1.3570001 4283521633
0.17734961 0.048322987 1.3610001 4283784805
0.17984395 0.048358493 1.3620001 4284047977
0.18207419 0.048322987 1.3610001 4283719012
0.18443647 0.048322987 1.3610001 4283653220
0.18707326 0.048393998 1.363 4284311150
0.18971699 0.04846501 1.365 4284508530
0.193212 0.048749056 1.373 4283916392
0.19942017 0.049104109 1.383 4283981672
0.20240435 0.049246129 1.3870001 4284244843
0.20540243 0.049388152 1.391 4284244842
0.207518 0.04931714 1.3890001 4284244584
0.20796409 0.048855569 1.376 4284639084
0.20958805 0.048678041 1.3710001 4289705144
0.21212229 0.048713546 1.3720001 4290757575
0.21512906 0.048855569 1.376 4284770156
0.21862394 0.049104109 1.383 4287928476
0.22166365 0.049246129 1.3870001 4294573567
0.22536348 0.049530175 1.3950001 4290428608
0.23152627 0.049814221 1.4030001 4294243830
0.234962 0.050027251 1.409 4294836222
-0.058426827 0.052381415 1.4070001 4282205007
-0.055865329 0.052269727 1.404 4282468694
-0.053428408 0.052269727 1.404 4281745230
-0.050955169 0.0522325 1.4030001 4280955714
-0.048381656 0.052083585 1.399 4280890175
-0.045887716 0.052009124 1.3970001 4280955967
-0.04327628 0.051785748 1.391 4280955453
-0.040656291 0.051525146 1.3840001 4279705128
-0.037867121 0.05100394 1.3700001 4281678398
-0.035333786 0.050780561 1.3640001 4279835944
-0.032869618 0.050631646 1.36 4289573304
-0.030396901 0.050445501 1.355 4294639359
-0.02804503 0.050445501 1.355 4293060589
-0.02569316 0.050445501 1.355 4281349435
-0.023410192 0.050594416 1.3590001 4283060051
-0.021051379 0.050594416 1.3590001 4281546812
-0.018665057 0.050519962 1.3570001 4291284176
-0.016273657 0.05040827 1.3540001 4294574079
-0.01392352 0.05040827 1.3540001 4293192943
-0.011607575 0.050557189 1.358 4281218874
-0.0045998087 0.051264539 1.3770001 4281876806
-0.0022257997 0.05163683 1.3870001 4281087290
0.00018161397 0.05163683 1.3870001 4281087544
0.0025796944 0.051450688 1.3820001 4281087287
0.0049856342 0.051525146 1.3840001 4280560687
0.0073825032 0.051487919 1.383 4280758066
0.0097900471 0.051525146 1.3840001 4280692273
0.03281045 0.049998753 1.3430001 4294573823
0.035167661 0.05003598 1.3440001 4294573823
0.037528343 0.050073206 1.345 4285560185
0.039922133 0.050147668 1.3470001 4281678398
0.042322863 0.050222125 1.3490001 4284112739
0.044465665 0.049998753 1.3430001 4284441704
0.046483107 0.049663689 1.3340001 4283915360
0.048688784 0.049551997 1.3310001 4281941570
0.050769102 0.049328625 1.325 4284639339
0.052868642 0.04914248 1.3200001 4294113529
0.055034399 0.049030792 1.317 4294639615
0.05723327 0.048956335 1.3150001 4294639615
0.059515711 0.048956335 1.3150001 4294573823
0.061986133 0.049105249 1.319 4284705392
0.06447044 0.049254168 1.3230001 4283324254
0.066766769 0.049254168 1.3230001 4283587939
0.069010898 0.049216937 1.322 4284114283
0.071197614 0.04914248 1.3200001 4284509041
0.073377393 0.049068019 1.3180001 4285101178
0.075550221 0.048993561 1.3160001 4285100922
0.077893548 0.049030792 1.317 4284640371
0.080301225 0.049105249 1.319 4284508786
0.082903691 0.049291398 1.3240001 4284640373
0.085330456 0.049365856 1.3260001 4284640373
0.087565906 0.049328625 1.325 4284837752
0.089933529 0.049365856 1.3260001 4284903288
0.092374183 0.049440313 1.3280001 4284640116
0.094679192 0.049440313 1.3280001 4284574068
0.0969842 0.049440313 1.3280001 4284705654
0.099289209 0.049440313 1.3280001 4284442737
0.1012117 0.049254168 1.3230001 4284640115
0.10303862 0.049030792 1.317 4284705651
0.10524455 0.048993561 1.3160001 4285231994
0.10769215 0.049068019 1.3180001 4285231736
0.11039702 0.049254168 1.3230001 4284771185
0.11286371 0.049328625 1.325 4283455068
0.11516352 0.049328625 1.325 4282862672
0.11684275 0.049068019 1.3180001 4287730840
0.11876885 0.048919108 1.314 4294178552
0.12086532 0.048844647 1.312 4294770431
0.12304869 0.04880742 1.3110001 4294835967
0.1252286 0.048770189 1.3100001 4294835967
0.12740503 0.048732959 1.309 4294770175
0.12967706 0.048732959 1.309 4294770175
0.13215069 0.04880742 1.3110001 4292401885
0.13463128 0.048881877 1.3130001 4287006863
0.13711879 0.048956335 1.3150001 4283717471
0.13971925 0.049068019 1.3180001 4285033331
0.14233014 0.04917971 1.3210001 4285033588
0.14473248 0.049216937 1.322 4284573293
0.14914016 0.049924292 1.3410001 4283981412
0.15158069 0.049961522 1.342 4283455325
0.15402468 0.049998753 1.3430001 4282139465
0.15635572 0.049998753 1.3430001 4282402894
0.15845045 0.049924292 1.3410001 4284047975
0.16065812 0.049887065 1.34 4284442733
0.16286233 0.049849834 1.3390001 4284508526
0.16530979 0.049887065 1.34 4284310891
0.16763563 0.049887065 1.34 4283126361
0.17034198 0.049998753 1.3430001 4282995032
0.17293018 0.050073206 1.345 4282929496
0.17578591 0.050222125 1.3490001 4283390047
0.17865555 0.050371043 1.353 4284179563
0.18127151 0.050445501 1.355 4284179564
0.18402992 0.050557189 1.358 4284113771
0.18693601 0.050706103 1.3620001 4284047978
0.18943901 0.050743334 1.363 4283982184
0.19307128 0.051078394 1.3720001 4283719012
0.19884339 0.051339 1.3790001 4284310636
0.20138286 0.051376231 1.3800001 4284376171
0.20126779 0.050743334 1.363 4284310118
0.20378296 0.050780561 1.3640001 4284375911
0.20615046 0.050780561 1.3640001 4287468182
0.20851794 0.050780561 1.3640001 4292929000
0.21104005 0.050817791 1.365 4294441980
0.21450368 0.051078394 1.3720001 4294704895
0.21862394 0.051487919 1.383 4287467924
0.22166365 0.05163683 1.3870001 4294047222
0.22794807 0.051971897 1.396 4292928228
0.23185632 0.052306958 1.4050001 4293980659
0.23512876 0.052493103 1.4100001 4294835967
-0.058426827 0.05480659 1.4070001 4282336595
-0.055825539 0.054650784 1.4030001 4282468953
-0.053390354 0.054650784 1.4030001 4281416265
-0.050918855 0.054611828 1.4020001 4281284168
-0.048347071 0.054456018 1.3980001 4281153093
-0.045329314 0.05375487 1.3800001 4281020994
-0.042747378 0.053521149 1.3740001 4279836462
-0.040303778 0.053443246 1.3720001 4287533725
-0.037756559 0.053209528 1.3660001 4293915894
-0.035204265 0.052936859 1.3590001 4280230956
-0.032797113 0.052858952 1.3570001 4288849837
-0.030329604 0.052664187 1.3520001 4294639615
-0.028003637 0.052703142 1.353 4293915641
-0.0256742 0.052742094 1.3540001 4281152054
-0.023392966 0.052897904 1.358 4282533709
-0.021159811 0.053209528 1.3660001 4282139208
-0.018775092 0.053170573 1.365 4287995042
-0.016357789 0.053014763 1.3610001 4294508543
-0.013974936 0.052936859 1.3590001 4289377207
-0.0094412286 0.053988583 1.386 4282140232
-0.0070406268 0.054027535 1.3870001 4281745220
-0.0046465751 0.054183345 1.391 4281021497
-0.0022370329 0.054300204 1.3940001 4280889911
0.00018266149 0.054339159 1.3950001 4280758325
0.0026039607 0.054339159 1.3950001 4280231981
0.0050108503 0.054183345 1.391 4280231981
0.0074145305 0.054105442 1.3890001 4280363821
0.0098112691 0.054027535 1.3870001 4280363564
0.012262729 0.054222301 1.3920001 4280429614
0.014710457 0.054339159 1.3950001 4280297772
0.01720544 0.054572877 1.401 4280693043
0.01969322 0.054728687 1.4050001 4280890165
0.022147629 0.054767642 1.406 4280626993
0.024535557 0.054650784 1.4030001 4280889652
0.026913071 0.054533921 1.4000001 4281086518
0.029343048 0.054533921 1.4000001 4281481019
0.042573854 0.052858952 1.3570001 4282073155
0.044995412 0.052936859 1.3590001 4281481531
0.046866402 0.052391518 1.345 4280494893
0.049164332 0.052352563 1.3440001 4284968048
0.050999001 0.051846176 1.3310001 4294047736
0.053108957 0.051651414 1.3260001 4294705151
0.055326916 0.051573511 1.3240001 4294639615
0.057494409 0.051456653 1.3210001 4294442751
0.059742004 0.051417701 1.3200001 4289902779
0.061986133 0.051378746 1.319 4283981411
0.067019105 0.051729321 1.3280001 4283587681
0.069219701 0.051651414 1.3260001 4283785317
0.071359426 0.051534556 1.3230001 4283982695
0.073600084 0.051495604 1.322 4284377454
0.075779855 0.051417701 1.3200001 4284969590
0.078070976 0.051417701 1.3200001 4284640625
0.080362104 0.051417701 1.3200001 4284640370
0.082778454 0.051495604 1.322 4284706164
0.085201755 0.051573511 1.3240001 4284771959
0.087367646 0.051495604 1.322 4284771959
0.089458764 0.051378746 1.319 4284838009
0.091817707 0.051417701 1.3200001 4284837752
0.094108835 0.051417701 1.3200001 4284706167
0.096399955 0.051417701 1.3200001 4284771703
0.098765843 0.051456653 1.3210001 4284705654
0.10067619 0.051261887 1.3160001 4284574068
0.10264742 0.051106077 1.312 4284640115
0.10484469 0.051067125 1.3110001 4284837238
0.1072019 0.051106077 1.312 4285165946
0.10989635 0.051300842 1.317 4285034359
0.11243781 0.051417701 1.3200001 4284836979
0.11507659 0.051573511 1.3240001 4284704879
0.11755196 0.051651414 1.3260001 4283849312
0.1198535 0.051651414 1.3260001 4284704621
0.12151018 0.051378746 1.319 4290625989
0.12361184 0.051300842 1.317 4294704895
0.12551539 0.051145028 1.3130001 4294770431
0.1273077 0.050950263 1.3080001 4294704895
0.12957799 0.050950263 1.3080001 4294770175
0.13194908 0.050989218 1.309 4294835711
0.13432366 0.05102817 1.3100001 4294835967
0.13649315 0.050989218 1.309 4292007128
0.13897718 0.051067125 1.3110001 4286941069
0.14146818 0.051145028 1.3130001 4284112484
0.14374717 0.051145028 1.3130001 4285099635
0.1465822 0.05133979 1.3180001 4284836720
0.14932166 0.051495604 1.322 4284178791
0.15173094 0.051534556 1.3230001 4283652704
0.15542434 0.05200199 1.335 4283060824
0.1579778 0.052079897 1.337 4281810756
0.16041833 0.052118849 1.3380001 4282534735
0.16298395 0.052196756 1.34 4284442732
0.16543317 0.052235708 1.3410001 4284376939
0.16763563 0.052196756 1.34 4283784545
0.16970779 0.052118849 1.3380001 4284047718
0.17215873 0.052157801 1.3390001 4283916389
0.17474344 0.052235708 1.3410001 4284047976
0.17759921 0.052391518 1.345 4284113770
0.18033506 0.052508377 1.348 4284113771
0.18308133 0.052625235 1.3510001 4284508530
0.18611251 0.052820001 1.3560001 4284113771
0.18874408 0.052897904 1.358 4283521633
0.19431299 0.053131621 1.3640001 4283981927
0.19682468 0.053170573 1.365 4284179049
0.19861019 0.053014763 1.3610001 4284310376
0.20038182 0.052858952 1.3570001 4284441705
0.20258775 0.052820001 1.3560001 4284573290
0.20494136 0.052820001 1.3560001 4284704876
0.20790645 0.052975811 1.36 4283323223
0.21057622 0.053053714 1.3620001 4285559927
0.21466002 0.053482197 1.373 4294573565
0.21909818 0.053988583 1.386 4293520879
0.22246274 0.054222301 1.3920001 4293060328
0.22892779 0.054611828 1.4020001 4292204248
0.23268142 0.054923449 1.4100001 4294572795
0.23612931 0.05515717 1.416 4294835967
-0.058426827 0.057231769 1.4070001 4282468694
-0.055865329 0.05710974 1.404 4281811023
-0.053428408 0.05710974 1.404 4281218886
-0.050955169 0.057069063 1.4030001 4281152580
-0.048416238 0.056947034 1.4000001 4281152580
-0.045197923 0.055970799 1.376 4280033840
-0.042591821 0.055686064 1.3690001 4290165446
-0.040156901 0.055604707 1.3670001 4294639103
-0.037673637 0.055442005 1.363 4284968048
-0.035178356 0.055238623 1.358 4279967782
-0.032748774 0.055116594 1.355 4286415494
-0.030352036 0.055035241 1.353 4294573823
-0.028003637 0.055035241 1.353 4294376188
-0.02569316 0.055116594 1.355 4281283642
-0.02337574 0.055197947 1.3570001 4282796880
-0.021252753 0.055808093 1.3720001 4282600016
-0.018857621 0.055767417 1.3710001 4282797395
-0.016441921 0.055645388 1.368 4283521118
-0.014036637 0.055523358 1.365 4281218876
-0.0094412286 0.056377564 1.386 4281350973
-0.007045703 0.056458917 1.388 4280627252
-0.0046465751 0.05658095 1.391 4280429873
-0.0022354282 0.056662295 1.393 4280231981
0.00018253055 0.056702979 1.3940001 4280166188
0.0026039607 0.056743652 1.3950001 4280231981
0.0050144526 0.056621622 1.3920001 4280231981
0.0074145305 0.056499593 1.3890001 4280363566
0.0098183425 0.056458917 1.388 4280363821
0.01225392 0.05658095 1.391 4280363821
0.014699911 0.056702979 1.3940001 4280429614
0.017193159 0.056947034 1.4000001 4281021751
0.019679204 0.05710974 1.404 4281087544
0.022147629 0.057191093 1.406 4280758323
0.024570532 0.057150412 1.4050001 4281152824
0.026951516 0.057028383 1.4020001 4280888882
0.029364008 0.05698771 1.401 4280954675
0.042730719 0.055401329 1.3620001 4282533707
0.045194071 0.055523358 1.365 4283323992
0.046936091 0.054791182 1.3470001 4287205779
0.049237493 0.054750506 1.3460001 4294244860
0.051190581 0.054343741 1.3360001 4294705151
0.053309213 0.054140355 1.3310001 4294376700
0.055494066 0.054018326 1.3280001 4294639359
0.057668503 0.053896297 1.325 4294705151
0.059923045 0.053855624 1.3240001 4283915360
0.062174112 0.053814948 1.3230001 4284113253
0.06447044 0.053814948 1.3230001 4285166454
0.067271434 0.054221712 1.3330001 4284114023
0.069532916 0.054181036 1.332 4282469454
0.071521237 0.053936977 1.3260001 4282535248
0.073767103 0.053896297 1.325 4282337869
0.075952083 0.053814948 1.3230001 4283258971
0.078248411 0.053814948 1.3230001 4284574830
0.080483861 0.053774271 1.322 4284574832
0.082841069 0.053814948 1.3230001 4284574833
0.085073054 0.053774271 1.322 4284640627
0.087235466 0.053692918 1.3200001 4284574580
0.089390948 0.053611562 1.3180001 4284706166
0.091678597 0.053611562 1.3180001 4284903545
0.093894951 0.053570889 1.317 4284969083
0.096107833 0.053530212 1.3160001 4285034619
0.09839201 0.053530212 1.3160001 4284903033
0.10044669 0.053408183 1.3130001 4284771447
0.10241271 0.053245477 1.309 4284837496
0.10468474 0.053245477 1.309 4284771702
0.10712019 0.05332683 1.3110001 4284968568
0.10972947 0.053489532 1.3150001 4285100154
0.11235262 0.053652242 1.319 4284836981
0.11498968 0.053814948 1.3230001 4284902773
0.11746332 0.053896297 1.325 4284770929
0.11976311 0.053896297 1.325 4284375913
0.12187866 0.053814948 1.3230001 4283652189
0.12398728 0.053733595 1.3210001 4286349701
0.12580217 0.053530212 1.3160001 4293718258
0.12779436 0.053408183 1.3130001 4294704895
0.12987518 0.05332683 1.3110001 4294770431
0.13204989 0.053286154 1.3100001 4294835967
0.13432366 0.053286154 1.3100001 4294835711
0.13659742 0.053286154 1.3100001 4294835967
0.13897718 0.05332683 1.3110001 4294835967
0.14136043 0.053367503 1.312 4288980650
0.14374717 0.053408183 1.3130001 4283322966
0.14635977 0.053530212 1.3160001 4284902256
0.14920871 0.053733595 1.3210001 4284968050
0.15173094 0.053814948 1.3230001 4284376427
0.15507507 0.054181036 1.332 4283850339
0.15762334 0.054262388 1.3340001 4283192665
0.16017856 0.054343741 1.3360001 4282074439
0.16298395 0.054506447 1.34 4282337611
0.16530979 0.054506447 1.34 4283785057
0.16751054 0.054465771 1.3390001 4283587678
0.16970779 0.054425091 1.3380001 4283916644
0.17203017 0.054425091 1.3380001 4284047975
0.17448284 0.054465771 1.3390001 4284114025
0.17720307 0.0545878 1.342 4284311662
0.17979993 0.054669149 1.3440001 4284509041
0.18253925 0.054791182 1.3470001 4284509041
0.185289 0.054913212 1.35 4283390047
0.18791015 0.054994565 1.3520001 4283455841
0.19388561 0.055360649 1.3610001 4283915876
0.19624791 0.055360649 1.3610001 4284047461
0.19802648 0.055197947 1.3570001 4284310119
0.19979115 0.055035241 1.353 4285494391
0.20199014 0.054994565 1.3520001 4293652209
0.20479022 0.055116594 1.355 4294704895
0.20775358 0.0552793 1.3590001 4293783794
0.21057622 0.055401329 1.3620001 4284441447
0.21481638 0.055889443 1.3740001 4290494400
0.21941434 0.056458917 1.388 4293915380
0.22504038 0.056662295 1.393 4286349441
0.22909108 0.057069063 1.4030001 4286481027
0.23301145 0.057435151 1.4120001 4291349709
0.23612931 0.057597853 1.416 4294639359
-0.058385305 0.059614547 1.406 4282205778
-0.055745959 0.059402544 1.401 4281153348
-0.053276192 0.059360147 1.4000001 4280955201
-0.05070094 0.059190542 1.396 4281020736
-0.04500084 0.058088139 1.3700001 4280559667
-0.042436264 0.057833739 1.3640001 4294704895
-0.04001002 0.057748944 1.3620001 4294639102
-0.037590716 0.057664141 1.36 4281019957
-0.035178356 0.057579339 1.358 4281875264
-0.032797113 0.057536941 1.3570001 4282204742
-0.030396901 0.057452139 1.355 4294508031
-0.02804503 0.057452139 1.355 4294639359
-0.025712121 0.057494536 1.3560001 4285034611
-0.023496322 0.057833739 1.3640001 4282402891
-0.021283733 0.058257744 1.3740001 4282073672
-0.018926393 0.058342539 1.376 4281547328
-0.016586149 0.058512144 1.3800001 4281218878
-0.014201169 0.058554541 1.381 4281613634
-0.011821263 0.058639344 1.383 4281087803
-0.0094344169 0.058724146 1.3850001 4280495666
-0.0070304745 0.058724146 1.3850001 4280232494
-0.0046265321 0.058724146 1.3850001 4280100908
-0.0022225901 0.058724146 1.3850001 4280297774
0.00018135208 0.058724146 1.3850001 4280231981
0.0025927608 0.058893744 1.3890001 4280231981
0.0050108503 0.058978546 1.391 4280165931
0.0074198688 0.058936141 1.3900001 4280297517
0.0098324893 0.058936141 1.3900001 4280363054
0.012271538 0.059063341 1.393 4280363054
0.014710457 0.059148144 1.3950001 4280494640
0.017193159 0.059360147 1.4000001 4281086777
0.01969322 0.059572142 1.4050001 4280626226
0.022147629 0.059614547 1.406 4280560433
0.024570532 0.059572142 1.4050001 4281152824
0.026932294 0.059402544 1.401 4280560431
0.029343048 0.059360147 1.4000001 4280625967
0.031795722 0.059402544 1.401 4280559917
0.03430073 0.059529744 1.404 4280428331
0.03671148 0.059487347 1.4030001 4280231722
0.039090861 0.059402544 1.401 4280231465
0.041492935 0.059360147 1.4000001 4280560173
0.060420893 0.056604136 1.335 4281941570
0.062691055 0.056561738 1.3340001 4281153337
0.083091542 0.056264937 1.327 4284311147
0.085459165 0.056307334 1.3280001 4284574321
0.087631993 0.056222536 1.3260001 4284640114
0.089594416 0.056010537 1.3210001 4284574579
0.091817707 0.055968136 1.3200001 4284705909
0.093894951 0.055840936 1.317 4284574323
0.096034802 0.055756133 1.3150001 4284705910
0.098242484 0.055713736 1.314 4284837240
0.10021718 0.055544134 1.3100001 4284837240
0.102178 0.055374533 1.3060001 4284903032
0.10452479 0.055416934 1.307 4284903288
0.10712019 0.055586535 1.3110001 4284903032
0.10956258 0.055671334 1.3130001 4284903032
0.1145551 0.055883333 1.3180001 4284771445
0.1171087 0.056010537 1.3210001 4284771444
0.11949196 0.056052934 1.322 4284771443
0.12187866 0.056095336 1.3230001 4284968308
0.12426885 0.056137737 1.3240001 4284178790
0.12647133 0.056095336 1.3230001 4284112740
0.12837833 0.055925734 1.319 4289770936
0.13046958 0.055840936 1.317 4294310138
0.13255391 0.055756133 1.3150001 4294704895
0.13483635 0.055756133 1.3150001 4294770431
0.13701451 0.055713736 1.314 4293191145
0.13929522 0.055713736 1.314 4294507259
0.14157592 0.055713736 1.314 4294704639
0.14385663 0.055713736 1.314 4288059805
0.14613734 0.055713736 1.314 4283981154
0.14875691 0.055840936 1.317 4284836464
0.15150157 0.056010537 1.3210001 4285034100
0.15426013 0.056180134 1.325 4284508013
0.15679623 0.056264937 1.327 4283916131
0.15933929 0.056349736 1.3290001 4283587421
0.16225418 0.056561738 1.3340001 4282666576
0.1649397 0.056688938 1.337 4282271818
0.16738543 0.056731336 1.3380001 4282666576
0.16958095 0.056688938 1.337 4283193178
0.17190158 0.056688938 1.337 4283916902
0.17422222 0.056688938 1.337 4284180075
0.17654283 0.056688938 1.337 4284180076
0.17899725 0.056731336 1.3380001 4284640627
0.1811841 0.056688938 1.337 4283719525
0.18323022 0.056604136 1.335 4283522146
0.18513043 0.056476936 1.332 4283521634
0.19160628 0.057028141 1.345 4283850338
0.19437338 0.057155341 1.348 4283915618
0.1967131 0.057155341 1.348 4283322967
0.19875748 0.057070538 1.3460001 4283454552
0.20109373 0.057070538 1.3460001 4285362292
0.20388339 0.057197738 1.3490001 4291282892
0.20760071 0.057579339 1.358 4294835711
0.21057622 0.057748944 1.3620001 4290888389
0.21466002 0.058215339 1.373 4290493633
0.22246274 0.059020944 1.3920001 4285954685
0.22568659 0.059232946 1.3970001 4291941847
0.22974423 0.059656944 1.4070001 4292862948
0.23367156 0.060038544 1.416 4294310394
0.23696309 0.060250547 1.4210001 4294705151
-0.058260728 0.061905626 1.4030001 4282534487
-0.05562659 0.061685007 1.3980001 4281810764
-0.053085919 0.061552636 1.3950001 4281810251
-0.049684014 0.060361296 1.368 4281414723
-0.047309581 0.060361296 1.368 4281809735
-0.044803757 0.060184799 1.3640001 4281151802
-0.042342927 0.060052428 1.3610001 4294639103
-0.039951269 0.060008306 1.36 4294704895
-0.037590716 0.060008306 1.36 4283125588
-0.035256069 0.060052428 1.3610001 4281283640
-0.032893784 0.060052428 1.3610001 4281020467
-0.0305315 0.060052428 1.3610001 4291218383
-0.028169217 0.060052428 1.3610001 4294574079
-0.02580693 0.060052428 1.3610001 4289508535
-0.023530774 0.060273048 1.3660001 4281152824
-0.021314714 0.060714282 1.376 4281415996
-0.018953905 0.06080253 1.378 4281349949
-0.016610185 0.060979024 1.3820001 4281613634
-0.014221734 0.061023153 1.383 4281021497
-0.01183836 0.061111402 1.3850001 4281153083
-0.0094276052 0.061067272 1.3840001 4280626739
-0.0070203221 0.061023153 1.383 4280297774
-0.0046131704 0.060934901 1.381 4280297774
-0.002216171 0.060934901 1.381 4280231981
0.00018082833 0.060934901 1.381 4280297774
0.0025852942 0.061111402 1.3850001 4280297261
0.005003646 0.061287895 1.3890001 4280231468
0.0074198688 0.061332017 1.3900001 4280297261
0.009846637 0.061420266 1.3920001 4280363054
0.012280348 0.061508514 1.3940001 4280428847
0.014721001 0.061596759 1.396 4280626226
0.017193159 0.061773255 1.4000001 4280889398
0.019665187 0.061905626 1.4030001 4280692019
0.022116125 0.061949749 1.404 4280692273
0.024535557 0.061905626 1.4030001 4281087031
0.026913071 0.061773255 1.4000001 4280626480
0.029322088 0.061729129 1.399 4280692273
0.031795722 0.061817378 1.401 4280297515
0.034349587 0.062037997 1.406 4280297258
0.036763813 0.061993871 1.4050001 4280298028
0.039230373 0.062037997 1.406 4280297515
0.041552212 0.0618615 1.4020001 4280165929
0.043922912 0.061773255 1.4000001 4280100136
0.046319783 0.061729129 1.399 4280560687
0.048573799 0.061508514 1.3940001 4280100136
0.050847042 0.061332017 1.3900001 4280692016
0.053259663 0.061332017 1.3900001 4280494123
0.055752385 0.061420266 1.3920001 4279375643
0.096253894 0.058155105 1.3180001 4284442736
0.09854155 0.058155105 1.3180001 4284508530
0.1005232 0.057978611 1.314 4284837495
0.10225623 0.057669744 1.307 4284837496
0.10444482 0.057625622 1.3060001 4284903033
0.10687506 0.05771387 1.3080001 4284837240
0.1092288 0.057757992 1.309 4284837240
0.11175637 0.057890363 1.312 4284705911
0.11429435 0.058022734 1.3150001 4284903289
0.11666545 0.058066864 1.3160001 4284969082
0.1191304 0.058155105 1.3180001 4284706165
0.12160229 0.058243357 1.3200001 4285034616
0.12398728 0.058287475 1.3210001 4285034359
0.12637573 0.058331605 1.322 4284573549
0.12847565 0.058243357 1.3200001 4283060051
0.13066772 0.058199234 1.319 4284639083
0.13295712 0.058199234 1.319 4291744468
0.13534902 0.058243357 1.3200001 4292205020
0.13774443 0.058287475 1.3210001 4284244069
0.13993126 0.058243357 1.3200001 4286678409
0.1420069 0.058155105 1.3180001 4292533728
0.14429456 0.058155105 1.3180001 4289310386
0.14635977 0.058066864 1.3160001 4284770671
0.14875691 0.058110986 1.317 4284639086
0.15138687 0.058243357 1.3200001 4284441709
0.15402727 0.058375727 1.3230001 4284442221
0.1563236 0.058375727 1.3230001 4284639854
0.15873982 0.058419846 1.3240001 4284113509
0.16152442 0.058596347 1.3280001 4283718751
0.16407615 0.058684591 1.33 4283455835
0.16663483 0.05877284 1.332 4282798162
0.16920045 0.058861088 1.3340001 4283061078
0.17164445 0.05890521 1.335 4283587679
0.17396159 0.05890521 1.335 4283785316
0.1761467 0.058861088 1.3340001 4284706419
0.17832837 0.058816962 1.3330001 4283982440
0.18009998 0.058640469 1.3290001 4283324767
0.18213223 0.058552217 1.327 4283719268
0.1844355 0.058552217 1.327 4284179306
0.18716094 0.058684591 1.33 4284376685
0.19032416 0.058949333 1.3360001 4284179046
0.19293144 0.059037581 1.3380001 4283455066
0.19554566 0.059125829 1.34 4287599511
0.19787149 0.059125829 1.34 4291020747
0.20034674 0.059169952 1.3410001 4285362035
0.20358112 0.059434693 1.3470001 4282335045
0.20729497 0.059831806 1.3560001 4292072150
0.21073082 0.060140677 1.363 4294572540
0.223102 0.061596759 1.396 4283125586
0.22633278 0.061817378 1.401 4289573300
0.23072393 0.062346861 1.4130001 4293389292
-0.058177672 0.064232215 1.401 4283850347
-0.0555868 0.064048827 1.3970001 4283784298
-0.053085919 0.063957125 1.3950001 4283652453
-0.049611378 0.062627554 1.3660001 4284507761
-0.047205832 0.062581711 1.365 4283586143
-0.044770908 0.062490012 1.363 4281020471
-0.042374041 0.062444169 1.3620001 4294770687
-0.039980642 0.062398314 1.3610001 4294573823
-0.037618358 0.062398314 1.3610001 4290165695
-0.035281979 0.062444169 1.3620001 4280362538
-0.032966293 0.06253586 1.3640001 4281875777
-0.030621234 0.062581711 1.365 4283915873
-0.028272701 0.062627554 1.3660001 4288126882
-0.025882777 0.062581711 1.365 4282139719
-0.023599681 0.062810943 1.3700001 4281415997
-0.021345695 0.06317772 1.378 4281415996
-0.018981412 0.063269421 1.3800001 4281744705
-0.016622204 0.063406959 1.383 4280955704
-0.014232018 0.063452803 1.3840001 4281284669
-0.01183836 0.063498661 1.3850001 4280955962
-0.0094276052 0.063452803 1.3840001 4280298288
-0.0070203221 0.063406959 1.383 4280297775
-0.0046198512 0.063406959 1.383 4280363569
-0.0022193806 0.063406959 1.383 4280231982
0.00018095926 0.063361108 1.3820001 4280363055
0.002587161 0.063544504 1.386 4280363057
0.0050072484 0.063727893 1.3900001 4280297264
0.0074252072 0.063773744 1.391 4280363055
0.009846637 0.063819587 1.3920001 4280231212
0.012280348 0.063911282 1.3940001 4280297516
0.014710457 0.063957125 1.3950001 4280560687
0.017168598 0.06409467 1.3980001 4280955446
0.019651169 0.064278059 1.4020001 4280626480
0.022100372 0.06432391 1.4030001 4280494894
0.024518067 0.064278059 1.4020001 4281087031
0.026893847 0.064140514 1.399 4280626480
0.029322088 0.064140514 1.399 4280626480
0.031773027 0.064186364 1.4000001 4280297515
0.034325156 0.064415596 1.4050001 4280231722
0.036763813 0.064415596 1.4050001 4280166442
0.03920247 0.064415596 1.4050001 4280166442
0.041552212 0.064278059 1.4020001 4280166442
0.043922912 0.064186364 1.4000001 4280034856
0.046386003 0.064232215 1.401 4280692786
0.048678335 0.064048827 1.3970001 4280823859
0.050993364 0.063911282 1.3940001 4280494894
0.053451244 0.063957125 1.3950001 4280363308
0.055912592 0.064002976 1.396 4280231466
0.096472986 0.060564417 1.3210001 4284113256
0.098765843 0.060564417 1.3210001 4284113514
0.10090569 0.060472727 1.319 4284574322
0.1028039 0.060243491 1.314 4284640116
0.10460477 0.059968404 1.3080001 4284771447
0.10687506 0.059968404 1.3080001 4284771447
0.1092288 0.060014252 1.309 4284969082
0.111586 0.060060095 1.3100001 4284969339
0.11394668 0.06010595 1.3110001 4285101181
0.11631084 0.060151793 1.312 4285101182
0.11885924 0.060289335 1.3150001 4285035131
0.12123381 0.060335185 1.3160001 4284969337
0.12361184 0.060381033 1.317 4284969080
0.12589775 0.060381033 1.317 4285034615
0.12818366 0.060381033 1.317 4284836721
0.13046958 0.060381033 1.317 4283389017
0.13295712 0.060472727 1.319 4282928465
0.13555411 0.060610272 1.322 4283849567
0.13805725 0.060701963 1.3240001 4284112739
0.1402493 0.060656115 1.3230001 4284376168
0.14233014 0.060564417 1.3210001 4284902257
0.144623 0.060564417 1.3210001 4285033844
0.14680463 0.060518574 1.3200001 4284968052
0.14898281 0.060472727 1.319 4284836980
0.15161626 0.060610272 1.322 4284573808
0.15402727 0.060656115 1.3230001 4284508014
0.1563236 0.060656115 1.3230001 4284376427
0.15885971 0.060747813 1.325 4284573805
0.16140278 0.060839504 1.327 4284442475
0.16382942 0.060885355 1.3280001 4283850337
0.16625951 0.060931198 1.3290001 4283587421
0.16881993 0.061022896 1.3310001 4283521885
0.17125872 0.06106874 1.332 4283456092
0.17383128 0.061160438 1.3340001 4283258714
0.17601468 0.061114587 1.3330001 4284903540
0.17806078 0.061022896 1.3310001 4283653217
0.17969343 0.060793657 1.3260001 4283653218
0.18172047 0.060701963 1.3240001 4284310891
0.18401854 0.060701963 1.3240001 4284508012
0.18659803 0.060793657 1.3260001 4284771184
0.18961187 0.061022896 1.3310001 4283652957
0.19221048 0.061114587 1.3330001 4283849823
0.19496195 0.061252128 1.3360001 4294244601
0.19772384 0.061389677 1.3390001 4294639102
0.20019732 0.061435521 1.34 4294770431
0.20358112 0.061756451 1.3470001 4285756280
0.20744784 0.06221493 1.3570001 4289045672
0.21073082 0.062490012 1.363 4293454059
0.223102 0.064002976 1.396 4289902009
0.22617124 0.064186364 1.4000001 4291086538
0.23121381 0.064919919 1.416 4293126120
-0.063851051 0.067503326 1.419 4284310383
-0.061085265 0.067170329 1.4120001 4282863452
-0.058011569 0.066456765 1.3970001 4282402388
-0.055188898 0.065981053 1.3870001 4283060316
-0.052096505 0.065124772 1.3690001 4282600021
-0.049502421 0.064839348 1.363 4291941855
-0.047067497 0.064744204 1.3610001 4289573561
-0.044672366 0.064696632 1.36 4279836195
-0.042342927 0.064744204 1.3610001 4284770669
-0.04001002 0.064791776 1.3620001 4294639615
-0.037673637 0.064839348 1.363 4293784310
-0.035359692 0.064934492 1.365 4284244325
-0.033038802 0.065029629 1.3670001 4281876547
-0.030733401 0.065172344 1.3700001 4281942340
-0.028396888 0.065267488 1.3720001 4281613375
-0.026034471 0.065315053 1.373 4281087544
-0.023737488 0.065552913 1.378 4281482046
-0.021423146 0.065790772 1.383 4281744961
-0.019036431 0.065838337 1.3840001 4281350203
-0.016646244 0.065885916 1.3850001 4281284411
-0.014232018 0.065838337 1.3840001 4281087290
-0.011846907 0.065933481 1.386 4280363567
-0.0094412286 0.065933481 1.386 4280297774
-0.0070304745 0.065885916 1.3850001 4280231981
-0.0046298727 0.065933481 1.386 4280166189
-0.0022241948 0.065933481 1.386 4280363054
0.00018122114 0.065838337 1.3840001 4280363056
0.002587161 0.065933481 1.386 4280297263
0.0050000437 0.066028625 1.388 4280231470
0.0074091926 0.066028625 1.388 4280231470
0.0098324893 0.066123761 1.3900001 4280231468
0.012271538 0.066266477 1.393 4280297515
0.014689365 0.066266477 1.393 4280823859
0.017144037 0.066409193 1.396 4281021238
0.019609122 0.066551901 1.399 4280758066
0.022053115 0.066599481 1.4000001 4280758066
0.024483092 0.066599481 1.4000001 4280955445
0.026836175 0.066409193 1.396 4280560687
0.029259209 0.066409193 1.396 4280560687
0.031727638 0.066504337 1.3980001 4280231722
0.034227435 0.066647045 1.401 4280165929
0.036659148 0.066647045 1.401 4280100649
0.039090861 0.066647045 1.401 4280100649
0.041492935 0.066599481 1.4000001 4280100649
0.04395429 0.066647045 1.401 4280034856
0.04641911 0.066694617 1.4020001 4280495407
0.048817717 0.066647045 1.401 4280363564
0.051176265 0.066551901 1.399 4280297515
0.053604506 0.066551901 1.399 4280363308
0.055952646 0.066456765 1.3970001 4280560687
0.058293842 0.066361621 1.3950001 4280429101
0.06067162 0.066314049 1.3940001 4280165929
0.062955409 0.066171341 1.391 4280165929
0.065275773 0.066076197 1.3890001 4280034343
0.067686655 0.066076197 1.3890001 4280165929
0.070450805 0.066409193 1.396 4280034599
0.073187046 0.066694617 1.4020001 4279968550
0.075620495 0.066694617 1.4020001 4280034599
0.078109622 0.066742189 1.4030001 4280166185
0.080315165 0.066551901 1.399 4280034600
0.082506835 0.066361621 1.3950001 4280100136
0.084441088 0.065981053 1.3870001 4280297515
0.086723275 0.065885916 1.3850001 4280494381
0.088805452 0.065648057 1.3800001 4280757553
0.1072836 0.062460791 1.3130001 4284574323
0.10931224 0.062318079 1.3100001 4284640117
0.11141565 0.062222943 1.3080001 4284903546
0.11368594 0.062222943 1.3080001 4284969339
0.11595623 0.062222943 1.3080001 4285035132
0.11822652 0.062222943 1.3080001 4285100924
0.12049682 0.062222943 1.3080001 4285100924
0.12276711 0.062222943 1.3080001 4285166460
0.12484622 0.062127795 1.3060001 4285100666
0.12711304 0.062127795 1.3060001 4285100151
0.12947893 0.062175367 1.307 4285165943
0.13164668 0.062127795 1.3060001 4284573548
0.14014329 0.062888935 1.322 4284771184
0.14254563 0.062936507 1.3230001 4284968821
0.14495143 0.062984072 1.3240001 4284903030
0.14713828 0.062936507 1.3230001 4284837237
0.14909576 0.062793791 1.3200001 4284771444
0.15150157 0.062841363 1.3210001 4284771444
0.15391086 0.062888935 1.322 4284639602
0.15620545 0.062888935 1.322 4284508014
0.15885971 0.063031651 1.325 4284376427
0.16128114 0.063079216 1.3260001 4284310633
0.16333595 0.062984072 1.3240001 4284376681
0.16538382 0.062888935 1.322 4284047716
0.16805892 0.063031651 1.325 4283718751
0.17061587 0.063126788 1.327 4283653214
0.17344037 0.063317075 1.3310001 4283390299
0.17548649 0.063221931 1.3290001 4284113765
0.1773919 0.063079216 1.3260001 4284639853
0.17901586 0.062841363 1.3210001 4284442475
0.18103422 0.062746227 1.319 4284705134
0.18346258 0.062793791 1.3200001 4284704876
0.18603516 0.062888935 1.322 4284244325
0.1884722 0.062936507 1.3230001 4286678666
0.19364858 0.063126788 1.327 4288980651
0.19683784 0.063412212 1.3330001 4289835446
0.19959973 0.063554928 1.3360001 4294703869
0.20312771 0.063935496 1.3440001 4292466908
-0.058011569 0.068864703 1.3970001 4283586660
-0.052058451 0.06743516 1.368 4282402126
-0.049429782 0.067090094 1.3610001 4294639615
-0.046998333 0.066991501 1.3590001 4294179067
-0.044606671 0.066942208 1.358 4283191637
-0.042311817 0.067040801 1.36 4279901987
-0.04001002 0.067139395 1.3620001 4289376179
-0.037701279 0.067237973 1.3640001 4293192173
-0.035385594 0.067336567 1.3660001 4284375911
-0.033038802 0.06738586 1.3670001 4281481789
-0.030733401 0.067533746 1.3700001 4281415996
-0.028438281 0.067730926 1.3740001 4281219130
-0.026110319 0.067878813 1.3770001 4282140232
-0.023823617 0.068174578 1.383 4282206025
-0.021500599 0.068421051 1.388 4281547582
-0.019105205 0.068470344 1.3890001 4280758066
-0.016682301 0.068421051 1.388 4280692273
-0.014252585 0.068322465 1.386 4280494894
-0.011864002 0.068421051 1.388 4280429101
-0.0094616646 0.068470344 1.3890001 4280363308
-0.0070406268 0.068371758 1.3870001 4280428847
-0.0046365536 0.068421051 1.388 4280297261
-0.0022274044 0.068421051 1.388 4280231468
0.00018148302 0.068322465 1.386 4280165675
0.0025852942 0.068273172 1.3850001 4280297261
0.0049892366 0.068273172 1.3850001 4280231468
0.0073825032 0.068174578 1.383 4280231468
0.0098041948 0.068322465 1.386 4280363054
0.01224511 0.068519637 1.3900001 4280297515
0.014678821 0.068618231 1.3920001 4280758066
0.017119475 0.068716824 1.3940001 4281021238
0.019567071 0.068815403 1.396 4280363308
0.021990106 0.068815403 1.396 4280429101
0.02441314 0.068815403 1.396 4280955445
0.026778504 0.068667524 1.393 4280494894
0.029238252 0.06876611 1.3950001 4280692273
0.03170494 0.068864703 1.3970001 4280363308
0.034129713 0.068864703 1.3970001 4280560687
0.036580648 0.068913996 1.3980001 4280100649
0.039007157 0.068913996 1.3980001 4280166442
0.041433662 0.068913996 1.3980001 4280034856
0.043922912 0.06901259 1.4000001 4280166442
0.046386003 0.069061883 1.401 4280363308
0.048852559 0.069111176 1.4020001 4280363308
0.051212847 0.06901259 1.4000001 4280494894
0.053566191 0.068913996 1.3980001 4280494894
0.055912592 0.068815403 1.396 4280494894
0.058252055 0.068716824 1.3940001 4280363308
0.060628094 0.068667524 1.393 4280034343
0.063000664 0.068618231 1.3920001 4280100136
0.065416753 0.068618231 1.3920001 4280034343
0.067881577 0.068667524 1.393 4280034343
0.070551738 0.068913996 1.3980001 4280100136
0.073239252 0.069160469 1.4030001 4279968550
0.075620495 0.069111176 1.4020001 4280034343
0.078053944 0.069111176 1.4020001 4280165929
0.080372579 0.06901259 1.4000001 4280100136
0.082625128 0.068864703 1.3970001 4280034343
0.084806368 0.068667524 1.393 4280099879
0.087098971 0.068568937 1.391 4280165159
0.089642026 0.068667524 1.393 4280165159
0.092258118 0.068815403 1.396 4280230952
0.094545506 0.068716824 1.3940001 4280296745
0.096547715 0.068421051 1.388 4280691503
0.098671682 0.068223871 1.3840001 4281217847
0.10078177 0.068026692 1.3800001 4282138949
0.11359902 0.064428173 1.307 4284640373
0.11595623 0.064477473 1.3080001 4284640373
0.11813615 0.064428173 1.307 4284706166
0.12012833 0.064280294 1.304 4284903545
0.12220395 0.064181708 1.302 4284903801
0.12427265 0.064083114 1.3000001 4284837750
0.12643172 0.064033821 1.299 4285034872
0.1286864 0.064033821 1.299 4285166458
0.13114268 0.064132407 1.3010001 4285034615
0.13381097 0.064329594 1.3050001 4284968565
0.1362846 0.064428173 1.307 4284837235
0.13918921 0.064723946 1.3130001 4284903285
0.14211465 0.065019719 1.319 4284969079
0.14451352 0.065069012 1.3200001 4285034873
0.14680463 0.065069012 1.3200001 4284969081
0.14875691 0.064921126 1.317 4284837495
0.15104282 0.064921126 1.317 4284771702
0.15332873 0.064921126 1.317 4284573809
0.15561464 0.064921126 1.317 4284639601
0.15861993 0.065216891 1.3230001 4284639600
0.16115952 0.065315485 1.325 4284442220
0.16308923 0.065167606 1.322 4284179048
0.16513361 0.065069012 1.3200001 4284179304
0.16767842 0.065167606 1.322 4284179302
0.17023015 0.065266185 1.3240001 4283916130
0.17304945 0.065463372 1.3280001 4283718751
0.17509036 0.065364778 1.3260001 4283652958
0.17685679 0.065167606 1.322 4283849824
0.17847379 0.064921126 1.317 4285165427
0.18075971 0.064921126 1.317 4288520869
0.18318461 0.064970419 1.3180001 4285823357
0.18533154 0.064921126 1.317 4283257430
0.18775991 0.064970419 1.3180001 4291810263
0.19033594 0.065069012 1.3200001 4294770431
0.19335672 0.065315485 1.325 4294770431
0.19609952 0.065463372 1.3280001 4293980659
0.2022209 0.065956317 1.3380001 4294112247
-0.058094624 0.071374677 1.399 4283586661
-0.052096505 0.069844127 1.3690001 4282730834
-0.049429782 0.069435984 1.3610001 4294639359
-0.046998333 0.069333941 1.3590001 4294705151
-0.044606671 0.069282927 1.358 4294178808
-0.042311817 0.069384962 1.36 4287007631
-0.039980642 0.069435984 1.3610001 4281152054
-0.037701279 0.069589034 1.3640001 4285625978
-0.035385594 0.069691077 1.3660001 4282138949
-0.033014629 0.069691077 1.3660001 4281218617
-0.030710965 0.069844127 1.3690001 4281613375
-0.028417585 0.070048198 1.373 4282403149
-0.026091356 0.070201255 1.376 4281613633
-0.023823617 0.070558384 1.383 4281218876
-0.02154707 0.070966534 1.391 4280626480
-0.019146468 0.071017548 1.3920001 4280494894
-0.016718356 0.070966534 1.391 4280363308
-0.014283434 0.070864499 1.3890001 4280429101
-0.011881096 0.070915513 1.3900001 4280363308
-0.0094684763 0.070915513 1.3900001 4280363308
-0.0070406268 0.070762455 1.3870001 4280429102
-0.0046365536 0.070813477 1.388 4280363054
-0.0022274044 0.070813477 1.388 4280297261
0.00018148302 0.070711441 1.386 4280231468
0.0025852942 0.070660427 1.3850001 4280297261
0.0049856342 0.070609406 1.3840001 4280231468
0.0073825032 0.070558384 1.383 4280231725
0.0097900471 0.070609406 1.3840001 4280297772
0.012227491 0.070813477 1.388 4280231978
0.014657732 0.070915513 1.3900001 4280626737
0.017107194 0.07106857 1.393 4280955958
0.019539038 0.071119592 1.3940001 4280495151
0.021958601 0.071119592 1.3940001 4280494894
0.024378164 0.071119592 1.3940001 4280823858
0.026759282 0.071017548 1.3920001 4280560686
0.029217292 0.071119592 1.3940001 4280626480
0.03170494 0.071272641 1.3970001 4280429101
0.034129713 0.071272641 1.3970001 4280758066
0.036554482 0.071272641 1.3970001 4280231722
0.038979251 0.071272641 1.3970001 4280100393
0.041433662 0.071323663 1.3980001 4280100392
0.043922912 0.071425699 1.4000001 4280429101
0.046386003 0.071476713 1.401 4280692273
0.048852559 0.071527734 1.4020001 4280692273
0.051212847 0.071425699 1.4000001 4280692273
0.053604506 0.071374677 1.399 4280560687
0.055952646 0.071272641 1.3970001 4280429101
0.058210265 0.07106857 1.393 4280231722
0.060584571 0.071017548 1.3920001 4280034343
0.062955409 0.070966534 1.391 4280034343
0.065416753 0.071017548 1.3920001 4279968550
0.067881577 0.07106857 1.393 4279902757
0.070501275 0.071272641 1.3970001 4280034343
0.073134847 0.071476713 1.401 4280100136
0.07556656 0.071476713 1.401 4280230952
0.077998273 0.071476713 1.401 4280165159
0.080315165 0.071374677 1.399 4280099879
0.082625128 0.071272641 1.3970001 4280034343
0.084867254 0.071119592 1.3940001 4280034087
0.0872242 0.07106857 1.393 4280165159
0.089642026 0.07106857 1.393 4280165159
0.092192031 0.071170606 1.3950001 4280099365
0.094681151 0.07122162 1.396 4280033572
0.096686833 0.070915513 1.3900001 4280033572
0.098956868 0.070813477 1.388 4280296744
0.10107389 0.070609406 1.3840001 4280296744
0.11377285 0.066783026 1.309 4283850599
0.11622218 0.066885069 1.3110001 4284047978
0.11831691 0.066783026 1.309 4284245614
0.12031257 0.066629969 1.3060001 4284311662
0.12239169 0.066527933 1.304 4284377455
0.12436825 0.066374876 1.3010001 4284574320
0.12662639 0.066374876 1.3010001 4284705906
0.12878546 0.066323861 1.3000001 4284903285
0.13114268 0.066374876 1.3010001 4284969078
0.1336059 0.066476919 1.3030001 4284903286
0.13607605 0.066578954 1.3050001 4285034872
0.13887119 0.06683404 1.3100001 4285100665
0.14146818 0.066987097 1.3130001 4285232251
0.1440756 0.067140162 1.3160001 4285363838
0.14635977 0.067140162 1.3160001 4285298046
0.148531 0.067089133 1.3150001 4284969081
0.15081345 0.067089133 1.3150001 4284771702
0.15332873 0.067191176 1.317 4284640116
0.15561464 0.067191176 1.317 4284705652
0.15885971 0.067599326 1.325 4284771188
0.16128114 0.06765034 1.3260001 4284573808
0.16333595 0.067548297 1.3240001 4284442478
0.16525872 0.067395248 1.3210001 4284113512
0.16767842 0.067446269 1.322 4283784546
0.17023015 0.067548297 1.3240001 4284047717
0.17291914 0.067701355 1.327 4283916130
0.17495832 0.067599326 1.325 4283323479
0.17685679 0.067446269 1.322 4286678665
0.17860931 0.06724219 1.3180001 4294639359
0.18075971 0.067191176 1.317 4294705151
0.18304563 0.067191176 1.317 4294705151
0.18547226 0.06724219 1.3180001 4289046699
0.18761745 0.067191176 1.317 4283914332
0.19019176 0.067293212 1.319 4286019708
0.19306485 0.067497283 1.3230001 4292796386
0.19580418 0.06765034 1.3260001 4294835967
0.20191863 0.068160519 1.3360001 4293454318
-0.061215051 0.07462994 1.4150001 4283323492
-0.05830225 0.074049778 1.404 4284113519
-0.055188898 0.073153161 1.3870001 4284112747
-0.052096505 0.072203808 1.3690001 4282796627
-0.04935715 0.071676381 1.3590001 4284704877
-0.046929166 0.071570903 1.3570001 4294573823
-0.044540975 0.07151816 1.3560001 4294705151
-0.042218484 0.071570903 1.3570001 4294573822
