# .PCD v0.7 - Point Cloud Data file format
VERSION 0.7
FIELDS x y z rgba
SIZE 4 4 4 4
TYPE F F F U
COUNT 1 1 1 1
WIDTH 1103
HEIGHT 1
VIEWPOINT 0 0 0 1 0 0 0
POINTS 1103
DATA ascii
-0.052226327 0.028749427 1.4380001 4290692039
-0.049764976 0.02876942 1.439 4290494660
-0.047365848 0.028829398 1.442 4288652972
-0.044894081 0.028849388 1.4430001 4285429629
-0.042477597 0.028909365 1.4460001 4282206284
-0.040078338 0.028989337 1.45 4281087805
-0.037587479 0.029009331 1.4510001 4281350977
-0.035189826 0.029109292 1.4560001 4281087551
-0.032662649 0.029109292 1.4560001 4280955965
-0.030031985 0.029009331 1.4510001 4280890172
-0.027418677 0.028909365 1.4460001 4280890172
-0.02485718 0.028849388 1.4430001 4280890172
-0.022321587 0.028809404 1.4410001 4280759356
-0.019820446 0.028809404 1.4410001 4280693563
-0.017307285 0.02878941 1.4400001 4280561977
-0.014818164 0.028809404 1.4410001 4280430391
-0.012325569 0.028829398 1.442 4280561207
-0.0098295035 0.028849388 1.4430001 4280627000
-0.007335044 0.028889375 1.4450001 4280495414
-0.0048336405 0.028929358 1.447 4280429621
-0.0023252945 0.028969347 1.4490001 4280560950
0.00019012508 0.029029325 1.452 4280363569
0.002715959 0.029089302 1.455 4280560948
0.0052594119 0.029189264 1.46 4280692019
0.0078095458 0.029249242 1.4630001 4281350203
0.010348872 0.029249242 1.4630001 4282534477
0.012861771 0.029189264 1.46 4282139719
0.015364254 0.029129285 1.457 4284968818
0.017893167 0.029129285 1.457 4283916130
0.036318988 0.027749794 1.388 4285232251
0.038560722 0.027629837 1.3820001 4285561216
0.040840905 0.027549867 1.378 4285692802
0.043044459 0.02742991 1.3720001 4285627266
0.045326509 0.027369933 1.3690001 4285232764
0.047632985 0.027329948 1.3670001 4284969592
0.050005686 0.027329948 1.3670001 4284969077
0.052416705 0.02734994 1.368 4284903284
0.054550827 0.027229985 1.3620001 4284903284
0.056873061 0.027209993 1.3610001 4285166710
0.059104774 0.027150013 1.358 4285297783
0.061326072 0.027090035 1.355 4285297013
0.063630953 0.027070044 1.3540001 4284310118
0.065883622 0.027030058 1.3520001 4283520089
0.068078898 0.026970081 1.3490001 4293980660
0.07031595 0.026930094 1.3470001 4294835711
0.072546057 0.026890108 1.345 4294966783
0.074824899 0.026870117 1.3440001 4294770175
0.077100269 0.026850125 1.3430001 4294243830
0.07943131 0.026850125 1.3430001 4284967023
0.08182323 0.026870117 1.3440001 4284310381
0.084218629 0.026890108 1.345 4284179819
0.086810552 0.026970081 1.3490001 4284969077
0.089548528 0.027090035 1.355 4285494654
0.092171699 0.027170006 1.3590001 4284968822
0.098956868 0.027749794 1.388 4284113768
0.10165814 0.027829764 1.3920001 4283785058
0.10422377 0.02786975 1.3940001 4283324506
0.10641382 0.027809771 1.391 4281021751
0.10773285 0.027529875 1.3770001 4284311401
0.10932317 0.027329948 1.3670001 4286482570
0.11161417 0.027309956 1.3660001 4284377194
0.11406858 0.027329948 1.3670001 4284114024
0.11695236 0.027449904 1.373 4284048231
0.11959622 0.027509883 1.376 4284574834
0.12251645 0.027629837 1.3820001 4284311662
0.12545751 0.027749794 1.388 4284179820
0.12795879 0.027769787 1.3890001 4283982440
0.13065125 0.027829764 1.3920001 4284179563
0.13335411 0.027889742 1.3950001 4284508015
0.13587274 0.027909733 1.396 4284639600
0.13859297 0.027969712 1.399 4284639853
0.14112203 0.027989706 1.4000001 4284902761
0.14324439 0.027929727 1.3970001 4285230945
0.14660762 0.02810966 1.406 4285954147
0.15010808 0.028309589 1.416 4286020194
0.15278134 0.028349573 1.4180001 4286020712
0.15611839 0.028509516 1.4260001 4286086002
0.17055929 0.029289229 1.465 4289770427
0.17404737 0.029449169 1.473 4293520367
0.17648415 0.029429177 1.4720001 4294770175
-0.062556155 0.031401765 1.4460001 4281809471
-0.059797179 0.031271465 1.4400001 4282204229
-0.057098828 0.031162888 1.4350001 4282007362
-0.054570045 0.031141169 1.434 4288915627
-0.052081052 0.031141169 1.434 4281415225
-0.049764976 0.031249752 1.439 4279836193
-0.047332998 0.031293184 1.4410001 4280429100
-0.044925194 0.031358331 1.4440001 4280297515
-0.042448223 0.03138005 1.4450001 4280166442
-0.039912499 0.031358331 1.4440001 4280889911
-0.037457958 0.031401765 1.4460001 4281153085
-0.034996476 0.031445198 1.4480001 4281087805
-0.032460753 0.031423483 1.447 4281087551
-0.029887104 0.031358331 1.4440001 4280890942
-0.027342832 0.031314902 1.442 4280825150
-0.024805503 0.031271465 1.4400001 4280693564
-0.022244135 0.031184601 1.4360001 4280759356
-0.019737918 0.031162888 1.4350001 4280759356
-0.017235173 0.031141169 1.434 4280561977
-0.014766747 0.031184601 1.4360001 4280430391
-0.012291379 0.031228036 1.4380001 4280561977
-0.0098226927 0.031314902 1.442 4280692793
-0.0073451959 0.031423483 1.447 4280495414
-0.004843662 0.031488631 1.45 4280495414
-0.0023285041 0.031510346 1.4510001 4280692536
0.00019038696 0.031575497 1.4540001 4280626741
0.0027196922 0.031640645 1.457 4280626741
0.0052594119 0.031705793 1.46 4280560433
0.0077988687 0.031727511 1.4610001 4282731856
0.010334725 0.031727511 1.4610001 4282008133
0.012870579 0.031727511 1.4610001 4280889652
0.01539589 0.031705793 1.46 4281613888
0.01791773 0.031684075 1.4590001 4282403404
0.020408062 0.031618927 1.4560001 4282008646
0.02285648 0.031510346 1.4510001 4281284923
0.025305025 0.031423483 1.447 4280758325
0.038728137 0.03014222 1.388 4284771700
0.04104837 0.030077072 1.3850001 4285561216
0.043295443 0.029968491 1.3800001 4285890179
0.045624487 0.029925058 1.378 4285890179
0.047911745 0.029859908 1.3750001 4285429628
0.050188594 0.02979476 1.3720001 4284969077
0.052493334 0.029751329 1.3700001 4284903284
0.054350566 0.029469017 1.3570001 4284837745
0.056622334 0.029425582 1.355 4284837745
0.058887158 0.029382151 1.353 4285100404
0.061280817 0.029403865 1.3540001 4285034611
0.063677944 0.029425582 1.355 4285165684
0.06598109 0.029403865 1.3540001 4284375654
0.068179823 0.029338716 1.3510001 4283914333
0.070368148 0.029273568 1.348 4294309624
0.072546057 0.029208418 1.345 4294835967
0.074713551 0.02914327 1.342 4294901247
0.076985449 0.029121554 1.3410001 4294835455
0.079253875 0.029099839 1.34 4286216831
0.081640594 0.029121554 1.3410001 4283980383
0.083968163 0.029121554 1.3410001 4282928468
0.08642444 0.029164989 1.3430001 4284112743
0.089085914 0.029273568 1.348 4285100663
0.091561288 0.029317003 1.35 4284969592
0.10384993 0.030163938 1.3890001 4283522142
0.10633732 0.030185651 1.3900001 4282534990
0.10892332 0.029577596 1.3620001 4285627005
0.11120562 0.02955588 1.3610001 4285166455
0.11390169 0.029642746 1.365 4284640112
0.11652646 0.029707894 1.368 4284311147
0.1189009 0.029707894 1.368 4284311149
0.12527674 0.030098788 1.386 4283653219
0.12777454 0.030120503 1.3870001 4284311149
0.13065125 0.030229086 1.3920001 4284376942
0.13325852 0.030272517 1.3940001 4284179307
0.13567808 0.030272517 1.3940001 4284376686
0.13819671 0.030294234 1.3950001 4284574064
0.14051722 0.030272517 1.3940001 4284507756
0.14283423 0.030250803 1.393 4284376165
0.14598198 0.030402815 1.4000001 4284573286
0.15021411 0.030771991 1.4170001 4284573541
0.15288907 0.030815426 1.419 4284639334
0.15622786 0.030989155 1.427 4284573031
0.17055929 0.031814378 1.465 4283915108
0.17357473 0.03190124 1.4690001 4284704365
0.17612447 0.03190124 1.4690001 4286283140
-0.06251289 0.033870727 1.4450001 4282533194
-0.059797179 0.033753525 1.4400001 4281809471
-0.057019241 0.033589445 1.4330001 4287928732
-0.05445588 0.033542566 1.4310001 4290757831
-0.052044731 0.033589445 1.4330001 4288520869
-0.049661223 0.033659764 1.4360001 4287468181
-0.047234457 0.033706646 1.4380001 4293784310
-0.044800747 0.033753525 1.4400001 4293324529
-0.042330716 0.033776965 1.4410001 4292995564
-0.039801937 0.033753525 1.4400001 4288981937
-0.037328433 0.033776965 1.4410001 4281942086
-0.034851462 0.033800405 1.442 4281021499
-0.032348584 0.033800405 1.442 4281218880
-0.029866405 0.033823844 1.4430001 4281153344
-0.02732387 0.033776965 1.4410001 4280890942
-0.024788275 0.033730086 1.439 4280890942
-0.022228645 0.033636324 1.4350001 4280890942
-0.019710409 0.033589445 1.4330001 4281088321
-0.017211134 0.033566006 1.432 4280956735
-0.014735897 0.033589445 1.4330001 4280693563
-0.012265736 0.033636324 1.4350001 4280759356
-0.0098090684 0.033753525 1.4400001 4280627768
-0.0073401202 0.033894163 1.4460001 4280561461
-0.004843662 0.033987924 1.45 4280561461
-0.0023285041 0.034011364 1.4510001 4280561461
0.00019025602 0.034058243 1.4530001 4280560948
0.002715959 0.034105126 1.455 4280626739
0.0052522072 0.034175444 1.4580001 4281087290
0.0077881939 0.03419888 1.4590001 4283653471
0.010320578 0.03419888 1.4590001 4281087544
0.012861771 0.034222323 1.46 4280495407
0.015385346 0.03419888 1.4590001 4280955958
0.017905448 0.034175444 1.4580001 4282337611
0.020436095 0.034175444 1.4580001 4281021751
0.02293524 0.034128562 1.4560001 4281284923
0.025392465 0.034034804 1.452 4280626739
0.038756035 0.032558087 1.3890001 4283324252
0.041137286 0.032534648 1.388 4284574319
0.043420937 0.032440886 1.3840001 4285429628
0.045723818 0.032370567 1.381 4285627007
0.047946591 0.03225337 1.376 4285955972
0.050152011 0.032136168 1.3710001 4285758593
0.052263435 0.031972088 1.3640001 4285100663
0.054150306 0.03169081 1.3520001 4284969331
0.05649697 0.03169081 1.3520001 4284903538
0.058800109 0.031667367 1.3510001 4284837745
0.061190296 0.03169081 1.3520001 4284837234
0.063583963 0.031714249 1.353 4285034357
0.06598109 0.031737689 1.3540001 4285165429
0.068179823 0.031667367 1.3510001 4283323223
0.070368148 0.031597048 1.348 4288323234
0.072492115 0.031503286 1.3440001 4294901503
0.07465788 0.031432968 1.3410001 4294835711
0.076870628 0.031386089 1.3390001 4294901503
0.079135589 0.031362649 1.3380001 4294769661
0.081518829 0.031386089 1.3390001 4294835711
0.083968163 0.031432968 1.3410001 4290426564
0.088953748 0.031550169 1.3460001 4284243051
0.09135782 0.031573612 1.3470001 4285034619
0.1034761 0.032440886 1.3840001 4283851109
0.10603131 0.032487769 1.386 4283390301
0.10876337 0.03187833 1.36 4284047718
0.11104221 0.03185489 1.3590001 4285494650
0.11356791 0.031901769 1.3610001 4284639598
0.11610055 0.031948648 1.363 4284639599
0.11864015 0.031995527 1.365 4284376427
0.12437286 0.03225337 1.376 4283784548
0.12694542 0.032300249 1.378 4283061082
0.12999423 0.032464329 1.3850001 4283916391
0.13287614 0.032581527 1.3900001 4284245358
0.13519144 0.032558087 1.3890001 4283916393
0.13760233 0.032558087 1.3890001 4284244844
0.13981161 0.032511204 1.3870001 4284376428
0.14221901 0.032511204 1.3870001 4284113510
0.14483498 0.032558087 1.3890001 4284047974
-0.056939665 0.036009111 1.4310001 4294704895
-0.054417823 0.035983942 1.4300001 4294639103
-0.052008413 0.036034275 1.432 4294705151
-0.049592059 0.0360846 1.434 4294639358
-0.047135916 0.036109764 1.4350001 4289770936
-0.044707414 0.036160089 1.437 4288915628
-0.042213213 0.036160089 1.437 4290494660
-0.039691374 0.036134925 1.4360001 4288784042
-0.037173007 0.036109764 1.4350001 4282073156
-0.034730617 0.036160089 1.437 4280757812
-0.03223642 0.036160089 1.437 4281547841
-0.029804314 0.036235582 1.4400001 4281350975
-0.02732387 0.036260746 1.4410001 4281285184
-0.024788275 0.036210418 1.439 4281088319
-0.022228645 0.036109764 1.4350001 4281088321
-0.019696655 0.036034275 1.432 4280956735
-0.017211134 0.036034275 1.432 4280890942
-0.014746181 0.0360846 1.434 4280956735
-0.012274284 0.036134925 1.4360001 4280956735
-0.009815881 0.036260746 1.4410001 4280758586
-0.007350272 0.036436889 1.4480001 4280693047
-0.004843662 0.036487218 1.45 4280824120
-0.0023285041 0.036512382 1.4510001 4280627254
0.00019012508 0.036537547 1.452 4280627254
0.0027140924 0.036587872 1.4540001 4280758325
0.0052450025 0.036638197 1.4560001 4281218876
0.0077721793 0.036638197 1.4560001 4283324252
0.010292282 0.036613036 1.455 4283192920
0.012826533 0.036638197 1.4560001 4281811267
0.015385346 0.03671369 1.4590001 4281613888
0.01793001 0.036738854 1.46 4281942853
0.020492163 0.036789183 1.462 4281087544
0.023029754 0.036789183 1.462 4281022008
0.025549855 0.036764018 1.4610001 4280824629
0.02808571 0.036764018 1.4610001 4280824372
0.03053773 0.036663361 1.457 4280429101
0.032885082 0.036462054 1.4490001 4280560687
0.035155799 0.036210418 1.439 4280955445
0.037548807 0.036109764 1.4350001 4281810754
0.048051126 0.034700602 1.3790001 4285166456
0.050188594 0.034524456 1.3720001 4285758593
0.051918592 0.034096673 1.355 4285692544
0.053950045 0.03389537 1.3470001 4285166456
0.056246243 0.033870202 1.3460001 4285034870
0.058582496 0.033870202 1.3460001 4284837491
0.060964003 0.03389537 1.3470001 4284836978
0.063395984 0.033945695 1.3490001 4284836978
0.065883622 0.034021184 1.3520001 4285099636
0.068129361 0.033970859 1.35 4285033585
0.070420355 0.033945695 1.3490001 4283651675
0.072492115 0.033819873 1.3440001 4292796902
0.074602209 0.033719223 1.34 4294704895
0.076813221 0.033668894 1.3380001 4294835711
0.079017304 0.033618566 1.3360001 4294703614
0.081397071 0.03364373 1.337 4294900991
0.083842926 0.033694059 1.3390001 4294966015
0.086295731 0.033744384 1.3410001 4292726754
0.088623308 0.033744384 1.3410001 4282790739
0.091154344 0.033819873 1.3440001 4284373871
0.10302751 0.034675438 1.378 4283982697
0.10564881 0.034750927 1.381 4283850854
0.10640281 0.034222495 1.36 4283126873
0.10860342 0.034172166 1.358 4282139978
0.11079708 0.034121841 1.3560001 4285560699
0.11306724 0.034096673 1.355 4285034355
0.11550429 0.034121841 1.3560001 4285955457
0.11811865 0.03419733 1.3590001 4284245096
0.12100937 0.034348313 1.365 4284113255
0.12364977 0.034423802 1.368 4285495166
0.12933722 0.034675438 1.378 4283324255
0.13249378 0.034876749 1.386 4283061084
0.13519144 0.034952238 1.3890001 4284245358
0.13750325 0.034927074 1.388 4283982442
0.13940839 0.034801256 1.383 4283982442
0.14170633 0.034776092 1.3820001 4284047978
0.1443136 0.03482642 1.3840001 4284113515
0.14692783 0.034876749 1.386 4284047721
0.14954901 0.034927074 1.388 4283916391
0.15725891 0.035581328 1.414 4283981671
0.15948729 0.035531003 1.4120001 4283915879
0.16182341 0.035505835 1.411 4283915880
0.16601881 0.035883293 1.4260001 4283981417
0.16849393 0.035883293 1.4260001 4283915623
-0.05445588 0.038475651 1.4310001 4290230975
-0.051972095 0.038475651 1.4310001 4289573557
-0.049557477 0.038529426 1.4330001 4292007898
-0.04710307 0.038556315 1.434 4290955210
-0.044614077 0.038556315 1.434 4281152054
-0.042154461 0.038583204 1.4350001 4281152054
-0.039663736 0.038583204 1.4350001 4281546812
-0.037173007 0.038583204 1.4350001 4282994258
-0.034706447 0.038610086 1.4360001 4282139465
-0.032281287 0.038690753 1.439 4281152826
-0.029845709 0.038771413 1.442 4281547843
-0.02732387 0.038744524 1.4410001 4281285184
-0.024788275 0.038690753 1.439 4281153598
-0.022244135 0.038610086 1.4360001 4281219137
-0.019724164 0.038556315 1.434 4281350723
-0.017247191 0.038583204 1.4350001 4281154114
-0.014787313 0.038663864 1.4380001 4281022528
-0.012308475 0.038717639 1.4400001 4280825149
-0.0098363161 0.038825188 1.4440001 4280627768
-0.007350272 0.038932737 1.4480001 4280758840
-0.0048403214 0.038959626 1.4490001 4280758840
-0.0023285041 0.039013397 1.4510001 4280627254
0.00019012508 0.039040286 1.452 4280758838
0.0027122258 0.039067172 1.4530001 4280758325
0.005230593 0.039040286 1.452 4280758325
0.0077508269 0.039040286 1.452 4280824372
0.010271061 0.039040286 1.452 4281153337
0.012808914 0.039094061 1.4540001 4281350716
0.015374799 0.03920161 1.4580001 4281613888
0.01793001 0.039255381 1.46 4281284923
0.020506179 0.039336044 1.4630001 4281153337
0.023061257 0.039362933 1.4640001 4280955958
0.025584832 0.039336044 1.4630001 4281021751
0.028143382 0.039362933 1.4640001 4280889652
0.030684445 0.039362933 1.4640001 4280297515
0.03297586 0.039067172 1.4530001 4280297515
0.035302386 0.038852073 1.4450001 4280429101
0.037731972 0.038771413 1.442 4280626480
0.040039532 0.038583204 1.4350001 4281744961
0.048329886 0.037292611 1.3870001 4284574319
0.050334912 0.036996856 1.376 4285100663
0.051918592 0.036432222 1.355 4285758593
0.053950045 0.036217127 1.3470001 4285627009
0.05616267 0.03613646 1.3440001 4285100663
0.058408398 0.036082689 1.342 4284705905
0.060828228 0.03613646 1.3440001 4284640112
0.063301988 0.036217127 1.3470001 4284968564
0.065786168 0.036297787 1.35 4284968050
0.068179823 0.036324672 1.3510001 4285165428
0.070524752 0.036324672 1.3510001 4284835949
0.072653934 0.036217127 1.3470001 4284375400
0.07465788 0.0360558 1.3410001 4294375930
0.076870628 0.036002025 1.3390001 4294835967
0.079076447 0.035948254 1.337 4294834943
0.081397071 0.035948254 1.337 4293387242
0.083717704 0.035948254 1.337 4294900222
0.08616703 0.036002025 1.3390001 4294965503
0.088491127 0.036002025 1.3390001 4292661217
0.090950876 0.0360558 1.3410001 4282334283
0.10302751 0.037050627 1.378 4284509041
0.10564881 0.037131291 1.381 4284114027
0.10796756 0.037104405 1.3800001 4283850854
0.10876337 0.03656666 1.36 4282732115
0.11079708 0.036459111 1.3560001 4283719008
0.11290035 0.036378447 1.353 4285363576
0.11524875 0.036378447 1.353 4289969086
0.1178579 0.036459111 1.3560001 4291416275
0.12056611 0.03656666 1.36 4284705133
0.12319782 0.03664732 1.363 4285626493
0.12657695 0.036943078 1.3740001 4286679440
0.13249378 0.037265729 1.386 4283390049
0.13528876 0.037373275 1.3900001 4282732119
0.13770138 0.037373275 1.3900001 4283719014
0.13940839 0.037185065 1.383 4284508530
0.14150126 0.037104405 1.3800001 4283916393
0.14400078 0.037131291 1.381 4284179565
0.14660981 0.037185065 1.383 4284245358
0.14933352 0.037265729 1.386 4284113516
0.15692526 0.037937906 1.411 4284047467
0.15914842 0.037884135 1.409 4283850344
0.16170871 0.03791102 1.4100001 4283850600
0.16508743 0.038126118 1.4180001 4283784807
0.16743049 0.038099229 1.4170001 4283718757
-0.056939665 0.040942196 1.4310001 4281612605
-0.054417823 0.040913586 1.4300001 4282204742
-0.05175418 0.040770531 1.4250001 4284704876
-0.049211647 0.040713307 1.4230001 4283323222
-0.04674175 0.040713307 1.4230001 4289705144
-0.044302963 0.04074192 1.424 4293191660
-0.041890081 0.040799145 1.4260001 4294244857
-0.039442614 0.040827751 1.427 4294508031
-0.037121195 0.040999416 1.4330001 4294573823
-0.034730617 0.041113861 1.437 4294442494
-0.032281287 0.041171085 1.439 4291547864
-0.029845709 0.041256916 1.442 4282929496
-0.027304908 0.041199695 1.4400001 4281548100
-0.024753824 0.041113861 1.437 4281153598
-0.022213155 0.04102803 1.434 4281087551
-0.019737918 0.04105664 1.4350001 4280955965
-0.017235173 0.04102803 1.434 4280956220
-0.014746181 0.04102803 1.434 4281022012
-0.012265736 0.04105664 1.4350001 4281087805
-0.0097818216 0.041085251 1.4360001 4281153598
-0.0073045865 0.041171085 1.439 4280956217
-0.0048102573 0.041199695 1.4400001 4280758838
-0.0023156661 0.041285526 1.4430001 4280693045
0.00018933944 0.041371357 1.4460001 4280693045
0.0026991593 0.041371357 1.4460001 4280758325
0.0052053765 0.04134275 1.4450001 4280758579
0.0077134604 0.04134275 1.4450001 4280758579
0.010221545 0.04134275 1.4450001 4280626480
0.012738438 0.041371357 1.4460001 4280626480
0.015290438 0.041485801 1.45 4280692273
0.017831763 0.041543026 1.452 4280560687
0.020408062 0.041657466 1.4560001 4280955958
0.022966743 0.041714691 1.4580001 4280955958
0.025497392 0.041714691 1.4580001 4281021751
0.027778134 0.04134275 1.4450001 4280889652
0.030558689 0.041714691 1.4580001 4280560687
0.032930471 0.041514415 1.4510001 4280560687
0.035326816 0.041371357 1.4460001 4280823859
0.037784301 0.041314136 1.4440001 4280758066
0.040123239 0.041142475 1.4380001 4281021238
0.04829504 0.039654706 1.386 4283061593
0.050408073 0.03942582 1.378 4284245868
0.051880274 0.038739156 1.3540001 4285101178
0.053950045 0.038538881 1.3470001 4285495936
0.056204457 0.03848166 1.345 4285298557
0.058451924 0.03842444 1.3430001 4284969334
0.060873482 0.03848166 1.345 4284969078
0.063348979 0.038567491 1.348 4284837493
0.065883622 0.038681936 1.3520001 4284902771
0.068331219 0.038739156 1.3540001 4285034357
0.070681356 0.038739156 1.3540001 4285231220
0.072761811 0.038596101 1.3490001 4283981155
0.074713551 0.038395826 1.342 4288915371
0.076928042 0.038338605 1.34 4294770175
0.078958154 0.03819555 1.335 4294901247
0.081336193 0.038224161 1.3360001 4292729825
0.083717704 0.038252775 1.337 4291348171
0.086102679 0.038281381 1.3380001 4294966783
0.08842504 0.038281381 1.3380001 4294966783
0.090815231 0.038309995 1.3390001 4289375411
0.093208894 0.038338605 1.34 4282994519
0.095677316 0.038395826 1.342 4285231738
0.10765462 0.0393686 1.376 4283916648
0.10996296 0.039339986 1.3750001 4283521633
0.11112392 0.038910825 1.36 4282139978
0.11281691 0.038681936 1.3520001 4284705902
0.1150784 0.038653322 1.3510001 4285494649
0.11733641 0.038624715 1.35 4293389806
0.1198569 0.038681936 1.3520001 4293060584
0.12247472 0.038767766 1.355 4284836463
0.13690886 0.039540261 1.3820001 4282205775
0.13910599 0.039483041 1.3800001 4283653478
0.14119364 0.039397206 1.3770001 4284114029
0.1435837 0.039397206 1.3770001 4283850600
0.14607976 0.03942582 1.378 4284245103
0.14868705 0.039483041 1.3800001 4284508275
0.15130126 0.039540261 1.3820001 4284442482
0.15370001 0.039540261 1.3820001 4284376689
0.16345751 0.040169701 1.404 4283850600
0.16601259 0.040198315 1.4050001 4283718758
0.16869102 0.040255535 1.4070001 4283850087
-0.054531988 0.043469407 1.4330001 4283454811
-0.05175418 0.043226734 1.4250001 4284639083
-0.04914248 0.043105394 1.4210001 4284639083
-0.046676055 0.043105394 1.4210001 4282006850
-0.044209626 0.043105394 1.4210001 4290888905
-0.041801952 0.043166064 1.4230001 4294705151
-0.039359692 0.043196399 1.424 4291284176
-0.036862154 0.043166064 1.4230001 4287468181
-0.029680129 0.043499745 1.434 4282863701
-0.027210098 0.04353008 1.4350001 4282139978
-0.024650468 0.04340874 1.4310001 4281679429
-0.022151193 0.043378405 1.4300001 4281416255
-0.019710409 0.043469407 1.4330001 4281218876
-0.017223153 0.043469407 1.4330001 4281087290
-0.014746181 0.043499745 1.434 4280955704
-0.012257189 0.043499745 1.434 4280560946
-0.0097818216 0.043560412 1.4360001 4281021497
-0.0072893584 0.043560412 1.4360001 4281482048
-0.0048002359 0.043590747 1.437 4281218876
-0.0023092472 0.043651417 1.439 4280890424
0.00018842285 0.043651417 1.439 4280824118
0.002684226 0.043621082 1.4380001 4280890165
0.0051837629 0.043651417 1.439 4280955958
0.0076867705 0.043681752 1.4400001 4280890165
0.010172029 0.043621082 1.4380001 4280626993
0.012659153 0.043590747 1.437 4280692273
0.015132262 0.04353008 1.4350001 4280626480
0.020380031 0.044106435 1.4540001 4280692273
0.022919487 0.04413677 1.455 4280692786
0.025392465 0.044045769 1.452 4280495407
0.027720463 0.043742422 1.442 4280560687
0.030181421 0.043681752 1.4400001 4280560687
0.03265813 0.043651417 1.439 4280758579
0.035180233 0.043681752 1.4400001 4280758579
0.037758138 0.043772753 1.4430001 4280495407
0.04029065 0.043803088 1.4440001 4280824372
0.042678449 0.043681752 1.4400001 4280626738
0.04511511 0.043621082 1.4380001 4280889911
0.054110251 0.040981974 1.3510001 4284969592
0.056413397 0.040951643 1.35 4285430141
0.058713067 0.040921308 1.3490001 4285364350
0.061099783 0.040951643 1.35 4285298557
0.063583963 0.041042645 1.353 4285100921
0.066078551 0.04113365 1.3560001 4284903542
0.068533085 0.041194316 1.358 4285100150
0.070890166 0.041194316 1.358 4285034357
0.073085427 0.041103315 1.355 4284902768
0.074991919 0.040860638 1.3470001 4283322710
0.077215083 0.040799968 1.345 4292205021
0.079253875 0.040648296 1.34 4294574079
0.081518829 0.040617961 1.3390001 4288914601
0.083905548 0.040648296 1.34 4284572006
0.08616703 0.040617961 1.3390001 4291941079
0.088491127 0.040617961 1.3390001 4294835967
0.090815231 0.040617961 1.3390001 4294770431
0.093208894 0.040648296 1.34 4287599514
0.095748611 0.040739302 1.3430001 4284178537
0.098444805 0.040890973 1.348 4285034360
0.10115836 0.041042645 1.353 4284969081
0.10671576 0.041376323 1.3640001 4284179821
0.10988299 0.041679669 1.3740001 4283982184
0.11218613 0.041649338 1.373 4283061080
0.1129838 0.04107298 1.3540001 4282732369
0.11490803 0.040921308 1.3490001 4284310888
0.11698874 0.040830303 1.3460001 4285757821
0.11959095 0.040921308 1.3490001 4293915893
0.12211318 0.040981974 1.3510001 4291283920
0.12537934 0.041285321 1.3610001 4282336587
0.12896179 0.041679669 1.3740001 4286087047
0.13182461 0.041831344 1.3790001 4286876565
0.13661167 0.041831344 1.3790001 4284640116
0.13880359 0.041770674 1.3770001 4283324256
0.14098856 0.041710004 1.3750001 4283982443
0.14337514 0.041710004 1.3750001 4283916650
0.14565574 0.041679669 1.3740001 4283916650
0.14814833 0.041710004 1.3750001 4284245615
0.15075387 0.041770674 1.3770001 4284574068
0.15325513 0.041801009 1.378 4284771447
0.15643759 0.042013351 1.3850001 4284639861
0.15975903 0.042256027 1.393 4284376689
0.16229329 0.042286362 1.3940001 4284310896
0.16447654 0.042225692 1.3920001 4284179052
0.16629314 0.042074017 1.3870001 4284179052
0.1688222 0.042104356 1.388 4284113259
0.17147808 0.042165022 1.3900001 4284113258
0.1745162 0.042316698 1.3950001 4284047465
0.17693749 0.042316698 1.3950001 4283915623
0.17974451 0.042407699 1.3980001 4283849317
0.18243164 0.042468369 1.4000001 4284112489
0.18486162 0.042468369 1.4000001 4283651937
-0.05175418 0.045682937 1.4250001 4282533709
-0.049107894 0.045522641 1.4200001 4284968050
-0.046643205 0.045522641 1.4200001 4287468182
-0.044147402 0.045490585 1.419 4286415494
-0.041713823 0.045522641 1.4200001 4283981153
-0.03924913 0.045522641 1.4200001 4282534477
-0.036784437 0.045522641 1.4200001 4283061334
-0.029576642 0.045811169 1.429 4282798423
-0.027115289 0.045843225 1.4300001 4282600787
-0.02459879 0.045779109 1.4280001 4282008906
-0.022120213 0.045779109 1.4280001 4281679427
-0.019682899 0.045875285 1.4310001 4281547841
-0.017211134 0.045907345 1.432 4281087290
-0.014735897 0.045939401 1.4330001 4282732369
-0.012240094 0.045907345 1.432 4288127396
-0.0097681973 0.045971457 1.434 4283587166
-0.0072842818 0.046003517 1.4350001 4280429101
-0.0047968957 0.046035573 1.4360001 4281152825
-0.0023060376 0.046067633 1.437 4281350716
0.00018803003 0.046035573 1.4360001 4280955958
0.0026786262 0.046003517 1.4350001 4280758579
0.0051729558 0.046035573 1.4360001 4280890165
0.0076654186 0.046035573 1.4360001 4280824372
0.010143734 0.045971457 1.434 4280758066
0.012615106 0.045907345 1.432 4280692273
0.015090082 0.045875285 1.4310001 4280626480
0.017758079 0.046356156 1.4460001 4280692273
0.02025388 0.0463241 1.4450001 4280626480
0.022809222 0.046420272 1.4480001 4280429614
0.032521963 0.045939401 1.4330001 4280495407
0.035033647 0.045971457 1.434 4280363821
0.037574973 0.046035573 1.4360001 4280297514
0.040123239 0.046099693 1.4380001 4280363308
0.042648811 0.046131752 1.439 4280363310
0.04514648 0.046131752 1.439 4280231981
0.04767726 0.046163809 1.4400001 4280495153
0.050176665 0.046163809 1.4400001 4281613634
0.052749231 0.046227925 1.442 4282600785
0.054230411 0.043406799 1.3540001 4283653732
0.056622334 0.043438859 1.355 4285035384
0.058887158 0.043374747 1.353 4285101178
0.061235558 0.043374747 1.353 4285561729
0.063724943 0.043470919 1.3560001 4285232764
0.066127278 0.043502979 1.3570001 4285166715
0.068533085 0.043535035 1.358 4285035128
0.070890166 0.043535035 1.358 4285100407
0.073193304 0.043502979 1.3570001 4284968563
0.07527028 0.043342687 1.3520001 4284310120
0.077444725 0.043246511 1.3490001 4283915362
0.079490453 0.04308622 1.3440001 4285428601
0.081762359 0.043054163 1.3430001 4283849055
0.084093399 0.043054163 1.3430001 4284967536
0.086295731 0.042990044 1.3410001 4285165172
0.088557221 0.042957988 1.34 4293192174
0.090815231 0.042925932 1.3390001 4294705151
0.093208894 0.042957988 1.34 4293652982
0.095677316 0.043022104 1.342 4283784034
0.098517835 0.043246511 1.3490001 4284771444
0.10130788 0.043438859 1.355 4285232252
0.10663753 0.043695327 1.363 4284443249
0.10964306 0.043951791 1.3710001 4284048490
0.11202271 0.043951791 1.3710001 4283719010
0.1129838 0.043406799 1.3540001 4282600783
0.11490803 0.043246511 1.3490001 4283126870
0.11698874 0.043150339 1.3460001 4284836462
0.11959095 0.043246511 1.3490001 4289310386
0.12220357 0.043342687 1.3520001 4294639615
0.12537934 0.043631211 1.3610001 4284836720
0.12877406 0.043983851 1.3720001 4282336587
0.13172901 0.044176199 1.378 4286020998
0.1344128 0.044272374 1.381 4287205530
0.13651259 0.044176199 1.378 4285692804
0.13870278 0.044112083 1.376 4283719271
0.14098856 0.044080026 1.3750001 4283390563
0.14327088 0.044047967 1.3740001 4284180079
0.14554973 0.04401591 1.373 4284114028
0.14804059 0.044047967 1.3740001 4283719270
0.15053491 0.044080026 1.3750001 4284113516
0.15303271 0.044112083 1.376 4284639860
0.15609874 0.044304434 1.3820001 4284705654
0.1593003 0.044528842 1.3890001 4284705398
0.16182759 0.044560898 1.3900001 4284639604
0.16412206 0.044528842 1.3890001 4284573811
0.16629314 0.044464722 1.3870001 4284573810
0.16870056 0.044464722 1.3870001 4284507761
0.17147808 0.044560898 1.3900001 4284376430
0.1741409 0.044625014 1.3920001 4284113257
0.17693749 0.04472119 1.3950001 4284046952
0.17974451 0.044817362 1.3980001 4283915110
0.18243164 0.044881478 1.4000001 4283849317
0.18486162 0.044881478 1.4000001 4283980903
-0.04914248 0.048004009 1.4210001 4294705151
-0.046676055 0.048004009 1.4210001 4294508031
-0.044116292 0.047902662 1.4180001 4294508031
-0.041566946 0.04780132 1.4150001 4294179066
-0.039083287 0.047767535 1.414 4289837246
-0.036603108 0.047733754 1.4130001 4283718499
-0.034174733 0.047767535 1.414 4283521634
-0.031742893 0.04780132 1.4150001 4282666582
-0.029245483 0.047733754 1.4130001 4282666583
-0.02688775 0.047902662 1.4180001 4282469974
-0.024426529 0.047902662 1.4180001 4282272594
-0.022027269 0.048037793 1.4220001 4282074700
-0.019641636 0.048240483 1.4280001 4281877319
-0.017151039 0.048206698 1.427 4281679681
-0.014694764 0.048274267 1.429 4282206025
-0.012222999 0.048308045 1.4300001 4290364357
-0.0097477613 0.048341829 1.4310001 4290824908
-0.0072690537 0.04837561 1.432 4289509048
-0.004783534 0.04837561 1.432 4282206025
-0.0022980138 0.04837561 1.432 4280758579
0.00018737534 0.048341829 1.4310001 4281350716
0.0026711596 0.048341829 1.4310001 4281284923
0.0051585464 0.04837561 1.432 4280955958
0.0076387287 0.048341829 1.4310001 4280890165
0.010108365 0.048274267 1.429 4280890165
0.012571059 0.048206698 1.427 4280758579
0.015058446 0.048240483 1.4280001 4280692786
0.017561585 0.048308045 1.4300001 4280758579
0.020029616 0.048274267 1.429 4280758579
0.022446921 0.048139136 1.4250001 4280495407
0.024797875 0.047902662 1.4180001 4280429614
0.027182203 0.047767535 1.414 4280495407
0.02961552 0.047733754 1.4130001 4280495407
0.032204233 0.047936447 1.419 4280363821
0.034862634 0.048206698 1.427 4280298028
0.037339475 0.048206698 1.427 4280231722
0.039872121 0.048274267 1.429 4280231722
0.042411707 0.048341829 1.4310001 4280231468
0.044958241 0.048409391 1.4330001 4280099882
0.04764415 0.048612084 1.439 4280100395
0.050246354 0.048713431 1.442 4280166188
0.052822392 0.048780993 1.4440001 4281087290
0.055213794 0.048679646 1.4410001 4282666322
0.057474621 0.048476957 1.4350001 4282797908
0.059365913 0.046078444 1.3640001 4284706163
0.061552372 0.045943316 1.36 4285232764
0.06386593 0.045909535 1.3590001 4284969592
0.066078551 0.045808189 1.3560001 4285364350
0.068078898 0.045571715 1.3490001 4285035385
0.070576951 0.045673061 1.3520001 4284903799
0.072815746 0.045605499 1.35 4284771700
0.07504759 0.045537934 1.348 4284705393
0.077329904 0.045504153 1.3470001 4284047463
0.07943131 0.045369025 1.3430001 4284244329
0.081701472 0.045335244 1.342 4284573037
0.084093399 0.045369025 1.3430001 4284836465
0.086553141 0.045436587 1.345 4284968050
0.088953748 0.045470372 1.3460001 4285823359
0.091154344 0.045402806 1.3440001 4290692039
0.093348004 0.045335244 1.342 4289047730
0.095748611 0.045369025 1.3430001 4285100150
0.098152682 0.045402806 1.3440001 4284574319
0.10056023 0.045436587 1.345 4284705906
0.10365976 0.045774408 1.355 4285166458
0.10608987 0.045808189 1.3560001 4284837749
0.10828353 0.045740623 1.3540001 4284377199
0.11071537 0.045774408 1.355 4283851110
0.11290035 0.045706846 1.353 4283390301
0.1150784 0.04563928 1.3510001 4282402893
0.11707566 0.045504153 1.3470001 4284178789
0.1195023 0.045537934 1.348 4283981153
0.12202279 0.045605499 1.35 4292928999
0.12501085 0.045841973 1.3570001 4291678934
0.12821092 0.046146009 1.3660001 4281809986
0.13096425 0.046281137 1.3700001 4283257948
0.13373148 0.04641626 1.3740001 4284639858
0.13601726 0.046382483 1.373 4283718756
0.13840038 0.046382483 1.373 4283127133
0.14068095 0.046348698 1.3720001 4283193182
0.14306234 0.046348698 1.3720001 4283587683
0.14533772 0.046314918 1.3710001 4284377199
0.14760961 0.046281137 1.3700001 4284442735
0.15020646 0.046348698 1.3720001 4283850599
0.15269907 0.046382483 1.373 4284113772
0.15564694 0.046551388 1.378 4284771189
0.15861216 0.0467203 1.383 4284968568
0.16101263 0.0467203 1.383 4284968312
0.16353126 0.046754081 1.3840001 4284639603
0.16605337 0.046787862 1.3850001 4284376430
0.16857894 0.046821646 1.386 4283981672
0.17110798 0.046855424 1.3870001 4283850085
0.17364049 0.046889208 1.388 4283850084
0.1759228 0.046855424 1.3870001 4284178536
0.18421467 0.046517607 1.3770001 4284244073
0.18714678 0.046652734 1.381 4284441707
-0.049177062 0.050488822 1.4220001 4294639615
-0.0467089 0.050488822 1.4220001 4293192172
-0.044147402 0.050382309 1.419 4289902523
-0.041537568 0.050204776 1.414 4290034108
-0.039028011 0.050133768 1.4120001 4294442237
-0.036499489 0.050027251 1.409 4284968566
-0.034005553 0.04995624 1.4070001 4284113771
-0.031585857 0.049991746 1.4080001 4283455842
-0.029121298 0.04995624 1.4070001 4282995548
-0.026755016 0.050098263 1.411 4282930009
-0.024340399 0.05016927 1.4130001 4282733144
-0.02196531 0.050346799 1.4180001 4282536019
-0.019586617 0.050559834 1.424 4282535249
-0.017139021 0.050630845 1.4260001 4282272075
-0.014694764 0.050737362 1.429 4281613888
-0.012222999 0.050772864 1.4300001 4281548095
-0.0097409505 0.050772864 1.4300001 4285429882
-0.0072589014 0.050772864 1.4300001 4291088080
-0.0047768527 0.050772864 1.4300001 4291351252
-0.0022948042 0.050772864 1.4300001 4286285191
0.0001872444 0.050772864 1.4300001 4280758579
0.002669293 0.050772864 1.4300001 4281284923
0.0051585464 0.05084388 1.432 4281284923
0.0076387287 0.05080837 1.4310001 4281153337
0.010108365 0.050737362 1.429 4280890165
0.012571059 0.050666351 1.427 4280824372
0.015047901 0.050666351 1.427 4280758579
0.017512461 0.050630845 1.4260001 4280626993
0.019945517 0.050524328 1.4230001 4280692786
0.022368159 0.050417811 1.4200001 4280693043
0.024745412 0.050240286 1.4150001 4280561457
0.027124532 0.050098263 1.411 4280627250
0.029573601 0.050098263 1.411 4280429614
0.032158844 0.050311293 1.4170001 4280298028
0.034764908 0.050524328 1.4230001 4280363821
0.037260976 0.050559834 1.424 4280429101
0.039732609 0.050559834 1.424 4280363308
0.042204242 0.050559834 1.424 4280297261
0.044832744 0.050737362 1.429 4280165675
0.047544826 0.050985899 1.4360001 4280231722
0.050141819 0.051092416 1.439 4280166185
0.052785814 0.051234435 1.4430001 4280166186
0.055137161 0.051092416 1.439 4280560946
0.057354469 0.05084388 1.432 4282600527
0.062004961 0.048642538 1.3700001 4283916902
0.064194888 0.048500516 1.3660001 4284969591
0.066176005 0.04821647 1.358 4285298557
0.068078898 0.047896922 1.3490001 4285035385
0.070159338 0.047719393 1.3440001 4284772213
0.072276369 0.047577374 1.34 4284903544
0.074546531 0.047541864 1.3390001 4284837495
0.076813221 0.047506358 1.3380001 4284640116
0.079194725 0.047541864 1.3390001 4284968824
0.081579715 0.047577374 1.34 4284968566
0.083905548 0.047577374 1.34 4285100152
0.086360082 0.047648381 1.342 4285165431
0.088887654 0.047754899 1.345 4285428347
0.091222167 0.047754899 1.345 4285165687
0.093626246 0.047790404 1.3460001 4285363322
0.095819905 0.047719393 1.3440001 4285165943
0.098298743 0.047790404 1.3460001 4285034357
0.10070976 0.04782591 1.3470001 4284574062
0.10320075 0.047896922 1.3490001 4284969079
0.10546397 0.047861416 1.348 4285298044
0.10756377 0.047754899 1.345 4284771700
0.10989828 0.047754899 1.345 4284179819
0.11239969 0.04782591 1.3470001 4283785061
0.11490803 0.047896922 1.3490001 4283258459
0.11724949 0.047896922 1.3490001 4282534223
0.1195023 0.047861416 1.348 4283323739
0.1219324 0.047896922 1.3490001 4286678668
0.12455023 0.048003439 1.3520001 4289770938
0.12717848 0.048109952 1.355 4284178534
0.12981713 0.04821647 1.358 4284442222
0.13256353 0.048358493 1.3620001 4284376942
0.13512568 0.0484295 1.3640001 4284311149
0.13739236 0.048393998 1.363 4284245612
0.13996319 0.04846501 1.365 4284180076
0.1424367 0.048500516 1.3660001 4284179819
0.14470166 0.04846501 1.365 4284048234
0.14728637 0.048536018 1.3670001 4284574321
0.150097 0.048678041 1.3710001 4284574066
0.15258785 0.048713546 1.3720001 4284376431
0.15564694 0.048926581 1.378 4284442224
0.15861216 0.049104109 1.383 4284508017
0.16089621 0.049068604 1.3820001 4284376431
0.16294047 0.048962086 1.3790001 4283981672
0.16485442 0.048820063 1.3750001 4284047464
0.16711938 0.048784558 1.3740001 4283981670
0.16950423 0.048784558 1.3740001 4284244840
0.17201418 0.048820063 1.3750001 4284441962
0.1745276 0.048855569 1.376 4284507755
0.17627306 0.048678041 1.3710001 4284441705
0.17852239 0.048642538 1.3700001 4284639086
0.18076825 0.048607033 1.3690001 4284704623
0.18314442 0.048607033 1.3690001 4285823103
0.18538508 0.048571523 1.368 4285428601
0.18817127 0.048678041 1.3710001 4283849311
0.19110686 0.048820063 1.3750001 4284967535
0.19377489 0.048891075 1.3770001 4291217612
0.1970197 0.049104109 1.383 4294835967
0.20014113 0.049281634 1.388 4294770175
0.20255029 0.049281634 1.388 4294835710
-0.044209626 0.052902624 1.4210001 4283915360
-0.04150819 0.052604791 1.4130001 4284507497
-0.038972728 0.052493103 1.4100001 4283849566
-0.03639587 0.052306958 1.4050001 4282928466
-0.033884708 0.05219527 1.4020001 4284442475
-0.031451259 0.05219527 1.4020001 4283981669
-0.029017812 0.05219527 1.4020001 4283719010
-0.026603322 0.0522325 1.4030001 4282930008
-0.024202591 0.052306958 1.4050001 4282930775
-0.021887857 0.052604791 1.4130001 4282733398
-0.019545354 0.052902624 1.4210001 4282536019
-0.017090943 0.052939855 1.4220001 4282601041
-0.014633064 0.052977081 1.4230001 4282469197
-0.012163165 0.052977081 1.4230001 4282271818
-0.0096796434 0.052902624 1.4210001 4281744961
-0.0071979878 0.052790936 1.4180001 4283719264
-0.0047367672 0.052790936 1.4180001 4290561736
-0.0022771519 0.052828167 1.419 4291417045
0.00018593499 0.052865393 1.4200001 4282140232
0.0026562265 0.052977081 1.4230001 4281350716
0.0051333299 0.053051542 1.4250001 4281087544
0.0076120379 0.053088773 1.4260001 4281284923
0.010080069 0.053051542 1.4250001 4281153337
0.012527012 0.052939855 1.4220001 4280890165
0.014995176 0.052939855 1.4220001 4280758579
0.017438777 0.052865393 1.4200001 4280692786
0.019875433 0.052790936 1.4180001 4280758579
0.022320902 0.052753706 1.4170001 4280758836
0.024745412 0.052679248 1.4150001 4280758836
0.027162977 0.052604791 1.4130001 4280758836
0.02961552 0.052604791 1.4130001 4280627250
0.032136146 0.052716479 1.416 4280626993
0.034642756 0.052790936 1.4180001 4280429614
0.037103977 0.052790936 1.4180001 4280363308
0.039537296 0.052753706 1.4170001 4280231722
0.041996781 0.052753706 1.4170001 4280297515
0.044550385 0.052865393 1.4200001 4280297515
0.047048185 0.052902624 1.4210001 4280297515
0.049479768 0.052865393 1.4200001 4280165929
0.054524098 0.052977081 1.4230001 4280100395
0.056793738 0.052790936 1.4180001 4280758325
0.063136443 0.051934667 1.3950001 4282600529
0.064429864 0.051041167 1.3710001 4283916647
0.066419661 0.050743334 1.363 4284903799
0.067977957 0.050147668 1.3470001 4285035385
0.07010714 0.049998753 1.3430001 4285035385
0.072222427 0.049849834 1.3390001 4285166716
0.074379511 0.049738146 1.3360001 4284903288
0.076698408 0.049738146 1.3360001 4284771702
0.079135589 0.049812604 1.3380001 4285034874
0.081579715 0.049887065 1.34 4285231997
0.083780311 0.049812604 1.3380001 4285297533
0.08616703 0.049849834 1.3390001 4285297533
0.088557221 0.049887065 1.34 4285429119
0.091018699 0.049961522 1.342 4285297531
0.093348004 0.049961522 1.342 4285297531
0.095748611 0.049998753 1.3430001 4285165945
0.098152682 0.05003598 1.3440001 4284969077
0.100635 0.050110437 1.3460001 4284969077
0.10304774 0.050147668 1.3470001 4284574321
0.10522925 0.050073206 1.345 4285298044
0.10732385 0.049961522 1.342 4285232251
0.10940803 0.049849834 1.3390001 4284443248
0.11189902 0.049924292 1.3410001 4284114027
0.11439694 0.049998753 1.3430001 4283785061
0.11707566 0.050147668 1.3470001 4283126617
0.11959095 0.050222125 1.3490001 4282731859
0.1219324 0.050222125 1.3490001 4283587168
0.12418175 0.050184894 1.348 4283718753
0.12652147 0.050184894 1.348 4283719010
0.12895676 0.050222125 1.3490001 4284508271
0.13159022 0.050333813 1.3520001 4284640114
0.13403596 0.050371043 1.353 4284442735
0.13658595 0.050445501 1.355 4284376942
0.13934797 0.050594416 1.3590001 4284508528
0.14201961 0.050706103 1.3620001 4284705650
0.14438364 0.050706103 1.3620001 4284705394
0.14707088 0.050817791 1.365 4284376429
0.14987803 0.05096671 1.3690001 4284508015
0.15236542 0.05100394 1.3700001 4284047466
0.15485628 0.051041167 1.3710001 4283784294
0.15803872 0.05130177 1.378 4283850087
0.1603141 0.051264539 1.3770001 4283981673
0.16211335 0.051078394 1.3720001 4284113001
0.16365549 0.050817791 1.365 4284507757
0.16578144 0.050743334 1.363 4284507756
0.16802384 0.050706103 1.3620001 4284704877
0.17063807 0.050780561 1.3640001 4284639083
0.17287871 0.050743334 1.363 4283915360
0.17498733 0.050668873 1.3610001 4283652188
0.17734961 0.050668873 1.3610001 4283849311
0.17984395 0.050706103 1.3620001 4286020224
0.18247552 0.050780561 1.3640001 4294507516
0.18552059 0.05096671 1.3690001 4294639103
0.18789676 0.05096671 1.3690001 4289770166
0.19082889 0.051115625 1.373 4283914333
0.19349344 0.051190082 1.3750001 4287664533
0.19673477 0.051413458 1.381 4294835967
0.19985275 0.051599603 1.386 4294638588
0.20240435 0.05163683 1.3870001 4293322728
0.20569776 0.05186021 1.393 4294769916
0.20886259 0.052046355 1.3980001 4294835709
0.21159138 0.052120812 1.4000001 4294901758
-0.044271849 0.055429835 1.4230001 4282138949
-0.041537568 0.055079263 1.414 4283915360
-0.03900037 0.054962404 1.411 4288784042
-0.03639587 0.054728687 1.4050001 4290560453
-0.033884708 0.054611828 1.4020001 4291284176
-0.031406395 0.054533921 1.4000001 4289771451
-0.028976416 0.054533921 1.4000001 4284969332
-0.026584363 0.054611828 1.4020001 4283522142
-0.024185365 0.054689731 1.404 4283127386
-0.021856876 0.054962404 1.411 4282864985
-0.019504089 0.055235073 1.4180001 4282667605
-0.01703085 0.055196118 1.4170001 4282601812
-0.014550799 0.055118214 1.4150001 4282601042
-0.0120435 0.054884497 1.409 4282666833
-0.0095842769 0.05480659 1.4070001 4282403404
-0.0071421494 0.05480659 1.4070001 4281152824
-0.0046966821 0.054767642 1.406 4282468684
-0.0022578947 0.05480659 1.4070001 4283784544
0.0001843637 0.054845545 1.4080001 4281811267
0.0026356934 0.055001356 1.4120001 4281350716
0.005104511 0.055196118 1.4170001 4281482302
0.0075746723 0.055274028 1.419 4281482302
0.010044701 0.055312976 1.4200001 4281350716
0.012500584 0.055274028 1.419 4281284923
0.01496354 0.055274028 1.419 4280955958
0.017401934 0.055196118 1.4170001 4280495407
0.019861419 0.055196118 1.4170001 4280758579
0.022320902 0.055196118 1.4170001 4280824629
0.024797875 0.055235073 1.4180001 4280956215
0.027259095 0.055235073 1.4180001 4280824629
0.029699357 0.055196118 1.4170001 4280693043
0.032113452 0.055118214 1.4150001 4280693043
0.034545034 0.055079263 1.414 4280495664
0.036999311 0.055079263 1.414 4280363821
0.039425686 0.055040307 1.4130001 4280363565
0.041848589 0.055001356 1.4120001 4280363821
0.044362143 0.055079263 1.414 4280298028
0.046882641 0.05515717 1.416 4280231978
0.04934039 0.05515717 1.416 4280100649
0.051944461 0.055312976 1.4200001 4280166444
0.054370835 0.055274028 1.419 4280100395
0.056753688 0.055196118 1.4170001 4280100650
0.059087809 0.055079263 1.414 4280298029
0.061367996 0.054923449 1.4100001 4281087545
0.063589029 0.054728687 1.4050001 4282139978
0.074546531 0.052157801 1.3390001 4285166971
0.076813221 0.052118849 1.3380001 4284969336
0.079076447 0.052079897 1.337 4284903287
0.081336193 0.052040942 1.3360001 4285166460
0.083592467 0.05200199 1.335 4285429119
0.08590962 0.05200199 1.335 4285363326
0.08822678 0.05200199 1.335 4285297533
0.090747409 0.052118849 1.3380001 4285494399
0.093139328 0.052157801 1.3390001 4285428862
0.095534727 0.052196756 1.34 4285100153
0.09793359 0.052235708 1.3410001 4285034871
0.10033593 0.052274659 1.342 4285100663
0.10289474 0.052391518 1.345 4284903285
0.10522925 0.052391518 1.345 4284574320
0.10740383 0.052313615 1.3430001 4285100665
0.10948974 0.052196756 1.34 4285034872
0.11181558 0.052196756 1.34 4284311149
0.11422659 0.052235708 1.3410001 4283982184
0.11690183 0.052391518 1.345 4283916390
0.11941364 0.052469425 1.3470001 4283192668
0.12166124 0.052430473 1.3460001 4283390046
0.123629 0.052274659 1.342 4283258461
0.12577058 0.052196756 1.34 4283258460
0.12809642 0.052196756 1.34 4284376942
0.13042226 0.052196756 1.34 4284771700
0.13314436 0.052352563 1.3440001 4284574320
0.13567874 0.052430473 1.3460001 4284442734
0.13863021 0.052664187 1.3520001 4284376684
0.14160252 0.052897904 1.358 4284771186
0.1439596 0.052897904 1.358 4284573807
0.14653215 0.052975811 1.36 4284047464
0.14911167 0.053053714 1.3620001 4283915878
0.1514757 0.053053714 1.3620001 4283784292
0.15395266 0.05309267 1.363 4283718500
0.1565478 0.053170573 1.365 4283850086
0.15891702 0.053170573 1.365 4284310381
0.16104993 0.05309267 1.363 4284770418
0.16293612 0.052936859 1.3590001 4284704879
0.16517329 0.052897904 1.358 4284507242
0.16740702 0.052858952 1.3570001 4284639084
0.16976236 0.052858952 1.3570001 4285494392
0.17224453 0.052897904 1.358 4292994535
0.17473018 0.052936859 1.3590001 4294705151
0.17734961 0.053014763 1.3610001 4291217869
0.18010803 0.053131621 1.3640001 4283651418
0.18274309 0.053209528 1.3660001 4290559425
0.18830852 0.053443246 1.3720001 4294375417
0.19138484 0.053638007 1.3770001 4283059023
0.19405633 0.053715914 1.3790001 4285822329
0.19730461 0.053949632 1.3850001 4294835967
0.20042951 0.054144394 1.3900001 4293849072
0.20313402 0.054222301 1.3920001 4284045915
0.20584543 0.054300204 1.3940001 4290230199
0.20886259 0.054456018 1.3980001 4294901502
0.21159138 0.054533921 1.4000001 4294901502
0.21509145 0.05480659 1.4070001 4294836222
-0.044240735 0.057841912 1.4220001 4284112484
-0.04159632 0.057597853 1.416 4293849843
-0.039028011 0.057435151 1.4120001 4294573823
-0.03639587 0.057150412 1.4050001 4294705151
-0.033860538 0.05698771 1.401 4294573823
-0.031428825 0.05698771 1.401 4294508031
-0.028997112 0.05698771 1.401 4293982457
-0.026603322 0.057069063 1.4030001 4283456092
-0.024202591 0.057150412 1.4050001 4283522144
-0.021856876 0.057394478 1.411 4282864984
-0.019462824 0.057557181 1.4150001 4282798421
-0.016958736 0.057394478 1.411 4282864216
-0.014489099 0.057313122 1.409 4282732628
-0.012017857 0.057191093 1.406 4282534992
-0.0095570292 0.057069063 1.4030001 4282139719
-0.0071218447 0.057069063 1.4030001 4285429369
-0.0046866606 0.057069063 1.4030001 4280757812
-0.0022514758 0.057069063 1.4030001 4280231722
0.00018383995 0.05710974 1.404 4281744961
0.0026263604 0.057231769 1.4070001 4281482302
0.0050901021 0.057475824 1.4130001 4281416509
0.0075586578 0.057597853 1.416 4281416509
0.010044701 0.057760566 1.4200001 4281679681
0.012509394 0.057760566 1.4200001 4281284923
0.014952994 0.05767921 1.4180001 4280955958
0.017401934 0.057638537 1.4170001 4280758579
0.019861419 0.057638537 1.4170001 4280890165
0.022320902 0.057638537 1.4170001 4281087801
0.024815364 0.057719883 1.419 4281153594
0.027278319 0.057719883 1.419 4280956215
0.029699357 0.057638537 1.4170001 4280956215
0.032090757 0.057516508 1.414 4280627250
0.034520604 0.057475824 1.4130001 4280627250
0.036973145 0.057475824 1.4130001 4280693043
0.039397784 0.057435151 1.4120001 4280561200
0.041818954 0.057394478 1.411 4280429614
