# .PCD v0.7 - Point Cloud Data file format
VERSION 0.7
FIELDS x y z rgba
SIZE 4 4 4 4
TYPE F F F U
COUNT 1 1 1 1
WIDTH 633
HEIGHT 1
VIEWPOINT 0 0 0 1 0 0 0
POINTS 633
DATA ascii
-0.18637937 -0.027079511 1.378 4291141017
-0.18358703 -0.027020557 1.3750001 4290284674
-0.18106864 -0.027000906 1.3740001 4291138696
-0.1786838 -0.027000906 1.3740001 4290676600
-0.17668387 -0.027059861 1.3770001 4289226579
-0.19074678 -0.024650538 1.3750001 4288896583
-0.18767524 -0.0245609 1.3700001 4289226324
-0.18516208 -0.024542972 1.3690001 4291796116
-0.18265238 -0.024525044 1.368 4291928984
-0.18014617 -0.024507117 1.3670001 4290282871
-0.17790352 -0.024525044 1.368 4291926410
-0.17604233 -0.024596754 1.3720001 4291923834
-0.17454697 -0.024722248 1.3790001 4290014289
-0.17277765 -0.024811886 1.3840001 4289751630
-0.19046932 -0.022248112 1.373 4289815874
-0.18726428 -0.022150887 1.3670001 4289750592
-0.18489158 -0.022150887 1.3670001 4289424978
-0.18238537 -0.022134682 1.3660001 4291795853
-0.1800144 -0.022134682 1.3660001 4291267968
-0.17777348 -0.022150887 1.3670001 4290806130
-0.17604233 -0.022231907 1.3720001 4292317820
-0.17467354 -0.022361539 1.3800001 4290540114
-0.17290248 -0.022442559 1.3850001 4289947978
-0.19060804 -0.019896019 1.3740001 4289946940
-0.18740126 -0.019809138 1.368 4289815868
-0.18502682 -0.019809138 1.368 4289685312
-0.18251887 -0.019794656 1.3670001 4290345051
-0.18027796 -0.019809138 1.368 4292516485
-0.17816362 -0.019838098 1.3700001 4291001960
-0.17668387 -0.01993946 1.3770001 4290475863
-0.17505327 -0.020026343 1.383 4290146894
-0.17302732 -0.020069784 1.386 4290211407
-0.19594258 -0.017795615 1.3950001 4288962368
-0.1925502 -0.017706318 1.388 4289815616
-0.18794923 -0.017502209 1.3720001 4290078527
-0.18543258 -0.017489452 1.3710001 4289750594
-0.18305294 -0.017489452 1.3710001 4289751369
-0.18093687 -0.017514966 1.373 4290409047
-0.17881386 -0.017540481 1.3750001 4290672221
-0.17719713 -0.017617021 1.381 4289882960
-0.17606588 -0.017744588 1.391 4289356101
-0.17427573 -0.017808372 1.396 4289027140
-0.19552118 -0.015358022 1.3920001 4287779392
-0.19227274 -0.015291825 1.386 4288961342
-0.18808621 -0.015148395 1.373 4289158204
-0.18556784 -0.015137361 1.3720001 4288763703
-0.18318647 -0.015137361 1.3720001 4288829246
-0.18106864 -0.015159427 1.3740001 4288763708
-0.17894389 -0.015181493 1.376 4288500282
-0.17732544 -0.015247691 1.3820001 4288171063
-0.17606588 -0.01534699 1.391 4288368187
-0.17427573 -0.015402155 1.396 4288566592
-0.1969258 -0.013051796 1.4020001 4287714637
-0.19324383 -0.01296801 1.393 4288764741
-0.1883602 -0.012800441 1.3750001 4288369983
-0.18597361 -0.012800441 1.3750001 4288171576
-0.1834535 -0.012791132 1.3740001 4288302392
-0.18120044 -0.012800441 1.3750001 4288302391
-0.17907393 -0.012819059 1.3770001 4288171060
-0.17745374 -0.012874917 1.383 4287908662
-0.17619245 -0.012958701 1.3920001 4288237372
-0.17440055 -0.013005248 1.3970001 4288501314
-0.17345303 -0.01311696 1.409 4288503628
-0.17125016 -0.01313558 1.411 4287126869
-0.19678535 -0.010627651 1.401 4287583309
-0.19324383 -0.010566966 1.393 4288633928
-0.18849717 -0.010438007 1.376 4288566850
-0.18597361 -0.010430422 1.3750001 4288303422
-0.1834535 -0.010422836 1.3740001 4288434238
-0.18133222 -0.010438007 1.376 4288368186
-0.17907393 -0.010445593 1.3770001 4288434234
-0.17745374 -0.010491109 1.383 4288368700
-0.17631903 -0.010566966 1.393 4288434241
-0.17452541 -0.010604895 1.3980001 4288435009
-0.17345303 -0.010688337 1.409 4288633416
-0.18904513 -0.0080897128 1.3800001 4288566594
-0.18651462 -0.0080838511 1.3790001 4288500801
-0.18398757 -0.0080779884 1.378 4288566339
-0.18185934 -0.0080897128 1.3800001 4288434238
-0.17959413 -0.0080955746 1.381 4288368443
-0.1780953 -0.0081366096 1.388 4288303163
-0.18786715 -0.0057483213 1.3890001 4288435265
-0.18518923 -0.0057400442 1.3870001 4288369986
-0.18304537 -0.0057483213 1.3890001 4288369216
-0.18089458 -0.0057565984 1.391 4288434494
-0.17319205 -0.0059055826 1.427 4288110164
-0.17167227 -0.0059386906 1.4350001 4288445822
-0.16894576 -0.0059304135 1.4330001 4294570228
-0.18867868 -0.0033686596 1.3950001 4287777849
-0.18599035 -0.00336383 1.393 4287712313
-0.18330894 -0.0033590002 1.391 4287580214
-0.18154483 -0.0033710746 1.396 4287711543
-0.17343479 -0.0034507629 1.429 4288110939
-0.17143302 -0.0034604224 1.4330001 4287390563
-0.16870996 -0.0034555928 1.4310001 4286932328
-0.20447831 -0.00099388696 1.4380001 4288512391
-0.20142053 -0.00099112233 1.434 4287191131
-0.19907026 -0.00099181349 1.4350001 4287779919
-0.18502212 -0.00097038754 1.404 4287054389
-0.18297534 -0.00097246101 1.4070001 4287186487
-0.18078983 -0.00097384339 1.409 4287515707
-0.17802089 -0.00098559307 1.4260001 4287779396
-0.17566891 -0.00098628423 1.427 4287912531
-0.17343479 -0.00098766654 1.429 4288177763
-0.17059557 -0.00098559307 1.4260001 4287388249
-0.16717729 -0.00098006381 1.4180001 4286664016
-0.20113961 0.0014785274 1.432 4286927188
-0.19865409 0.0014785274 1.432 4287715415
-0.19562063 0.0014743975 1.4280001 4287714898
-0.19219527 0.0014671701 1.4210001 4287254087
-0.18932828 0.0014640725 1.4180001 4287582281
-0.18633993 0.0014599427 1.414 4287713352
-0.18414575 0.0014620076 1.416 4287581765
-0.18194462 0.0014640725 1.4180001 4287582023
-0.17998971 0.0014682026 1.4220001 4287648074
-0.17802089 0.0014723325 1.4260001 4288109141
-0.1752996 0.0014702675 1.424 4288439393
-0.17052196 0.0014506502 1.4050001 4288111713
-0.16808331 0.0014506502 1.4050001 4287716442
-0.16552676 0.0014496177 1.404 4287517268
-0.1628575 0.0014475527 1.4020001 4287976025
-0.16065292 0.0014496177 1.404 4287712084
-0.20029685 0.0039302581 1.4260001 4287056720
-0.19796048 0.0039330143 1.427 4287320658
-0.19520965 0.0039275023 1.4250001 4287913050
-0.19206001 0.0039137215 1.4200001 4287978073
-0.18919477 0.0039054528 1.4170001 4288109145
-0.18647172 0.0038999405 1.4150001 4288043606
-0.18401571 0.0038999405 1.4150001 4288240470
-0.18168801 0.0039026965 1.416 4288372829
-0.17960998 0.0039109653 1.419 4288307806
-0.17714703 0.0039109653 1.419 4288045149
-0.17456096 0.003908209 1.4180001 4288901485
-0.17003649 0.0038613547 1.401 4289362806
-0.16760477 0.0038613547 1.401 4288703592
-0.16493727 0.0038558424 1.399 4288109147
-0.16239287 0.0038530859 1.3980001 4288566618
-0.1601952 0.0038585986 1.4000001 4288432206
-0.20335214 0.0062537896 1.396 4285413443
-0.20049731 0.0062403507 1.393 4286728017
-0.19288084 0.0063075474 1.4080001 4288439139
-0.19084273 0.0063209869 1.411 4289228142
-0.18826015 0.0063165068 1.4100001 4287846233
-0.18554924 0.0063075474 1.4080001 4288372832
-0.18297534 0.0063030673 1.4070001 4288241246
-0.18053322 0.0063030673 1.4070001 4288373088
-0.17657219 0.0062493104 1.3950001 4288242272
-0.17440055 0.0062582698 1.3970001 4288375142
-0.17136027 0.006235871 1.3920001 4288969332
-0.16918691 0.0062448303 1.3940001 4289693053
-0.16664772 0.0062403507 1.393 4289690227
-0.16399409 0.0062313909 1.391 4289028190
-0.16181207 0.0062403507 1.393 4288959058
-0.15962309 0.0062493104 1.3950001 4288760137
-0.1579906 0.006280669 1.4020001 4288695115
-0.15611194 0.0063030673 1.4070001 4287711827
-0.20174979 0.0085917683 1.3850001 4284689204
-0.19920193 0.0085855648 1.3840001 4286464586
-0.19694191 0.0085917683 1.3850001 4287253844
-0.19481888 0.0086041754 1.3870001 4287385428
-0.19199531 0.0085855648 1.3840001 4287517013
-0.19096299 0.0086475993 1.3940001 4289622645
-0.18881392 0.0086600063 1.396 4290280831
-0.18639089 0.0086600063 1.396 4287451474
-0.18357252 0.0086413957 1.393 4287845975
-0.18102463 0.0086351931 1.3920001 4287648596
-0.17822361 0.0086165816 1.3890001 4287715159
-0.17555958 0.0086041754 1.3870001 4287518549
-0.17290248 0.0085917683 1.3850001 4288506471
-0.17037544 0.0085855648 1.3840001 4289231220
-0.16809461 0.0085917683 1.3850001 4289427314
-0.16581029 0.0085979719 1.386 4289358182
-0.16364041 0.008610378 1.388 4288960341
-0.16157974 0.0086289886 1.391 4289155407
-0.15939423 0.0086413957 1.393 4288957001
-0.1579906 0.0086972266 1.4020001 4288825929
-0.20102145 0.010939389 1.3800001 4284230452
-0.19848226 0.010931461 1.3790001 4284754737
-0.19623092 0.010939389 1.3800001 4287121486
-0.1936952 0.010931461 1.3790001 4287911000
-0.19000407 0.010994879 1.3870001 4288108377
-0.18759665 0.010994879 1.3870001 4288240476
-0.18518923 0.010994879 1.3870001 4287516239
-0.18265003 0.010986951 1.386 4287844689
-0.18011431 0.010979024 1.3850001 4287976275
-0.17745374 0.01096317 1.383 4288897891
-0.17480013 0.010947316 1.381 4290214521
-0.17227829 0.010939389 1.3800001 4290676099
-0.16988303 0.010939389 1.3800001 4290544769
-0.1677305 0.010955243 1.3820001 4290147956
-0.16557103 0.010971096 1.3840001 4289421409
-0.16340461 0.010986951 1.386 4289353816
-0.16134742 0.011010733 1.3890001 4289484631
-0.15927981 0.011034514 1.3920001 4289286223
-0.15787792 0.011105858 1.401 4289088845
-0.20400633 0.013356629 1.3840001 4283771441
-0.20029312 0.013269773 1.3750001 4284296239
-0.1973308 0.013231169 1.3710001 4284819755
-0.19495116 0.013231169 1.3710001 4287580236
-0.19271198 0.013240821 1.3720001 4289159266
-0.19060804 0.013260121 1.3740001 4289489000
-0.1883602 0.013269773 1.3750001 4289159265
-0.18597361 0.013269773 1.3750001 4288961629
-0.18358703 0.013269773 1.3750001 4288697687
-0.18120044 0.013269773 1.3750001 4289026652
-0.1786838 0.013260121 1.3740001 4289421411
-0.17629895 0.013260121 1.3740001 4290276977
-0.1739141 0.013260121 1.3740001 4290540662
-0.17152925 0.013260121 1.3740001 4290607226
-0.1693906 0.013279423 1.376 4290870911
-0.16760914 0.013327677 1.381 4290015089
-0.16533177 0.013337328 1.3820001 4289355362
-0.16340461 0.01337593 1.386 4289025369
-0.16134742 0.013404883 1.3890001 4289879392
-0.15916538 0.013424185 1.391 4289615448
-0.15776522 0.013511041 1.4000001 4289286225
-0.20400633 0.015742162 1.3840001 4285479742
-0.20029312 0.015639791 1.3750001 4285739828
-0.19704294 0.015571546 1.3690001 4287119423
-0.19466677 0.015571546 1.3690001 4288302413
-0.1922906 0.015571546 1.3690001 4290868854
-0.18991444 0.015571546 1.3690001 4291066489
-0.18767524 0.01558292 1.3700001 4289947496
-0.18516208 0.015571546 1.3690001 4289288796
-0.18265238 0.015560171 1.368 4289288282
-0.18040974 0.015571546 1.3690001 4289353563
-0.17803358 0.015571546 1.3690001 4289354077
-0.17578571 0.01558292 1.3700001 4289814630
-0.17366096 0.015605669 1.3720001 4289749095
-0.17140442 0.015617043 1.373 4289487464
-0.1693906 0.015651166 1.376 4288502622
-0.16760914 0.015708037 1.381 4287057229
-0.16545139 0.015730787 1.383 4285281076
-0.16352251 0.015776286 1.3870001 4286265146
-0.16157974 0.015821781 1.391 4288827991
-0.15939423 0.015844531 1.393 4289023827
-0.1579906 0.0159469 1.4020001 4289088847
-0.20400633 0.018127695 1.3840001 4286595387
-0.20029312 0.018009812 1.3750001 4286987319
-0.19718687 0.017944321 1.3700001 4288169025
-0.19466677 0.017931223 1.3690001 4288629321
-0.1922906 0.017931223 1.3690001 4289221974
-0.18991444 0.017931223 1.3690001 4289288537
-0.18740126 0.017918125 1.368 4289288795
-0.18489158 0.017905027 1.3670001 4289025367
-0.18251887 0.017905027 1.3670001 4289156697
-0.18014617 0.017905027 1.3670001 4288960347
-0.17777348 0.017905027 1.3670001 4288238421
-0.17578571 0.017944321 1.3700001 4287909714
-0.17366096 0.017970517 1.3720001 4287318348
-0.17140442 0.017983615 1.373 4286594884
-0.1693906 0.01802291 1.376 4285150775
-0.16760914 0.018088399 1.381 4284100397
-0.16545139 0.018114595 1.383 4283968555
-0.16352251 0.018166989 1.3870001 4284492332
-0.16157974 0.01821938 1.391 4286066484
-0.15939423 0.018245576 1.393 4288563279
-0.1579906 0.018363459 1.4020001 4288563018
-0.20400633 0.020513227 1.3840001 4287316542
-0.20073012 0.020424295 1.378 4287971389
-0.19761866 0.020350186 1.373 4288496194
-0.19509336 0.020335365 1.3720001 4288628039
-0.19257151 0.020320544 1.3710001 4288826188
-0.19019186 0.020320544 1.3710001 4287578430
-0.18753827 0.020290902 1.3690001 4286330931
-0.18502682 0.020276079 1.368 4286595132
-0.18238537 0.020246437 1.3660001 4286530111
-0.1800144 0.020246437 1.3660001 4286268481
-0.17764343 0.020246437 1.3660001 4285940800
-0.17565741 0.020290902 1.3690001 4285810243
-0.17366096 0.020335365 1.3720001 4286007110
-0.17140442 0.020350186 1.373 4285678660
-0.1693906 0.020394653 1.376 4284627769
-0.16748776 0.020453939 1.3800001 4284298805
-0.16533177 0.020483583 1.3820001 4284561463
-0.16364041 0.020572513 1.388 4284625716
-0.16192822 0.020661443 1.3940001 4284884778
-0.15985194 0.020705909 1.3970001 4287841098
-0.15832868 0.020824483 1.4050001 4288563534
-0.20400633 0.02289876 1.3840001 4287579465
-0.20102145 0.022832576 1.3800001 4288102720
-0.19833833 0.022799486 1.378 4288364864
-0.19537774 0.022733305 1.3740001 4288430657
-0.19285244 0.022716759 1.373 4288628552
-0.19046932 0.022716759 1.373 4286462263
-0.18794923 0.022700215 1.3720001 4284887852
-0.18529734 0.022667123 1.3700001 4285809984
-0.18251887 0.022617487 1.3670001 4286337869
-0.18014617 0.022617487 1.3670001 4286206285
-0.17777348 0.022617487 1.3670001 4285482562
-0.17565741 0.022650579 1.3690001 4285482308
-0.17366096 0.022700215 1.3720001 4285745480
-0.17127958 0.022700215 1.3720001 4285088065
-0.16914439 0.022733305 1.3740001 4284561722
-0.16724503 0.022799486 1.378 4284561465
-0.16533177 0.022865668 1.3820001 4284429365
-0.16387621 0.022998031 1.3900001 4284297263
-0.16239287 0.023130393 1.3980001 4284098343
-0.16030964 0.023180028 1.401 4286067000
-0.15877943 0.023312392 1.409 4288432467
-0.20503815 0.025412172 1.391 4287514959
-0.20174979 0.025302559 1.3850001 4287906885
-0.19905798 0.025266021 1.383 4288036928
-0.19580433 0.025156409 1.3770001 4288365123
-0.19327381 0.02513814 1.376 4288366665
-0.19074678 0.025119869 1.3750001 4286200121
-0.18808621 0.025083331 1.373 4284954675
-0.18556784 0.025065063 1.3720001 4285612865
-0.18278591 0.025010256 1.3690001 4285744710
-0.18040974 0.025010256 1.3690001 4285481539
-0.17816362 0.025028525 1.3700001 4285021501
-0.17591402 0.025046794 1.3710001 4284824123
-0.17378753 0.025083331 1.373 4284889659
-0.17152925 0.0251016 1.3740001 4285087037
-0.16926751 0.025119869 1.3750001 4284363316
-0.1673664 0.025192946 1.3790001 4284428853
-0.16545139 0.025266021 1.383 4283968302
-0.16399409 0.025412172 1.391 4283706155
-0.16262518 0.025576595 1.4000001 4283310881
-0.16042405 0.025613133 1.4020001 4285148722
-0.15889212 0.025759285 1.4100001 4288368731
-0.20247814 0.027789779 1.3900001 4288171604
-0.19963372 0.027729802 1.3870001 4288301646
-0.19665751 0.027649829 1.383 4288234827
-0.1936952 0.02756986 1.3790001 4288038475
-0.19116296 0.027549867 1.378 4285609268
-0.18863416 0.027529875 1.3770001 4284626739
-0.18610886 0.027509883 1.376 4284889658
-0.18358703 0.027489889 1.3750001 4284363315
-0.18106864 0.027469898 1.3740001 4284297267
-0.17881386 0.027489889 1.3750001 4284298037
-0.17655557 0.027509883 1.376 4284363573
-0.17429382 0.027529875 1.3770001 4284100145
-0.17190376 0.027529875 1.3770001 4283969072
-0.16975991 0.02756986 1.3790001 4284165168
-0.1677305 0.027629837 1.3820001 4285479232
-0.16569066 0.027689815 1.3850001 4286597713
-0.16434778 0.02786975 1.3940001 4285415491
-0.1628575 0.028029691 1.4020001 4284100914
-0.16065292 0.028069675 1.404 4284953142
-0.15900482 0.028209625 1.411 4287646806
-0.15744337 0.028369566 1.419 4288764519
-0.15563573 0.028489523 1.4250001 4288700783
-0.20276946 0.030229086 1.3920001 4288437090
-0.19992158 0.030163938 1.3890001 4288566620
-0.19694191 0.030077072 1.3850001 4288499798
-0.19397613 0.029990206 1.381 4288040275
-0.19144039 0.029968491 1.3800001 4285610297
-0.18904513 0.029968491 1.3800001 4284560691
-0.18651462 0.029946774 1.3790001 4284429108
-0.18385404 0.029903339 1.3770001 4284363060
-0.18146399 0.029903339 1.3770001 4284231732
-0.17933403 0.029946774 1.3790001 4284692797
-0.1769405 0.029946774 1.3790001 4284495674
-0.17454697 0.029946774 1.3790001 4283772207
-0.17215344 0.029946774 1.3790001 4283771437
-0.16988303 0.029968491 1.3800001 4285611589
-0.16785187 0.030033641 1.383 4287124315
-0.16581029 0.030098788 1.386 4286665047
-0.16434778 0.030272517 1.3940001 4284757819
-0.1628575 0.03044625 1.4020001 4284494903
-0.16076733 0.030511398 1.4050001 4285545793
-0.15900482 0.030641695 1.411 4287779419
-0.15766528 0.030858858 1.4210001 4288436324
-0.15596339 0.031010872 1.4280001 4288240745
-0.20680699 0.032886248 1.4030001 4287257186
-0.20306081 0.032675285 1.3940001 4288504170
-0.20035337 0.032628406 1.3920001 4288896872
-0.19736849 0.032534648 1.388 4288566878
-0.19439751 0.032440886 1.3840001 4287976023
-0.19171785 0.032394007 1.3820001 4286268999
-0.18904513 0.032347128 1.3800001 4285284416
-0.18664986 0.032347128 1.3800001 4285613126
-0.18412109 0.032323688 1.3790001 4285744714
-0.18199113 0.032370567 1.381 4284955971
-0.17972417 0.032394007 1.3820001 4285153608
-0.17745374 0.03241745 1.383 4285153865
-0.17505327 0.03241745 1.383 4284496446
-0.1726528 0.03241745 1.383 4284167479
-0.17037544 0.032440886 1.3840001 4284560954
-0.16833735 0.032511204 1.3870001 4285284677
-0.16616918 0.032558087 1.3890001 4285219140
-0.1644657 0.032698728 1.3950001 4284824125
-0.16274135 0.032839365 1.401 4285021247
-0.16065292 0.032909684 1.404 4285611843
-0.15889212 0.033050325 1.4100001 4287647834
-0.15744337 0.033261288 1.419 4288303969
-0.15563573 0.033401925 1.4250001 4288305511
-0.2034978 0.035153545 1.3970001 4288174949
-0.20064123 0.035078056 1.3940001 4288831849
-0.19751069 0.034952238 1.3890001 4288765028
-0.19481888 0.03490191 1.3870001 4288239196
-0.19171785 0.034776092 1.3820001 4286794831
-0.18904513 0.034725767 1.3800001 4285480513
-0.18664986 0.034725767 1.3800001 4285941323
-0.18438813 0.034750927 1.381 4286204754
-0.1821229 0.034776092 1.3820001 4285482060
-0.17998427 0.03482642 1.3840001 4284890437
-0.17771037 0.034851585 1.3850001 4285153866
-0.17543299 0.034876749 1.386 4284167997
-0.17315216 0.03490191 1.3870001 4284169278
-0.17099096 0.034952238 1.3890001 4284234557
-0.16882281 0.035002563 1.391 4284693568
-0.16664772 0.035052892 1.393 4285416520
-0.16470148 0.035153545 1.3970001 4285744970
-0.16274135 0.035254199 1.401 4285153345
-0.16042405 0.035279363 1.4020001 4284822069
-0.15877943 0.03545551 1.409 4287187025
-0.15755433 0.035732307 1.4200001 4288303967
-0.15596339 0.035933618 1.4280001 4288239716
-0.20378914 0.037615262 1.399 4288306279
-0.20078517 0.037507713 1.3950001 4288437349
-0.19751069 0.037346389 1.3890001 4288765029
-0.19467843 0.037265729 1.386 4288238427
-0.19185656 0.037185065 1.383 4287516500
-0.18918213 0.037131291 1.381 4285808706
-0.18692037 0.037158176 1.3820001 4285744200
-0.18438813 0.037131291 1.381 4285547080
-0.1821229 0.037158176 1.3820001 4285350472
-0.17985421 0.037185065 1.383 4285022278
-0.17783867 0.037265729 1.386 4285154120
-0.17568615 0.0373195 1.388 4284430653
-0.17340183 0.037346389 1.3890001 4284300093
-0.17123717 0.037400164 1.391 4284431936
-0.16918691 0.037480824 1.3940001 4285483084
-0.16688699 0.037507713 1.3950001 4285548106
-0.16470148 0.037561484 1.3970001 4285416261
-0.16262518 0.037642147 1.4000001 4284890171
-0.16030964 0.037669037 1.401 4284822066
-0.15866674 0.037857246 1.4080001 4287450709
-0.15733242 0.038126118 1.4180001 4288436064
-0.15596339 0.038394991 1.4280001 4288502375
-0.20408048 0.04008387 1.401 4288372330
-0.20092911 0.039940815 1.396 4288502885
-0.19765289 0.039769147 1.3900001 4288764259
-0.19481888 0.039683316 1.3870001 4288435293
-0.19199531 0.039597481 1.3840001 4287582551
-0.18945609 0.039568875 1.383 4285349184
-0.18692037 0.039540261 1.3820001 4284758589
-0.18438813 0.039511651 1.381 4284824128
-0.1821229 0.039540261 1.3820001 4285087557
-0.17985421 0.039568875 1.383 4285022278
-0.17771037 0.039626095 1.3850001 4285088327
-0.17555958 0.039683316 1.3870001 4284563010
-0.17340183 0.03974054 1.3890001 4284036665
-0.17136027 0.039826371 1.3920001 4284431421
-0.16930829 0.039912205 1.3950001 4285350982
-0.16676734 0.039883591 1.3940001 4285810248
-0.16470148 0.039969426 1.3970001 4285876039
-0.16262518 0.040055256 1.4000001 4285216567
-0.16053848 0.040141094 1.4030001 4286004284
-0.15889212 0.040341366 1.4100001 4287713364
-0.15777624 0.0406847 1.4220001 4288435805
-0.15596339 0.040856365 1.4280001 4288633188
-0.20422615 0.042529039 1.4020001 4287846756
-0.20121697 0.042407699 1.3980001 4288371812
-0.19779508 0.042195357 1.391 4288896356
-0.19495934 0.042104356 1.388 4288238168
-0.19213402 0.042013351 1.3850001 4287845465
-0.18959309 0.041983016 1.3840001 4285809478
-0.18705563 0.041952685 1.383 4285153346
-0.18465516 0.041952685 1.383 4285087811
-0.18225469 0.041952685 1.383 4285285447
-0.17998427 0.041983016 1.3840001 4284825155
-0.17783867 0.042043686 1.386 4284956483
-0.17568615 0.042104356 1.388 4285022275
-0.17340183 0.042134691 1.3890001 4284167733
-0.17123717 0.042195357 1.391 4284101940
-0.16918691 0.042286362 1.3940001 4285087037
-0.16688699 0.042316698 1.3950001 4285874754
-0.16470148 0.042377364 1.3970001 4286332736
-0.16274135 0.042498704 1.401 4287186248
-0.16065292 0.042589705 1.404 4288172372
-0.15900482 0.042802051 1.411 4288303445
-0.15777624 0.043135729 1.4220001 4288172118
-0.15596339 0.043317735 1.4280001 4288304736
-0.20451748 0.045009714 1.404 4287189596
-0.2013609 0.044849422 1.399 4288372069
-0.19807948 0.044657074 1.393 4289028970
-0.1950998 0.044528842 1.3890001 4288633438
-0.19241148 0.044464722 1.3870001 4288108119
-0.18973008 0.044400606 1.3850001 4286399813
-0.18732613 0.044400606 1.3850001 4285480510
-0.18478869 0.044368546 1.3840001 4285087550
-0.18238647 0.044368546 1.3840001 4285089090
-0.18011431 0.044400606 1.3850001 4284628540
-0.17783867 0.044432666 1.386 4284824379
-0.17543299 0.044432666 1.386 4285283133
-0.17315216 0.044464722 1.3870001 4284953653
-0.17111406 0.044560898 1.3900001 4285348154
-0.16894417 0.044625014 1.3920001 4286333508
-0.16664772 0.044657074 1.393 4287253324
-0.16458358 0.04475325 1.396 4287712848
-0.16274135 0.044913538 1.401 4287843406
-0.16053848 0.044977657 1.4030001 4288040784
-0.15900482 0.045234121 1.411 4288237653
-0.15766528 0.045554701 1.4210001 4288369755
-0.20480882 0.047497284 1.406 4287124832
-0.20164877 0.047328372 1.401 4287911776
-0.19836387 0.047125682 1.3950001 4288700519
-0.19552118 0.047024336 1.3920001 4288633182
-0.1925502 0.046889208 1.388 4288369751
-0.18986706 0.046821646 1.386 4287647056
-0.18732613 0.046787862 1.3850001 4286529603
-0.18492219 0.046787862 1.3850001 4286333764
-0.18251826 0.046787862 1.3850001 4286268999
-0.18011431 0.046787862 1.3850001 4286071878
-0.17783867 0.046821646 1.386 4286466892
-0.17555958 0.046855424 1.3870001 4286925902
-0.17315216 0.046855424 1.3870001 4287384912
-0.17099096 0.046922989 1.3890001 4287778642
-0.16870144 0.04695677 1.3900001 4287712335
-0.16640845 0.046990555 1.391 4287514955
-0.1644657 0.047125682 1.3950001 4287383624
-0.16262518 0.047294591 1.4000001 4287317573
-0.16053848 0.047395937 1.4030001 4287975504
-0.15889212 0.047632407 1.4100001 4288304215
-0.15744337 0.047936447 1.419 4288369755
-0.20510015 0.049991746 1.4080001 4287388519
-0.20193662 0.049814221 1.4030001 4287977314
-0.19864826 0.049601182 1.3970001 4288634214
-0.19566165 0.049459163 1.393 4288501598
-0.19268891 0.04931714 1.3890001 4288369240
-0.19000407 0.049246129 1.3870001 4287974483
-0.18746139 0.049210627 1.386 4287514702
-0.18478869 0.049139611 1.3840001 4287449165
-0.18251826 0.049175117 1.3850001 4287383115
-0.18024436 0.049210627 1.386 4287317322
-0.177967 0.049246129 1.3870001 4287515472
-0.17568615 0.049281634 1.388 4287318347
-0.17327701 0.049281634 1.388 4287317833
-0.17099096 0.04931714 1.3890001 4287251783
-0.16882281 0.049388152 1.391 4287185732
-0.16652808 0.049423657 1.3920001 4287383110
-0.16458358 0.04956568 1.396 4287185988
-0.16262518 0.0497077 1.4000001 4287185988
-0.16053848 0.049814221 1.4030001 4287514696
-0.15877943 0.050027251 1.409 4288172627
-0.20524581 0.052455876 1.409 4286600801
-0.20208056 0.052269727 1.404 4287977572
-0.19879046 0.052046355 1.3980001 4288699494
-0.19594258 0.051934667 1.3950001 4288633185
-0.19296637 0.051785748 1.391 4288435290
-0.19000407 0.05163683 1.3870001 4288237910
-0.18746139 0.051599603 1.386 4287580235
-0.18478869 0.051525146 1.3840001 4287383369
-0.18251826 0.051562376 1.3850001 4287186247
-0.18024436 0.051599603 1.386 4287252040
-0.177967 0.05163683 1.3870001 4287448906
-0.17568615 0.051674061 1.388 4287448905
-0.17327701 0.051674061 1.388 4287185989
-0.17086785 0.051674061 1.388 4287251524
-0.16870144 0.051748518 1.3900001 4287317317
-0.16640845 0.051785748 1.391 4287514696
-0.16458358 0.051971897 1.396 4287514697
-0.16262518 0.052120812 1.4000001 4287646283
-0.16042405 0.05219527 1.4020001 4287909456
-0.15866674 0.052418645 1.4080001 4288041555
-0.2053915 0.054923449 1.4100001 4286470498
-0.20208056 0.054689731 1.404 4287649121
-0.19893266 0.05449497 1.399 4288567909
-0.19608304 0.054378111 1.396 4288764002
-0.19366001 0.054378111 1.396 4288632156
-0.19027804 0.054105442 1.3890001 4288237909
-0.18773189 0.05406649 1.388 4287646285
-0.18492219 0.053949632 1.3850001 4287711821
-0.18251826 0.053949632 1.3850001 4287580747
-0.18024436 0.053988583 1.386 4287581004
-0.177967 0.054027535 1.3870001 4287515211
-0.17568615 0.05406649 1.388 4287515210
-0.17327701 0.05406649 1.388 4287383624
-0.17086785 0.05406649 1.388 4287449160
-0.16870144 0.054144394 1.3900001 4287712077
-0.16652808 0.054222301 1.3920001 4287712077
-0.16458358 0.054378111 1.396 4287777871
-0.16274135 0.054572877 1.401 4287778127
-0.16053848 0.054650784 1.4030001 4287646542
-0.15866674 0.054845545 1.4080001 4287580750
-0.20236842 0.057191093 1.406 4287519333
-0.19907485 0.056947034 1.4000001 4288371044
-0.1962235 0.056825005 1.3970001 4288895846
-0.19366001 0.056784324 1.396 4288566108
-0.19055201 0.05658095 1.391 4288369240
-0.18800241 0.056540266 1.3900001 4287712078
-0.18518923 0.056418236 1.3870001 4287646541
-0.18265003 0.056377564 1.386 4287909713
-0.18037441 0.056418236 1.3870001 4287712591
-0.1780953 0.056458917 1.388 4287383371
-0.17581272 0.056499593 1.3890001 4287317577
-0.17340183 0.056499593 1.3890001 4287449419
-0.17099096 0.056499593 1.3890001 4287712078
-0.16882281 0.05658095 1.391 4287843665
-0.16664772 0.056662295 1.393 4287646543
-0.16481937 0.056865681 1.3980001 4287580751
-0.16297367 0.057069063 1.4030001 4287317578
-0.16065292 0.05710974 1.404 4287251784
-0.19907485 0.059360147 1.4000001 4288438635
-0.1962235 0.059232946 1.3970001 4288633444
-0.19379872 0.059232946 1.3970001 4288631900
-0.190826 0.059063341 1.393 4288303447
-0.18827291 0.059020944 1.3920001 4287909458
-0.18545626 0.058893744 1.3890001 4287646285
-0.1829136 0.058851346 1.388 4287712848
-0.1806345 0.058893744 1.3890001 4287778899
-0.17822361 0.058893744 1.3890001 4287515729
-0.17593931 0.058936141 1.3900001 4287318093
-0.17340183 0.058893744 1.3890001 4287317836
-0.17111406 0.058936141 1.3900001 4287449165
-0.16906555 0.059063341 1.393 4287449166
-0.16676734 0.059105746 1.3940001 4287186251
-0.16493727 0.059317742 1.399 4286923335
-0.19636396 0.061685007 1.3980001 4288896359
-0.19366001 0.061596759 1.396 4288631900
-0.19109999 0.061552636 1.3950001 4288369241
-0.18854342 0.061508514 1.3940001 4287712080
-0.18585682 0.061420266 1.3920001 4287251527
-0.18317717 0.061332017 1.3900001 4287515470
-0.18076454 0.061332017 1.3900001 4287449935
-0.17835192 0.061332017 1.3900001 4287186764
-0.17606588 0.061376143 1.391 4287515728
-0.17352669 0.061332017 1.3900001 4287121227
-0.17136027 0.061420266 1.3920001 4286725957
-0.16918691 0.061508514 1.3940001 4286725958
-0.16688699 0.061552636 1.3950001 4286726214
-0.18867868 0.063957125 1.3950001 4287843409
-0.18599035 0.063865431 1.393 4286922562
-0.18344073 0.063819587 1.3920001 4287054919
-0.18089458 0.063773744 1.391 4287121227
-0.17848024 0.063773744 1.391 4286989898
-0.17619245 0.063819587 1.3920001 4287384400
-0.17377636 0.063819587 1.3920001 4287121227
-0.17136027 0.063819587 1.3920001 4286660676
-0.16930829 0.063957125 1.3950001 4286660678
