# .PCD v0.7 - Point Cloud Data file format
VERSION 0.7
FIELDS x y z rgba
SIZE 4 4 4 4
TYPE F F F U
COUNT 1 1 1 1
WIDTH 733
HEIGHT 1
VIEWPOINT 0 0 0 1 0 0 0
POINTS 733
DATA ascii
-0.087897241 0.021525495 1.3010001 4289757307
-0.085375801 0.021459313 1.2970001 4291469980
-0.08306051 0.021442767 1.296 4289824382
-0.080811046 0.021442767 1.296 4291006859
-0.078804053 0.021508949 1.3000001 4290413946
-0.076606527 0.021525495 1.3010001 4289029975
-0.07463412 0.02160822 1.3060001 4288964179
-0.072588943 0.021674404 1.3100001 4288704612
-0.070368849 0.021690948 1.3110001 4292134594
-0.087627001 0.023694888 1.2970001 4289819498
-0.085112497 0.023621812 1.2930001 4292717478
-0.082804143 0.023603544 1.2920001 4290677639
-0.080623984 0.023621812 1.2930001 4291137674
-0.078500956 0.02365835 1.2950001 4291664524
-0.076370999 0.023694888 1.2970001 4289884510
-0.074405529 0.023786234 1.302 4290343000
-0.072256468 0.02382277 1.304 4289555798
-0.070261501 0.023914116 1.309 4287850595
-0.092626624 0.02607041 1.304 4290013001
-0.090016797 0.025970448 1.299 4289947721
-0.087289192 0.0258305 1.2920001 4289423448
-0.084849194 0.025770523 1.289 4291991958
-0.082547791 0.025750529 1.2880001 4291004293
-0.080312215 0.025750529 1.2880001 4290478198
-0.078197867 0.025790514 1.2900001 4292320655
-0.076076582 0.0258305 1.2920001 4290936429
-0.074176937 0.025950456 1.2980001 4290211921
-0.072090238 0.026010433 1.3010001 4289817680
-0.070315182 0.026190367 1.3100001 4287979354
-0.092626624 0.028318053 1.304 4289881668
-0.090016797 0.028209468 1.299 4290144839
-0.087289192 0.028057456 1.2920001 4289356873
-0.084783375 0.02797059 1.2880001 4291465353
-0.082483701 0.027948875 1.2870001 4291531918
-0.080249853 0.027948875 1.2870001 4290280042
-0.078197867 0.028014023 1.2900001 4292516229
-0.076076582 0.028057456 1.2920001 4290148181
-0.074291237 0.028231187 1.3000001 4289818697
-0.072256468 0.028318053 1.304 4290015057
-0.070529878 0.028535215 1.314 4288504412
-0.092626624 0.030565692 1.304 4290210892
-0.090016797 0.030448491 1.299 4290078535
-0.087289192 0.03028441 1.2920001 4290144079
-0.084783375 0.030190654 1.2880001 4290805364
-0.082483701 0.030167213 1.2870001 4292516495
-0.080312215 0.030190654 1.2880001 4290015583
-0.078197867 0.030237533 1.2900001 4290541924
-0.076135464 0.030307852 1.2930001 4290016086
-0.074291237 0.030471932 1.3000001 4290081103
-0.072256468 0.030565692 1.304 4289620815
-0.07058356 0.030823531 1.3150001 4288044631
-0.092768699 0.032863658 1.3060001 4289552967
-0.090224683 0.032763004 1.302 4289684039
-0.087491877 0.032586858 1.2950001 4289947984
-0.084980845 0.032486208 1.291 4289948760
-0.082740061 0.032486208 1.291 4290015068
-0.080499277 0.032486208 1.291 4290213216
-0.078440346 0.032561697 1.294 4290147165
-0.07631211 0.032612022 1.296 4289488978
-0.074462682 0.032788169 1.3030001 4288502592
-0.072311886 0.032838494 1.3050001 4288370756
-0.070529878 0.033064969 1.314 4287124552
-0.093123853 0.035249185 1.3110001 4288961606
-0.090501875 0.035114747 1.3060001 4288566591
-0.087762125 0.034926534 1.299 4288369727
-0.085244149 0.034818985 1.2950001 4288369727
-0.082996413 0.034818985 1.2950001 4287712568
-0.080748685 0.034818985 1.2950001 4287975740
-0.0786222 0.034872763 1.2970001 4287646775
-0.076488763 0.034926534 1.299 4287580982
-0.074576974 0.035087857 1.3050001 4287779128
-0.072533533 0.035195407 1.309 4288107843
-0.070851937 0.035491168 1.3200001 4288045399
-0.093123853 0.03750889 1.3110001 4288765515
-0.090571173 0.037394445 1.307 4288305218
-0.087762125 0.037165556 1.299 4288370242
-0.085244149 0.037051111 1.2950001 4288106557
-0.082996413 0.037051111 1.2950001 4287711797
-0.080686338 0.037022505 1.294 4287712566
-0.0786222 0.037108336 1.2970001 4287712567
-0.076488763 0.037165556 1.299 4287713081
-0.074576974 0.037337221 1.3050001 4287713855
-0.072478116 0.037423056 1.3080001 4288108617
-0.070798263 0.037737776 1.319 4288241749
-0.093123853 0.039768595 1.3110001 4288897614
-0.090571173 0.039647255 1.307 4288371270
-0.087829687 0.039434914 1.3000001 4288502086
-0.085309975 0.039313577 1.296 4288107327
-0.082996413 0.039283238 1.2950001 4287975742
-0.080748685 0.039283238 1.2950001 4288041280
-0.07868281 0.039374247 1.2980001 4287712828
-0.076547645 0.039434914 1.3000001 4287976000
-0.074576974 0.039586585 1.3050001 4288304967
-0.072422713 0.039647255 1.307 4288108363
-0.070744582 0.039980933 1.3180001 4288043343
-0.093194894 0.042060357 1.312 4288371526
-0.090501875 0.041868009 1.3060001 4288568390
-0.087829687 0.041675661 1.3000001 4288305222
-0.085375801 0.041579485 1.2970001 4288173634
-0.082996413 0.041515369 1.2950001 4287975999
-0.080748685 0.041515369 1.2950001 4287975745
-0.07868281 0.041611545 1.2980001 4287976000
-0.076547645 0.041675661 1.3000001 4287909952
-0.074576974 0.041835949 1.3050001 4288041794
-0.072478116 0.041932125 1.3080001 4288369993
-0.070744582 0.042252705 1.3180001 4288173388
-0.088099927 0.044051535 1.304 4288108098
-0.085375801 0.043815061 1.2970001 4287778880
-0.08306051 0.043781277 1.296 4287976002
-0.080811046 0.043781277 1.296 4287976000
-0.078743435 0.043882623 1.299 4287778625
-0.076606527 0.043950189 1.3010001 4287581244
-0.067876235 0.045673061 1.3520001 4289697434
-0.065578036 0.045706846 1.353 4293846505
-0.088302612 0.046405692 1.307 4287516224
-0.086165704 0.046476699 1.309 4287384637
-0.083765499 0.046405692 1.307 4287712575
-0.081496939 0.046405692 1.307 4287647038
-0.079349622 0.046476699 1.309 4287449917
-0.077018708 0.046441194 1.3080001 4287449661
-0.067876235 0.048003439 1.3520001 4286863454
-0.065578036 0.048038945 1.353 4286337884
-0.10087854 0.05040827 1.3540001 4286140237
-0.098673932 0.050482731 1.3560001 4288244582
-0.096320331 0.050482731 1.3560001 4287716176
-0.086560659 0.048956335 1.3150001 4286792762
-0.084406391 0.049030792 1.317 4287054906
-0.082245193 0.049105249 1.319 4287318335
-0.080077037 0.04917971 1.3210001 4287253053
-0.077725306 0.04914248 1.3200001 4287252540
-0.07027483 0.050371043 1.353 4288046178
-0.067826025 0.050296582 1.3510001 4287323232
-0.065481097 0.050296582 1.3510001 4287848808
-0.062809035 0.05003598 1.3440001 4286926682
-0.060611252 0.050147668 1.3470001 4286732387
-0.10080403 0.052703142 1.353 4286204487
-0.0985284 0.052742094 1.3540001 4287387223
-0.096249297 0.052781045 1.355 4287650135
-0.093897432 0.052781045 1.355 4287649876
-0.091410428 0.052703142 1.353 4287123530
-0.085303657 0.051846176 1.3310001 4287319109
-0.083055794 0.051885132 1.332 4287516487
-0.079020724 0.052274659 1.342 4287055679
-0.076748557 0.052313615 1.3430001 4287253573
-0.074639164 0.052469425 1.3470001 4287781206
-0.072462209 0.052586284 1.35 4287978844
-0.070015132 0.052508377 1.348 4287915618
-0.067524798 0.052391518 1.345 4287982440
-0.062014576 0.05169037 1.327 4288109155
-0.059621312 0.051612463 1.325 4287646301
-0.10065503 0.054953884 1.3510001 4286663499
-0.098310098 0.054953884 1.3510001 4286860623
-0.096178263 0.055075914 1.3540001 4287321173
-0.09403602 0.055197947 1.3570001 4287912282
-0.091613114 0.05515727 1.3560001 4287846487
-0.085560016 0.054303065 1.335 4287451728
-0.08330521 0.054343741 1.3360001 4287649106
-0.081046939 0.054384418 1.337 4287780949
-0.079138488 0.054669149 1.3440001 4288043351
-0.076862857 0.054709829 1.345 4287912795
-0.074694581 0.054831859 1.348 4288373608
-0.072462209 0.054913212 1.35 4289031793
-0.069807373 0.054669149 1.3440001 4289165175
-0.067273773 0.054506447 1.34 4289165942
-0.061780915 0.053774271 1.322 4288765020
-0.05939633 0.053692918 1.3200001 4288367697
-0.10040779 0.055840936 1.317 4287057746
-0.088074647 0.056731336 1.3380001 4287781723
-0.085752286 0.056731336 1.3380001 4288176481
-0.083242856 0.056604136 1.335 4288307298
-0.08080446 0.056519333 1.3330001 4288110176
-0.078373007 0.056434534 1.3310001 4287715418
-0.07629139 0.056604136 1.335 4287650141
-0.073752582 0.056434534 1.3310001 4288570987
-0.061313584 0.055628933 1.312 4288565581
-0.058946356 0.055544134 1.3100001 4288630088
-0.056888897 0.055756133 1.3150001 4288498509
-0.10199193 0.05771387 1.3080001 4285675069
-0.09972164 0.05771387 1.3080001 4287187794
-0.09730234 0.057625622 1.3060001 4287319634
-0.087218918 0.058463976 1.325 4287386708
-0.084790938 0.058375727 1.3230001 4288569701
-0.082432255 0.058331605 1.322 4287912028
-0.080077037 0.058287475 1.3210001 4287780955
-0.077784181 0.058287475 1.3210001 4287189334
-0.070529878 0.057978611 1.314 4288440941
-0.067937531 0.05771387 1.3080001 4289756284
-0.065717444 0.057757992 1.309 4289489260
-0.06334848 0.057669744 1.307 4289091677
-0.060986452 0.057581499 1.3050001 4288827211
-0.058721367 0.057581499 1.3050001 4288563524
-0.056672588 0.057802115 1.3100001 4288826696
-0.05473103 0.058155105 1.3180001 4287973449
-0.052642331 0.058375727 1.3230001 4286269777
-0.101758 0.059830863 1.3050001 4285935675
-0.099416681 0.059785012 1.304 4287712082
-0.09707883 0.059739169 1.3030001 4287778899
-0.086626485 0.060335185 1.3160001 4287516500
-0.084406391 0.060381033 1.317 4287843925
-0.082120478 0.060381033 1.317 4287516242
-0.079652712 0.060243491 1.314 4287123794
-0.077372 0.060243491 1.314 4287388000
-0.072311886 0.059830863 1.3050001 4293443787
-0.070207827 0.059968404 1.3080001 4291401119
-0.067781709 0.059830863 1.3050001 4289489774
-0.065516628 0.059830863 1.3050001 4289288800
-0.06325154 0.059830863 1.3050001 4289352794
-0.060939718 0.059785012 1.304 4289155919
-0.058676366 0.059785012 1.304 4289220942
-0.056672588 0.060060095 1.3100001 4288892229
-0.054772556 0.060472727 1.319 4288170052
-0.0527617 0.060793657 1.3260001 4286530635
-0.10394338 0.062032651 1.304 4286199359
-0.10129015 0.061794803 1.299 4287710284
-0.098883003 0.061699659 1.2970001 4288301907
-0.096631803 0.061699659 1.2970001 4288500311
-0.094453365 0.061747227 1.2980001 4288238165
-0.092200428 0.061747227 1.2980001 4288303701
-0.089947492 0.061747227 1.2980001 4288435285
-0.087829687 0.061842371 1.3000001 4288237908
-0.085639097 0.061889939 1.3010001 4288369493
-0.08344505 0.061937515 1.302 4288501082
-0.08118517 0.061937515 1.302 4288567899
-0.078804053 0.061842371 1.3000001 4289820792
-0.076488763 0.061794803 1.299 4294756040
-0.074176937 0.061747227 1.2980001 4293966525
-0.071868598 0.061699659 1.2970001 4292516512
-0.069617398 0.061699659 1.2970001 4290606712
-0.067418128 0.061747227 1.2980001 4289683294
-0.065165192 0.061747227 1.2980001 4289353814
-0.062960729 0.061794803 1.299 4289749086
-0.06079952 0.061889939 1.3010001 4289748571
-0.058631375 0.061985083 1.3030001 4289089615
-0.056629326 0.062270511 1.309 4289089099
-0.054772556 0.062746227 1.319 4288170058
-0.05268212 0.062984072 1.3240001 4286529868
-0.10378396 0.064181708 1.302 4287513671
-0.1011342 0.063935235 1.2970001 4288104264
-0.098730519 0.063836642 1.2950001 4288498512
-0.096333787 0.063738056 1.2930001 4289026652
-0.094016761 0.063688755 1.2920001 4289750631
-0.091632172 0.063590169 1.2900001 4289487975
-0.089393124 0.063590169 1.2900001 4289092960
-0.087154068 0.063590169 1.2900001 4288697430
-0.084980845 0.063639462 1.291 4288894039
-0.082740061 0.063639462 1.291 4289025623
-0.080499277 0.063639462 1.291 4288960348
-0.078197867 0.063590169 1.2900001 4289356134
-0.075899929 0.063540876 1.289 4289291107
-0.07371977 0.063590169 1.2900001 4289290849
-0.071536131 0.063639462 1.291 4289421409
-0.069349013 0.063688755 1.2920001 4289618012
-0.067158431 0.063738056 1.2930001 4289289042
-0.065014578 0.063836642 1.2950001 4289486166
-0.063009202 0.064083114 1.3000001 4289683036
-0.060846254 0.064181708 1.302 4289288020
-0.056629326 0.064526767 1.309 4288760651
-0.054689504 0.064921126 1.317 4287775821
-0.052642331 0.065216891 1.3230001 4286991963
-0.10636963 0.066629969 1.3060001 4287381826
-0.10386367 0.066476919 1.3030001 4288169540
-0.1011342 0.066170804 1.2970001 4288431689
-0.098654285 0.066017754 1.294 4289024082
-0.096408293 0.066017754 1.294 4288763737
-0.09408953 0.06596674 1.2930001 4289290596
-0.091703206 0.065864697 1.291 4289422440
-0.089393124 0.065813676 1.2900001 4289026399
-0.087086506 0.065762661 1.289 4288960090
-0.084783375 0.06571164 1.2880001 4289025884
-0.082547791 0.06571164 1.2880001 4289156699
-0.080312215 0.06571164 1.2880001 4289222496
-0.078016013 0.065660618 1.2870001 4289289057
-0.075782172 0.065660618 1.2870001 4289420385
-0.073662616 0.065762661 1.289 4289157982
-0.071591534 0.065915711 1.2920001 4288106322
-0.069349013 0.065915711 1.2920001 4287054402
-0.067210376 0.066017754 1.294 4288763472
-0.065114997 0.066170804 1.2970001 4289287503
-0.06079952 0.066374876 1.3010001 4289023052
-0.058586374 0.066425905 1.302 4288759625
-0.056629326 0.066783026 1.309 4288497994
-0.054772556 0.067293212 1.319 4287317839
-0.05272191 0.067599326 1.325 4289100677
-0.10386367 0.068722837 1.3030001 4288234813
-0.10121217 0.068459123 1.2980001 4288497226
-0.098806761 0.068353646 1.296 4288432975
-0.096557297 0.068353646 1.296 4286002997
-0.094235063 0.068300895 1.2950001 4286266432
-0.091774233 0.068142667 1.2920001 4287318606
-0.089393124 0.068037182 1.2900001 4287646287
-0.08695139 0.067878962 1.2870001 4287842896
-0.08458589 0.067773476 1.2850001 4287843409
-0.082227342 0.067667991 1.2830001 4287646030
-0.079938084 0.067615256 1.2820001 4287778129
-0.077773534 0.067667991 1.2830001 4286793287
-0.075605519 0.067720734 1.284 4285677374
-0.073662616 0.067984447 1.289 4284823346
-0.071702361 0.068248153 1.294 4284034346
-0.069510043 0.068300895 1.2950001 4284558892
-0.067366198 0.068406381 1.2970001 4286987067
-0.065114997 0.068406381 1.2970001 4288629064
-0.062863797 0.068406381 1.2970001 4288759879
-0.06075279 0.068564609 1.3000001 4288628293
-0.056629326 0.069039285 1.309 4288038470
-0.05473103 0.069513962 1.3180001 4287714648
-0.052642331 0.069777675 1.3230001 4289496971
-0.10410281 0.071132146 1.3060001 4288301122
-0.1014461 0.07085982 1.3010001 4288300871
-0.098959237 0.070696421 1.2980001 4287580233
-0.096706301 0.070696421 1.2980001 4285018159
-0.094380602 0.070641957 1.2970001 4284887601
-0.091845274 0.070424095 1.2930001 4285086265
-0.089462422 0.07031516 1.291 4285019959
-0.08695139 0.070097297 1.2870001 4285808704
-0.084454238 0.069879435 1.2830001 4285809474
-0.082163244 0.069824971 1.2820001 4285545532
-0.079813376 0.069716036 1.2800001 4285546303
-0.077712916 0.069824971 1.2820001 4285942344
-0.075605519 0.069933899 1.284 4285484103
-0.07371977 0.070260696 1.2900001 4284103735
-0.071868598 0.070641957 1.2970001 4283576111
-0.069724746 0.070750892 1.299 4284034094
-0.067470074 0.070750892 1.299 4284556067
-0.065215401 0.070750892 1.299 4287972421
-0.062960729 0.070750892 1.299 4288233282
-0.06079952 0.07085982 1.3010001 4288627783
-0.05671585 0.071404479 1.3110001 4287841862
-0.10458107 0.073720373 1.312 4288170313
-0.10160206 0.073214665 1.3030001 4288039499
-0.099111721 0.073046096 1.3000001 4286266686
-0.09685532 0.073046096 1.3000001 4284558126
-0.094453365 0.072933719 1.2980001 4284559922
-0.091916308 0.072708964 1.294 4284626487
-0.089531712 0.07259658 1.2920001 4284692536
-0.087018952 0.072371826 1.2880001 4285744454
-0.084520064 0.072147064 1.284 4286403154
-0.082163244 0.072034694 1.2820001 4285480769
-0.079938084 0.072034694 1.2820001 4285415746
-0.077834159 0.072147064 1.284 4285482053
-0.075723283 0.072259448 1.286 4285417286
-0.073834054 0.07259658 1.2920001 4284364857
-0.071868598 0.072877534 1.2970001 4284363573
-0.069724746 0.072989911 1.299 4284363058
-0.06757395 0.073102288 1.3010001 4284032806
-0.065315805 0.073102288 1.3010001 4287315524
-0.063057661 0.073102288 1.3010001 4288102214
-0.060892988 0.073214665 1.3030001 4288233543
-0.058721367 0.07332705 1.3050001 4288037962
-0.056845635 0.07383275 1.314 4287973709
-0.10497963 0.076271363 1.317 4288303962
-0.10191396 0.075692229 1.307 4287909206
-0.099264205 0.07540267 1.302 4285216058
-0.096929818 0.075344756 1.3010001 4284690740
-0.094526134 0.075228937 1.299 4284953658
-0.091987334 0.074997276 1.2950001 4284691256
-0.089670315 0.07493937 1.294 4284494390
-0.087154068 0.074707709 1.2900001 4284692024
-0.084717542 0.074533977 1.2870001 4285218369
-0.082419612 0.074476063 1.286 4285020476
-0.080125146 0.07441815 1.2850001 4285086526
-0.078076631 0.07459189 1.2880001 4284955196
-0.075841054 0.07459189 1.2880001 4284626232
-0.073891208 0.074881457 1.2930001 4284363060
-0.071924001 0.075171016 1.2980001 4284231730
-0.06977842 0.075286843 1.3000001 4283837738
-0.067677833 0.075460583 1.3030001 4283573537
-0.065416217 0.075460583 1.3030001 4285935671
-0.06325154 0.07557641 1.3050001 4287775306
-0.061079923 0.075692229 1.307 4287774789
-0.058856357 0.07575015 1.3080001 4287906891
-0.056975417 0.076271363 1.317 4287974482
-0.05522934 0.077024229 1.33 4287977057
-0.053159602 0.077371709 1.3360001 4287718511
-0.1054579 0.078899235 1.3230001 4288569452
-0.10222585 0.078183591 1.3110001 4288107873
-0.099492922 0.077825777 1.3050001 4284691768
-0.09707883 0.077706501 1.3030001 4284035120
-0.094598912 0.07752759 1.3000001 4284493363
-0.092129402 0.077348679 1.2970001 4284362547
-0.089808904 0.077289045 1.296 4284297010
-0.087424316 0.077169769 1.294 4284559669
-0.085046671 0.0770505 1.2920001 4284363059
-0.082804143 0.0770505 1.2920001 4284231986
-0.080436915 0.076931223 1.2900001 4284560438
-0.078258492 0.076990865 1.291 4284297522
-0.076076582 0.0770505 1.2920001 4284362803
-0.074005499 0.077229403 1.2950001 4283968558
-0.071979418 0.077467956 1.299 4283705642
-0.069885768 0.077646866 1.302 4283378214
-0.067781709 0.077825777 1.3050001 4283181090
-0.065516628 0.077825777 1.3050001 4284361000
-0.063396946 0.078004688 1.3080001 4287645517
-0.061220121 0.078123957 1.3100001 4287907662
-0.05899135 0.078183591 1.3110001 4287842126
-0.057061944 0.078660689 1.319 4288106842
-0.05522934 0.079316683 1.33 4288372586
-0.053199392 0.079734147 1.337 4287849583
-0.10569703 0.0813637 1.3260001 4289030517
-0.10308359 0.081118263 1.322 4288241256
-0.099645406 0.080197856 1.307 4285547589
-0.097227834 0.080075137 1.3050001 4285283904
-0.094744444 0.079891056 1.302 4284954171
-0.09227147 0.079706982 1.299 4285217342
-0.089947492 0.079645611 1.2980001 4284690228
-0.087559439 0.0795229 1.296 4284952887
-0.085178323 0.079400174 1.294 4284691511
-0.082932331 0.079400174 1.294 4283640620
-0.080686338 0.079400174 1.294 4283705643
-0.078500956 0.07946153 1.2950001 4284230448
-0.076253228 0.07946153 1.2950001 4285545537
-0.074062645 0.0795229 1.296 4285874759
-0.072034828 0.079768337 1.3000001 4285416261
-0.069885768 0.079891056 1.302 4283708464
-0.067833655 0.0801365 1.3060001 4283445290
-0.06561704 0.080197856 1.307 4284231725
-0.063493885 0.080381937 1.3100001 4287449422
-0.061360318 0.080566019 1.3130001 4287777617
-0.05912634 0.080627382 1.314 4287908946
-0.057148464 0.0810569 1.3210001 4288172891
-0.055312395 0.081731863 1.332 4288174437
-0.053239182 0.082100026 1.3380001 4287585898
-0.10601587 0.083901599 1.33 4289228923
-0.10339549 0.083649263 1.3260001 4288506224
-0.099874124 0.082639918 1.3100001 4286270285
-0.097451344 0.082513757 1.3080001 4285677635
-0.094889976 0.082261413 1.304 4286006601
-0.092484564 0.082135253 1.302 4285611845
-0.090086095 0.082009085 1.3000001 4285544769
-0.087829687 0.082009085 1.3000001 4285874760
-0.085573278 0.082009085 1.3000001 4284824638
-0.08325278 0.081946 1.299 4284036149
-0.080998108 0.081946 1.299 4283706415
-0.07868281 0.081882909 1.2980001 4285151549
-0.076429874 0.081882909 1.2980001 4287189593
-0.074176937 0.081882909 1.2980001 4287124572
-0.072090238 0.082072161 1.3010001 4286206292
-0.069939449 0.082198337 1.3030001 4283840052
-0.067885593 0.082450666 1.307 4283972150
-0.065667234 0.082513757 1.3080001 4284364083
-0.063542351 0.082703009 1.3110001 4287515728
-0.061407048 0.082892254 1.314 4288040532
-0.059171338 0.082955338 1.3150001 4288041045
-0.05719173 0.083396927 1.322 4287975256
-0.055353917 0.084090844 1.3330001 4287976542
-0.053239182 0.084406272 1.3380001 4287783017
-0.10609558 0.086258866 1.3310001 4288769142
-0.10339549 0.085934825 1.3260001 4288571504
-0.099950358 0.084962711 1.3110001 4286992726
-0.09752585 0.084833093 1.309 4285941064
-0.094962746 0.084573865 1.3050001 4286138446
-0.092555597 0.084444247 1.3030001 4286073167
-0.090293981 0.084444247 1.3030001 4285283909
-0.088032365 0.084444247 1.3030001 4285154376
-0.085770756 0.084444247 1.3030001 4285286988
-0.08350914 0.084444247 1.3030001 4284103998
-0.08118517 0.084379442 1.302 4283906361
-0.078864664 0.084314629 1.3010001 4284036406
-0.076547645 0.084249824 1.3000001 4285218626
-0.074291237 0.084249824 1.3000001 4285547336
-0.072145648 0.084379442 1.302 4284824381
-0.069993123 0.084509052 1.304 4284627772
-0.067885593 0.084703475 1.307 4284234808
-0.06561704 0.084703475 1.307 4284561719
-0.063493885 0.084897898 1.3100001 4287647827
-0.061360318 0.085092321 1.3130001 4288040019
-0.059171338 0.085221939 1.3150001 4287974226
-0.05719173 0.085675597 1.322 4288040537
-0.055270866 0.086258866 1.3310001 4288173151
-0.053199392 0.086647704 1.337 4288046189
-0.1061753 0.088619567 1.332 4288768885
-0.10347347 0.088286914 1.327 4288307049
-0.1000266 0.087288946 1.312 4287650913
-0.097600356 0.087155879 1.3100001 4285350210
-0.095108286 0.086956285 1.307 4285482057
-0.092697658 0.086823232 1.3050001 4285416265
-0.090432577 0.086823232 1.3050001 4285154120
-0.088167489 0.086823232 1.3050001 4284826696
-0.085968234 0.086889759 1.3060001 4284630343
-0.083701409 0.086889759 1.3060001 4283579451
-0.081372231 0.086823232 1.3050001 4283842621
-0.079046525 0.086756699 1.304 4284301118
-0.076783173 0.086756699 1.304 4284628287
-0.074462682 0.086690165 1.3030001 4285220423
-0.072311886 0.086823232 1.3050001 4285219396
-0.070100479 0.086889759 1.3060001 4285547846
-0.067989476 0.087089352 1.309 4284629051
-0.065717444 0.087089352 1.309 4284166446
-0.063542351 0.08722242 1.3110001 4287055691
-0.061407048 0.087422013 1.314 4287646031
-0.059216339 0.087555073 1.3160001 4288105299
-0.05719173 0.08795426 1.322 4288303963
-0.055353917 0.088686101 1.3330001 4288239970
-0.053239182 0.089018755 1.3380001 4288111470
-0.106255 0.090983726 1.3330001 4289031288
-0.10339549 0.090505943 1.3260001 4288307305
-0.10010284 0.089618631 1.3130001 4287519840
-0.097674854 0.089482121 1.3110001 4285021502
-0.095181055 0.089277357 1.3080001 4284955968
-0.092839733 0.089209102 1.307 4285022276
-0.090501875 0.089140847 1.3060001 4284694596
-0.088302612 0.089209102 1.307 4284695366
-0.086099878 0.089277357 1.3080001 4284760902
-0.083893679 0.089345612 1.309 4283973696
-0.081559293 0.089277357 1.3080001 4283908160
-0.079167761 0.089140847 1.3060001 4284234556
-0.076900944 0.089140847 1.3060001 4285286217
-0.07463412 0.089140847 1.3060001 4285351495
-0.072422713 0.089209102 1.307 4285350212
-0.070207827 0.089277357 1.3080001 4285349697
-0.068041414 0.089413866 1.3100001 4284299317
-0.065767653 0.089413866 1.3100001 4283903786
-0.063590817 0.089550376 1.312 4287187533
-0.061407048 0.089686885 1.314 4287974738
-0.059171338 0.08975514 1.3150001 4288040530
-0.05719173 0.090232931 1.322 4288172377
-0.055353917 0.090983726 1.3330001 4288436580
-0.053239182 0.091325 1.3380001 4287978856
-0.10609558 0.093141399 1.3310001 4288899701
-0.10323954 0.092651546 1.3240001 4288372585
-0.10010284 0.091881782 1.3130001 4287650656
-0.097600356 0.091671847 1.3100001 4285349441
-0.095181055 0.091531895 1.3080001 4285546564
-0.092768699 0.091391936 1.3060001 4285481800
-0.090501875 0.091391936 1.3060001 4284826180
-0.088302612 0.091461912 1.307 4284432706
-0.086099878 0.091531895 1.3080001 4284695366
-0.083893679 0.091601871 1.309 4284235329
-0.081496939 0.091461912 1.307 4283578167
-0.079107143 0.09132196 1.3050001 4284234042
-0.076842055 0.09132196 1.3050001 4285482569
-0.074576974 0.09132196 1.3050001 4285678919
-0.072367296 0.091391936 1.3060001 4285678662
-0.070207827 0.091531895 1.3080001 4285283901
-0.067989476 0.091601871 1.309 4284100140
-0.065667234 0.091531895 1.3080001 4285084723
-0.063493885 0.091671847 1.3100001 4287251784
-0.061360318 0.091881782 1.3130001 4288040273
-0.05912634 0.091951765 1.314 4288172115
-0.05719173 0.092511594 1.322 4288303962
-0.055312395 0.093211375 1.332 4288238429
-0.053239182 0.093631245 1.3380001 4288240743
-0.106255 0.095578976 1.3330001 4288899188
-0.10355145 0.095220469 1.3280001 4288503914
-0.10025532 0.094288342 1.3150001 4287912800
-0.097898372 0.094216637 1.314 4286005828
-0.095326595 0.093929827 1.3100001 4285742402
-0.092839733 0.093714722 1.307 4285348927
-0.090501875 0.093643025 1.3060001 4284890687
-0.088167489 0.09357132 1.3050001 4284235838
-0.0859024 0.09357132 1.3050001 4284498498
-0.08363732 0.09357132 1.3050001 4284366654
-0.08130987 0.093499616 1.304 4283708723
-0.079046525 0.093499616 1.304 4283641645
-0.076783173 0.093499616 1.304 4284889658
-0.074519821 0.093499616 1.304 4285677632
-0.072367296 0.093643025 1.3060001 4285413434
-0.070154153 0.093714722 1.307 4284886830
-0.067989476 0.09385813 1.309 4285872698
-0.065717444 0.09385813 1.309 4287580491
-0.063542351 0.094001532 1.3110001 4287907916
-0.061407048 0.094216637 1.314 4287908429
-0.059216339 0.094360046 1.3160001 4288171088
-0.057234991 0.094861962 1.3230001 4288237398
-0.055353917 0.095578976 1.3330001 4288501088
-0.053239182 0.09593749 1.3380001 4288372329
-0.106255 0.097876601 1.3330001 4289029747
-0.10355145 0.097509481 1.3280001 4288502888
-0.10033156 0.096628368 1.3160001 4288108382
-0.097898372 0.096481517 1.314 4287452246
-0.095326595 0.096187808 1.3100001 4286728011
-0.092839733 0.095967531 1.307 4285939523
-0.090501875 0.095894113 1.3060001 4285283390
-0.088167489 0.095820688 1.3050001 4284759100
-0.085836574 0.095747255 1.304 4284890943
-0.083573222 0.095747255 1.304 4285022016
-0.08130987 0.095747255 1.304 4284692536
-0.078925289 0.095600411 1.302 4285085753
-0.076665409 0.095600411 1.302 4286005312
-0.074462682 0.095673829 1.3030001 4286727753
-0.072311886 0.095820688 1.3050001 4287252812
-0.070100479 0.095894113 1.3060001 4287383626
-0.067937531 0.096040964 1.3080001 4287777100
-0.065667234 0.096040964 1.3080001 4287973709
-0.063542351 0.096261241 1.3110001 4288105037
-0.061407048 0.096481517 1.314 4288105037
-0.059261329 0.096701793 1.317 4288105296
-0.057234991 0.097142346 1.3230001 4288237141
-0.055312395 0.097803183 1.332 4288632673
-0.053239182 0.098243736 1.3380001 4288306536
-0.10633472 0.10024939 1.3340001 4288899444
-0.1037074 0.099948779 1.33 4288831082
-0.100789 0.099347591 1.322 4288567136
-0.098121881 0.098971844 1.317 4287450704
-0.095544897 0.098671243 1.3130001 4287056203
-0.092981793 0.098370649 1.309 4286991438
-0.090640463 0.098295495 1.3080001 4287056719
-0.088167489 0.098070048 1.3050001 4287122770
-0.085836574 0.097994894 1.304 4287188819
-0.083573222 0.097994894 1.304 4287254612
-0.081247523 0.097919747 1.3030001 4287123025
-0.078985907 0.097919747 1.3030001 4287253583
-0.076724291 0.097919747 1.3030001 4287450192
-0.074519821 0.097994894 1.304 4287449679
-0.072311886 0.098070048 1.3050001 4287383371
-0.070100479 0.098145194 1.3060001 4287317062
-0.067937531 0.098295495 1.3080001 4287579464
-0.065667234 0.098295495 1.3080001 4287907657
-0.063542351 0.098520949 1.3110001 4287908170
-0.061453782 0.098821543 1.3150001 4287908427
-0.059306331 0.09904699 1.3180001 4288237396
-0.057321511 0.099573039 1.325 4288368984
-0.055395443 0.10024939 1.3340001 4288237916
-0.1037074 0.10224124 1.33 4288897132
-0.10086524 0.10170313 1.3230001 4288435806
-0.098196387 0.10131876 1.3180001 4287713361
-0.095690429 0.10108814 1.3150001 4287319117
-0.093123853 0.10078065 1.3110001 4287187532
-0.090709768 0.1006269 1.309 4286990153
-0.08823505 0.10039628 1.3060001 4286989641
-0.0859024 0.10031942 1.3050001 4287186507
-0.083573222 0.10024253 1.304 4286660162
-0.08130987 0.10024253 1.304 4286791491
-0.079046525 0.10024253 1.304 4286989126
-0.076783173 0.10024253 1.304 4286857539
-0.074576974 0.10031942 1.3050001 4287054404
-0.072367296 0.10039628 1.3060001 4287120196
-0.070154153 0.10047316 1.307 4286922559
-0.067989476 0.1006269 1.309 4287185475
-0.065767653 0.10070378 1.3100001 4287777098
-0.063639291 0.10093439 1.3130001 4287842891
-0.061547246 0.10124189 1.317 4287974220
-0.059351329 0.10139564 1.319 4288237139
-0.057321511 0.10185688 1.325 4288303705
-0.1037074 0.10453369 1.33 4288898414
-0.100789 0.10390493 1.322 4288502112
-0.098121881 0.10351194 1.317 4287845461
-0.095690429 0.10335474 1.3150001 4287713104
-0.093052827 0.10296176 1.3100001 4287646542
-0.090640463 0.10280457 1.3080001 4287252554
-0.08823505 0.10264737 1.3060001 4287252810
-0.0859024 0.10256878 1.3050001 4287252554
-0.08363732 0.10256878 1.3050001 4287120712
-0.081372231 0.10256878 1.3050001 4286923076
-0.079107143 0.10256878 1.3050001 4287054405
-0.076842055 0.10256878 1.3050001 4286923332
-0.074576974 0.10256878 1.3050001 4287317575
-0.072422713 0.10272597 1.307 4287317317
-0.070154153 0.10272597 1.307 4286922559
-0.068041414 0.10296176 1.3100001 4287185475
-0.065817848 0.10304036 1.3110001 4287645769
-0.063687757 0.10327615 1.314 4288040013
-0.061547246 0.10351194 1.317 4288040013
-0.059351329 0.10366914 1.319 4288105552
-0.057321511 0.10414071 1.325 4288040275
-0.10086524 0.10626391 1.3230001 4288567906
-0.098121881 0.10578199 1.317 4288173657
-0.095690429 0.10562135 1.3150001 4287580750
-0.093265928 0.1054607 1.3130001 4287383370
-0.090848356 0.10530006 1.3110001 4287449933
-0.088437736 0.10513942 1.309 4287318603
-0.086099878 0.1050591 1.3080001 4287384396
-0.083829582 0.1050591 1.3080001 4287318347
-0.081496939 0.10497878 1.307 4287120455
-0.079228386 0.10497878 1.307 4287252041
-0.076959826 0.10497878 1.307 4287252297
-0.074748412 0.1050591 1.3080001 4287515725
-0.072533533 0.10513942 1.309 4287712588
-0.070315182 0.10521974 1.3100001 4287646537
-0.068197235 0.1054607 1.3130001 4287646283
-0.065968461 0.10554103 1.314 4287580234
-0.063833162 0.10578199 1.317 4287843404
-0.061640717 0.10594263 1.319 4287909453
-0.059441321 0.10610326 1.3210001 4287909456
-0.057321511 0.10642455 1.325 4287975250
-0.10086524 0.1085443 1.3230001 4288502114
-0.098196387 0.10813408 1.3180001 4288042329
-0.095763206 0.10796999 1.3160001 4287712850
-0.093336955 0.1078059 1.314 4287515726
-0.090986952 0.10772385 1.3130001 4287449933
-0.088572852 0.10755977 1.3110001 4287449933
-0.086231537 0.10747772 1.3100001 4287121225
-0.083957769 0.10747772 1.3100001 4287187018
-0.081621647 0.10739568 1.309 4287252810
-0.079349622 0.10739568 1.309 4287450189
-0.07707759 0.10739568 1.309 4287713360
-0.074862711 0.10747772 1.3100001 4287449932
-0.072644353 0.10755977 1.3110001 4287450186
-0.070476204 0.10772385 1.3130001 4287515463
-0.068301111 0.10788795 1.3150001 4287383623
-0.066068873 0.10796999 1.3160001 4287252037
-0.063881628 0.10813408 1.3180001 4287383365
-0.061687451 0.10829817 1.3200001 4287777866
-0.059441321 0.10838021 1.3210001 4288041040
-0.098196387 0.11040585 1.3180001 4288107093
-0.095763206 0.11023831 1.3160001 4287120970
-0.093336955 0.11007078 1.314 4287252554
-0.090986952 0.10998701 1.3130001 4287384396
-0.088572852 0.10981947 1.3110001 4286923848
-0.086231537 0.1097357 1.3100001 4287187277
-0.083957769 0.1097357 1.3100001 4287056204
-0.081621647 0.10965194 1.309 4286990409
-0.079288997 0.10956817 1.3080001 4287055945
-0.07707759 0.10965194 1.309 4286990151
-0.074862711 0.1097357 1.3100001 4286858308
-0.072644353 0.10981947 1.3110001 4286792513
-0.070476204 0.10998701 1.3130001 4287055427
-0.068301111 0.11015455 1.3150001 4286792256
-0.066018671 0.11015455 1.3150001 4286791486
-0.063784696 0.11023831 1.3160001 4286923070
-0.061640717 0.11048962 1.319 4287712586
-0.093479022 0.11250664 1.3160001 4286857796
-0.091125548 0.11242115 1.3150001 4287121481
-0.088707983 0.11225016 1.3130001 4286463297
-0.086297356 0.11207918 1.3110001 4287253070
-0.084021851 0.11207918 1.3110001 4286924618
-0.081684001 0.11199369 1.3100001 4286661446
-0.07941024 0.11199369 1.3100001 4286595651
-0.077136472 0.11199369 1.3100001 4286464065
-0.07491985 0.11207918 1.3110001 4286530114
-0.07275518 0.11225016 1.3130001 4286463806
-0.070529878 0.11233565 1.314 4286858306
-0.068249173 0.11233565 1.314 4286660671
-0.065968461 0.11233565 1.314 4286923072
-0.063784696 0.11250664 1.3160001 4287185985
-0.088775538 0.11460052 1.314 4286660676
-0.086429007 0.11451332 1.3130001 4287187022
-0.084085949 0.1144261 1.312 4287055949
-0.081808709 0.1144261 1.312 4286529604
-0.079531476 0.1144261 1.312 4286332480
-0.077254236 0.1144261 1.312 4286200893
-0.075034149 0.11451332 1.3130001 4286595907
-0.07275518 0.11451332 1.3130001 4286661700
-0.077136472 0.11650965 1.3100001 4286990152
