# .PCD v0.7 - Point Cloud Data file format
VERSION 0.7
FIELDS x y z rgba
SIZE 4 4 4 4
TYPE F F F U
COUNT 1 1 1 1
WIDTH 420
HEIGHT 1
VIEWPOINT 0 0 0 1 0 0 0
POINTS 420
DATA ascii
0.11047494 -0.35698983 1.687 4278190080
0.12379847 -0.35550854 1.6800001 4281088056
0.12862171 -0.35614339 1.6830001 4281482302
0.16963719 -0.35529694 1.6790001 4280955445
0.09109515 -0.34882578 1.6700001 4278190080
0.11351898 -0.34757254 1.664 4278190080
0.12365109 -0.3504968 1.6780001 4280823859
0.12724608 -0.34778139 1.6650001 4280626480
0.1740209 -0.35028794 1.677 4278190080
-0.5602507 -0.34322843 1.6650001 4280100385
-0.50853825 -0.33910558 1.6450001 4280232486
-0.087055564 -0.34446532 1.6710001 4280758836
0.17541155 -0.33951786 1.6470001 4278190080
-0.51039314 -0.33582777 1.651 4278190080
-0.045299064 -0.33521754 1.6480001 4278190080
-0.031972487 -0.33725163 1.6580001 4280758579
-0.027504869 -0.33806527 1.6620001 4280099366
0.17519855 -0.33460733 1.6450001 4278190080
0.17915064 -0.33359027 1.6400001 4281020468
0.1849789 -0.33603117 1.6520001 4280560687
-0.14426616 -0.33030972 1.646 4278190080
-0.14052936 -0.3321158 1.6550001 4280627250
-0.045491476 -0.3321158 1.6550001 4280693043
0.094573416 -0.3313131 1.651 4278190080
0.18486694 -0.3313131 1.651 4280888882
-0.51690555 -0.32521489 1.6430001 4279969062
0.17773055 -0.32204786 1.6270001 4279770403
0.19107766 -0.32204786 1.6270001 4278190080
-0.51029873 -0.31662279 1.6220001 4278190080
-0.15149896 -0.31759882 1.6270001 4278190080
-0.14641725 -0.31623238 1.6200001 4280496433
0.19131257 -0.31798923 1.6290001 4280824112
-0.51759022 -0.31391963 1.631 4279443746
-0.15177831 -0.31372717 1.6300001 4280561457
-0.14277616 -0.31353471 1.6290001 4280562227
0.17729358 -0.31237987 1.623 4278190080
0.18651393 -0.31295729 1.626 4278190080
-0.51536882 -0.30813152 1.6240001 4278190080
-0.51092798 -0.30813152 1.6240001 4279970603
-0.14242558 -0.30832124 1.6250001 4280431154
-0.13764235 -0.30756232 1.6210001 4280628020
-0.026875995 -0.30813152 1.6240001 4281152570
0.18594038 -0.30756232 1.6210001 4278190080
-0.51124334 -0.30125967 1.6110001 4280102189
-0.50463575 -0.29995063 1.6040001 4280035882
-0.50336838 -0.30182067 1.6140001 4280100646
-0.13738762 -0.30256864 1.618 4280628020
0.17609195 -0.30144665 1.6120001 4284245095
-0.50933927 -0.29574874 1.605 4278190080
-0.50400656 -0.29519594 1.6020001 4280035366
-0.22946064 -0.2307577 1.4210001 4280691752
-0.22335246 -0.22848423 1.4070001 4280889131
-0.21903698 -0.22799703 1.404 4278190080
-0.21596412 -0.22880898 1.409 4278190080
-0.2140682 -0.23092008 1.4220001 4278190080
-0.2149874 -0.25008222 1.5400001 4278190080
-0.23222369 -0.22208224 1.391 4280757799
-0.22907682 -0.22272088 1.3950001 4278190080
-0.22065383 -0.22192259 1.3900001 4278190080
-0.21732089 -0.22240156 1.393 4278190080
-0.23155589 -0.21765086 1.3870001 4278190080
-0.22940527 -0.21922009 1.3970001 4278190080
-0.26677549 -0.21561836 1.4770001 4278190080
-0.18997236 -0.20262578 1.388 4278190080
-0.26767862 -0.21229574 1.4820001 4280823338
-0.26587242 -0.20683806 1.4720001 4278190080
-0.25597697 -0.20220105 1.439 4278190080
-0.23636675 -0.19573736 1.393 4280429350
-0.23072116 -0.19419169 1.3820001 4278190080
-0.22529992 -0.19278654 1.3720001 4280363557
-0.22122523 -0.19250551 1.3700001 4280626213
-0.21414533 -0.18955469 1.3490001 4280889384
-0.20796034 -0.18730646 1.3330001 4280757545
-0.20477507 -0.187728 1.3360001 4280823338
-0.20593905 -0.1922245 1.368 4280625961
-0.20323287 -0.19320808 1.3750001 4280889133
-0.19725789 -0.19854766 1.4130001 4278190080
-0.24379666 -0.19482158 1.414 4278190080
-0.23789389 -0.19316822 1.4020001 4280625959
-0.23105505 -0.19068818 1.3840001 4280495143
-0.2259568 -0.18958592 1.376 4280363557
-0.21993342 -0.18765698 1.3620001 4280495143
-0.21493907 -0.18655474 1.3540001 4280495143
-0.20967644 -0.18517694 1.3440001 4280363557
-0.20676762 -0.18586585 1.3490001 4280625959
-0.20458418 -0.18724366 1.3590001 4280625961
-0.20205042 -0.18834589 1.3670001 4280757547
-0.19845743 -0.18848369 1.368 4280494375
-0.19784802 -0.19151485 1.3900001 4278190080
-0.18612403 -0.20363954 1.478 4293126128
-0.26135692 -0.1954115 1.447 4278190080
-0.23636675 -0.18811901 1.393 4280362787
-0.22955252 -0.18568818 1.3750001 4278190080
-0.22415045 -0.18433775 1.365 4280165408
-0.21912603 -0.18325736 1.3570001 4280296994
-0.21319287 -0.18136673 1.3430001 4280296994
-0.2088964 -0.18082654 1.3390001 4280494375
-0.20554143 -0.18109663 1.3410001 4280165410
-0.2027777 -0.18190691 1.3470001 4280625959
-0.20057239 -0.18325736 1.3570001 4281941819
-0.19773206 -0.18406765 1.363 4282666312
-0.19528595 -0.18528305 1.3720001 4281678649
-0.18899365 -0.19027975 1.409 4281019955
-0.18553492 -0.1906849 1.4120001 4280164646
-0.18257444 -0.19163021 1.419 4293784312
-0.18335357 -0.19662692 1.4560001 4292863726
-0.26009259 -0.19052848 1.4400001 4281612604
-0.25206351 -0.18748532 1.4170001 4281415225
-0.24556145 -0.18550067 1.4020001 4281481270
-0.23896901 -0.18338367 1.386 4281678651
-0.23314281 -0.18179594 1.3740001 4281612858
-0.22788306 -0.18060514 1.365 4278190080
-0.22349359 -0.18007588 1.3610001 4281481270
-0.21734975 -0.17809121 1.3460001 4281547063
-0.2122404 -0.17690042 1.337 4281612856
-0.20764831 -0.17610654 1.3310001 4282007614
-0.2044685 -0.17650346 1.3340001 4282204993
-0.2017239 -0.17729734 1.34 4282336579
-0.19983333 -0.17888507 1.3520001 4281810235
-0.1965715 -0.17928202 1.355 4281349682
-0.19443193 -0.18073744 1.3660001 4281415479
-0.19446586 -0.18430984 1.393 4281020721
-0.19284658 -0.18642682 1.409 4280033572
-0.18698165 -0.18444216 1.3940001 4280625197
-0.18303834 -0.18430984 1.393 4292073179
-0.18025848 -0.18536833 1.401 4290231488
-0.17781267 -0.18682377 1.4120001 4293060589
-0.26934755 -0.19034852 1.4690001 4292073692
-0.25431272 -0.18244433 1.4080001 4278849299
-0.24637119 -0.17946406 1.3850001 4279112471
-0.24118268 -0.17842744 1.3770001 4279441436
-0.2367276 -0.17790914 1.373 4280757295
-0.23144598 -0.17674294 1.3640001 4281151796
-0.22804999 -0.1770021 1.3660001 4281151796
-0.22365782 -0.1764838 1.3620001 4281349175
-0.21751124 -0.17454013 1.3470001 4281414968
-0.21176417 -0.17285563 1.3340001 4281283382
-0.20686826 -0.17181902 1.3260001 4281480759
-0.20339559 -0.1719486 1.327 4281547065
-0.20112176 -0.17311479 1.3360001 4281481272
-0.19968554 -0.17505844 1.3510001 4281152307
-0.1970067 -0.17596549 1.358 4280954928
-0.19414726 -0.17674294 1.3640001 4279704607
-0.19153421 -0.17777956 1.3720001 4279507228
-0.1876456 -0.17764999 1.3710001 4292139484
-0.18389659 -0.17764999 1.3710001 4292467937
-0.18146156 -0.17894575 1.381 4292204765
-0.17845719 -0.17972322 1.3870001 4284441704
-0.17579779 -0.1808894 1.396 4293192175
-0.17850976 -0.187757 1.4490001 4292995312
-0.26659721 -0.1844289 1.4540001 4278190080
-0.25304839 -0.17770624 1.401 4291744726
-0.24548177 -0.17504255 1.3800001 4291810519
-0.23960634 -0.17352045 1.368 4291152589
-0.23448618 -0.17250571 1.36 4286415493
-0.22924012 -0.17136411 1.3510001 4280559916
-0.22521189 -0.17111044 1.3490001 4279638557
-0.22135884 -0.1709836 1.348 4279572764
-0.21734975 -0.17072992 1.3460001 4279375385
-0.21271664 -0.16996886 1.34 4279572764
-0.20827235 -0.16933465 1.335 4279638814
-0.20462178 -0.16933465 1.335 4279967779
-0.20187445 -0.1700957 1.3410001 4279573021
-0.19909431 -0.17085674 1.3470001 4283520601
-0.19599122 -0.17136411 1.3510001 4287731353
-0.19258156 -0.17161781 1.353 4292139485
-0.18930058 -0.17199834 1.3560001 4292007899
-0.18627691 -0.17263255 1.3610001 4291613394
-0.1834942 -0.17352045 1.368 4291810260
-0.18106736 -0.17478886 1.378 4291810262
-0.17794253 -0.17542309 1.383 4283060051
-0.17504221 -0.17631097 1.3900001 4293257455
-0.1749371 -0.18011627 1.4200001 4293060337
-0.26751399 -0.18107347 1.4590001 4278190080
-0.25250652 -0.17350286 1.3980001 4291678934
-0.24459232 -0.1706484 1.3750001 4291547347
-0.23890571 -0.1692832 1.3640001 4291415761
-0.23379652 -0.16829033 1.3560001 4291284175
-0.22873108 -0.16729748 1.348 4291942105
-0.22437716 -0.16680105 1.3440001 4292073434
-0.22004512 -0.16630462 1.34 4292468192
-0.21605793 -0.16605639 1.3380001 4292468192
-0.2122404 -0.1659323 1.337 4292205020
-0.20842837 -0.16580819 1.3360001 4292402399
-0.20477507 -0.16580819 1.3360001 4292336863
-0.20157339 -0.16618051 1.3390001 4292205277
-0.19835529 -0.16655283 1.342 4292073691
-0.1951208 -0.16692516 1.345 4291547347
-0.19186988 -0.16729748 1.348 4291678933
-0.18874216 -0.16779391 1.3520001 4291744726
-0.18586631 -0.16853856 1.358 4291942359
-0.18295765 -0.1692832 1.3640001 4292073945
-0.18014757 -0.17015196 1.3710001 4285954942
-0.17729922 -0.17102072 1.378 4282665293
-0.17479035 -0.1722618 1.388 4293126382
-0.17641544 -0.17772254 1.432 4293061105
-0.25395152 -0.170651 1.406 4290692038
-0.24477021 -0.16700982 1.376 4291547601
-0.23890571 -0.16555333 1.3640001 4291350220
-0.23396894 -0.16470371 1.3570001 4291613392
-0.22924012 -0.16397548 1.3510001 4291613392
-0.22471105 -0.16336861 1.3460001 4291613394
-0.22037356 -0.16288312 1.342 4291679187
-0.21638088 -0.16264038 1.34 4291613394
-0.21255791 -0.16251899 1.3390001 4291679187
-0.2088964 -0.16251899 1.3390001 4291744980
-0.20538814 -0.16264038 1.34 4291810773
-0.2017239 -0.16264038 1.34 4291744980
-0.19835529 -0.16288312 1.342 4291810773
-0.1951208 -0.16324724 1.345 4291810773
-0.19186988 -0.16361135 1.348 4291744980
-0.18874216 -0.16409685 1.3520001 4291547601
-0.18586631 -0.1648251 1.358 4291943129
-0.18282351 -0.16543196 1.363 4287206033
-0.18001617 -0.16628158 1.3700001 4283652187
-0.1776852 -0.16761668 1.381 4282928467
-0.17705709 -0.170651 1.406 4292928749
-0.25774449 -0.16929771 1.427 4278190080
-0.24477021 -0.16324714 1.376 4291350222
-0.23838027 -0.16146754 1.3610001 4291744978
-0.23345169 -0.16063708 1.3540001 4291416013
-0.22907044 -0.16016252 1.35 4291547599
-0.22454412 -0.15956932 1.345 4291481806
-0.22020935 -0.15909477 1.3410001 4291547599
-0.21621941 -0.15885748 1.3390001 4291547599
-0.21239915 -0.15873885 1.3380001 4291416013
-0.2088964 -0.15885748 1.3390001 4291547599
-0.20523489 -0.15885748 1.3390001 4291744978
-0.20157339 -0.15885748 1.3390001 4291547599
-0.19805966 -0.15897612 1.34 4291416013
-0.19468558 -0.15921339 1.342 4291876564
-0.19144288 -0.15956932 1.345 4292073943
-0.18846297 -0.16016252 1.35 4289508018
-0.18545571 -0.16075571 1.355 4281547835
-0.18255524 -0.16146754 1.3610001 4282928465
-0.18014757 -0.16265394 1.3710001 4283783263
-0.18012983 -0.16609447 1.4000001 4283125846
-0.18007939 -0.16965362 1.4300001 4292994542
-0.24850582 -0.16191845 1.3970001 4278190080
-0.23908088 -0.15820949 1.365 4286810505
-0.2336241 -0.15705045 1.355 4289179051
-0.22890075 -0.15635502 1.3490001 4290429118
-0.22437716 -0.1557755 1.3440001 4290889667
-0.22020935 -0.1554278 1.3410001 4290823874
-0.21621941 -0.15519598 1.3390001 4290823874
-0.21255791 -0.15519598 1.3390001 4290955460
-0.2088964 -0.15519598 1.3390001 4291021507
-0.20523489 -0.15519598 1.3390001 4291416011
-0.20157339 -0.15519598 1.3390001 4291087048
-0.19791187 -0.15519598 1.3390001 4291481806
-0.19483064 -0.1556596 1.3430001 4289639602
-0.19172755 -0.15612321 1.3470001 4284836713
-0.18874216 -0.15670274 1.3520001 4281481272
-0.18572946 -0.15728226 1.3570001 4282271558
-0.18362831 -0.15867311 1.3690001 4282863442
-0.18356395 -0.16191845 1.3970001 4283849569
-0.18360375 -0.16539557 1.427 4283125846
-0.24223359 -0.15651394 1.383 4278190080
-0.2336241 -0.15334518 1.355 4281876030
-0.22856139 -0.15243983 1.3470001 4283060302
-0.22404328 -0.15187398 1.342 4285889401
-0.21988092 -0.15153447 1.3390001 4287468431
-0.21605793 -0.15142129 1.3380001 4288126361
-0.21239915 -0.15142129 1.3380001 4287994775
-0.20874038 -0.15142129 1.3380001 4287468685
-0.20492832 -0.15130813 1.337 4285626227
-0.20157339 -0.15153447 1.3390001 4283520853
-0.19791187 -0.15153447 1.3390001 4280954926
-0.19483064 -0.15198715 1.3430001 4281020719
-0.1915852 -0.15232667 1.3460001 4281350454
-0.18888177 -0.15311885 1.353 4281679421
-0.18668753 -0.15436372 1.3640001 4282074179
-0.18644512 -0.15730613 1.3900001 4282796879
-0.18632331 -0.1604749 1.4180001 4283652190
-0.18360375 -0.16149342 1.427 4284112741
-0.24941476 -0.15725997 1.424 4282665292
-0.23896901 -0.15306343 1.386 4282270788
-0.23110662 -0.15041298 1.3620001 4282204995
-0.22554581 -0.14919819 1.3510001 4281810235
-0.2208662 -0.14853558 1.345 4281349684
-0.21686532 -0.1483147 1.3430001 4281547061
-0.21303414 -0.14820427 1.342 4281415475
-0.20920841 -0.14809383 1.3410001 4282073405
-0.20538814 -0.1479834 1.34 4281941821
-0.202025 -0.14820427 1.342 4281547065
-0.19924213 -0.14886688 1.348 4281547065
-0.1970067 -0.14997123 1.358 4281415479
-0.19485894 -0.15118602 1.3690001 4281415479
-0.19251142 -0.15229037 1.3790001 4281810237
-0.19024608 -0.15350516 1.3900001 4281876546
-0.18805471 -0.15483038 1.4020001 4282599500
-0.18579772 -0.15615562 1.414 4283717983
-0.18296042 -0.15703911 1.4220001 4283652190
-0.24310699 -0.15185823 1.4100001 4282073926
-0.23704548 -0.15045811 1.3970001 4278190080
-0.23172285 -0.14948881 1.388 4281613374
-0.22529992 -0.14776558 1.3720001 4281612858
-0.22009487 -0.14679629 1.363 4281810237
-0.21525654 -0.14604236 1.3560001 4281612856
-0.21170457 -0.14615007 1.3570001 4282073407
-0.20860693 -0.14658087 1.3610001 4281744444
-0.20608957 -0.14744247 1.3690001 4281612858
-0.20367628 -0.14841178 1.378 4281415479
-0.20034334 -0.14873488 1.381 4281547065
-0.197421 -0.1493811 1.3870001 4281547065
-0.19293024 -0.14884259 1.3820001 4281678651
-0.18942487 -0.149058 1.3840001 4282073155
-0.18724991 -0.15035041 1.396 4282994258
-0.18553492 -0.15207362 1.4120001 4283981155
-0.23976038 -0.14831746 1.4130001 4281810754
-0.23406011 -0.14716282 1.4020001 4281744961
-0.22759892 -0.14548336 1.386 4281416249
-0.22267854 -0.1447486 1.3790001 4281744444
-0.21811394 -0.14422376 1.3740001 4281810235
-0.21498075 -0.14464363 1.378 4281941821
-0.2118257 -0.1450635 1.3820001 4282007614
-0.2080466 -0.1450635 1.3820001 4281415479
-0.20426752 -0.1450635 1.3820001 4281547065
-0.2000532 -0.1447486 1.3790001 4281612858
-0.19670933 -0.1450635 1.3820001 4281612604
-0.19279063 -0.14495853 1.381 4281875776
-0.18997236 -0.1456933 1.388 4281875776
-0.18778646 -0.1469529 1.4000001 4281678398
-0.18540353 -0.14810751 1.411 4286744461
-0.24241735 -0.14373797 1.406 4282863442
-0.2368758 -0.14271565 1.396 4282073926
-0.23305842 -0.14271565 1.396 4281810754
-0.22792734 -0.1418978 1.388 4281481018
-0.22251706 -0.14087547 1.378 4281612604
-0.2173202 -0.13995539 1.3690001 4281809983
-0.21404469 -0.14026208 1.3720001 4281809983
-0.21090604 -0.14067101 1.376 4282007362
-0.20759499 -0.14097771 1.3790001 4281678140
-0.20397191 -0.14107995 1.3800001 4281414968
-0.19990812 -0.14087547 1.378 4281545785
-0.1958553 -0.14067101 1.376 4281019955
-0.19209263 -0.14067101 1.376 4281019955
-0.18874054 -0.14097771 1.3790001 4285099121
-0.18577445 -0.1415911 1.3850001 4287139217
-0.18277554 -0.14220449 1.391 4287007633
-0.18077314 -0.14363575 1.4050001 4285428347
-0.24017592 -0.13859978 1.393 4286744461
-0.23466994 -0.13760482 1.383 4288586665
-0.23022032 -0.13720682 1.3790001 4282862672
-0.22562838 -0.13670933 1.3740001 4282599500
-0.22106375 -0.13621184 1.3690001 4281349433
-0.2173202 -0.13621184 1.3690001 4281020468
-0.21326464 -0.13601285 1.3670001 4281283640
-0.20983312 -0.13621184 1.3690001 4282204229
-0.20624012 -0.13631135 1.3700001 4281348920
-0.20249385 -0.13631135 1.3700001 4287401362
-0.19831236 -0.13601285 1.3670001 4281940289
-0.19414726 -0.13571435 1.3640001 4287994013
-0.190557 -0.13581386 1.365 4287401878
-0.1876456 -0.13641085 1.3710001 4288520872
-0.18483551 -0.13710733 1.378 4287862942
-0.18211856 -0.1379033 1.386 4284704878
-0.18012983 -0.13929626 1.4000001 4286415242
-0.23983109 -0.13459709 1.391 4287599770
-0.23365185 -0.1332424 1.3770001 4285428599
-0.2283839 -0.13237154 1.368 4290034109
-0.22382201 -0.13188773 1.363 4288586663
-0.21944898 -0.13150068 1.3590001 4290296768
-0.21557403 -0.13140392 1.358 4281941057
-0.21154855 -0.13121039 1.3560001 4290362561
-0.20768727 -0.13111362 1.355 4289902012
-0.20398201 -0.13111362 1.355 4289178289
-0.20057239 -0.13130715 1.3570001 4287137936
-0.1970067 -0.13140392 1.358 4288980140
-0.19357792 -0.13159744 1.36 4287928222
-0.19013819 -0.13179097 1.3620001 4285297013
-0.18737185 -0.1324683 1.3690001 4283981153
-0.1847014 -0.1332424 1.3770001 4282204744
-0.18211856 -0.13411327 1.386 4283323225
-0.2348396 -0.13013519 1.3840001 4281941570
-0.22871779 -0.1288188 1.3700001 4281217847
-0.22415045 -0.12834865 1.365 4283389016
-0.21993342 -0.12806657 1.3620001 4285691258
-0.21620901 -0.12806657 1.3620001 4287862427
-0.21201658 -0.12778448 1.3590001 4288454050
-0.20799384 -0.12759642 1.3570001 4286809225
-0.20443363 -0.12769045 1.358 4282072129
-0.20101577 -0.1278785 1.36 4284440677
-0.19744192 -0.12797253 1.3610001 4280887855
-0.19400492 -0.1281606 1.363 4281217334
-0.19041739 -0.12825462 1.3640001 4282994258
-0.18791933 -0.12910087 1.373 4283125844
-0.18523791 -0.1298531 1.381 4282467916
-0.22971947 -0.12562028 1.376 4283060051
-0.22497152 -0.12507251 1.3700001 4281151541
-0.22041784 -0.12461604 1.365 4281151541
-0.21605027 -0.12425087 1.3610001 4281217334
-0.21186057 -0.12397699 1.358 4281414713
-0.20784056 -0.1237944 1.3560001 4281414713
-0.20413256 -0.1237944 1.3560001 4281348406
-0.20057239 -0.12388569 1.3570001 4282533194
-0.19729684 -0.12415957 1.36 4284835949
-0.19414726 -0.12452474 1.3640001 4282402120
-0.19111539 -0.12498122 1.3690001 4282336327
-0.18901427 -0.12607674 1.381 4281941570
-0.22364742 -0.12265462 1.3850001 4285099634
-0.21827267 -0.12176903 1.3750001 4283323223
-0.21404469 -0.12150335 1.3720001 4284902255
-0.20983312 -0.12123767 1.3690001 4286020223
-0.20624012 -0.12132623 1.3700001 4285033328
-0.20249385 -0.12132623 1.3700001 4283717468
-0.19932786 -0.12168047 1.3740001 4282138691
-0.19613998 -0.12203471 1.378 4282007362
-0.19251142 -0.12212327 1.3790001 4281809983
-0.22284003 -0.11843821 1.3800001 4281481019
-0.21779643 -0.1177516 1.3720001 4281349433
-0.21373267 -0.11757996 1.3700001 4281612092
-0.20967986 -0.1174083 1.368 4281875264
-0.20639066 -0.11766578 1.3710001 4282335815
-0.20234603 -0.11749413 1.3690001 4282006850
-0.19889264 -0.11766578 1.3710001 4282007363
-0.19528595 -0.1177516 1.3720001 4282007363
-0.19223224 -0.11818072 1.3770001 4282007363
-0.21404469 -0.11399985 1.3720001 4281809983
-0.21059951 -0.11416604 1.3740001 4281678397
