# .PCD v0.7 - Point Cloud Data file format
VERSION 0.7
FIELDS x y z rgba
SIZE 4 4 4 4
TYPE F F F U
COUNT 1 1 1 1
WIDTH 467
HEIGHT 1
VIEWPOINT 0 0 0 1 0 0 0
POINTS 467
DATA ascii
-0.54050142 -0.3776435 1.7180001 4278190080
-0.46262658 -0.37544534 1.7080001 4278190080
-0.46319327 -0.36751857 1.6930001 4278190080
-0.25682166 -0.37034065 1.7060001 4280430124
-0.48085776 -0.36224598 1.6900001 4279771683
-0.33474872 -0.36417514 1.6990001 4279903008
-0.32932559 -0.36331773 1.6950001 4279837217
-0.25082633 -0.3637464 1.697 4280363818
-0.56899935 -0.35783628 1.6910001 4278190080
-0.46659201 -0.35381564 1.6720001 4279772192
-0.24429992 -0.35635501 1.6840001 4280166441
-0.23369409 -0.35423887 1.674 4280363820
-0.22939025 -0.35466212 1.6760001 4280232235
-0.46806431 -0.34694591 1.6610001 4279772964
-0.46994075 -0.35175011 1.6840001 4278190080
-0.24357457 -0.35070571 1.6790001 4280166441
-0.23827165 -0.34966132 1.674 4280363818
-0.22547787 -0.35112345 1.6810001 4280363821
-0.10558517 -0.34987018 1.6750001 4278190080
-0.10040185 -0.34778139 1.6650001 4280561457
-0.082436837 -0.34882578 1.6700001 4280627250
-0.078289866 -0.35070571 1.6790001 4280627250
-0.073523045 -0.34987018 1.6750001 4280759606
-0.4748826 -0.34405303 1.669 4279575844
-0.47172767 -0.34508374 1.674 4279707171
-0.24313936 -0.34549603 1.6760001 4280363818
-0.22856903 -0.34425917 1.6700001 4280363820
-0.11023125 -0.34549603 1.6760001 4278190080
-0.096309431 -0.34487757 1.6730001 4280561457
-0.091131434 -0.34261 1.6620001 4280495664
-0.07773032 -0.34364074 1.6670001 4280693045
-0.068572305 -0.3434346 1.6660001 4280890424
-0.05523479 -0.34549603 1.6760001 4280628022
-0.00929779 -0.34157929 1.6570001 4280496436
-0.004772461 -0.34199157 1.659 4280628022
-0.00023690495 -0.3434346 1.6660001 4278190080
-0.35144669 -0.33928573 1.6680001 4279969575
-0.24154358 -0.33867547 1.6650001 4279969575
-0.1175451 -0.33562437 1.6500001 4278190080
-0.11406073 -0.33867547 1.6650001 4278190080
-0.10871853 -0.3362346 1.6530001 4278190080
-0.09096694 -0.33745503 1.659 4280561457
-0.086847171 -0.3390823 1.6670001 4280758325
-0.082140654 -0.33847207 1.664 4280692532
-0.013770453 -0.33562437 1.6500001 4278190080
-0.0091799544 -0.33277664 1.636 4280824631
0.12724608 -0.33867547 1.6650001 4278190080
0.13171989 -0.33847207 1.664 4278190080
-0.56175065 -0.33231646 1.6560001 4280494123
-0.48988801 -0.33271781 1.6580001 4280959808
-0.48067045 -0.32950702 1.6420001 4279903782
-0.23542491 -0.33191511 1.654 4280100646
-0.11747386 -0.33091173 1.649 4278190080
-0.099617936 -0.33151376 1.6520001 4280758066
-0.094927825 -0.33091173 1.649 4281152570
-0.013837219 -0.33271781 1.6580001 4278190080
-0.0092248442 -0.32990837 1.6440001 4278190080
-0.0047695846 -0.33271781 1.6580001 4280430900
0.13536927 -0.33171445 1.6530001 4280364078
0.22645509 -0.33271781 1.6580001 4280758066
0.23029232 -0.33171445 1.6530001 4278190080
-0.48722878 -0.32640254 1.649 4278190080
-0.11761634 -0.32679841 1.651 4278190080
0.1069387 -0.32323551 1.6330001 4278190080
0.13013671 -0.32541284 1.6440001 4278190080
0.22085048 -0.32660049 1.6500001 4280955445
0.23396015 -0.32600665 1.6470001 4280561199
0.1073971 -0.32013649 1.6400001 4279771171
0.21054281 -0.32013649 1.6400001 4278190080
0.21266735 -0.31662279 1.6220001 4278190080
0.22736664 -0.31857485 1.6320001 4278190080
0.23154525 -0.31818444 1.6300001 4280626992
0.21070062 -0.30930036 1.6070001 4278190080
0.22583415 -0.31199497 1.6210001 4278190080
0.20991394 -0.30376759 1.6010001 4278190080
-0.1065481 -0.30294266 1.6200001 4280693561
-0.0090565076 -0.30182067 1.6140001 4280693043
-0.0046286257 -0.30088565 1.6090001 4280693043
0.10159472 -0.30275565 1.6190001 4279573022
0.20925838 -0.29845461 1.5960001 4278190080
0.2140242 -0.29901564 1.5990001 4280757296
0.2197625 -0.30088565 1.6090001 4280758066
0.22513758 -0.30219465 1.6160001 4280495406
-0.0090284515 -0.29648581 1.6090001 4280825399
0.20991394 -0.2950117 1.6010001 4278190080
0.21442574 -0.29519594 1.6020001 4281152054
0.21853326 -0.2948274 1.6 4281087030
0.22884627 -0.29685435 1.6110001 4280495406
0.10008869 -0.28954455 1.595 4278190080
0.21017617 -0.29099682 1.603 4278190080
0.2137565 -0.2899076 1.5970001 4280954674
0.21880643 -0.29081526 1.6020001 4280692272
0.22193326 -0.28918147 1.5930001 4280429611
0.099774919 -0.284289 1.59 4279836194
0.10438474 -0.2850042 1.5940001 4280823859
0.20912725 -0.28518301 1.595 4280626480
0.22586317 -0.284289 1.59 4280495404
0.099461168 -0.27906081 1.585 4280164650
0.1041228 -0.27994114 1.59 4280757044
0.22137597 -0.27976507 1.5890001 4280626992
-0.24465874 -0.24207371 1.419 4279902236
-0.23925133 -0.24053837 1.4100001 4280231201
-0.23522875 -0.24036777 1.409 4278190080
-0.23449585 -0.24360907 1.4280001 4278190080
-0.25010678 -0.23601127 1.406 4278190080
-0.24258389 -0.2324862 1.3850001 4278190080
-0.23896901 -0.23265408 1.386 4278190080
-0.23450026 -0.23198262 1.3820001 4278190080
-0.23155589 -0.23282193 1.3870001 4278190080
-0.29687878 -0.23559855 1.5280001 4280231203
-0.29221576 -0.22778535 1.5040001 4278190080
-0.2815901 -0.22263594 1.47 4278190080
-0.25268716 -0.20805721 1.399 4280494373
-0.24477021 -0.20463668 1.376 4280626213
-0.23855543 -0.2025546 1.3620001 4280823592
-0.2336241 -0.20151359 1.355 4280889385
-0.22957948 -0.20121615 1.353 4280692006
-0.22521189 -0.20062126 1.3490001 4280494627
-0.22283676 -0.201811 1.3570001 4280494373
-0.22332446 -0.20567769 1.383 4280428580
-0.22128882 -0.20731361 1.3940001 4280625961
-0.21841297 -0.20820591 1.4000001 4280428582
-0.25852963 -0.20583744 1.4100001 4280626213
-0.25160342 -0.2033557 1.393 4280560420
-0.24423656 -0.20043604 1.373 4280494627
-0.24013178 -0.20014407 1.3710001 4280626213
-0.2346586 -0.19868422 1.3610001 4280560420
-0.23025821 -0.19810027 1.3570001 4280560420
-0.22654749 -0.19810027 1.3570001 4280625959
-0.22431466 -0.19941415 1.3660001 4280625961
-0.22219411 -0.20087399 1.376 4280428582
-0.21922514 -0.2016039 1.381 4280296483
-0.21607281 -0.20218784 1.3850001 4280362789
-0.21351172 -0.2033557 1.393 4278190080
-0.25761285 -0.20126553 1.4050001 4280165662
-0.24943599 -0.19782755 1.381 4280099869
-0.24388079 -0.19639505 1.3710001 4280428834
-0.23908088 -0.19553556 1.365 4280362787
-0.23431377 -0.19467606 1.3590001 4280362787
-0.23059757 -0.19467606 1.3590001 4280296994
-0.22754915 -0.19524905 1.363 4280428580
-0.2259568 -0.19711131 1.376 4280231201
-0.22251706 -0.19739781 1.378 4280362787
-0.21827267 -0.19696803 1.3750001 4281283889
-0.21404469 -0.1965383 1.3720001 4282599751
-0.21151915 -0.19768429 1.3800001 4281743931
-0.20832226 -0.20570627 1.4360001 4279967267
-0.20482251 -0.20613602 1.439 4290692041
-0.20256278 -0.207855 1.4510001 4293191921
-0.2040697 -0.21358499 1.4910001 4292995314
-0.29066142 -0.21021041 1.4960001 4281547065
-0.27622646 -0.20262259 1.442 4281415477
-0.26963976 -0.2006554 1.4280001 4281810233
-0.26406008 -0.19939075 1.419 4278190080
-0.25651273 -0.19658047 1.399 4281481522
-0.24799104 -0.19292708 1.373 4281481522
-0.24192405 -0.19110037 1.36 4281283889
-0.23732936 -0.1903978 1.355 4281415475
-0.23310685 -0.18997626 1.3520001 4281283889
-0.2294098 -0.18997626 1.3520001 4281876026
-0.22688137 -0.19095986 1.3590001 4282533958
-0.22316517 -0.19095986 1.3590001 4282731337
-0.22041784 -0.19180296 1.365 4281876028
-0.2154153 -0.19067882 1.3570001 4281547063
-0.21279661 -0.19166243 1.3640001 4281283891
-0.21121259 -0.19362965 1.378 4281020208
-0.21090686 -0.19686148 1.401 4280691245
-0.20781486 -0.19756405 1.406 4279769888
-0.2041152 -0.19770458 1.4070001 4289178287
-0.20026773 -0.19770458 1.4070001 4291810520
-0.1973975 -0.19868818 1.414 4293060335
-0.20311165 -0.20852423 1.4840001 4293061107
-0.28405547 -0.20143506 1.462 4278190080
-0.27143753 -0.19523491 1.4170001 4279704861
-0.26491919 -0.193306 1.4030001 4280757549
-0.26126876 -0.19344378 1.404 4280823340
-0.25687945 -0.19303043 1.401 4281020719
-0.24943599 -0.19027483 1.381 4281152305
-0.24388079 -0.18889703 1.3710001 4281349686
-0.23873056 -0.18779479 1.363 4281349432
-0.2336241 -0.18669254 1.355 4281481272
-0.22924012 -0.18614142 1.3510001 4281283639
-0.22537884 -0.18600364 1.35 4281415225
-0.2221799 -0.18641698 1.353 4281415479
-0.21961044 -0.18738145 1.36 4281349686
-0.21859017 -0.1897237 1.3770001 4281020208
-0.21529278 -0.19013704 1.3800001 4280099619
-0.2118257 -0.19041261 1.3820001 4280296485
-0.20864877 -0.19096375 1.386 4286875787
-0.20515434 -0.19123928 1.388 4292205020
-0.20237434 -0.19220376 1.3950001 4291744727
-0.19941372 -0.19303043 1.401 4289244080
-0.19683909 -0.19427046 1.4100001 4293323761
-0.1977738 -0.19909278 1.4450001 4292929521
-0.28094679 -0.19527647 1.4460001 4278190080
-0.2687557 -0.18946949 1.4030001 4292139738
-0.26170921 -0.18717371 1.386 4292337117
-0.25643045 -0.18609335 1.378 4284507750
-0.25174552 -0.18541811 1.373 4279967520
-0.24726856 -0.18487792 1.3690001 4279375383
-0.24263559 -0.18420269 1.3640001 4279572762
-0.23873056 -0.18406765 1.363 4279441178
-0.23431377 -0.18352745 1.3590001 4279638814
-0.23008853 -0.18312232 1.3560001 4279770400
-0.22587968 -0.18271719 1.353 4279704607
-0.2221799 -0.18271719 1.353 4280099619
-0.21912603 -0.18325736 1.3570001 4280296485
-0.21620901 -0.18393259 1.3620001 4285823097
-0.21310863 -0.18447278 1.3660001 4291612881
-0.20983312 -0.18487792 1.3690001 4292205018
-0.20714337 -0.18582325 1.376 4292073432
-0.20441532 -0.18676855 1.383 4291876053
-0.20164898 -0.18771388 1.3900001 4291744469
-0.19841737 -0.18825407 1.3940001 4284968048
-0.19544308 -0.18906434 1.4000001 4293257455
-0.19531018 -0.19271058 1.427 4292929521
-0.27997535 -0.1906608 1.4410001 4278190080
-0.26856413 -0.18550067 1.4020001 4291744727
-0.26170921 -0.18338367 1.386 4291678933
-0.25605828 -0.18206055 1.376 4291744726
-0.25137883 -0.181399 1.3710001 4292270813
-0.24672669 -0.18073744 1.3660001 4292533985
-0.24263559 -0.18047282 1.3640001 4292533215
-0.23838027 -0.18007588 1.3610001 4293060074
-0.23414135 -0.17967895 1.358 4292928488
-0.23008853 -0.17941432 1.3560001 4293125867
-0.22638053 -0.17941432 1.3560001 4292731364
-0.22283676 -0.17954662 1.3570001 4292665571
-0.2192875 -0.17967895 1.358 4292270813
-0.21620901 -0.18020819 1.3620001 4291876055
-0.21310863 -0.18073744 1.3660001 4291810519
-0.2099864 -0.18126668 1.3700001 4291678933
-0.20714337 -0.18206055 1.376 4291942359
-0.2041197 -0.18272212 1.381 4291744978
-0.20121378 -0.18351598 1.3870001 4291349709
-0.19784802 -0.18391292 1.3900001 4282467913
-0.19516386 -0.18497141 1.3980001 4292929003
-0.1977738 -0.19119005 1.4450001 4293060337
-0.28230685 -0.18827529 1.4530001 4278190080
-0.26856413 -0.18166688 1.4020001 4292139485
-0.26133153 -0.17933449 1.3840001 4291876312
-0.2556861 -0.17803872 1.3740001 4291678933
-0.25119546 -0.17752041 1.3700001 4291876312
-0.24636546 -0.17674294 1.3640001 4291876055
-0.24263559 -0.17674294 1.3640001 4291876055
-0.23820511 -0.17622463 1.36 4291810262
-0.23414135 -0.17596549 1.358 4292007641
-0.23008853 -0.17570633 1.3560001 4291941848
-0.22638053 -0.17570633 1.3560001 4291876053
-0.22283676 -0.17583591 1.3570001 4292008152
-0.2192875 -0.17596549 1.358 4291876566
-0.21589151 -0.17622463 1.36 4292008152
-0.21279661 -0.17674294 1.3640001 4292008152
-0.20952657 -0.17713168 1.3670001 4292008152
-0.2065412 -0.17777956 1.3720001 4292008150
-0.20352849 -0.17842744 1.3770001 4291481806
-0.2006335 -0.17920491 1.383 4282533449
-0.19756335 -0.17985278 1.388 4283388503
-0.19614108 -0.18205561 1.4050001 4292994542
-0.20187984 -0.19112599 1.475 4293060337
-0.27086285 -0.17935519 1.414 4286086529
-0.26189801 -0.17593046 1.3870001 4291284175
-0.25605828 -0.17453519 1.376 4291810773
-0.25119546 -0.17377414 1.3700001 4291613394
-0.24654609 -0.17313991 1.365 4291613392
-0.24263559 -0.17301308 1.3640001 4291613392
-0.23820511 -0.17250571 1.36 4291810771
-0.23414135 -0.17225203 1.358 4291810771
-0.23008853 -0.17199834 1.3560001 4291942357
-0.22671442 -0.17225203 1.358 4292008150
-0.22316517 -0.17237885 1.3590001 4291810771
-0.21944898 -0.17237885 1.3590001 4291876564
-0.21620901 -0.1727594 1.3620001 4292073945
-0.21295264 -0.17313991 1.365 4292073943
-0.20967986 -0.17352045 1.368 4291547599
-0.2065412 -0.17402782 1.3720001 4283981402
-0.20352849 -0.17466202 1.3770001 4282599753
-0.20077856 -0.17554992 1.3840001 4282862671
-0.19941372 -0.17770624 1.401 4283125844
-0.19977073 -0.18151152 1.4310001 4293060335
-0.27909982 -0.18082525 1.457 4278190080
-0.26284215 -0.17275822 1.3920001 4283586394
-0.25605828 -0.17077251 1.376 4287534228
-0.25101209 -0.16990374 1.3690001 4289113258
-0.24600422 -0.16903499 1.3620001 4289771186
-0.24174617 -0.16866265 1.3590001 4289771186
-0.23750451 -0.16829033 1.3560001 4290494909
-0.2336241 -0.16816624 1.355 4291152839
-0.22974917 -0.16804212 1.3540001 4291152839
-0.22604665 -0.16804212 1.3540001 4291416011
-0.22267254 -0.16829033 1.3560001 4291613390
-0.21912603 -0.16841444 1.3570001 4290692290
-0.21605027 -0.16891088 1.3610001 4286086780
-0.21279661 -0.1692832 1.3640001 4281744442
-0.20952657 -0.16965553 1.3670001 4281218098
-0.20624012 -0.17002785 1.3700001 4282073407
-0.20338067 -0.17077251 1.376 4282270788
-0.20237434 -0.17313054 1.3950001 4282731086
-0.20183346 -0.17598504 1.4180001 4282599500
-0.20228359 -0.17983238 1.4490001 4292994542
-0.26907331 -0.17295711 1.4250001 4278190080
-0.25810525 -0.16834491 1.3870001 4278190080
-0.25156215 -0.16652432 1.3720001 4283520853
-0.24636546 -0.16555333 1.3640001 4282665544
-0.24174617 -0.16494647 1.3590001 4284639332
-0.23750451 -0.16458234 1.3560001 4285231723
-0.23345169 -0.1643396 1.3540001 4284376414
-0.22974917 -0.1643396 1.3540001 4281810487
-0.22621357 -0.16446097 1.355 4281678647
-0.22267254 -0.16458234 1.3560001 4281349682
-0.2192875 -0.1648251 1.358 4280823340
-0.21636774 -0.16543196 1.363 4281349684
-0.21357666 -0.1661602 1.3690001 4281481272
-0.21075277 -0.16688845 1.3750001 4281547065
-0.20744444 -0.16725256 1.378 4281941823
-0.20589337 -0.16907316 1.393 4282007362
-0.20498562 -0.17150064 1.4130001 4282599500
-0.20368382 -0.17368536 1.4310001 4282599500
-0.20186478 -0.17550595 1.4460001 4292994542
-0.26499054 -0.1689418 1.424 4282534476
-0.25486255 -0.16490807 1.3900001 4282139202
-0.24744919 -0.16253529 1.3700001 4282139200
-0.24227983 -0.16158618 1.3620001 4281415475
-0.23785481 -0.16111164 1.358 4282007612
-0.2336241 -0.16075571 1.355 4281481268
-0.22957948 -0.16051844 1.353 4281941819
-0.22571273 -0.16039979 1.3520001 4282139198
-0.22250831 -0.16075571 1.355 4281744442
-0.21961044 -0.16134891 1.36 4281481272
-0.21747896 -0.16253529 1.3700001 4281218100
-0.21622884 -0.16443351 1.386 4281415479
-0.21458465 -0.16609447 1.4000001 4281481018
-0.21075633 -0.16609447 1.4000001 4281875777
-0.20707582 -0.16621311 1.401 4282138949
-0.2051307 -0.16775541 1.414 4282731086
-0.20325682 -0.16941635 1.4280001 4283191639
-0.26146331 -0.16527967 1.4260001 4282204741
-0.25521582 -0.16377291 1.4130001 4282073409
-0.24921735 -0.16238205 1.401 4281744442
-0.24363481 -0.16122301 1.391 4281941821
-0.23793451 -0.15994807 1.3800001 4281547063
-0.23365185 -0.15960035 1.3770001 4281744442
-0.23038727 -0.15994807 1.3800001 4282007614
-0.22809157 -0.16099119 1.3890001 4281678649
-0.22526218 -0.16168663 1.3950001 4281283893
-0.22287624 -0.16272977 1.404 4281349686
-0.21950501 -0.16307747 1.4070001 4281612858
-0.21535102 -0.16284567 1.4050001 4281481018
-0.21030471 -0.16191845 1.3970001 4281744191
-0.20737144 -0.16261385 1.4030001 4282270535
-0.20585606 -0.16446833 1.419 4282599500
-0.20325682 -0.16551147 1.4280001 4283125846
-0.2610966 -0.16115391 1.424 4282336328
-0.25503522 -0.15979587 1.4120001 4282073155
-0.249751 -0.15889052 1.404 4281678651
-0.24556145 -0.15866417 1.4020001 4282007616
-0.23983109 -0.15741931 1.391 4281415477
-0.2350093 -0.15674028 1.3850001 4281547063
-0.23022032 -0.15606126 1.3790001 4281810237
-0.22694206 -0.15640077 1.3820001 4281678651
-0.22332446 -0.15651394 1.383 4281349432
-0.22113006 -0.15764566 1.393 4281415225
-0.21841297 -0.15843783 1.4000001 4281546811
-0.21504447 -0.15877734 1.4030001 4281678398
-0.21150903 -0.15900369 1.4050001 4281875777
-0.20781486 -0.15911685 1.406 4282730573
-0.20600113 -0.16070123 1.4200001 4284638572
-0.20240279 -0.16092758 1.4220001 4282336076
-0.26629317 -0.15803303 1.4310001 4282929235
-0.25926307 -0.15615562 1.414 4282270535
-0.25503522 -0.15593475 1.4120001 4281941570
-0.25064045 -0.15560344 1.409 4281744191
-0.24643721 -0.15538256 1.4070001 4281744190
-0.24155524 -0.15471996 1.401 4281809983
-0.23653644 -0.15394691 1.3940001 4281612858
-0.23155589 -0.15317386 1.3870001 4282007616
-0.22743471 -0.15295298 1.3850001 4281678397
-0.22413185 -0.1532843 1.388 4281415225
-0.22113006 -0.15383647 1.393 4281415225
-0.21872498 -0.15483038 1.4020001 4281414968
-0.21473791 -0.15471996 1.401 4281217334
-0.21120796 -0.15494083 1.4030001 4282401608
-0.20692801 -0.15460952 1.4000001 4285559674
-0.20367998 -0.15505126 1.404 4283914849
-0.20083709 -0.1558243 1.411 4282928213
-0.26499054 -0.15336603 1.424 4285231990
-0.25651273 -0.15067351 1.399 4288455077
-0.25178406 -0.150135 1.3940001 4283454296
-0.24654908 -0.1492734 1.386 4281348920
-0.24328451 -0.1495965 1.3890001 4281151541
-0.23879659 -0.14916569 1.3850001 4281283127
-0.23450026 -0.14884259 1.3820001 4281546299
-0.23005337 -0.14841178 1.378 4280690990
-0.22546415 -0.14787328 1.373 4283454296
-0.22154818 -0.14776558 1.3720001 4280559404
-0.21795519 -0.14787328 1.373 4288125854
-0.21529278 -0.14862719 1.3800001 4282994000
-0.2118257 -0.14884259 1.3820001 4289244335
-0.2087993 -0.1493811 1.3870001 4287796634
-0.20500654 -0.1493811 1.3870001 4288388773
-0.20237434 -0.1502427 1.3950001 4282269254
-0.20012541 -0.1514274 1.406 4282993749
-0.25724617 -0.14726779 1.4030001 4288126112
-0.25160342 -0.14621814 1.393 4287994526
-0.24583752 -0.1450635 1.3820001 4290297281
-0.24153298 -0.1447486 1.3790001 4284901742
-0.23707242 -0.14432874 1.3750001 4290757319
-0.23314281 -0.14422376 1.3740001 4289573045
-0.22938558 -0.14422376 1.3740001 4289112494
-0.22546415 -0.1441188 1.373 4287270290
-0.22154818 -0.14401384 1.3720001 4289112494
-0.2176377 -0.14390887 1.3710001 4285888123
-0.21482475 -0.14453867 1.3770001 4288651429
-0.21151915 -0.14485358 1.3800001 4289046186
-0.20849822 -0.1453784 1.3850001 4287073166
-0.20500654 -0.14558834 1.3870001 4282138436
-0.20251942 -0.14653303 1.396 4282598473
-0.20041008 -0.14779262 1.4080001 4283125333
-0.25852963 -0.1441469 1.4100001 4282665295
-0.25196466 -0.14261343 1.3950001 4282402123
-0.24601543 -0.14138664 1.383 4282928465
-0.24153298 -0.14097771 1.3790001 4285493879
-0.23690002 -0.14046656 1.3740001 4288519843
-0.23297311 -0.14036432 1.373 4286283650
-0.22921863 -0.14036432 1.373 4283520344
-0.22579257 -0.14056879 1.3750001 4287928475
-0.22203262 -0.14056879 1.3750001 4281611577
-0.21795519 -0.14036432 1.373 4283059538
-0.21466874 -0.14067101 1.376 4280954417
-0.21136588 -0.14097771 1.3790001 4282204484
-0.20849822 -0.1415911 1.3850001 4282138691
-0.20515434 -0.1418978 1.388 4282072643
-0.20309971 -0.14312458 1.4000001 4282598987
-0.25431272 -0.14009224 1.4080001 4284376681
-0.24779427 -0.13859978 1.393 4283783773
-0.24223359 -0.13760482 1.383 4281283639
-0.23758967 -0.13710733 1.378 4281678140
-0.23331247 -0.13680884 1.3750001 4281612345
-0.22971947 -0.13690834 1.376 4281546552
-0.22661366 -0.13730632 1.3800001 4282599240
-0.22284003 -0.13730632 1.3800001 4283849309
-0.21922514 -0.13740581 1.381 4282796366
-0.2159168 -0.13770431 1.3840001 4284046433
-0.21305189 -0.1383013 1.3900001 4282467401
-0.21030471 -0.13899778 1.3970001 4281546299
-0.20737144 -0.13959476 1.4030001 4281875264
-0.24433538 -0.13498414 1.3950001 4282599499
-0.23931384 -0.1343068 1.388 4282994000
-0.23450026 -0.13372622 1.3820001 4285494132
-0.231222 -0.1340165 1.3850001 4283651928
-0.22776313 -0.13421004 1.3870001 4282862412
-0.22429334 -0.13440356 1.3890001 4282665033
-0.22017759 -0.13421004 1.3870001 4281941570
-0.2174769 -0.13488737 1.3940001 4281744191
-0.21473791 -0.13556471 1.401 4281678398
-0.24468571 -0.13135757 1.3970001 4281678397
-0.24000351 -0.13088742 1.3920001 4281743933
-0.23517899 -0.13032325 1.386 4282204482
-0.231222 -0.1302292 1.3850001 4281743931
-0.22759892 -0.13032325 1.386 4282007362
-0.22316298 -0.12994713 1.3820001 4282336327
-0.2190664 -0.12975907 1.3800001 4281941569
-0.21654084 -0.1305113 1.388 4281744191
-0.23222369 -0.12698968 1.391 4281744190
-0.22792734 -0.12671581 1.388 4282138948
-0.2238089 -0.12653321 1.386 4282402120
-0.21938388 -0.12616804 1.3820001 4282204741
