# .PCD v0.7 - Point Cloud Data file format
VERSION 0.7
FIELDS x y z rgba
SIZE 4 4 4 4
TYPE F F F U
COUNT 1 1 1 1
WIDTH 1095
HEIGHT 1
VIEWPOINT 0 0 0 1 0 0 0
POINTS 1095
DATA ascii
0.032419559 0.063126788 1.327 4285030766
0.03480133 0.063269503 1.33 4285097074
0.037305128 0.0636025 1.337 4285163124
0.039744306 0.06379278 1.3410001 4284966002
0.042103253 0.063840359 1.342 4284835185
0.044531886 0.063983068 1.345 4284572527
0.047040626 0.06422092 1.35 4284507247
0.049456976 0.064316064 1.3520001 4284507760
0.051803641 0.064316064 1.3520001 4284573297
0.054150306 0.064316064 1.3520001 4284442480
0.056538761 0.064363636 1.353 4284508530
0.058887158 0.064363636 1.353 4284574066
0.060828228 0.063935496 1.3440001 4284573810
0.063161008 0.063935496 1.3440001 4284573554
0.067271434 0.063412212 1.3330001 4284770420
0.069637321 0.063459791 1.3340001 4284902006
0.072114557 0.0636025 1.337 4284705140
0.074602209 0.063745216 1.34 4284639346
0.077100269 0.063887924 1.3430001 4284573810
0.079727031 0.064125784 1.348 4284508275
0.082188517 0.06422092 1.35 4284048750
0.084594324 0.0642685 1.3510001 4283982701
0.087067954 0.064363636 1.353 4283916651
0.089350268 0.064316064 1.3520001 4283719785
0.091222167 0.063983068 1.345 4283391333
0.09341757 0.063887924 1.3430001 4283456355
0.095677316 0.063840359 1.342 4283258720
0.10640281 0.064696632 1.36 4283843927
0.10908326 0.06488692 1.3640001 4283320150
0.11169588 0.065029629 1.3670001 4282468178
0.11481958 0.065457769 1.376 4282205520
0.11797452 0.065885916 1.3850001 4282139983
0.12072613 0.066076197 1.3890001 4282074190
0.12331431 0.066171341 1.391 4282337619
0.12563828 0.066123761 1.3900001 4282337362
0.12805089 0.066123761 1.3900001 4282272082
0.12999423 0.065885916 1.3850001 4282206289
0.13220699 0.065790772 1.383 4282271825
0.13489945 0.065933481 1.386 4281810759
-0.11342901 0.070146367 1.4230001 4284375407
-0.11103709 0.07019566 1.424 4283980906
-0.10856546 0.07019566 1.424 4283652454
-0.10594481 0.070097066 1.4220001 4283652709
-0.096669301 0.06876611 1.3950001 4284637037
-0.094112888 0.068667524 1.393 4284177257
-0.091497585 0.068519637 1.3900001 4283652451
-0.088892691 0.068371758 1.3870001 4283587428
-0.08642292 0.068322465 1.386 4283717731
-0.083835386 0.068174578 1.383 4283716961
-0.081376031 0.068125278 1.3820001 4284373609
-0.079034448 0.068174578 1.383 4284045671
-0.076689392 0.068223871 1.3840001 4283520867
-0.074555561 0.068470344 1.3890001 4283324514
-0.072196618 0.068519637 1.3900001 4283193441
-0.069432564 0.068174578 1.383 4283193441
-0.066886686 0.068026692 1.3800001 4283193442
-0.064351223 0.067878813 1.3770001 4283258721
-0.061871171 0.067780219 1.3750001 4283455330
-0.059441328 0.067730926 1.3740001 4283717732
-0.056931902 0.067583039 1.3710001 4283849317
-0.054393098 0.06738586 1.3670001 4283915110
-0.052020397 0.06738586 1.3670001 4283257180
-0.049684014 0.06743516 1.368 4283257437
-0.047378749 0.067533746 1.3700001 4283257950
-0.044935144 0.06743516 1.368 4283324256
-0.042342927 0.067090094 1.3610001 4283390306
-0.039892513 0.066942208 1.358 4283324000
-0.037424877 0.066745035 1.3540001 4283717987
-0.035048835 0.066695735 1.353 4283651425
-0.032724604 0.066745035 1.3540001 4283915110
-0.030419333 0.066843614 1.3560001 4284111720
-0.028065728 0.066843614 1.3560001 4284308071
-0.02569316 0.066794321 1.355 4284045670
-0.02328961 0.066646442 1.3520001 4283784550
-0.020911966 0.066547848 1.35 4283720297
-0.0185 0.066301383 1.345 4284047979
-0.016153466 0.066252083 1.3440001 4284112230
-0.013800121 0.066153497 1.342 4284309096
-0.011470814 0.066153497 1.342 4284243817
-0.0091551309 0.066252083 1.3440001 4283981927
-0.0068223523 0.066252083 1.3440001 4283784807
-0.0044828928 0.066153497 1.342 4283784807
-0.0021503761 0.066054903 1.34 4283982443
0.0001751979 0.065956317 1.3380001 4284048236
0.0024956956 0.065907024 1.337 4284114029
0.0048127221 0.065857723 1.3360001 4284048236
0.0071369526 0.065907024 1.337 4284048493
0.0094505083 0.065857723 1.3360001 4284180077
0.011751782 0.065759137 1.3340001 4284509041
0.014056658 0.065709837 1.3330001 4284574578
0.016370343 0.065709837 1.3330001 4284443251
0.018655997 0.065611251 1.3310001 4284837752
0.020934707 0.065512665 1.3290001 4284902259
0.023188988 0.065364778 1.3260001 4285227887
0.025432851 0.065216891 1.3230001 4286404462
0.027708221 0.065167606 1.322 4288305786
0.03002551 0.065216891 1.3230001 4287911798
0.032419559 0.065414071 1.327 4287126902
0.034827501 0.065611251 1.3310001 4286145655
0.037333027 0.065956317 1.3380001 4285096817
0.039773945 0.066153497 1.342 4284835442
0.042103253 0.066153497 1.342 4284507760
0.044432558 0.066153497 1.342 4284573553
0.046796709 0.06620279 1.3430001 4284573297
0.049164332 0.066252083 1.3440001 4284573808
0.051458795 0.06620279 1.3430001 4284442735
0.05382989 0.066252083 1.3440001 4284311151
0.056246243 0.066350676 1.3460001 4284311151
0.058147263 0.065857723 1.3360001 4284508274
0.060556673 0.065956317 1.3380001 4284573555
0.062832043 0.065907024 1.337 4284638834
0.064762823 0.065512665 1.3290001 4284638834
0.066918164 0.065364778 1.3260001 4284704627
0.069324113 0.065463372 1.3280001 4284967799
0.071898811 0.065709837 1.3330001 4284836212
0.07465788 0.066104196 1.3410001 4284704370
0.077215083 0.066301383 1.345 4284573040
0.079845324 0.066547848 1.35 4284311151
0.082310274 0.066646442 1.3520001 4284048749
0.084656939 0.066646442 1.3520001 4283916907
0.086874902 0.066547848 1.35 4283785064
0.088755481 0.06620279 1.3430001 4283719784
0.090883054 0.066054903 1.34 4283260003
0.093069769 0.065956317 1.3380001 4283258976
0.10702872 0.06743516 1.368 4283711828
0.10964306 0.067583039 1.3710001 4283122514
0.11218613 0.067681625 1.373 4282204749
0.11498646 0.067928106 1.378 4282139983
0.1180597 0.068322465 1.386 4281942604
0.12098688 0.068618231 1.3920001 4282139983
0.12384623 0.068864703 1.3970001 4282206033
0.12627099 0.068864703 1.3970001 4282403156
0.12860364 0.068815403 1.396 4282337619
0.13046353 0.068519637 1.3900001 4282206289
-0.11358844 0.072701156 1.4250001 4283981163
-0.11095911 0.07259912 1.4230001 4283784298
-0.10841298 0.072548099 1.4220001 4283587431
-0.1057213 0.072395042 1.419 4283653479
-0.09632282 0.070915513 1.3900001 4284440428
-0.093639955 0.070711441 1.386 4284636525
-0.091168448 0.070660427 1.3850001 4283717218
-0.088700421 0.070609406 1.3840001 4283652195
-0.086360566 0.070660427 1.3850001 4283913313
-0.083956622 0.070660427 1.3850001 4284438374
-0.081552684 0.070660427 1.3850001 4284307045
-0.07914874 0.070660427 1.3850001 4283782755
-0.076744795 0.070660427 1.3850001 4283390307
-0.074931294 0.07122162 1.396 4283259748
-0.072508253 0.07122162 1.396 4283127905
-0.069482774 0.070609406 1.3840001 4282996576
-0.066983625 0.070507362 1.3820001 4282930526
-0.064397953 0.070303291 1.378 4283127134
-0.061826177 0.07009922 1.3740001 4283258720
-0.059441328 0.07009922 1.3740001 4283455072
-0.056765798 0.069742091 1.3670001 4283651938
-0.054353304 0.069691077 1.3660001 4283849317
-0.051982339 0.069691077 1.3660001 4283191387
-0.049720332 0.069844127 1.3690001 4283191387
-0.047413331 0.06994617 1.3710001 4283060057
-0.04500084 0.069895148 1.3700001 4283060571
-0.042405151 0.06953802 1.363 4283126621
-0.039921891 0.069333941 1.3590001 4283454303
-0.037452515 0.069129869 1.355 4283322716
-0.035074741 0.069078855 1.3540001 4283585374
-0.032748774 0.069129869 1.355 4283848547
-0.0304642 0.069282927 1.358 4283783267
-0.028107122 0.069282927 1.358 4283586658
-0.025712121 0.069180883 1.3560001 4283587429
-0.023306837 0.069027834 1.353 4283653478
-0.020850005 0.068670705 1.3460001 4283456612
-0.018486245 0.068568669 1.3440001 4283718500
-0.016141446 0.068517655 1.3430001 4283784036
-0.013800121 0.068466634 1.342 4283980901
-0.011479361 0.068517655 1.3430001 4284374889
-0.0091619426 0.068619691 1.345 4283783779
-0.0068325046 0.068670705 1.3460001 4283784549
-0.0044929138 0.068619691 1.345 4283981159
-0.0021551903 0.068517655 1.3430001 4283850601
0.00017559071 0.068415612 1.3410001 4283850857
0.0025031622 0.068415612 1.3410001 4283982443
0.0048271315 0.068364598 1.34 4283982443
0.0071422909 0.068262555 1.3380001 4284114029
0.0094575817 0.068211541 1.337 4284180076
0.011760592 0.068109505 1.335 4284376942
0.014056658 0.068007462 1.3330001 4284376685
0.016370343 0.068007462 1.3330001 4284310892
0.01864198 0.067854412 1.33 4284836467
0.020918954 0.067752376 1.3280001 4285097329
0.023188988 0.06765034 1.3260001 4285946477
0.025432851 0.067497283 1.3230001 4287647856
0.027729182 0.067497283 1.3230001 4288563568
0.03002551 0.067497283 1.3230001 4288499828
0.032419559 0.067701355 1.327 4287649652
0.03480133 0.067854412 1.33 4285685359
0.037333027 0.068262555 1.3380001 4284769134
0.039773945 0.068466634 1.342 4284639346
0.042103253 0.068466634 1.342 4284508787
0.044432558 0.068466634 1.342 4284640116
0.04672702 0.068415612 1.3410001 4284639603
0.049054593 0.068415612 1.3410001 4284573810
0.051267214 0.068262555 1.3380001 4284442737
0.053549528 0.068211541 1.337 4284311151
0.056037307 0.068415612 1.3410001 4284376944
0.057929642 0.067905433 1.3310001 4284508017
0.06033038 0.068007462 1.3330001 4284639090
0.062597066 0.067956448 1.332 4284638834
0.064714096 0.067752376 1.3280001 4284573041
0.066867702 0.067599326 1.325 4284507248
0.069219701 0.06765034 1.3260001 4284836213
0.071898811 0.068007462 1.3330001 4284573040
0.07465788 0.068415612 1.3410001 4284573040
0.077215083 0.068619691 1.345 4284376174
0.079904467 0.068925798 1.3510001 4284179565
0.08237116 0.069027834 1.353 4283982957
0.084719561 0.069027834 1.353 4283851113
0.086939253 0.068925798 1.3510001 4283719271
0.089019835 0.068721719 1.3470001 4283522149
0.091086529 0.068517655 1.3430001 4283259234
0.09341757 0.068517655 1.3430001 4283192927
0.10734167 0.069997184 1.3720001 4283777364
0.10988299 0.07009922 1.3740001 4283056208
0.11234955 0.070150241 1.3750001 4282073676
0.11498646 0.070303291 1.378 4282008653
0.11788934 0.070609406 1.3840001 4282008397
0.12072613 0.070864499 1.3890001 4281943118
0.12366892 0.071170606 1.3950001 4281943374
0.1261806 0.07122162 1.396 4282337362
0.12851152 0.071170606 1.3950001 4282403155
0.13055739 0.070966534 1.391 4282140239
-0.12443511 0.075737521 1.4360001 4285689211
-0.12202757 0.075790264 1.437 4284967287
-0.11928382 0.075632036 1.434 4284573300
-0.11655049 0.075473808 1.4310001 4284047213
-0.11358844 0.075157352 1.4250001 4283652968
-0.11056924 0.074788168 1.4180001 4283456102
-0.1078793 0.07462994 1.4150001 4283456102
-0.10534878 0.074577197 1.414 4283587944
-0.09795408 0.072731227 1.3790001 4283980904
-0.095283367 0.072520256 1.3750001 4284766570
-0.092896782 0.072520256 1.3750001 4285618285
-0.090576023 0.072572999 1.376 4284893536
-0.088379972 0.072731227 1.3790001 4284894048
-0.086111151 0.072836712 1.381 4284501599
-0.083956622 0.073047683 1.3850001 4283978080
-0.081611566 0.073100418 1.386 4283782498
-0.079205886 0.073100418 1.386 4283389794
-0.07713268 0.073416874 1.3920001 4283259234
-0.07514599 0.073838808 1.4000001 4283062369
-0.072612137 0.073733322 1.3980001 4283062369
-0.069834195 0.073364131 1.391 4282799197
-0.067177497 0.073100418 1.386 4282996319
-0.064304493 0.072572999 1.376 4283061854
-0.061736178 0.072362036 1.3720001 4283126877
-0.059354801 0.072362036 1.3720001 4283126877
-0.056724269 0.07204558 1.3660001 4283520865
-0.054353304 0.07204558 1.3660001 4283717731
-0.052020397 0.072098322 1.3670001 4283256923
-0.049720332 0.072203808 1.3690001 4282862422
-0.047413331 0.072309293 1.3710001 4282797142
-0.04496799 0.072203808 1.3690001 4282928215
-0.042405151 0.071887352 1.363 4283125337
-0.039951269 0.071729131 1.36 4283125594
-0.037507799 0.071570903 1.3570001 4283060058
-0.035126548 0.07151816 1.3560001 4283322973
-0.032797113 0.071570903 1.3570001 4283454303
-0.030486636 0.071676381 1.3590001 4283388253
-0.028148519 0.071729131 1.36 4283258207
-0.025712121 0.07151816 1.3560001 4283324770
-0.023272384 0.071254455 1.3510001 4283521635
-0.020834515 0.070937999 1.345 4283521378
-0.018458735 0.070779778 1.342 4283586658
-0.016129429 0.070779778 1.342 4283521377
-0.013789838 0.070727028 1.3410001 4283717472
-0.011479361 0.070832513 1.3430001 4284046181
-0.0091551309 0.070885256 1.3440001 4283586143
-0.0068325046 0.070990741 1.3460001 4283389534
-0.0044962545 0.070990741 1.3460001 4283783523
-0.002156795 0.070885256 1.3440001 4283719013
0.00017598354 0.070885256 1.3440001 4283653478
0.0025087621 0.070885256 1.3440001 4283850857
0.0048415405 0.070885256 1.3440001 4283916905
0.0071689817 0.070832513 1.3430001 4283982441
0.0094788028 0.070674285 1.34 4284114026
0.01178702 0.0705688 1.3380001 4284376942
0.014077749 0.070410579 1.335 4284245099
0.016370343 0.070305094 1.3330001 4284310634
0.01864198 0.070146866 1.33 4284769390
0.020903204 0.069988638 1.327 4285553260
0.023188988 0.069935903 1.3260001 4287058286
0.025452076 0.06983041 1.3240001 4288498545
0.027771099 0.06988316 1.325 4288891249
0.030070899 0.06988316 1.325 4287579496
0.032443993 0.070041388 1.3280001 4286272363
0.034775168 0.070094123 1.3290001 4285096045
0.037165612 0.070252351 1.332 4284573038
0.039566476 0.070410579 1.335 4284574321
0.041915011 0.070463315 1.3360001 4284509300
0.044267014 0.070516065 1.337 4284574836
0.046552796 0.070463315 1.3360001 4284705908
0.048835106 0.070410579 1.335 4284443249
0.050960682 0.070146866 1.33 4284442993
0.053108957 0.069935903 1.3260001 4284442737
0.055368703 0.06988316 1.325 4284376944
0.057668503 0.06988316 1.325 4284376944
0.06010408 0.070041388 1.3280001 4284442224
0.062503077 0.070146866 1.33 4284638577
0.064714096 0.070041388 1.3280001 4284704113
0.066817239 0.06983041 1.3240001 4284507504
0.071629114 0.070041388 1.3280001 4284507247
0.074379511 0.070463315 1.3360001 4284375918
0.076928042 0.070674285 1.34 4284245102
0.079727031 0.071096227 1.348 4284245358
0.082249396 0.071254455 1.3510001 4283916650
0.08453171 0.071201704 1.35 4283850857
0.086746193 0.071096227 1.348 4283588198
0.089019835 0.071043476 1.3470001 4283455843
0.09135782 0.071043476 1.3470001 4283192927
0.09390448 0.071201704 1.35 4283192414
0.096390255 0.07130719 1.3520001 4282994777
0.099759348 0.07204558 1.3660001 4282600531
0.10242938 0.072256543 1.3700001 4282336590
0.10503679 0.072414771 1.373 4282662475
0.10757638 0.072520256 1.3750001 4283777105
0.10996296 0.072520256 1.3750001 4283187280
0.11234955 0.072520256 1.3750001 4282073163
0.11481958 0.072572999 1.376 4281943116
0.11754862 0.072783969 1.3800001 4281811531
0.12020463 0.072942197 1.383 4281811532
0.12313702 0.073258646 1.3890001 4281877326
0.12599984 0.073522359 1.3940001 4282139984
0.12860364 0.073627837 1.396 4282271313
-0.12408849 0.077994823 1.432 4285031795
-0.12151806 0.077940352 1.4310001 4284376180
-0.11861835 0.077668026 1.4260001 4283850092
-0.11614325 0.077668026 1.4260001 4283521384
-0.11303046 0.077232301 1.4180001 4283324773
-0.11002341 0.076851048 1.411 4283325030
-0.10742186 0.076742113 1.409 4283390309
-0.10005654 0.074890278 1.3750001 4283521893
-0.09745685 0.07472688 1.3720001 4283783525
-0.094936885 0.074617945 1.3700001 4284831080
-0.092558973 0.074617945 1.3700001 4287190900
-0.090312719 0.07472688 1.3720001 4287253868
-0.088187702 0.074944742 1.376 4287322998
-0.085986443 0.075108141 1.3790001 4284829280
-0.083835386 0.075326003 1.383 4283519068
-0.081493802 0.075380467 1.3840001 4283455585
-0.079034448 0.075326003 1.383 4283258977
-0.076633975 0.075326003 1.383 4283193698
-0.074823938 0.075925127 1.3940001 4282996576
-0.072196618 0.075707264 1.3900001 4282864990
-0.069482774 0.075380467 1.3840001 4282667354
-0.066935152 0.075217068 1.381 4282667611
-0.064211026 0.074835815 1.3740001 4282733403
-0.061646186 0.074617945 1.3700001 4282929755
-0.059225015 0.074563481 1.3690001 4283191387
-0.056724269 0.07440009 1.3660001 4283192157
-0.054393098 0.074454553 1.3670001 4283191900
-0.052020397 0.074454553 1.3670001 4283126364
-0.049684014 0.074509017 1.368 4282664530
-0.047344163 0.074563481 1.3690001 4282598994
-0.044869449 0.07440009 1.3660001 4282664786
-0.042342927 0.074127756 1.3610001 4282665300
-0.039921891 0.074018821 1.3590001 4282927702
-0.037535436 0.073964357 1.358 4283059801
-0.035204265 0.074018821 1.3590001 4283322973
-0.032845449 0.074018821 1.3590001 4282994008
-0.030486636 0.074018821 1.3590001 4283059801
-0.028107122 0.073964357 1.358 4282994778
-0.0256742 0.073746502 1.3540001 4282995548
-0.023255158 0.073528633 1.35 4283126877
-0.020850005 0.07331077 1.3460001 4283060571
-0.0185 0.073256314 1.345 4283520350
-0.016165486 0.073256314 1.345 4283454813
-0.013820688 0.073201843 1.3440001 4283651936
-0.01148791 0.073201843 1.3440001 4283981414
-0.0091551309 0.073201843 1.3440001 4283520350
-0.0068325046 0.07331077 1.3460001 4283323741
-0.0044929138 0.073256314 1.345 4283521120
-0.0021551903 0.073147379 1.3430001 4283390049
0.00017585261 0.073147379 1.3430001 4283324513
0.0025087621 0.073201843 1.3440001 4283587940
0.0048451428 0.073256314 1.345 4283785318
0.007179657 0.073256314 1.345 4283982184
0.0094929505 0.073092915 1.342 4284244843
0.01179583 0.072929516 1.3390001 4284442478
0.014088294 0.07276611 1.3360001 4284310122
0.016382625 0.07265719 1.3340001 4284441706
0.018655997 0.072493792 1.3310001 4285095789
0.020918954 0.072330393 1.3280001 4285750382
0.023206474 0.072275922 1.327 4286009704
0.025490524 0.072221458 1.3260001 4286925929
0.027813017 0.072275922 1.327 4288105327
0.030116288 0.072275922 1.327 4288172660
0.032419559 0.072275922 1.327 4285683563
0.034696668 0.072221458 1.3260001 4284703341
0.036914498 0.072058067 1.3230001 4284573808
0.039270099 0.072166994 1.325 4284574321
0.041632645 0.072275922 1.327 4284574836
0.044101465 0.072548255 1.332 4284509044
0.046483107 0.07265719 1.3340001 4284640114
0.048761945 0.072602719 1.3330001 4284574834
0.050922368 0.072384857 1.3290001 4284508787
0.053068902 0.072166994 1.325 4284245358
0.055285126 0.072058067 1.3230001 4284376688
0.057668503 0.072166994 1.325 4284376944
0.060149338 0.072384857 1.3290001 4284376688
0.062550075 0.072493792 1.3310001 4284573040
0.064860284 0.072493792 1.3310001 4284704113
0.066766769 0.072058067 1.3230001 4284441454
0.069063097 0.072058067 1.3230001 4284507247
0.073989794 0.072384857 1.3290001 4284375918
0.076583587 0.07265719 1.3340001 4284179052
0.07943131 0.073147379 1.3430001 4284113772
0.082005873 0.073365234 1.3470001 4283982186
0.084281243 0.07331077 1.3460001 4283850600
0.08642444 0.073147379 1.3430001 4283653478
0.088821568 0.073201843 1.3440001 4283390307
0.091222167 0.073256314 1.345 4282930012
0.094113156 0.073692031 1.353 4283126620
0.096746735 0.073909894 1.3570001 4282600275
0.099686325 0.074345626 1.365 4282337102
0.10242938 0.074617945 1.3700001 4282336075
0.10480728 0.074617945 1.3700001 4282726984
0.10718519 0.074617945 1.3700001 4284366675
0.10964306 0.074672416 1.3710001 4284105300
0.11202271 0.074672416 1.3710001 4282597195
0.11456925 0.074781343 1.373 4282270540
0.11729308 0.074999213 1.3770001 4282139469
0.11994389 0.075162604 1.3800001 4282205263
0.1229597 0.075543866 1.3870001 4282205265
-0.12109346 0.08012595 1.4260001 4283719277
-0.11820244 0.079845004 1.4210001 4283587434
-0.11565457 0.079788819 1.4200001 4283455848
-0.11279132 0.079507872 1.4150001 4283193446
-0.10986746 0.079170734 1.409 4283061858
-0.10719314 0.079002164 1.406 4283127651
-0.10012931 0.077316485 1.376 4283324514
-0.09745685 0.077091731 1.3720001 4283914084
-0.094936885 0.076979347 1.3700001 4285157732
-0.092558973 0.076979347 1.3700001 4287187561
-0.090312719 0.077091731 1.3720001 4287514473
-0.088251792 0.077372678 1.3770001 4286007907
-0.086048797 0.077541247 1.3800001 4284173403
-0.083774768 0.077653617 1.3820001 4283322459
-0.081376031 0.077653617 1.3820001 4283192670
-0.078920148 0.077597432 1.381 4283127905
-0.076523148 0.077597432 1.381 4282996319
-0.07450188 0.077990763 1.388 4282864990
-0.071988851 0.077878378 1.386 4282733404
-0.069332153 0.077597432 1.381 4282733147
-0.06683822 0.077485055 1.3790001 4282470232
-0.064164296 0.077147916 1.373 4282536280
-0.061646186 0.076979347 1.3700001 4282798169
-0.059225015 0.076923162 1.3690001 4282994265
-0.056724269 0.076754592 1.3660001 4282994008
-0.054353304 0.076754592 1.3660001 4283256153
-0.051982339 0.076754592 1.3660001 4283256666
-0.049611378 0.076754592 1.3660001 4282533201
-0.047274999 0.076810777 1.3670001 4282402384
-0.044803757 0.076642215 1.3640001 4282468177
-0.042311817 0.076417461 1.36 4282533200
-0.039921891 0.076361261 1.3590001 4282795604
-0.037563078 0.076361261 1.3590001 4282993752
-0.035204265 0.076361261 1.3590001 4282600020
-0.032869618 0.076417461 1.36 4282928215
-0.030486636 0.076361261 1.3590001 4282599764
-0.028065728 0.076192699 1.3560001 4282600533
-0.025655236 0.07602413 1.353 4282732376
-0.023237932 0.075799376 1.3490001 4282666583
-0.020896476 0.075799376 1.3490001 4282731604
-0.018541263 0.075743191 1.348 4283125592
-0.016201543 0.075743191 1.348 4283256921
-0.013851537 0.075686991 1.3470001 4283125592
-0.011505004 0.075630806 1.3460001 4283586400
-0.0091687543 0.075630806 1.3460001 4283454300
-0.0068325046 0.075630806 1.3460001 4283257178
-0.0044929138 0.075574622 1.345 4283192155
-0.002156795 0.075518429 1.3440001 4283192670
0.00017598354 0.075518429 1.3440001 4283192927
0.0025087621 0.075518429 1.3440001 4283456353
0.0048451428 0.075574622 1.345 4283653219
0.0071689817 0.075462237 1.3430001 4283916391
0.0094858762 0.07534986 1.3410001 4283915878
0.01179583 0.075237483 1.3390001 4284178280
0.014088294 0.075068913 1.3360001 4284309609
0.016394906 0.075012721 1.335 4284505959
0.018712064 0.075012721 1.335 4284964716
0.020950459 0.074731775 1.33 4284832873
0.023241449 0.07467559 1.3290001 4284702057
0.025528969 0.074619405 1.3280001 4285095275
0.027813017 0.074563205 1.327 4285944938
0.030116288 0.074563205 1.327 4286535535
0.032370698 0.074450836 1.325 4285094764
0.034618169 0.074338451 1.3230001 4284506732
0.03683079 0.074169889 1.3200001 4284442222
0.039181188 0.074282266 1.322 4284376942
0.041538529 0.074394643 1.3240001 4284442993
0.044068355 0.074787967 1.3310001 4284377201
0.046448261 0.074900344 1.3330001 4284574321
0.048761945 0.074900344 1.3330001 4284574834
0.050960682 0.074731775 1.33 4284377458
0.053149004 0.074563205 1.327 4284114542
0.055368703 0.074450836 1.325 4284310895
0.057755552 0.074563205 1.327 4284310638
0.0601946 0.074731775 1.33 4284376944
0.062597066 0.074844159 1.332 4284507761
0.064909019 0.074844159 1.332 4284638832
0.066766769 0.074338451 1.3230001 4284506989
0.069010898 0.074282266 1.322 4284507245
0.071629114 0.074619405 1.3280001 4284507246
0.076468766 0.074844159 1.332 4284375403
0.079313017 0.07534986 1.3410001 4283981929
0.082005873 0.075686991 1.3470001 4283850857
0.084281243 0.075630806 1.3460001 4283784807
0.08642444 0.075462237 1.3430001 4283653221
0.088623308 0.07534986 1.3410001 4283258720
0.091154344 0.075518429 1.3440001 4282863192
0.09404359 0.075967945 1.3520001 4282928213
0.096675441 0.076192699 1.3560001 4282468431
0.099540256 0.076586023 1.363 4282205259
0.10220508 0.076810777 1.3670001 4282466376
0.10457778 0.076810777 1.3670001 4283316038
0.10702872 0.076866977 1.368 4285216339
0.1095631 0.076979347 1.3700001 4285611353
0.11202271 0.077035539 1.3710001 4283579213
0.11456925 0.077147916 1.373 4282596938
0.11737826 0.077428862 1.378 4282532430
0.1200308 0.077597432 1.381 4282532944
0.12313702 0.078046948 1.3890001 4282665044
-0.12092364 0.082468048 1.424 4283390825
-0.11770335 0.081946835 1.4150001 4283390825
-0.11516589 0.081888922 1.414 4283325032
-0.11231306 0.081599355 1.409 4283128166
-0.10939961 0.081251882 1.4030001 4283128164
-0.10665946 0.081020221 1.399 4283324515
-0.10266663 0.079804055 1.378 4283193698
-0.10005654 0.079630315 1.3750001 4283390049
-0.09745685 0.079456575 1.3720001 4284371811
-0.095006183 0.079398669 1.3710001 4286008164
-0.092626542 0.079398669 1.3710001 4287383914
-0.090378545 0.079514489 1.373 4287318634
-0.088187702 0.079688229 1.376 4285219931
-0.085924082 0.079804055 1.378 4283386453
-0.083774768 0.080035701 1.3820001 4282863705
-0.081258267 0.079919882 1.3800001 4282732889
-0.078805856 0.079861969 1.3790001 4282733404
-0.076301508 0.079746142 1.3770001 4282667611
-0.073857777 0.079688229 1.376 4282536539
-0.071365573 0.079572402 1.3740001 4282404439
-0.068880312 0.079456575 1.3720001 4282535768
-0.066498935 0.079456575 1.3720001 4282470232
-0.064070828 0.079398669 1.3710001 4282338646
-0.061601188 0.079282843 1.3690001 4282534998
-0.059181754 0.079224929 1.368 4282534484
-0.056641221 0.078993276 1.3640001 4282731607
-0.054273728 0.078993276 1.3640001 4283059288
-0.051906236 0.078993276 1.3640001 4283517786
-0.049538743 0.078993276 1.3640001 4283123284
-0.04717125 0.078993276 1.3640001 4282598223
-0.044738062 0.078877449 1.3620001 4282532686
-0.042311817 0.078761622 1.36 4282794575
-0.039921891 0.078703709 1.3590001 4282992469
-0.037563078 0.078703709 1.3590001 4282402386
-0.035230167 0.078761622 1.36 4282336849
-0.032869618 0.078761622 1.36 4282533971
-0.0304642 0.078645796 1.358 4282468435
-0.027982939 0.078298315 1.3520001 4282205776
-0.025598351 0.078182489 1.35 4282337362
-0.023203479 0.078008749 1.3470001 4282337619
-0.020865494 0.078008749 1.3470001 4282402898
-0.018541263 0.078066669 1.348 4282600277
-0.01622558 0.078182489 1.35 4282862165
-0.01389267 0.078240409 1.3510001 4282796372
-0.011539195 0.078182489 1.35 4283387481
-0.009196002 0.078182489 1.35 4283191128
-0.0068375808 0.078008749 1.3470001 4282730834
-0.0044895737 0.077835016 1.3440001 4283060313
-0.0021535854 0.077719189 1.342 4282863705
0.00017559071 0.077661276 1.3410001 4282995548
0.0025031622 0.077661276 1.3410001 4283061597
0.0048307339 0.077661276 1.3410001 4283258461
0.0071583046 0.077661276 1.3410001 4283587426
0.0094788028 0.077603363 1.34 4283718499
0.01179583 0.077545457 1.3390001 4283849315
0.014098839 0.077429622 1.337 4283980901
0.016394906 0.077313796 1.335 4284178278
0.018726081 0.077371709 1.3360001 4284440425
0.020950459 0.077024229 1.33 4284375659
0.023241449 0.076966323 1.3290001 4284179306
0.025528969 0.07690841 1.3280001 4284244586
0.027813017 0.076850489 1.327 4284571241
0.030093595 0.076792583 1.3260001 4285227375
0.032297406 0.076560929 1.322 4284636778
0.03453967 0.076445103 1.3200001 4284244073
0.036719181 0.076213457 1.3160001 4284113769
0.039032999 0.076271363 1.317 4284376428
0.041413032 0.076445103 1.3200001 4284376943
0.043902811 0.076792583 1.3260001 4284377201
0.046378572 0.07708215 1.3310001 4284311662
0.048725363 0.077140056 1.332 4284180590
0.050960682 0.077024229 1.33 4284311408
0.053149004 0.076850489 1.327 4284180336
0.055368703 0.07673467 1.325 4284377201
0.057668503 0.07673467 1.325 4284376944
0.060013559 0.076792583 1.3260001 4284376944
0.062315095 0.076792583 1.3260001 4284573553
0.064616635 0.076792583 1.3260001 4284704882
0.066665843 0.076503016 1.3210001 4284573295
0.068906493 0.076445103 1.3200001 4284638317
0.071521237 0.076792583 1.3260001 4284835953
0.073989794 0.076966323 1.3290001 4284244329
0.079135589 0.077487536 1.3380001 4283916647
0.081884108 0.077892929 1.345 4283719270
0.084156014 0.077835016 1.3440001 4283653478
0.085780926 0.077197969 1.3330001 4283521378
0.08802852 0.077140056 1.332 4283126363
0.09910208 0.078587882 1.3570001 4282400842
0.10190602 0.078935362 1.363 4283055434
0.10427177 0.078935362 1.363 4284888654
0.10679401 0.079051189 1.365 4286592856
0.10940316 0.079224929 1.368 4287053408
0.1118593 0.079282843 1.3690001 4285613150
0.11473612 0.079630315 1.3750001 4283515474
0.1176338 0.079977795 1.381 4283058004
0.1200308 0.079977795 1.381 4282992726
-0.11778653 0.084445432 1.416 4283193958
-0.11508445 0.084266528 1.4130001 4283193702
-0.11223335 0.083968349 1.4080001 4282996834
-0.10885378 0.083252706 1.396 4283324515
-0.10604954 0.082954526 1.391 4283192415
-0.10266663 0.082179248 1.378 4283258720
-0.10020208 0.082119614 1.3770001 4283454815
-0.097669952 0.082000338 1.3750001 4284239968
-0.095214069 0.081940703 1.3740001 4286008164
-0.09282922 0.081940703 1.3740001 4286662244
-0.090444371 0.081940703 1.3740001 4286269283
-0.088123605 0.082000338 1.3750001 4285222241
-0.08573702 0.082000338 1.3750001 4282860881
-0.083653532 0.082298517 1.3800001 4282601304
-0.08143492 0.082477428 1.383 4282667354
-0.07886301 0.082298517 1.3800001 4282338902
-0.076135278 0.081940703 1.3740001 4282404439
-0.073482044 0.081642516 1.3690001 4282404696
-0.071001992 0.08152324 1.3670001 4282338646
-0.068629295 0.08152324 1.3670001 4282470232
-0.066305056 0.081582882 1.368 4282404439
-0.063977361 0.081642516 1.3690001 4282207060
-0.061601188 0.081642516 1.3690001 4282272085
-0.059181754 0.081582882 1.368 4282272083
-0.056641221 0.081344329 1.3640001 4282534229
-0.054233935 0.081284694 1.363 4282927446
-0.051868178 0.081284694 1.363 4283515732
-0.049502421 0.081284694 1.363 4284564314
-0.04717125 0.081344329 1.3640001 4283710544
-0.044738062 0.08122506 1.3620001 4283251534
-0.042374041 0.08122506 1.3620001 4283580498
-0.04001002 0.08122506 1.3620001 4283057748
-0.037618358 0.081165425 1.3610001 4282402128
-0.035204265 0.081046149 1.3590001 4282205776
-0.032869618 0.081105791 1.36 4282271312
-0.0304642 0.080986515 1.358 4282271568
-0.027982939 0.080628693 1.3520001 4282205777
-0.025636274 0.080628693 1.3520001 4282008654
-0.023255158 0.080509417 1.35 4282074447
-0.020880984 0.080390148 1.348 4282271056
-0.018541263 0.080390148 1.348 4282402642
-0.01622558 0.080509417 1.35 4282730836
-0.013902954 0.080628693 1.3520001 4282664273
-0.011564838 0.080688328 1.353 4282927189
-0.0092096254 0.080628693 1.3520001 4282994006
-0.006842657 0.080390148 1.348 4282468175
-0.004486233 0.080091968 1.3430001 4282797397
-0.0021487712 0.079853423 1.3390001 4282666326
0.0001751979 0.079793781 1.3380001 4282666326
0.0024975622 0.079793781 1.3380001 4282797912
0.0048235292 0.079853423 1.3390001 4282863448
0.0071476293 0.079853423 1.3390001 4283323484
0.0094717294 0.079853423 1.3390001 4283651936
0.01178702 0.079793781 1.3380001 4283849315
0.014098839 0.079734147 1.337 4283914851
0.016407186 0.079674505 1.3360001 4284178022
0.018655997 0.079376325 1.3310001 4284113000
0.020887451 0.079078145 1.3260001 4284047463
0.023171498 0.079018511 1.325 4284113769
0.025452076 0.078958869 1.3240001 4283851623
0.02775014 0.078958869 1.3240001 4284179050
0.03002551 0.078899235 1.3230001 4284506474
0.032297406 0.0788396 1.322 4284375402
0.03453967 0.078720324 1.3200001 4284047464
0.036747083 0.078541413 1.317 4284047976
0.039003357 0.078481779 1.3160001 4284047978
0.041318912 0.078541413 1.317 4284245358
0.043770373 0.0788396 1.322 4284179822
0.046204347 0.079078145 1.3260001 4284114028
0.048542462 0.07913778 1.327 4284180078
0.05080742 0.079078145 1.3260001 4284311408
0.052988797 0.078899235 1.3230001 4284180078
0.055201553 0.078779958 1.3210001 4284179822
0.057450883 0.078720324 1.3200001 4284311408
0.059742004 0.078720324 1.3200001 4284442480
0.061939143 0.078601047 1.3180001 4284310638
0.064226791 0.078601047 1.3180001 4284508016
0.066463977 0.078541413 1.317 4284507758
0.068906493 0.078720324 1.3200001 4284702828
0.071521237 0.079078145 1.3260001 4285097071
0.073934123 0.079197414 1.3280001 4284243815
0.076411359 0.079376325 1.3310001 4284113770
0.081640594 0.079972692 1.3410001 4283719526
0.083529852 0.079555236 1.3340001 4283521635
0.085587867 0.079316683 1.33 4283126621
0.087962434 0.079376325 1.3310001 4282862422
0.090611763 0.079674505 1.3360001 4282533200
0.093348004 0.080032334 1.342 4282467407
0.098809958 0.080688328 1.353 4282925389
0.10213032 0.081463605 1.3660001 4283448653
0.10450128 0.081463605 1.3660001 4285347923
0.10695048 0.08152324 1.3670001 4287447651
0.10948312 0.081642516 1.3690001 4286857826
0.111941 0.08170215 1.3700001 4285154141
-0.11795289 0.087008849 1.4180001 4282996065
-0.11532879 0.086886123 1.416 4282996578
-0.11239277 0.08651796 1.4100001 4282930783
-0.10861985 0.085474841 1.393 4283258465
-0.10589706 0.085229397 1.3890001 4283192159
-0.10303915 0.084861241 1.383 4283126365
-0.10034761 0.084615797 1.3790001 4283520352
-0.09795408 0.084615797 1.3790001 4284043616
-0.095491253 0.084554434 1.378 4284370270
-0.093031906 0.084493078 1.3770001 4284500828
-0.090444371 0.084308997 1.3740001 4284631131
-0.088059522 0.084308997 1.3740001 4284632929
-0.08573702 0.084370352 1.3750001 4282992725
-0.083653532 0.08467716 1.3800001 4282600278
-0.081493802 0.084922597 1.3840001 4282404182
-0.078977302 0.084799871 1.3820001 4282404182
-0.07619068 0.084370352 1.3750001 4282272853
-0.073535718 0.084063552 1.3700001 4282404439
-0.07105393 0.083940834 1.368 4282338646
-0.068579085 0.083818115 1.3660001 4282404439
-0.066256598 0.083879471 1.3670001 4282470232
-0.064024091 0.084063552 1.3700001 4282272853
-0.061646186 0.084063552 1.3700001 4282141010
-0.059268281 0.084063552 1.3700001 4282075474
-0.056641221 0.083695389 1.3640001 4282140240
-0.054273728 0.083695389 1.3640001 4282533201
-0.051868178 0.083634034 1.363 4283645778
-0.049466103 0.083572678 1.3620001 4285020501
-0.047102083 0.083572678 1.3620001 4284954195
-0.044770908 0.083634034 1.363 4284759382
-0.042436264 0.083695389 1.3640001 4283645265
-0.040098146 0.083756752 1.365 4282663246
-0.037673637 0.083634034 1.363 4282402384
-0.035256069 0.083511308 1.3610001 4282206032
-0.032917958 0.083572678 1.3620001 4282074446
-0.030509068 0.083449952 1.36 4282271826
-0.028086426 0.083265871 1.3570001 4282008654
-0.025731083 0.083265871 1.3570001 4281942861
-0.023341289 0.083143152 1.355 4281942861
-0.020942947 0.082959071 1.3520001 4281942861
-0.018568773 0.082836345 1.35 4282205264
-0.01622558 0.082836345 1.35 4282467408
-0.013913237 0.083020426 1.353 4282467664
-0.011573385 0.083081789 1.3540001 4282533455
-0.009216438 0.083020426 1.353 4282731604
-0.0068477327 0.082774989 1.3490001 4282402126
-0.004486233 0.082406826 1.3430001 4282468432
-0.0021519808 0.082284108 1.3410001 4282600277
0.00017532884 0.082161389 1.3390001 4282600020
0.0024994288 0.082161389 1.3390001 4282534484
0.0048271315 0.082222745 1.34 4282731093
0.0071529672 0.082222745 1.34 4282862678
0.0094717294 0.082161389 1.3390001 4283322973
0.01179583 0.082161389 1.3390001 4283717729
0.014109384 0.082100026 1.3380001 4283520607
0.016407186 0.0819773 1.3360001 4283718499
0.01864198 0.081609137 1.33 4283850854
0.020855946 0.081240982 1.3240001 4283982440
0.023136523 0.081179619 1.3230001 4283982696
0.025413627 0.081118263 1.322 4283785831
0.027708221 0.081118263 1.322 4283982184
0.03002551 0.081179619 1.3230001 4284309866
0.032321841 0.081179619 1.3230001 4284244074
0.034565836 0.0810569 1.3210001 4283981672
0.036802888 0.080934182 1.319 4284047977
0.039062638 0.080872819 1.3180001 4284047977
0.041350286 0.080872819 1.3180001 4284113772
0.043737266 0.0810569 1.3210001 4284113772
0.046099812 0.081179619 1.3230001 4284114029
0.04839614 0.081179619 1.3230001 4284114029
0.050654151 0.081118263 1.322 4284179822
0.052828588 0.080934182 1.319 4284179565
0.055076189 0.080872819 1.3180001 4284114029
0.057363842 0.080872819 1.3180001 4284179565
0.059696749 0.080934182 1.319 4284376944
0.061986133 0.080934182 1.319 4284376688
0.064226791 0.080872819 1.3180001 4284442479
0.06651444 0.080872819 1.3180001 4284573038
0.0689587 0.0810569 1.3210001 4284964203
0.071521237 0.0813637 1.3260001 4285554028
0.073822774 0.0813637 1.3260001 4284963944
0.076353952 0.081609137 1.33 4284243559
0.08145795 0.082100026 1.3380001 4283521633
0.083529852 0.081854589 1.3340001 4283389279
0.085652217 0.081670508 1.3310001 4283190874
0.087962434 0.081670508 1.3310001 4283059287
0.090679586 0.082038663 1.337 4282993238
0.093348004 0.082345471 1.342 4282598480
0.098663896 0.082897708 1.3510001 4282663501
0.10242938 0.084063552 1.3700001 4282793290
0.10488378 0.084124915 1.3710001 4283774282
0.10726342 0.084124915 1.3710001 4285742940
0.10972305 0.084186271 1.3720001 4285942630
0.11210442 0.084186271 1.3720001 4283647319
-0.11508445 0.089137562 1.4130001 4282996065
-0.11111739 0.087938972 1.3940001 4282930013
-0.10822997 0.087560467 1.388 4283258208
-0.10566834 0.087434299 1.386 4283191388
-0.10303915 0.087245047 1.383 4283322461
-0.10056591 0.087181956 1.3820001 4283453020
-0.098238215 0.087245047 1.383 4283650654
-0.095699146 0.087118879 1.381 4283322717
-0.093167022 0.086992711 1.3790001 4283257180
-0.09051019 0.086740375 1.3750001 4283584349
-0.088059522 0.08667729 1.3740001 4283715677
-0.085674673 0.08667729 1.3740001 4283322203
-0.083653532 0.087055795 1.3800001 4282599508
-0.081611566 0.087434299 1.386 4282206033
-0.079091594 0.087308131 1.3840001 4282141010
-0.076412328 0.086992711 1.3790001 4282141010
-0.073589399 0.086488038 1.3710001 4282141267
-0.071105875 0.08636187 1.3690001 4282141267
-0.068579085 0.086172618 1.3660001 4282075474
-0.066208124 0.086172618 1.3660001 4282207060
-0.063977361 0.08636187 1.3690001 4282206803
-0.061736178 0.086551122 1.3720001 4282009424
-0.059354801 0.086551122 1.3720001 4282140240
-0.056765798 0.086235702 1.3670001 4282336593
-0.054313518 0.086109541 1.365 4282532944
-0.051906236 0.08604645 1.3640001 4283644751
-0.049502421 0.085983366 1.363 4285150291
-0.04717125 0.08604645 1.3640001 4285346387
-0.044836603 0.086109541 1.365 4284888658
-0.042560712 0.086298794 1.368 4283318097
-0.0402744 0.086488038 1.3710001 4282401358
-0.037867121 0.086424954 1.3700001 4282139470
-0.035385594 0.086172618 1.3660001 4282008654
-0.033038802 0.086235702 1.3670001 4281942861
-0.030666102 0.086235702 1.3670001 4282074447
-0.028314097 0.086298794 1.368 4281943631
-0.025958624 0.08636187 1.3690001 4282009424
-0.023461871 0.085920289 1.3620001 4282074447
-0.021035887 0.085667945 1.358 4282008911
-0.018623792 0.085415617 1.3540001 4282073933
-0.016237598 0.085226364 1.3510001 4282336078
-0.013902954 0.085289441 1.3520001 4282402383
-0.011539195 0.085163273 1.35 4282402382
-0.009196002 0.085163273 1.35 4282599761
-0.0068325046 0.084910944 1.3460001 4282336846
-0.0044828928 0.084658608 1.342 4282139723
-0.0021535854 0.084658608 1.342 4282206288
0.00017559071 0.084595524 1.3410001 4282271568
0.0025050289 0.084658608 1.342 4282468178
0.0048379381 0.084721692 1.3430001 4282599763
0.0071689817 0.084721692 1.3430001 4282862936
0.0094929505 0.084658608 1.342 4283060315
0.011804638 0.08453244 1.34 4283388509
0.014098839 0.084343188 1.337 4283586143
0.016382625 0.084153935 1.3340001 4283652706
0.018599931 0.083712347 1.327 4283653219
0.020824442 0.083396927 1.322 4283851111
0.023101546 0.083333842 1.3210001 4283851111
0.025394404 0.083333842 1.3210001 4283720039
0.02775014 0.083523095 1.3240001 4283850854
0.030070899 0.083586179 1.325 4284047209
0.032395132 0.083649263 1.3260001 4284112489
0.034670498 0.083586179 1.325 4284047464
0.036886591 0.083396927 1.322 4284047464
0.039092273 0.083207682 1.319 4283916135
0.041350286 0.08314459 1.3180001 4283982185
0.043637939 0.08314459 1.3180001 4283916649
0.045890741 0.083081506 1.317 4284048235
0.048140075 0.08301843 1.3160001 4283982443
0.050347622 0.082892254 1.314 4284048491
0.052548226 0.082766086 1.312 4283916906
0.054825462 0.082766086 1.312 4284048236
0.057189748 0.082892254 1.314 4284113772
0.059515711 0.082955338 1.3150001 4284245358
0.06184515 0.08301843 1.3160001 4284310894
0.064178064 0.083081506 1.317 4284376431
0.06651444 0.08314459 1.3180001 4284572011
0.068854295 0.083207682 1.319 4285092966
0.071359426 0.083460011 1.3230001 4286994287
0.073711433 0.083523095 1.3240001 4287058796
0.076239131 0.083775431 1.3280001 4285025116
0.078839868 0.084090844 1.3330001 4284175198
0.081153549 0.084090844 1.3330001 4283848031
0.083467238 0.084090844 1.3330001 4283716703
0.085780926 0.084090844 1.3330001 4283585118
0.08822678 0.084217019 1.335 4283125081
0.10317703 0.087055795 1.3800001 4282467151
0.1055723 0.087055795 1.3800001 4283188051
0.10773285 0.086866543 1.3770001 4284170583
0.11004294 0.086803459 1.376 4284435039
0.11251296 0.086866543 1.3770001 4283255642
0.11557057 0.087371215 1.3850001 4282206289
-0.12689653 0.091249049 1.4080001 4284572789
-0.12436428 0.091184236 1.4070001 4283389796
-0.12209545 0.091313854 1.409 4282930529
-0.11720425 0.091313854 1.409 4282864478
-0.11451431 0.091119431 1.406 4282930271
-0.1111971 0.090406545 1.3950001 4283061342
-0.108152 0.089888081 1.3870001 4283191902
-0.10551587 0.089693658 1.3840001 4283191388
-0.10303915 0.089628853 1.383 4283256925
-0.10063869 0.089628853 1.383 4283256411
-0.098238215 0.089628853 1.383 4282928472
-0.095768444 0.08956404 1.3820001 4283125851
-0.093167022 0.089369625 1.3790001 4283191644
-0.090576023 0.089175202 1.376 4283125594
-0.088123605 0.089110397 1.3750001 4283125595
-0.085799381 0.089175202 1.376 4283059802
-0.08371415 0.089499235 1.381 4282402129
-0.081611566 0.089823276 1.386 4282336849
-0.079205886 0.089823276 1.386 4282205776
-0.076578565 0.08956404 1.3820001 4282075217
-0.073750429 0.089045592 1.3740001 4282141267
-0.071209759 0.088851169 1.3710001 4282075474
-0.068629295 0.088591933 1.3670001 4282009682
-0.066256598 0.088591933 1.3670001 4282140755
-0.064024091 0.088786356 1.3700001 4282074705
-0.061781179 0.088980779 1.373 4282205521
-0.059441328 0.089045592 1.3740001 4282139473
-0.056973424 0.088915974 1.3720001 4282401617
-0.054472674 0.088721551 1.3690001 4282662734
-0.052020397 0.088591933 1.3670001 4283774798
-0.049611378 0.088527128 1.3660001 4285412692
-0.047274999 0.088591933 1.3670001 4285411409
-0.04496799 0.088721551 1.3690001 4284757588
-0.042685155 0.088915974 1.3720001 4283120975
-0.040391907 0.089110397 1.3750001 4282401616
-0.038005322 0.089110397 1.3750001 4282205007
-0.035515118 0.088851169 1.3710001 4282139985
-0.033135474 0.088851169 1.3710001 4282205522
-0.030800698 0.088980779 1.373 4282008656
-0.028521072 0.08930482 1.378 4282009169
-0.026148241 0.089369625 1.3790001 4281943888
-0.023703035 0.089175202 1.376 4282074447
-0.016261637 0.087684624 1.353 4282139469
-0.013882387 0.087490201 1.35 4282205260
-0.011513552 0.087295778 1.3470001 4282598991
-0.0091687543 0.087230973 1.3460001 4282926416
-0.0068172761 0.08703655 1.3430001 4282860367
-0.0044795522 0.086906932 1.3410001 4282270283
-0.0021503761 0.086842127 1.34 4282205517
0.00017572165 0.086971745 1.342 4282270798
0.0025106287 0.087166168 1.345 4282401357
0.0048523475 0.087295778 1.3470001 4282926933
0.007201009 0.087425396 1.3490001 4283124568
0.009521245 0.087230973 1.3460001 4283190617
0.011813448 0.086906932 1.3410001 4283454559
0.014077749 0.086518094 1.335 4283651938
0.016308941 0.086064443 1.3280001 4283652708
0.018571898 0.08587002 1.325 4283653221
0.020840194 0.085740402 1.3230001 4283587684
0.023136523 0.085740402 1.3230001 4283850598
0.025452076 0.085805207 1.3240001 4283785318
0.027813017 0.08599963 1.327 4283784549
0.030161681 0.086129248 1.3290001 4284046437
0.032492854 0.086194053 1.33 4284571241
0.034775168 0.086129248 1.3290001 4284243303
0.0369424 0.085805207 1.3240001 4284047207
0.039092273 0.085481174 1.319 4283916135
0.041318912 0.085351557 1.317 4283982184
0.043604828 0.085351557 1.317 4283982441
0.045890741 0.085351557 1.317 4283916650
0.048066914 0.085157134 1.314 4283850857
0.05027099 0.085027516 1.312 4283916650
0.05242807 0.084833093 1.309 4283851370
0.054741889 0.084897898 1.3100001 4283982187
0.057059176 0.084962711 1.3110001 4284179053
0.059289414 0.084897898 1.3100001 4284179309
0.061657172 0.085027516 1.312 4284310125
0.064080596 0.085221939 1.3150001 4284506734
0.066363044 0.085221939 1.3150001 4284832617
0.06874989 0.085351557 1.317 4285943397
0.071197614 0.085545979 1.3200001 4288039275
0.073544413 0.085610785 1.3210001 4288628589
0.076066904 0.08587002 1.325 4287449705
0.078603283 0.086129248 1.3290001 4285287005
0.080970913 0.086194053 1.33 4284371551
0.083342001 0.086258866 1.3310001 4283847261
0.08590962 0.086518094 1.335 4283059286
0.08842504 0.086712509 1.3380001 4282862165
0.10340133 0.089628853 1.383 4282205775
0.1057253 0.08956404 1.3820001 4282927189
0.10781109 0.08930482 1.378 4283779419
0.1101229 0.089240015 1.3770001 4283846495
0.11259468 0.08930482 1.378 4282928473
0.11532024 0.08956404 1.3820001 4282733147
-0.12644589 0.093343288 1.4030001 4284375667
-0.12401071 0.093343288 1.4030001 4283389540
-0.12183549 0.093542881 1.406 4283126624
-0.11687153 0.093476348 1.4050001 4282864222
-0.11426997 0.093343288 1.4030001 4282863708
-0.1111971 0.092811041 1.3950001 4283257695
-0.10822997 0.09234532 1.388 4283191901
-0.10566834 0.09221226 1.386 4283125596
-0.10303915 0.092012666 1.383 4283388767
-0.10056591 0.091946125 1.3820001 4282928474
-0.098167181 0.091946125 1.3820001 4282994010
-0.095699146 0.091879599 1.381 4282928730
-0.093167022 0.091746539 1.3790001 4282797143
-0.090641849 0.091613479 1.3770001 4282994265
-0.088251792 0.091613479 1.3770001 4282862679
-0.085924082 0.091680005 1.378 4282862680
-0.083774768 0.091946125 1.3820001 4282533972
-0.081670448 0.092278786 1.3870001 4282336593
-0.079263039 0.092278786 1.3870001 4282205520
-0.076633975 0.092012666 1.383 4282140497
-0.073911451 0.091613479 1.3770001 4282140497
-0.071313635 0.091347352 1.373 4282140756
-0.068779908 0.091147758 1.3700001 4282141013
-0.066450469 0.091214292 1.3710001 4282272085
-0.064164296 0.091347352 1.373 4282140242
-0.061826177 0.091413885 1.3740001 4282205522
-0.059484586 0.091480412 1.3750001 4282402901
-0.057056479 0.091413885 1.3740001 4282532947
-0.054592047 0.091280818 1.3720001 4282924624
-0.052096505 0.091081224 1.3690001 4283908438
-0.049684014 0.091014698 1.368 4284299346
-0.047344163 0.091081224 1.3690001 4284364883
-0.04500084 0.091147758 1.3700001 4284169814
-0.042716268 0.091347352 1.373 4283384147
-0.040391907 0.091480412 1.3750001 4282664019
-0.03803296 0.091546945 1.376 4282270801
-0.03554102 0.091280818 1.3720001 4282271059
-0.033135474 0.091214292 1.3710001 4282205522
-0.03082313 0.091413885 1.3740001 4282337621
-0.028562469 0.091813073 1.3800001 4282140498
-0.026186166 0.091879599 1.381 4282009681
-0.023754714 0.091746539 1.3790001 4282009424
-0.016297694 0.090216316 1.3560001 4282138956
-0.013902954 0.089950196 1.3520001 4282205260
-0.011530647 0.089750603 1.3490001 4282532941
-0.0091823777 0.089684077 1.348 4283056462
-0.0068274285 0.089484483 1.345 4283252815
-0.004486233 0.089351416 1.3430001 4282793290
-0.0021551903 0.089351416 1.3430001 4282531915
0.00017598354 0.089417942 1.3440001 4282466123
0.0025143621 0.089617535 1.3470001 4282728526
0.0048631546 0.089817129 1.35 4282794576
0.0072116861 0.089883663 1.3510001 4282729554
0.0095283194 0.089617535 1.3470001 4282927959
0.011822257 0.089284889 1.342 4283126364
0.014067204 0.088752635 1.3340001 4283389279
0.016308941 0.088353448 1.3280001 4283258207
0.018571898 0.088153854 1.325 4283324513
0.020855946 0.08808732 1.3240001 4283456099
0.023154011 0.08808732 1.3240001 4283587172
0.025471298 0.088153854 1.325 4283652964
0.027813017 0.088286914 1.327 4283784036
0.030161681 0.088419974 1.3290001 4284044899
0.032468423 0.088419974 1.3290001 4285160555
0.034748998 0.088353448 1.3280001 4284308069
0.0369424 0.08808732 1.3240001 4283980901
0.039121911 0.0878212 1.3200001 4283915878
0.041381657 0.087754667 1.319 4283916391
0.043671045 0.087754667 1.319 4283982185
0.04596043 0.087754667 1.319 4283850857
0.048176657 0.087621607 1.317 4283850857
0.050385941 0.08748854 1.3150001 4283785064
0.05258828 0.087355472 1.3130001 4283719528
0.054783672 0.08722242 1.3110001 4283981931
0.05701565 0.087155879 1.3100001 4284178796
0.059289414 0.087155879 1.3100001 4284112747
0.061610177 0.08722242 1.3110001 4284309098
0.064080596 0.08748854 1.3150001 4284636266
0.066363044 0.08748854 1.3150001 4285552233
0.06874989 0.087621607 1.317 4287450988
0.071143679 0.087754667 1.319 4288562026
0.073488735 0.0878212 1.3200001 4288823658
0.075952083 0.088020794 1.3230001 4287907432
0.078484997 0.088286914 1.327 4285811553
0.080849148 0.088353448 1.3280001 4283845719
0.083342001 0.088553041 1.3310001 4283190357
0.085845277 0.088752635 1.3340001 4282796114
0.088358961 0.088952228 1.337 4282730322
0.10114693 0.092145726 1.3850001 4282139725
0.10355087 0.092145726 1.3850001 4282534227
0.10580181 0.092012666 1.383 4282861910
0.1080458 0.091879599 1.381 4283387228
0.11060274 0.092012666 1.383 4283256924
0.11324834 0.09221226 1.386 4282995035
-0.13122267 0.095693313 1.4020001 4284243823
