# .PCD v0.7 - Point Cloud Data file format
VERSION 0.7
FIELDS x y z rgba
SIZE 4 4 4 4
TYPE F F F U
COUNT 1 1 1 1
WIDTH 1118
HEIGHT 1
VIEWPOINT 0 0 0 1 0 0 0
POINTS 1118
DATA ascii
0.15679623 0.065414071 1.327 4285100154
0.15885971 0.065315485 1.325 4285099898
0.16079463 0.065167606 1.322 4285033592
0.16296585 0.065118305 1.3210001 4284902006
0.16513361 0.065069012 1.3200001 4284902006
0.16793208 0.065266185 1.3240001 4284902005
0.17074445 0.065463372 1.3280001 4284835955
0.17409191 0.065857723 1.3360001 4284704626
0.17680694 0.06600561 1.3390001 4284639090
0.17899725 0.065956317 1.3380001 4284573553
0.18091308 0.06580843 1.335 4284441454
0.18226948 0.065463372 1.3280001 4283981159
0.18415752 0.065315485 1.325 4284046696
0.19174874 0.066350676 1.3460001 4284309355
0.1939408 0.066301383 1.345 4283849316
0.19510788 0.065907024 1.337 4283389277
0.19609952 0.065463372 1.3280001 4283257178
0.21973048 0.068519637 1.3900001 4282467406
0.22262256 0.068667524 1.393 4282991954
0.22471729 0.068568937 1.391 4283977054
0.2303711 0.068815403 1.396 4283256411
0.23346116 0.06901259 1.4000001 4283453274
0.23707061 0.069357648 1.4070001 4282532428
-0.0095434068 0.071476713 1.401 4287386480
-0.0070863124 0.07122162 1.396 4287780726
-0.0046398942 0.070864499 1.3890001 4285813867
-0.0022241948 0.070711441 1.386 4284241763
0.00018161397 0.070762455 1.3870001 4283651935
0.0025852942 0.070660427 1.3850001 4283717731
0.0049748272 0.070456348 1.381 4283849830
0.0073451363 0.070201255 1.376 4283784807
0.0096839406 0.069844127 1.3690001 4284112489
0.012033684 0.069691077 1.3660001 4284178283
0.014373013 0.06953802 1.363 4284310126
0.016701927 0.069384962 1.36 4284638577
0.018992394 0.069129869 1.355 4284835700
0.021328513 0.069078855 1.3540001 4285230971
0.023713624 0.069180883 1.3560001 4285033335
0.026048008 0.069129869 1.355 4284968311
0.028441796 0.069231912 1.3570001 4284969081
0.030956004 0.069589034 1.3640001 4285034105
0.033421222 0.069793113 1.368 4284968826
0.035847988 0.069895148 1.3700001 4285034362
0.038170092 0.069793113 1.368 4285100156
0.039922133 0.068721719 1.3470001 4284968569
0.042134624 0.068517655 1.3430001 4285164407
0.044399448 0.068415612 1.3410001 4285491832
0.04672702 0.068415612 1.3410001 4285688698
0.049018014 0.068364598 1.34 4285228917
0.051650375 0.068772748 1.348 4285098357
0.05403015 0.068823762 1.3490001 4284770419
0.056288034 0.068721719 1.3470001 4284770675
0.060149338 0.06780339 1.3290001 4284704113
0.062456079 0.06780339 1.3290001 4284769649
0.064762823 0.06780339 1.3290001 4284900978
0.067170501 0.067905433 1.3310001 4284769649
0.069532916 0.067956448 1.332 4284572783
0.071844868 0.067956448 1.332 4284507761
0.073934123 0.067752376 1.3280001 4284508274
0.075952083 0.067497283 1.3230001 4284574323
0.078189269 0.067446269 1.322 4284508530
0.080666505 0.067599326 1.325 4284246128
0.083342001 0.067905433 1.3310001 4284311665
0.086038329 0.068211541 1.337 4284508274
0.088623308 0.068415612 1.3410001 4284442224
0.091018699 0.068466634 1.342 4284507246
0.093139328 0.068313584 1.3390001 4284507503
0.095320843 0.068211541 1.337 4284703599
0.097276315 0.067956448 1.332 4285227890
0.099214442 0.067701355 1.327 4285490806
0.10105871 0.067395248 1.3210001 4284900209
0.10319509 0.067293212 1.319 4284703857
0.1054045 0.06724219 1.3180001 4284638577
0.10777386 0.067293212 1.319 4284769906
0.11014669 0.067344226 1.3200001 4284900209
0.11252299 0.067395248 1.3210001 4285031025
0.11533734 0.067701355 1.327 4284966258
0.11808387 0.067956448 1.332 4284572783
0.12039582 0.067956448 1.332 4284507504
0.12233929 0.067752376 1.3280001 4284639089
0.12408114 0.067446269 1.322 4284771189
0.13366272 0.06765034 1.3260001 4284837495
0.13606679 0.067701355 1.327 4285166204
0.13837007 0.067701355 1.327 4285560705
0.14046133 0.067599326 1.325 4285560705
0.14286886 0.06765034 1.3260001 4285625728
0.14527987 0.067701355 1.327 4285558652
0.14769436 0.067752376 1.3280001 4285689724
0.14988641 0.067701355 1.327 4285492602
0.15207499 0.06765034 1.3260001 4285033078
0.15414369 0.067548297 1.3240001 4285165434
0.15644176 0.067548297 1.3240001 4285165434
0.15850005 0.067446269 1.322 4285099384
0.16042975 0.067293212 1.319 4285099384
0.16247238 0.067191176 1.317 4285099384
0.1648834 0.06724219 1.3180001 4285099384
0.16780524 0.067497283 1.3230001 4284902005
0.17061587 0.067701355 1.327 4284836212
0.17383128 0.068058491 1.3340001 4284836212
0.17641081 0.068160519 1.3360001 4284639090
0.17846213 0.068058491 1.3340001 4284376687
0.180371 0.067905433 1.3310001 4284244845
0.18103422 0.067293212 1.319 4284047209
0.19117892 0.068466634 1.342 4284046438
0.19365241 0.068517655 1.3430001 4284178279
0.19539973 0.068313584 1.3390001 4283455069
0.19669017 0.067956448 1.332 4283389018
0.19885272 0.067905433 1.3310001 4283060823
0.22036281 0.071119592 1.3940001 4282467405
0.22326182 0.071272641 1.3970001 4282925390
0.22536348 0.071170606 1.3950001 4284368218
0.22762148 0.071119592 1.3940001 4284894305
0.23053613 0.071272641 1.3970001 4283911517
0.23362793 0.071476713 1.401 4283453017
-0.0095161591 0.073680587 1.3970001 4286663014
-0.0070710839 0.073469609 1.393 4287518323
-0.0046332134 0.073153161 1.3870001 4285879147
-0.0022225901 0.073047683 1.3850001 4283978334
0.00018135208 0.073047683 1.3850001 4283520350
0.0025834276 0.072994933 1.3840001 4283586658
0.0049856342 0.072994933 1.3840001 4283652708
0.0073985169 0.073100418 1.386 4283652965
0.0096697938 0.072098322 1.3670001 4284046954
0.011998446 0.071834616 1.3620001 4284178283
0.014299196 0.07151816 1.3560001 4284375662
0.016615961 0.071359932 1.353 4284572014
0.01896436 0.071359932 1.353 4285426040
0.02137577 0.071570903 1.3570001 4285164151
0.023801064 0.071781866 1.3610001 4284771447
0.026124902 0.071676381 1.3590001 4284837752
0.028504675 0.071729131 1.36 4284968826
0.0309787 0.071992844 1.365 4285100412
0.033421222 0.072151065 1.368 4284969339
0.035874154 0.072309293 1.3710001 4284969083
0.038225893 0.072256543 1.3700001 4285034619
0.040277787 0.071676381 1.3590001 4284968570
0.044068355 0.070199609 1.3310001 4285163124
0.046378572 0.070199609 1.3310001 4285622905
0.048725363 0.070252351 1.332 4285623419
0.050922368 0.070094123 1.3290001 4285032051
0.057494409 0.06967219 1.3210001 4284966771
0.05978727 0.06967219 1.3210001 4285031538
0.062080126 0.06967219 1.3210001 4285163124
0.064519174 0.06983041 1.3240001 4284966514
0.067120038 0.070146866 1.33 4284507504
0.069532916 0.070252351 1.332 4284441454
0.071844868 0.070252351 1.332 4284376431
0.073878452 0.069988638 1.327 4284508530
0.075894676 0.069724932 1.322 4284442994
0.078011833 0.069566712 1.319 4284311408
0.080422983 0.06967219 1.3210001 4284311408
0.082903691 0.06983041 1.3240001 4284311408
0.085330456 0.069935903 1.3260001 4284311151
0.087631993 0.069935903 1.3260001 4284376688
0.090476118 0.070357837 1.3340001 4284507503
0.092721984 0.070305094 1.3330001 4284441711
0.095178254 0.070410579 1.335 4284638063
0.097349353 0.070305094 1.3330001 4285096560
0.099438742 0.070146866 1.33 4285620594
0.1011352 0.069724932 1.322 4285556084
0.10303862 0.069461219 1.317 4284834927
0.10524455 0.069408484 1.3160001 4284704111
0.10752873 0.069408484 1.3160001 4284834671
0.10989635 0.069461219 1.317 4285030767
0.11226745 0.069513962 1.3180001 4285293170
0.11507659 0.06983041 1.3240001 4284899695
0.11781792 0.070094123 1.3290001 4284637806
0.12021505 0.070146866 1.33 4284441454
0.12114168 0.069355734 1.3150001 4284508017
0.12323641 0.069250248 1.3130001 4284640116
0.12532419 0.069144771 1.3110001 4284705909
0.12789167 0.069302998 1.314 4284705909
0.13046958 0.069461219 1.317 4284771702
0.13336031 0.069777675 1.3230001 4284968825
0.13596424 0.069935903 1.3260001 4285231997
0.13837007 0.069988638 1.327 4285297790
0.14077935 0.070041388 1.3280001 4285363583
0.14308435 0.070041388 1.3280001 4285494142
0.14527987 0.069988638 1.327 4285690238
0.14736073 0.06988316 1.325 4285623418
0.14932166 0.069724932 1.322 4285623161
0.15138687 0.069619447 1.3200001 4285360759
0.15332873 0.069461219 1.317 4284967797
0.15549649 0.069408484 1.3160001 4285099897
0.15754087 0.069302998 1.314 4285033847
0.15957832 0.069197513 1.312 4285098871
0.1617322 0.069144771 1.3110001 4285361530
0.1641328 0.069197513 1.312 4285296249
0.16717106 0.069513962 1.3180001 4285033591
0.169973 0.069724932 1.322 4285033848
0.17304945 0.070041388 1.3280001 4284902518
0.17522241 0.069988638 1.327 4284705396
0.17712434 0.06983041 1.3240001 4284442481
0.17779621 0.069197513 1.312 4284114029
0.18021071 0.069250248 1.3130001 4284047980
0.1822117 0.069144771 1.3110001 4283981160
0.19539973 0.07062155 1.3390001 4283651934
0.19728084 0.070463315 1.3360001 4283322712
0.19945033 0.070410579 1.335 4283126103
0.2022209 0.0705688 1.3380001 4282929238
0.2138783 0.072151065 1.368 4282402382
0.22455573 0.073311388 1.3900001 4284826203
0.23103118 0.073838808 1.4000001 4284764000
0.23446171 0.074155264 1.406 4282927184
-0.0095161591 0.076088525 1.3970001 4286076267
-0.0070710839 0.075870655 1.393 4286009449
-0.0046365536 0.075598337 1.388 4285354600
-0.0022241948 0.075489402 1.386 4284109150
0.00018135208 0.075434938 1.3850001 4283519838
0.002581561 0.075326003 1.383 4283323999
0.0049856342 0.075380467 1.3840001 4283454816
0.0073985169 0.075489402 1.386 4283783524
0.009655646 0.074345626 1.365 4283915623
0.011972019 0.074018821 1.3590001 4283915881
0.014278105 0.073746502 1.3540001 4284243819
0.01660368 0.073637567 1.3520001 4284572784
0.018978376 0.073746502 1.3540001 4284900723
0.021423027 0.074073292 1.36 4284835957
0.023853527 0.074291155 1.3640001 4284705654
0.026182571 0.074182227 1.3620001 4284772216
0.028525636 0.074127756 1.3610001 4284837240
0.030956004 0.074291155 1.3640001 4285034619
0.033396788 0.074454553 1.3670001 4285034619
0.035795655 0.074509017 1.368 4284837240
0.038142189 0.074454553 1.3670001 4284968826
0.040011048 0.073528633 1.35 4285034106
0.043935917 0.072275922 1.327 4285032821
0.04623919 0.072275922 1.327 4285359989
0.048505884 0.072221458 1.3260001 4285687415
0.050769102 0.072166994 1.325 4285556598
0.052908696 0.071949132 1.3210001 4285162353
0.055117976 0.071840204 1.319 4285162353
0.057189748 0.071567871 1.314 4285424243
0.059425194 0.071513407 1.3130001 4285554802
0.061986133 0.071840204 1.319 4285687414
0.066968642 0.072275922 1.327 4284376945
0.069324113 0.072330393 1.3280001 4284376688
0.071629114 0.072330393 1.3280001 4284376944
0.073711433 0.07211253 1.3240001 4284377201
0.075665042 0.071785733 1.3180001 4284508787
0.07771612 0.071567871 1.314 4284311408
0.080118582 0.071676806 1.3160001 4284377201
0.08259061 0.071840204 1.319 4284376945
0.085137397 0.072058067 1.3230001 4284376688
0.08749982 0.07211253 1.3240001 4284376432
0.089865707 0.072166994 1.325 4284376431
0.09202639 0.072058067 1.3230001 4284441711
0.094750486 0.072384857 1.3290001 4284441711
0.097130261 0.07243932 1.33 4284637805
0.099289209 0.072330393 1.3280001 4285292398
0.1009822 0.071894668 1.3200001 4285881198
0.10288213 0.071622334 1.3150001 4286076524
0.10508461 0.071567871 1.314 4285944681
0.10736532 0.071567871 1.314 4286010474
0.10989635 0.071731269 1.317 4285749870
0.11226745 0.071785733 1.3180001 4285030511
0.11490277 0.072003603 1.322 4284638063
0.11746332 0.072166994 1.325 4284507504
0.11904001 0.071731269 1.317 4284507761
0.12058894 0.071295545 1.309 4284574066
0.12267326 0.07118661 1.307 4284574067
0.1250374 0.071241081 1.3080001 4284705653
0.12789167 0.071567871 1.314 4284771702
0.13046958 0.071731269 1.317 4284903545
0.13336031 0.072058067 1.3230001 4284969338
0.13616933 0.072330393 1.3280001 4285166460
0.13857861 0.072384857 1.3290001 4285034618
0.14077935 0.072330393 1.3280001 4285165434
0.14276113 0.072166994 1.325 4285362299
0.14473248 0.072003603 1.322 4285427579
0.14647098 0.071731269 1.317 4285360503
0.14841804 0.071567871 1.314 4285556084
0.15058407 0.071513407 1.3130001 4285884278
0.1526302 0.071404479 1.3110001 4285359730
0.15478754 0.071350008 1.3100001 4285032819
0.1568215 0.071241081 1.3080001 4285098612
0.15897018 0.07118661 1.307 4285360758
0.16111536 0.071132146 1.3060001 4285492086
0.1637575 0.071295545 1.309 4285164148
0.16666371 0.071567871 1.314 4284771444
0.16933013 0.071731269 1.317 4284968825
0.17187667 0.071840204 1.319 4284903032
0.17390196 0.071731269 1.317 4284837495
0.17565277 0.071513407 1.3130001 4284574323
0.17725416 0.071241081 1.3080001 4284442737
0.17966171 0.071295545 1.309 4284179822
0.18193373 0.071295545 1.309 4284047209
0.19510788 0.072820581 1.337 4283914849
0.19742849 0.072820581 1.337 4283454555
0.19959973 0.07276611 1.3360001 4283257176
0.2022209 0.072875045 1.3380001 4282863190
0.21356562 0.07440009 1.3660001 4282271567
0.22390953 0.075489402 1.386 4284958045
0.23169129 0.076469779 1.404 4284698978
0.234962 0.076742113 1.409 4285099125
-0.0095365942 0.078665033 1.4000001 4285160557
-0.0070863124 0.078440271 1.396 4284831079
-0.0046465751 0.078159325 1.391 4284437091
-0.0022257997 0.077934571 1.3870001 4284766056
0.00018135208 0.077822194 1.3850001 4283913313
0.0025796944 0.077653617 1.3820001 4283389023
0.0049748272 0.077597432 1.381 4283455329
0.0073771644 0.077653617 1.3820001 4283849317
0.0096697938 0.076810777 1.3670001 4283784037
0.011989636 0.076473646 1.3610001 4283850344
0.014288652 0.076136507 1.355 4284244075
0.016640523 0.076136507 1.355 4284572527
0.019020427 0.076248892 1.3570001 4284770419
0.02145453 0.076529838 1.3620001 4284639348
0.023853527 0.076642215 1.3640001 4284705141
0.026163349 0.076473646 1.3610001 4284509302
0.028483715 0.076361261 1.3590001 4284706423
0.030910615 0.076529838 1.3620001 4284968569
0.033323497 0.076642215 1.3640001 4284837497
0.035690989 0.076642215 1.3640001 4284771960
0.038002677 0.076529838 1.3620001 4284837240
0.040011048 0.075855561 1.35 4284968312
0.044035245 0.074731775 1.33 4284902262
0.046274036 0.074619405 1.3280001 4284966258
0.048542462 0.074563205 1.327 4285620081
0.050769102 0.074450836 1.325 4286930551
0.052908696 0.074226074 1.3210001 4287385967
0.055159763 0.074169889 1.3200001 4287384941
0.057189748 0.07383275 1.314 4287124335
0.059425194 0.073776558 1.3130001 4286669688
0.061939143 0.074057505 1.3180001 4284964718
0.066817239 0.074394643 1.3240001 4284311408
0.069219701 0.07450702 1.3260001 4284180079
0.07157518 0.074563205 1.327 4284245616
0.073711433 0.074394643 1.3240001 4284442995
0.075607635 0.07400132 1.317 4284442995
0.077775262 0.073888935 1.3150001 4284311408
0.080179468 0.07400132 1.317 4284245616
0.082715847 0.074226074 1.3210001 4284311152
0.085201755 0.074394643 1.3240001 4284245360
0.08749982 0.074394643 1.3240001 4284179566
0.089730054 0.074338451 1.3230001 4284310639
0.091887273 0.074226074 1.3210001 4284245102
0.094536602 0.07450702 1.3260001 4284179566
0.09691117 0.074563205 1.327 4284375916
0.098915376 0.074338451 1.3230001 4285096045
0.1008292 0.074057505 1.3180001 4286666350
0.1028039 0.07383275 1.314 4288106096
0.10500463 0.073776558 1.3130001 4288630386
0.1072836 0.073776558 1.3130001 4288238195
0.10972947 0.073888935 1.3150001 4286799220
0.11209708 0.073945127 1.3160001 4284898924
0.11464202 0.074113697 1.319 4284376174
0.1171087 0.074226074 1.3210001 4284179565
0.11885924 0.073888935 1.3150001 4284311151
0.12058894 0.073551804 1.309 4284573810
0.12276711 0.073495612 1.3080001 4284573811
0.12532419 0.073664181 1.3110001 4284508531
0.12808634 0.073945127 1.3160001 4284442994
0.13056865 0.074057505 1.3180001 4284640373
0.13356192 0.074450836 1.325 4284706166
0.13647693 0.074787967 1.3310001 4284771960
0.13878715 0.074787967 1.3310001 4284903033
0.14088534 0.07467559 1.3290001 4284968312
0.14265338 0.074394643 1.3240001 4285033848
0.144623 0.074226074 1.3210001 4285099641
0.14624856 0.073888935 1.3150001 4285164407
0.14807919 0.073664181 1.3110001 4285490035
0.1503547 0.073664181 1.3110001 4286341749
0.15251377 0.073607989 1.3100001 4286669944
0.15466937 0.073551804 1.309 4285882481
0.1568215 0.073495612 1.3080001 4285750895
0.15897018 0.073439419 1.307 4285817715
0.16123874 0.073439419 1.307 4285228658
0.1637575 0.073551804 1.309 4284968053
0.16653688 0.073776558 1.3130001 4284705909
0.16894442 0.07383275 1.314 4284903031
0.17148575 0.073945127 1.3160001 4284968568
0.17324175 0.073720373 1.312 4284771702
0.17485009 0.073439419 1.307 4284574323
0.17684761 0.07332705 1.3050001 4284311408
0.17911269 0.07332705 1.3050001 4284179822
0.18207271 0.073607989 1.3100001 4284047978
0.19481601 0.075012721 1.335 4283586143
0.19742849 0.075125106 1.337 4283783265
0.19974913 0.075125106 1.337 4283191642
0.2022209 0.075181291 1.3380001 4283060314
0.20469613 0.075237483 1.3390001 4283059543
0.20717484 0.075293675 1.34 4282862165
0.2127839 0.076473646 1.3610001 4282468434
0.2149881 0.076417461 1.36 4282401872
0.21750847 0.076473646 1.3610001 4283187795
0.22358643 0.077766001 1.3840001 4285288550
-0.0095706545 0.081367701 1.4050001 4285031538
-0.0071218447 0.081251882 1.4030001 4284046439
-0.0046699583 0.080962315 1.3980001 4283782498
-0.0022290091 0.080441095 1.3890001 4283912801
0.0001810902 0.080093622 1.383 4284505194
0.0025666279 0.079630315 1.3750001 4283716962
0.0049460083 0.079514489 1.373 4283455330
0.0073451363 0.079688229 1.376 4283521893
0.0095495405 0.078182489 1.35 4283652709
0.011901543 0.078240409 1.3510001 4283915624
0.014278105 0.07841415 1.3540001 4284047210
0.016677367 0.078645796 1.358 4284572783
0.019076493 0.078819536 1.3610001 4284638577
0.021470284 0.078935362 1.363 4284441969
0.023783576 0.078761622 1.36 4284638834
0.02610568 0.078645796 1.358 4284705654
0.028420838 0.078529969 1.3560001 4284574325
0.030797139 0.078587882 1.3570001 4284706167
0.033128053 0.078529969 1.3560001 4284706937
0.039596118 0.077371709 1.3360001 4284902776
0.041852262 0.07725589 1.3340001 4284903031
0.044167686 0.07725589 1.3340001 4284836981
0.046378572 0.07708215 1.3310001 4284704112
0.048579045 0.07690841 1.3280001 4285489777
0.050692469 0.076618843 1.3230001 4287320174
0.052828588 0.076387197 1.319 4288823916
0.055076189 0.076329276 1.3180001 4289216878
0.057189748 0.07609763 1.314 4288499572
0.059425194 0.076039709 1.3130001 4286471539
0.061798155 0.076155536 1.3150001 4284769136
0.064372987 0.076503016 1.3210001 4284245872
0.066766769 0.076618843 1.3230001 4284180592
0.069219701 0.076792583 1.3260001 4284180336
0.071521237 0.076792583 1.3260001 4284246129
0.073655754 0.076618843 1.3230001 4284114800
0.075665042 0.076329276 1.3180001 4284179823
0.077893548 0.076271363 1.317 4284179823
0.080301225 0.076387197 1.319 4284245616
0.082903691 0.076676756 1.3240001 4284048237
0.085459165 0.07690841 1.3280001 4284114030
0.087698087 0.076850489 1.327 4284245616
0.089662239 0.076560929 1.322 4284048237
0.091678597 0.076329276 1.3180001 4284048750
0.09403754 0.076387197 1.319 4284114799
0.096326925 0.076387197 1.319 4284244844
0.09854155 0.076329276 1.3180001 4284898665
0.10059969 0.076155536 1.3150001 4286927210
0.10272565 0.076039709 1.3130001 4288233831
0.10492466 0.075981796 1.312 4288889964
0.1072019 0.075981796 1.312 4287776103
0.10956258 0.076039709 1.3130001 4286338154
0.11192673 0.07609763 1.314 4284898924
0.11429435 0.076155536 1.3150001 4284375917
0.11648814 0.07609763 1.314 4284179309
0.11849768 0.07592389 1.3110001 4284179565
0.12058894 0.075808063 1.309 4284179565
0.12286098 0.075808063 1.309 4284179566
0.12551539 0.076039709 1.3130001 4284245359
0.12837833 0.076387197 1.319 4284245615
0.13076678 0.076445103 1.3200001 4284311666
0.13356192 0.07673467 1.325 4284180593
0.13616933 0.07690841 1.3280001 4284311922
0.13847435 0.07690841 1.3280001 4284508788
0.14056732 0.076792583 1.3260001 4284705653
0.14136043 0.075981796 1.312 4284836468
0.14341871 0.075865969 1.3100001 4284902005
0.14547004 0.07575015 1.3080001 4285164406
0.1476274 0.075692229 1.307 4285358961
0.15012532 0.075808063 1.309 4286470768
0.15251377 0.075865969 1.3100001 4288239480
0.15478754 0.075865969 1.3100001 4288959096
0.15706131 0.075865969 1.3100001 4288631928
0.15921344 0.075808063 1.309 4287127415
0.1613621 0.07575015 1.3080001 4285096558
0.1637575 0.075808063 1.309 4284705395
0.16615637 0.075865969 1.3100001 4284837495
0.16830155 0.075808063 1.309 4284903288
0.17044327 0.07575015 1.3080001 4284968824
0.17244948 0.075634323 1.3060001 4284903288
0.17444874 0.075518496 1.304 4284771959
0.1767121 0.075518496 1.304 4284508787
0.17897545 0.075518496 1.304 4284113772
0.1822117 0.07592389 1.3110001 4284179050
0.18589443 0.076503016 1.3210001 4284047207
0.19105692 0.07673467 1.325 4283717729
0.19437823 0.077140056 1.332 4283454557
0.19713317 0.077313796 1.335 4283716960
0.19930093 0.07725589 1.3340001 4283650911
0.20161635 0.07725589 1.3340001 4283124824
0.20377891 0.077197969 1.3330001 4283124824
0.20593798 0.077140056 1.332 4282927445
-0.0095979013 0.084027983 1.409 4284966258
-0.0071421494 0.083908707 1.4070001 4284111720
-0.0046766391 0.083491251 1.4000001 4283585376
-0.0022274044 0.082775615 1.388 4283716192
0.00018069739 0.082298517 1.3800001 4284569448
0.002540495 0.081165425 1.3610001 4284503911
0.0048919735 0.080986515 1.358 4283454816
0.0072116861 0.080569059 1.3510001 4283521636
0.0095283194 0.080330506 1.3470001 4283652452
0.011857496 0.080270872 1.3460001 4284111975
0.01422538 0.080449782 1.3490001 4284637036
0.016665084 0.08092688 1.3570001 4284178026
0.019062476 0.081105791 1.36 4284244589
0.021438777 0.081165425 1.3610001 4284376432
0.023731112 0.08092688 1.3570001 4284573811
0.026048008 0.080807604 1.355 4284705654
0.02835796 0.080688328 1.353 4284639605
0.030683665 0.080628693 1.3520001 4284705654
0.032761592 0.079972692 1.3410001 4284771704
0.034958329 0.079674505 1.3360001 4284771447
0.037109811 0.079316683 1.33 4284640117
0.03944793 0.079376325 1.3310001 4284640116
0.041852262 0.079555236 1.3340001 4284771445
0.044200793 0.07961487 1.335 4284639858
0.046343725 0.079316683 1.33 4284638831
0.048505884 0.079078145 1.3260001 4285358448
0.050577521 0.078720324 1.3200001 4287320430
0.052748486 0.078541413 1.317 4288757097
0.054992612 0.078481779 1.3160001 4289478766
0.05723327 0.078422137 1.3150001 4287907434
0.059515711 0.078422137 1.3150001 4286142830
0.061892148 0.078541413 1.317 4284571755
0.064324245 0.078720324 1.3200001 4284311151
0.066716306 0.0788396 1.322 4284180592
0.069167502 0.079018511 1.325 4284310897
0.071521237 0.079078145 1.3260001 4284245360
0.073767103 0.079018511 1.325 4284114801
0.075837269 0.078779958 1.3210001 4284180081
0.07795269 0.078601047 1.3180001 4284114031
0.080301225 0.078660689 1.319 4284114031
0.082966305 0.079018511 1.325 4284114030
0.085587867 0.079316683 1.33 4284179823
0.087698087 0.07913778 1.327 4284114030
0.089594416 0.078779958 1.3210001 4284047980
0.091678597 0.078601047 1.3180001 4283916908
0.093752362 0.078422137 1.3150001 4283982957
0.096034802 0.078422137 1.3150001 4284375659
0.09839201 0.078481779 1.3160001 4284963689
0.10059969 0.078422137 1.3150001 4287189357
0.1028039 0.078362502 1.314 4288759662
0.10492466 0.078243226 1.312 4289152624
0.1072836 0.07830286 1.3130001 4288366958
0.10972947 0.078422137 1.3150001 4286863729
0.11201191 0.078422137 1.3150001 4284832874
0.11412053 0.07830286 1.3130001 4284244588
0.11631084 0.078243226 1.312 4284047979
0.11831691 0.078064322 1.309 4284113772
0.12058894 0.078064322 1.309 4284113773
0.12304869 0.078183591 1.3110001 4284113773
0.12570657 0.078422137 1.3150001 4284114030
0.128281 0.078601047 1.3180001 4284048237
0.13056865 0.078601047 1.3180001 4284114286
0.13305791 0.078720324 1.3200001 4284048750
0.13545157 0.078779958 1.3210001 4284180080
0.13774443 0.078779958 1.3210001 4284442738
0.13971925 0.078601047 1.3180001 4284639860
0.1412527 0.078183591 1.3110001 4284770931
0.14319976 0.078004688 1.3080001 4284967796
0.1451364 0.077825777 1.3050001 4285033076
0.14740148 0.077825777 1.3050001 4285161838
0.15001063 0.078004688 1.3080001 4286731887
0.1526302 0.078183591 1.3110001 4288431982
0.15478754 0.078123957 1.3100001 4289020526
0.15718119 0.078183591 1.3110001 4288169067
0.15933508 0.078123957 1.3100001 4286665838
0.1613621 0.078004688 1.3080001 4285030766
0.16363239 0.078004688 1.3080001 4284639601
0.16577585 0.077945046 1.307 4284903287
0.16804442 0.077945046 1.307 4284903031
0.17018266 0.077885412 1.3060001 4284903287
0.17218539 0.077766135 1.304 4284772215
0.17431496 0.077706501 1.3030001 4284772472
0.1767121 0.077766135 1.304 4284706166
0.17911269 0.077825777 1.3050001 4284311407
0.1822117 0.078183591 1.3110001 4284180076
0.18589443 0.078779958 1.3210001 4283916648
0.19105692 0.079018511 1.325 4283718242
0.19423229 0.079376325 1.3310001 4283716959
0.19683784 0.079495594 1.3330001 4283846748
0.19900213 0.079435959 1.332 4284306274
0.20055839 0.07913778 1.327 4283321433
0.20301455 0.079197414 1.3280001 4282928215
0.20547415 0.079257049 1.3290001 4282796117
-0.0095842769 0.086333886 1.4070001 4284703856
-0.0071370737 0.086272523 1.406 4283716962
-0.0046732989 0.085842997 1.399 4283651426
-0.0022257997 0.085106678 1.3870001 4283388253
0.00018069739 0.08467716 1.3800001 4283780702
0.002540495 0.083511308 1.3610001 4284569191
0.0048883711 0.083265871 1.3570001 4284372838
0.0072063473 0.082836345 1.35 4283913570
0.0095141707 0.082529552 1.345 4284634983
0.011839876 0.082468182 1.3440001 4284962921
0.014204291 0.082652263 1.3470001 4284636266
0.016628241 0.083081789 1.3540001 4284112487
0.019020427 0.083265871 1.3570001 4284179307
0.021423027 0.083449952 1.36 4284442480
0.023731112 0.083265871 1.3570001 4284508273
0.026048008 0.083143152 1.355 4284574323
0.028337 0.082959071 1.3520001 4284705397
0.030615579 0.082774989 1.3490001 4284574068
0.032712732 0.082161389 1.3390001 4284639861
0.034906 0.081854589 1.3340001 4284705652
0.037081908 0.081547782 1.3290001 4284640116
0.03944793 0.081670508 1.3310001 4284639859
0.041820887 0.081793219 1.3330001 4284705394
0.044167686 0.081854589 1.3340001 4284508015
0.046274036 0.081486426 1.3280001 4284704367
0.048432723 0.081240982 1.3240001 4285292911
0.050539203 0.080934182 1.319 4287190898
0.052748486 0.080811463 1.317 4289023605
0.055034399 0.080811463 1.317 4289284468
0.057320319 0.080811463 1.317 4288368755
0.059606232 0.080811463 1.317 4286602611
0.061986133 0.080934182 1.319 4284571241
0.064372987 0.0810569 1.3210001 4284179308
0.066716306 0.081118263 1.322 4284114029
0.069219701 0.0813637 1.3260001 4284114287
0.071629114 0.081486426 1.3280001 4283982959
0.073822774 0.0813637 1.3260001 4284048753
0.075894676 0.081118263 1.322 4283982960
0.078011833 0.080934182 1.319 4283982960
0.080362104 0.080995545 1.3200001 4284048496
0.082903691 0.081240982 1.3240001 4283982958
0.085459165 0.081486426 1.3280001 4283917164
0.087631993 0.0813637 1.3260001 4284048494
0.089594416 0.0810569 1.3210001 4284048494
0.091678597 0.080872819 1.3180001 4284048237
0.093823656 0.0807501 1.3160001 4284113772
0.096107833 0.0807501 1.3160001 4284244331
0.098317251 0.080688737 1.3150001 4285029482
0.10059969 0.080688737 1.3150001 4286928753
0.1028039 0.080627382 1.314 4287647086
0.10492466 0.080504656 1.312 4287317351
0.1072836 0.080566019 1.3130001 4287121769
0.10972947 0.080688737 1.3150001 4286536305
0.11201191 0.080688737 1.3150001 4284833388
0.11412053 0.080566019 1.3130001 4284244075
0.11631084 0.080504656 1.312 4283981673
0.11840731 0.080381937 1.3100001 4283982443
0.12077319 0.0804433 1.3110001 4284048236
0.12323641 0.080566019 1.3130001 4283851372
0.12580217 0.0807501 1.3160001 4283917165
0.128281 0.080872819 1.3180001 4284048237
0.13046958 0.080811463 1.317 4283982444
0.13285631 0.080872819 1.3180001 4283916651
0.13534902 0.080995545 1.3200001 4284048237
0.13764015 0.080995545 1.3200001 4284245615
0.13961324 0.080811463 1.317 4284376688
0.14136043 0.080504656 1.312 4284507760
0.14330924 0.080320574 1.309 4284573296
0.1451364 0.080075137 1.3050001 4284770161
0.1476274 0.080197856 1.307 4285358191
0.15012532 0.080320574 1.309 4286993263
0.15274662 0.080504656 1.312 4288759921
0.15514202 0.080566019 1.3130001 4289020269
0.15742099 0.080566019 1.3130001 4288694640
0.15957832 0.080504656 1.312 4286929266
0.1617322 0.0804433 1.3110001 4284834156
0.1638826 0.080381937 1.3100001 4284508015
0.16602953 0.080320574 1.309 4284640114
0.16817297 0.080259219 1.3080001 4284771700
0.17057358 0.080320574 1.309 4284771444
0.17271356 0.080259219 1.3080001 4284706164
0.17498386 0.080259219 1.3080001 4284640628
0.1776607 0.0804433 1.3110001 4284508787
0.18021071 0.080566019 1.3130001 4284376944
0.18889958 0.0813637 1.3260001 4284047721
0.1914895 0.081486426 1.3280001 4283850085
0.19423229 0.081670508 1.3310001 4283652449
0.19639485 0.081609137 1.33 4283783008
0.19765751 0.081179619 1.3230001 4284109150
0.19950044 0.080995545 1.3200001 4284699748
0.20179155 0.080995545 1.3200001 4283583835
0.2043919 0.081118263 1.322 4282860626
0.20731187 0.0813637 1.3260001 4282992212
0.21008764 0.081547782 1.3290001 4283451737
-0.0095774652 0.088695981 1.406 4284309868
-0.0071269213 0.088569805 1.404 4283586660
-0.0046599368 0.088002056 1.3950001 4283125852
-0.0022209852 0.087308131 1.3840001 4282994524
0.00018069739 0.087055795 1.3800001 4283387741
0.002540495 0.085857198 1.3610001 4284173920
0.0048919735 0.085667945 1.358 4285681768
0.0071743191 0.084784769 1.3440001 4286072419
0.0094717294 0.084469356 1.3390001 4286992238
0.01178702 0.084406272 1.3380001 4287193723
0.01411993 0.084469356 1.3390001 4284438630
0.02131276 0.085352525 1.353 4284442222
0.023661161 0.085352525 1.353 4284376943
0.025990337 0.085289441 1.3520001 4284574323
0.028253164 0.085037112 1.348 4284573810
0.030411327 0.08453244 1.34 4284311151
0.032615006 0.084217019 1.335 4284508017
0.03487983 0.084090844 1.3330001 4284442224
0.037081908 0.083838515 1.3290001 4284442737
0.039359014 0.083775431 1.3280001 4284508015
0.041695397 0.083838515 1.3290001 4284442735
0.043902811 0.083649263 1.3260001 4284442222
0.046030123 0.083333842 1.3210001 4284637548
0.048249818 0.083207682 1.319 4285291884
0.050385941 0.082955338 1.3150001 4286471025
0.052668381 0.082955338 1.3150001 4286993776
0.054992612 0.08301843 1.3160001 4286598504
0.057363842 0.08314459 1.3180001 4286139750
0.059742004 0.083270758 1.3200001 4286275186
0.062080126 0.083333842 1.3210001 4285227376
0.064372987 0.083333842 1.3210001 4284375147
0.066716306 0.083396927 1.322 4284179309
0.069115303 0.083523095 1.3240001 4284114286
0.07157518 0.083712347 1.327 4284048238
0.073878452 0.083712347 1.327 4283916909
0.075952083 0.083460011 1.3230001 4283851373
0.07795269 0.08314459 1.3180001 4283851630
0.080179468 0.083081506 1.317 4283917166
0.082527995 0.08314459 1.3180001 4283917165
0.085073054 0.083396927 1.322 4283851628
0.08730156 0.083333842 1.3210001 4283851628
0.089390948 0.08314459 1.3180001 4284048237
0.091609038 0.083081506 1.317 4283916395
0.093823656 0.08301843 1.3160001 4284047466
0.096107833 0.08301843 1.3160001 4284309611
0.09839201 0.08301843 1.3160001 4284702058
0.1005232 0.082892254 1.314 4285619567
0.10264742 0.082766086 1.312 4285092965
0.10492466 0.082766086 1.312 4285224295
0.1072836 0.08282917 1.3130001 4285224551
0.10981291 0.08301843 1.3160001 4284962662
0.11201191 0.082955338 1.3150001 4284833643
0.1140336 0.082766086 1.312 4284243560
0.11631084 0.082766086 1.312 4283916137
0.11849768 0.082703009 1.3110001 4284047210
0.12086532 0.082766086 1.312 4283981674
0.12333027 0.082892254 1.314 4283785322
0.12570657 0.082955338 1.3150001 4283982444
0.12798901 0.082955338 1.3150001 4283982444
0.13027145 0.082955338 1.3150001 4284048236
0.13265471 0.08301843 1.3160001 4283916650
0.13504142 0.083081506 1.317 4284048236
0.13732733 0.083081506 1.317 4284311151
0.13950725 0.08301843 1.3160001 4284179309
0.14136043 0.082766086 1.312 4284507504
0.14341871 0.082639918 1.3100001 4284375918
0.14535883 0.082450666 1.307 4284703599
0.14774033 0.082513757 1.3080001 4285422702
0.15024002 0.082639918 1.3100001 4286533740
0.15286304 0.08282917 1.3130001 4287317096
0.15526018 0.082892254 1.314 4287380836
0.15778068 0.08301843 1.3160001 4287447656
0.16006485 0.08301843 1.3160001 4286666353
0.1621023 0.082892254 1.314 4284899181
0.1641328 0.082766086 1.312 4284375915
0.16628319 0.082703009 1.3110001 4284442735
0.16843013 0.082639918 1.3100001 4284705650
0.17096451 0.082766086 1.312 4284574064
0.17324175 0.082766086 1.312 4284574321
0.17565277 0.08282917 1.3130001 4284377199
0.18075971 0.083081506 1.317 4284311408
0.18318461 0.08314459 1.3180001 4284245615
0.18617587 0.083460011 1.3230001 4283916907
0.18889958 0.083649263 1.3260001 4283785576
0.19105692 0.083586179 1.325 4283850598
0.19335672 0.083586179 1.325 4283915621
0.19565652 0.083586179 1.325 4284045153
0.19735871 0.083333842 1.3210001 4284304220
0.19904703 0.083081506 1.317 4286074214
0.20118007 0.08301843 1.3160001 4287123566
0.20361885 0.083081506 1.317 4285481565
0.20684282 0.083460011 1.3230001 4284434781
0.20977148 0.083712347 1.327 4283056979
-0.0095638419 0.090989813 1.404 4283981417
-0.0071066166 0.090730585 1.4000001 4283455074
-0.0046465751 0.090147316 1.391 4282928731
-0.0022193806 0.089628853 1.383 4282797914
0.00018082833 0.089499235 1.381 4283256668
0.0025180953 0.087425396 1.3490001 4284041564
0.0048415405 0.087101355 1.3440001 4286925675
0.0071476293 0.086777322 1.3390001 4289155450
0.0094292862 0.086388476 1.3330001 4289023863
0.011734163 0.086323671 1.332 4287190128
0.014056658 0.086388476 1.3330001 4284700003
0.016407186 0.086582899 1.3360001 4284178023
0.01876813 0.086777322 1.3390001 4284179050
0.021170991 0.087101355 1.3440001 4284376429
0.023538744 0.087230973 1.3460001 4284245356
0.025836548 0.087101355 1.3440001 4284376943
0.02804357 0.086712509 1.3380001 4284376431
0.030297847 0.086518094 1.335 4284311151
0.032541715 0.086323671 1.332 4284311151
0.034853663 0.086323671 1.332 4284245615
0.037081908 0.086129248 1.3290001 4284310895
0.039270099 0.08587002 1.325 4284441966
0.041507155 0.085740402 1.3230001 4284179563
0.043671045 0.085481174 1.319 4284309866
0.045821052 0.085221939 1.3150001 4284767851
0.048066914 0.085157134 1.314 4285489008
0.050232671 0.084962711 1.3110001 4285882484
0.052548226 0.085027516 1.312 4284963434
0.054909036 0.085157134 1.314 4284767595
0.057320319 0.085351557 1.317 4284767338
0.059742004 0.085545979 1.3200001 4285029228
0.062080126 0.085610785 1.3210001 4285358706
0.064275518 0.085481174 1.319 4284834416
0.066564903 0.085481174 1.319 4284310124
0.069010898 0.085675597 1.322 4284244332
0.071413368 0.085805207 1.3240001 4284113260
0.073711433 0.085805207 1.3240001 4283916394
0.075837269 0.085610785 1.3210001 4283916651
0.077834405 0.085286751 1.3160001 4283851115
0.079996824 0.085157134 1.314 4283851371
0.082214914 0.085092321 1.3130001 4283917164
0.084622592 0.085221939 1.3150001 4283916908
0.086838946 0.085157134 1.314 4283851371
0.089119658 0.085157134 1.314 4283850601
0.091469921 0.085221939 1.3150001 4284047209
0.093823656 0.085286751 1.3160001 4283981417
0.096107833 0.085286751 1.3160001 4284243818
0.09839201 0.085286751 1.3160001 4284637293
0.1005232 0.085157134 1.314 4284570730
0.10264742 0.085027516 1.312 4284440171
0.10484469 0.084962711 1.3110001 4284243305
0.1072019 0.085027516 1.312 4284374377
0.10972947 0.085221939 1.3150001 4284439655
0.11209708 0.085286751 1.3160001 4284636777
0.11394668 0.084962711 1.3110001 4284309096
0.11622218 0.084962711 1.3110001 4283850085
0.11840731 0.084897898 1.3100001 4283850086
0.12077319 0.084962711 1.3110001 4283981416
0.12323641 0.085092321 1.3130001 4283850600
0.12561096 0.085157134 1.314 4283850600
0.12789167 0.085157134 1.314 4283850857
0.13017239 0.085157134 1.314 4283916650
0.13255391 0.085221939 1.3150001 4283850857
0.13493888 0.085286751 1.3160001 4284113772
0.13722306 0.085286751 1.3160001 4284245101
0.13940123 0.085221939 1.3150001 4284375918
0.14136043 0.085027516 1.312 4284375661
0.14341871 0.084897898 1.3100001 4284441198
0.14535883 0.084703475 1.307 4284702829
0.14740148 0.084573865 1.3050001 4285028971
0.15012532 0.084833093 1.309 4285291117
0.15286304 0.085092321 1.3130001 4285029484
0.15526018 0.085157134 1.314 4284898925
0.15802045 0.085416362 1.3180001 4285357936
0.16018647 0.085351557 1.317 4285422445
0.16222566 0.085221939 1.3150001 4285095790
0.1641328 0.085027516 1.312 4284506474
0.16615637 0.084897898 1.3100001 4284375916
0.16843013 0.084897898 1.3100001 4284376429
0.17096451 0.085027516 1.312 4284310636
0.17350583 0.085157134 1.314 4284377199
0.17565277 0.085092321 1.3130001 4284114284
0.17806725 0.085157134 1.314 4284114029
0.18062246 0.085286751 1.3160001 4284179822
0.18318461 0.085416362 1.3180001 4284180078
0.18589443 0.085610785 1.3210001 4283720041
0.18775991 0.085416362 1.3180001 4283654248
0.19033594 0.085545979 1.3200001 4283916647
0.19306485 0.085740402 1.3230001 4283784036
0.19536118 0.085740402 1.3230001 4283847774
0.19735871 0.085610785 1.3210001 4284368727
0.19919817 0.085416362 1.3180001 4286659932
0.20118007 0.085286751 1.3160001 4288888425
0.20346425 0.085286751 1.3160001 4288365162
0.2063738 0.085545979 1.3200001 4286072161
0.20945533 0.08587002 1.325 4283122257
-0.0095570292 0.093343288 1.4030001 4283586660
-0.0070964643 0.093010634 1.3980001 4283257952
-0.0046432344 0.09247838 1.3900001 4282994524
-0.0022193806 0.092012666 1.383 4283257694
0.00018095926 0.091946125 1.3820001 4283126109
0.0025236951 0.089950196 1.3520001 4284041820
0.0048523475 0.089617535 1.3470001 4286989413
0.0071476293 0.089085296 1.3390001 4288627564
0.0094363606 0.088752635 1.3340001 4288759920
0.011734163 0.088619567 1.332 4287255150
0.014056658 0.088686101 1.3330001 4284568417
0.016407186 0.088885695 1.3360001 4284178023
0.018754112 0.089018755 1.3380001 4284047464
0.02109223 0.089085296 1.3390001 4284113513
0.023433818 0.089151822 1.34 4284113514
0.025701981 0.088952228 1.337 4284245357
0.027959734 0.088752635 1.3340001 4284376688
0.030252459 0.088686101 1.3330001 4284311151
0.032517284 0.088553041 1.3310001 4284376944
0.034827501 0.088553041 1.3310001 4284311151
0.037054006 0.088353448 1.3280001 4284311408
0.039270099 0.088153854 1.325 4284179308
0.041507155 0.088020794 1.3230001 4284113001
0.043637939 0.087688133 1.3180001 4284375147
0.045786206 0.087422013 1.314 4284505449
0.048066914 0.087422013 1.314 4285359476
0.05027099 0.087288946 1.312 4284702060
0.05258828 0.087355472 1.3130001 4284309611
0.054950826 0.08748854 1.3150001 4284113002
0.057363842 0.087688133 1.3180001 4284178282
0.059696749 0.087754667 1.319 4284440684
0.061939143 0.087688133 1.3180001 4284703085
0.06412933 0.087555073 1.3160001 4284834927
0.066463977 0.087621607 1.317 4284178025
0.068906493 0.0878212 1.3200001 4284112489
0.071305491 0.08795426 1.322 4284113003
0.073655754 0.088020794 1.3230001 4284047723
0.075837269 0.087887727 1.3210001 4283916394
0.077893548 0.087621607 1.317 4283785065
0.080118582 0.087555073 1.3160001 4283850858
0.082340144 0.08748854 1.3150001 4283916651
0.084622592 0.08748854 1.3150001 4283982443
0.086838946 0.087422013 1.314 4283916651
0.089119658 0.087422013 1.314 4283784808
0.091400363 0.087422013 1.314 4283849830
0.093752362 0.08748854 1.3150001 4283849830
0.095961779 0.087422013 1.314 4284178025
0.098242484 0.087422013 1.314 4284374891
0.10021718 0.087155879 1.3100001 4284243048
0.10225623 0.086956285 1.307 4284046696
0.10444482 0.086889759 1.3060001 4283981160
0.10687506 0.087022826 1.3080001 4283981158
0.10939569 0.08722242 1.3110001 4283915365
0.11184154 0.087355472 1.3130001 4284045924
0.11385978 0.087155879 1.3100001 4284243045
0.11613354 0.087155879 1.3100001 4283849571
0.11831691 0.087089352 1.309 4283783779
0.12058894 0.087089352 1.309 4283783779
0.12304869 0.08722242 1.3110001 4283719013
0.12541978 0.087288946 1.312 4283719271
0.12779436 0.087355472 1.3130001 4283587941
0.13027145 0.08748854 1.3150001 4283719271
0.13265471 0.087555073 1.3160001 4283785320
0.13493888 0.087555073 1.3160001 4283982186
0.13732733 0.087621607 1.317 4284113259
0.13940123 0.08748854 1.3150001 4284112746
0.1412527 0.08722242 1.3110001 4284243819
0.14330924 0.087089352 1.309 4284308585
0.14535883 0.086956285 1.307 4284702059
0.14751443 0.086889759 1.3060001 4285030768
0.14989595 0.086956285 1.307 4284571500
0.15239735 0.087089352 1.309 4284309355
0.15478754 0.087155879 1.3100001 4284375661
0.15754087 0.087422013 1.314 4284506221
0.15994322 0.08748854 1.3150001 4284767852
0.16222566 0.08748854 1.3150001 4284833388
0.16425791 0.087355472 1.3130001 4284703084
0.16641004 0.087288946 1.312 4284441195
0.1685587 0.08722242 1.3110001 4284441452
0.17096451 0.087288946 1.312 4284179050
0.17337379 0.087355472 1.3130001 4284113770
0.17551897 0.087288946 1.312 4284048234
0.17806725 0.087422013 1.314 4284048236
0.1804852 0.08748854 1.3150001 4284048236
0.18276764 0.08748854 1.3150001 4283982443
0.18490937 0.087422013 1.314 4283850857
0.18690516 0.087288946 1.312 4283785064
0.1893266 0.087355472 1.3130001 4283588198
0.19233522 0.087688133 1.3180001 4283587425
0.19491819 0.0878212 1.3200001 4283520091
0.19750813 0.08795426 1.322 4284237910
0.19980271 0.08795426 1.322 4286790746
0.20194443 0.087887727 1.3210001 4289084775
0.20408268 0.0878212 1.3200001 4288561000
0.2066865 0.08795426 1.322 4286136157
0.20945533 0.088153854 1.325 4283319123
-0.0070964643 0.095420294 1.3980001 4283324001
-0.0046265321 0.094532982 1.3850001 4283389281
-0.0022209852 0.094464727 1.3840001 4283257951
0.0001810902 0.094396472 1.383 4283388766
0.0025124953 0.091871046 1.3460001 4284173919
0.0048415405 0.091734529 1.3440001 4287319661
0.0071529672 0.091461517 1.34 4288695411
0.0094505083 0.09118849 1.3360001 4288039790
0.011760592 0.091120236 1.335 4287125362
0.014067204 0.091051988 1.3340001 4285225321
0.016382625 0.091051988 1.3340001 4284111716
0.018670013 0.090915471 1.332 4283981671
0.020966211 0.090847224 1.3310001 4284048234
0.023276426 0.090847224 1.3310001 4284310892
0.02558664 0.090847224 1.3310001 4284311151
0.027875895 0.090778962 1.33 4284311408
0.030161681 0.090710707 1.3290001 4284311408
0.032419559 0.090574197 1.327 4284311151
0.034722831 0.090574197 1.327 4284311151
0.036970299 0.090437695 1.325 4284310895
0.039210826 0.090301178 1.3230001 4284244845
0.04144441 0.090164669 1.3210001 4284244075
0.043604828 0.08989165 1.317 4284375148
0.045786206 0.089686885 1.314 4284440941
0.048066914 0.089686885 1.314 4284310124
0.050309308 0.089618631 1.3130001 4284179309
0.052668381 0.08975514 1.3150001 4284047979
0.054992612 0.089823402 1.3160001 4283982186
0.057363842 0.089959905 1.3180001 4284178795
0.059606232 0.08989165 1.317 4284178282
0.061751164 0.089686885 1.314 4284244073
0.063885681 0.089482121 1.3110001 4284441195
0.066161178 0.089482121 1.3110001 4284112488
0.06854108 0.089618631 1.3130001 4283980903
0.070927933 0.08975514 1.3150001 4283915623
0.073266044 0.089823402 1.3160001 4283981673
0.075607635 0.08989165 1.317 4283784808
0.077893548 0.08989165 1.317 4283653479
0.080179468 0.08989165 1.317 4283719528
0.082402758 0.089823402 1.3160001 4283719272
0.084622592 0.08975514 1.3150001 4283784807
0.086838946 0.089686885 1.314 4283784550
0.089051828 0.089618631 1.3130001 4283784294
0.091330796 0.089618631 1.3130001 4283652195
0.093609773 0.089618631 1.3130001 4283980390
0.095815711 0.089550376 1.312 4284178282
0.098018184 0.089482121 1.3110001 4283980902
0.099911176 0.089140847 1.3060001 4283914853
0.10194328 0.088936083 1.3030001 4283718244
0.10428488 0.089004338 1.304 4283849830
0.10679335 0.089209102 1.307 4283783523
0.1092288 0.089345612 1.309 4283849315
0.11150083 0.089345612 1.309 4283849315
0.11359902 0.089209102 1.307 4283849315
0.11595623 0.089277357 1.3080001 4283783522
0.11813615 0.089209102 1.307 4283520351
0.12031257 0.089140847 1.3060001 4283455072
0.12276711 0.089277357 1.3080001 4283521122
0.1252286 0.089413866 1.3100001 4283456099
0.12779436 0.089618631 1.3130001 4283390563
0.13027145 0.08975514 1.3150001 4283390304
0.13285631 0.089959905 1.3180001 4283390560
0.13504142 0.08989165 1.317 4283850598
0.13722306 0.089823402 1.3160001 4284112488
0.13918921 0.089618631 1.3130001 4284046696
0.14114496 0.089413866 1.3100001 4283914854
0.14330924 0.089345612 1.309 4283980390
0.14535883 0.089209102 1.307 4284572270
0.14751443 0.089140847 1.3060001 4284374634
0.14978126 0.089140847 1.3060001 4284374636
0.15204808 0.089140847 1.3060001 4284506221
0.15431491 0.089140847 1.3060001 4284506476
0.15694141 0.089345612 1.309 4284309098
0.15957832 0.089550376 1.312 4284374634
0.16197893 0.089618631 1.3130001 4284440683
0.1641328 0.089550376 1.312 4284572268
0.16628319 0.089482121 1.3110001 4284375402
0.16843013 0.089413866 1.3100001 4284375402
0.1707039 0.089413866 1.3100001 4284310123
0.17284562 0.089345612 1.309 4284179051
0.17498386 0.089277357 1.3080001 4284113772
0.17738967 0.089345612 1.309 4283982186
0.17966171 0.089345612 1.309 4283916650
0.1822117 0.089482121 1.3110001 4283916650
0.18434648 0.089413866 1.3100001 4283719528
0.1864778 0.089345612 1.309 4283588455
0.18889402 0.089413866 1.3100001 4283587685
0.19189742 0.08975514 1.3150001 4283324767
0.19447519 0.08989165 1.317 4283454300
0.19750813 0.090232931 1.322 4284500825
0.20040725 0.090505943 1.3260001 4287318373
0.20286167 0.090574197 1.327 4289152364
0.20531955 0.09064246 1.3280001 4288759146
0.2077809 0.090710707 1.3290001 4287582831
0.2104038 0.090847224 1.3310001 4283581009
0.21335328 0.091120236 1.335 4282533455
-0.0046198512 0.096780278 1.383 4283389537
-0.0022193806 0.096780278 1.383 4283388767
0.0001810902 0.096780278 1.383 4283519838
0.0025162287 0.094331034 1.348 4284108896
0.0048451428 0.094121099 1.345 4286076780
0.0071583046 0.09384118 1.3410001 4285878118
0.0094646551 0.093631245 1.3380001 4285352800
0.01177821 0.093561269 1.337 4285354597
0.014056658 0.093281351 1.3330001 4285225834
0.016345782 0.093141399 1.3310001 4284373862
0.018627964 0.09300144 1.3290001 4284046951
0.020918954 0.092931464 1.3280001 4283982441
0.023223963 0.092931464 1.3280001 4284113771
0.025548194 0.09300144 1.3290001 4284048236
0.027875895 0.093071416 1.33 4284245615
0.030138984 0.092931464 1.3280001 4284245615
0.032395132 0.092791505 1.3260001 4283982443
0.034644336 0.092651546 1.3240001 4284113772
0.036914498 0.09258157 1.3230001 4284179052
0.039181188 0.092511594 1.322 4284178796
0.041413032 0.092371635 1.3200001 4284309868
0.043604828 0.0921617 1.317 4284375661
0.045821052 0.092021741 1.3150001 4284309868
0.048066914 0.091951765 1.314 4284178539
0.050347622 0.091951765 1.314 4284047209
0.052668381 0.092021741 1.3150001 4283981929
0.054950826 0.092021741 1.3150001 4283981929
0.057276789 0.092091724 1.3160001 4284113003
0.059515711 0.092021741 1.3150001 4284112489
0.061657172 0.091811806 1.312 4283980902
0.063739486 0.091531895 1.3080001 4284178280
0.066009782 0.091531895 1.3080001 4284046696
0.068332277 0.091601871 1.309 4283849317
0.070712179 0.09174183 1.3110001 4283651681
0.073043354 0.091811806 1.312 4283586658
0.075435407 0.091951765 1.314 4283455586
0.07771612 0.091951765 1.314 4283587685
0.080057703 0.092021741 1.3150001 4283456355
0.082340144 0.092021741 1.3150001 4283521892
0.084622592 0.092021741 1.3150001 4283521378
0.086772852 0.091881782 1.3130001 4283586401
0.088984005 0.091811806 1.312 4283586402
0.091261245 0.091811806 1.312 4283520609
0.093538478 0.091811806 1.312 4283915109
0.09566965 0.091671847 1.3100001 4283783779
0.097868651 0.091601871 1.309 4283718242
0.099834673 0.09132196 1.3050001 4283652449
0.10194328 0.091182001 1.3030001 4283390047
0.1042049 0.091182001 1.3030001 4283390047
0.10662994 0.09132196 1.3050001 4283455071
0.1090619 0.091461912 1.307 4283651936
0.11133046 0.091461912 1.307 4283520350
0.1134252 0.09132196 1.3050001 4283586143
0.11577893 0.091391936 1.3060001 4283651936
0.11795536 0.09132196 1.3050001 4283520350
0.12012833 0.091251977 1.304 4283191644
0.1225794 0.091391936 1.3060001 4283192157
0.12513301 0.091601871 1.309 4283324256
0.12769702 0.091811806 1.312 4283258463
0.13027145 0.092021741 1.3150001 4283127133
0.1327555 0.0921617 1.317 4283061595
0.13493888 0.092091724 1.3160001 4283390047
0.13711879 0.092021741 1.3150001 4283652195
0.13908321 0.091811806 1.312 4283783524
0.14103721 0.091601871 1.309 4283783524
0.14319976 0.091531895 1.3080001 4284046696
0.14535883 0.091461912 1.307 4283914597
0.14751443 0.091391936 1.3060001 4283980647
0.14966656 0.09132196 1.3050001 4284046697
0.15193166 0.09132196 1.3050001 4284113003
0.15419674 0.09132196 1.3050001 4284047466
