# .PCD v0.7 - Point Cloud Data file format
VERSION 0.7
FIELDS x y z rgba
SIZE 4 4 4 4
TYPE F F F U
COUNT 1 1 1 1
WIDTH 1109
HEIGHT 1
VIEWPOINT 0 0 0 1 0 0 0
POINTS 1109
DATA ascii
-0.24676214 0.029707894 1.368 4293324012
-0.24420907 0.029686177 1.3670001 4292863461
-0.24165946 0.029664462 1.3660001 4292600287
-0.23911333 0.029642746 1.365 4292468187
-0.23691754 0.029664462 1.3660001 4292468442
-0.23471826 0.029686177 1.3670001 4292402647
-0.23234557 0.029686177 1.3670001 4292468439
-0.2301411 0.029707894 1.368 4292534233
-0.22793315 0.02972961 1.3690001 4292468439
-0.225557 0.02972961 1.3690001 4292468439
-0.22318083 0.02972961 1.3690001 4292402646
-0.22096594 0.029751329 1.3700001 4292468439
-0.21874759 0.029773042 1.3710001 4292534232
-0.21636793 0.029773042 1.3710001 4292600025
-0.21398829 0.029773042 1.3710001 4292534232
-0.21160865 0.029773042 1.3710001 4292600025
-0.2089238 0.02972961 1.3690001 4292600281
-0.20654763 0.02972961 1.3690001 4292731611
-0.20417145 0.02972961 1.3690001 4292731611
-0.20194268 0.029751329 1.3700001 4292665818
-0.19971044 0.029773042 1.3710001 4292665819
-0.19747473 0.02979476 1.3720001 4292665819
-0.19495116 0.029773042 1.3710001 4292665818
-0.19271198 0.02979476 1.3720001 4292665820
-0.19046932 0.029816477 1.373 4292995045
-0.25425661 0.032112729 1.3700001 4293587184
-0.25151101 0.032065846 1.368 4293324010
-0.24877235 0.032018971 1.3660001 4292929252
-0.24640138 0.032018971 1.3660001 4292666078
-0.24403043 0.032018971 1.3660001 4292468699
-0.24165946 0.032018971 1.3660001 4292731611
-0.23928849 0.032018971 1.3660001 4292534233
-0.23709098 0.032042406 1.3670001 4292534233
-0.23488997 0.032065846 1.368 4292600026
-0.23251553 0.032065846 1.368 4292600026
-0.23030932 0.032089289 1.3690001 4292600026
-0.22809964 0.032112729 1.3700001 4292600025
-0.22572175 0.032112729 1.3700001 4292665818
-0.22350687 0.032136168 1.3710001 4292599768
-0.22128852 0.032159608 1.3720001 4292731354
-0.21874759 0.032136168 1.3710001 4292665815
-0.21652576 0.032159608 1.3720001 4292731865
-0.21414438 0.032159608 1.3720001 4292731865
-0.21176301 0.032159608 1.3720001 4292731865
-0.20922901 0.032136168 1.3710001 4292731865
-0.20669849 0.032112729 1.3700001 4292731866
-0.20432059 0.032112729 1.3700001 4292797404
-0.20209008 0.032136168 1.3710001 4292731611
-0.19985612 0.032159608 1.3720001 4292797404
-0.19747473 0.032159608 1.3720001 4292731611
-0.19495116 0.032136168 1.3710001 4292665818
-0.19257151 0.032136168 1.3710001 4292665818
-0.19005315 0.032112729 1.3700001 4292665820
-0.18794923 0.032159608 1.3720001 4292731615
-0.18583834 0.032206487 1.3740001 4293323755
-0.26119953 0.034448966 1.3690001 4293389552
-0.25882336 0.034448966 1.3690001 4293521138
-0.25607255 0.034398638 1.3670001 4293521136
-0.25314307 0.034323145 1.3640001 4293126632
-0.25077561 0.034323145 1.3640001 4292666078
-0.24859025 0.034348313 1.365 4292600539
-0.24640138 0.034373477 1.3660001 4292665819
-0.24420907 0.034398638 1.3670001 4292665819
-0.24183637 0.034398638 1.3670001 4292797404
-0.23946367 0.034398638 1.3670001 4292731611
-0.23743783 0.034448966 1.3690001 4292665818
-0.23523337 0.034474131 1.3700001 4292731611
-0.23268549 0.034448966 1.3690001 4292665819
-0.23064581 0.034499291 1.3710001 4292665819
-0.22826616 0.034499291 1.3710001 4292665818
-0.22588651 0.034499291 1.3710001 4292796890
-0.2236699 0.034524456 1.3720001 4292862683
-0.22144981 0.03454962 1.373 4292796890
-0.21906669 0.03454962 1.373 4292797145
-0.21668358 0.03454962 1.373 4292797658
-0.21445654 0.034574784 1.3740001 4292731865
-0.21207169 0.034574784 1.3740001 4292797915
-0.20953423 0.03454962 1.373 4292863451
-0.20700026 0.034524456 1.3720001 4292863452
-0.20461887 0.034524456 1.3720001 4292928990
-0.2022375 0.034524456 1.3720001 4292994526
-0.19985612 0.034524456 1.3720001 4292928734
-0.19761866 0.03454962 1.373 4292928734
-0.19523555 0.03454962 1.373 4292862940
-0.19271198 0.034524456 1.3720001 4292731354
-0.19019186 0.034499291 1.3710001 4292665818
-0.18767524 0.034474131 1.3700001 4292665820
-0.18516208 0.034448966 1.3690001 4292600030
-0.18331999 0.03454962 1.373 4293258220
-0.26299813 0.036727984 1.3660001 4293258736
-0.26043639 0.036701094 1.365 4293456114
-0.25806716 0.036701094 1.365 4293389805
-0.25569794 0.036701094 1.365 4292731873
-0.25314307 0.036674205 1.3640001 4292731614
-0.25077561 0.036674205 1.3640001 4292731612
-0.24859025 0.036701094 1.365 4292731611
-0.24658176 0.036754869 1.3670001 4292731611
-0.2443877 0.036781754 1.368 4292797404
-0.24219018 0.036808643 1.3690001 4292863197
-0.23981401 0.036808643 1.3690001 4292797404
-0.23743783 0.036808643 1.3690001 4292797404
-0.23523337 0.036835533 1.3700001 4292863197
-0.23302545 0.036862418 1.3710001 4292797404
-0.23081402 0.036889303 1.3720001 4292731611
-0.22859915 0.036916193 1.373 4292862683
-0.22621603 0.036916193 1.373 4292796890
-0.22383292 0.036916193 1.373 4292994269
-0.22161108 0.036943078 1.3740001 4292862683
-0.21922624 0.036943078 1.3740001 4292928474
-0.21684138 0.036943078 1.3740001 4292928987
-0.21461263 0.036969967 1.3750001 4292995037
-0.21222605 0.036969967 1.3750001 4292863451
-0.20983946 0.036969967 1.3750001 4292995037
-0.20730199 0.036943078 1.3740001 4292995037
-0.20491715 0.036943078 1.3740001 4292994783
-0.20238489 0.036916193 1.373 4293126112
-0.20000178 0.036916193 1.373 4293125855
-0.19747473 0.036889303 1.3720001 4293125855
-0.19509336 0.036889303 1.3720001 4292994269
-0.19285244 0.036916193 1.373 4292994526
-0.19033061 0.036889303 1.3720001 4292928733
-0.18781222 0.036862418 1.3710001 4292731611
-0.18529734 0.036835533 1.3700001 4292534235
-0.18305294 0.036862418 1.3710001 4292731873
-0.26299813 0.03908249 1.3660001 4293390321
-0.26024556 0.039025266 1.3640001 4293192426
-0.25787807 0.039025266 1.3640001 4292731873
-0.25588524 0.03908249 1.3660001 4292666078
-0.25369987 0.039111096 1.3670001 4292731612
-0.25151101 0.03913971 1.368 4292797404
-0.24913658 0.03913971 1.368 4292863197
-0.24694252 0.039168321 1.3690001 4292863197
-0.24492367 0.039225541 1.3710001 4292928990
-0.24272092 0.039254155 1.3720001 4292863197
-0.24033955 0.039254155 1.3720001 4292863197
-0.2381316 0.039282765 1.373 4292928990
-0.23609188 0.039339986 1.3750001 4292863197
-0.23387526 0.0393686 1.376 4292929244
-0.2316552 0.039397206 1.3770001 4292863194
-0.22943163 0.03942582 1.378 4292928476
-0.22703984 0.03942582 1.378 4292862683
-0.22464804 0.03942582 1.378 4292862683
-0.22225626 0.03942582 1.378 4292928474
-0.21986446 0.03942582 1.378 4293060060
-0.21763048 0.03945443 1.3790001 4293125853
-0.21554913 0.039511651 1.381 4293191646
-0.21315213 0.039511651 1.381 4293060830
-0.21090773 0.039540261 1.3820001 4293060830
-0.208509 0.039540261 1.3820001 4292995037
-0.20596112 0.039511651 1.381 4293060830
-0.20341671 0.039483041 1.3800001 4293125855
-0.20087579 0.03945443 1.3790001 4293125855
-0.19819438 0.039397206 1.3770001 4293191648
-0.19580433 0.039397206 1.3770001 4293125855
-0.19355474 0.03942582 1.378 4293125855
-0.19102421 0.039397206 1.3770001 4292994269
-0.1882232 0.039311375 1.3740001 4292928477
-0.18556784 0.039254155 1.3720001 4292665820
-0.18278591 0.039168321 1.3690001 4292600030
-0.18106864 0.039311375 1.3740001 4293257964
-0.17959413 0.039511651 1.381 4293323759
-0.26319066 0.041467328 1.3670001 4293258220
-0.26043639 0.041406661 1.365 4292666080
-0.2582562 0.041436996 1.3660001 4292600285
-0.25607255 0.041467328 1.3670001 4292731612
-0.25388545 0.041497663 1.368 4292797404
-0.25169486 0.041527998 1.3690001 4292928990
-0.24913658 0.041497663 1.368 4292928990
-0.24730331 0.041588668 1.3710001 4292928990
-0.24528094 0.041649338 1.373 4292994783
-0.24307473 0.041679669 1.3740001 4292928990
-0.24086505 0.041710004 1.3750001 4292994783
-0.2386519 0.041740339 1.376 4292929244
-0.23643531 0.041770674 1.3770001 4292929244
-0.23438518 0.041831344 1.3790001 4293060060
-0.23215988 0.041861679 1.3800001 4293125851
-0.22976461 0.041861679 1.3800001 4293060060
-0.22736935 0.041861679 1.3800001 4292928474
-0.22497408 0.041861679 1.3800001 4292928474
-0.22257882 0.041861679 1.3800001 4292928472
-0.22018355 0.041861679 1.3800001 4293060060
-0.21794613 0.041892011 1.381 4293257439
-0.21586128 0.041952685 1.383 4293126623
-0.2134608 0.041952685 1.383 4293126623
-0.21106033 0.041952685 1.383 4293192416
-0.20865986 0.041952685 1.383 4293126367
-0.2062594 0.041952685 1.383 4293191646
-0.20371152 0.041922349 1.3820001 4293191647
-0.2013128 0.041922349 1.3820001 4293257441
-0.19877012 0.041892011 1.381 4293257441
-0.19608873 0.041831344 1.3790001 4293125855
-0.1936952 0.041831344 1.3790001 4293191648
-0.19130167 0.041831344 1.3790001 4293125855
-0.18849717 0.041740339 1.376 4293060062
-0.1857031 0.041649338 1.373 4292797148
-0.18291943 0.041558333 1.3700001 4292534235
-0.18120044 0.041710004 1.3750001 4293060583
-0.17972417 0.041922349 1.3820001 4293389807
-0.2700921 0.044176199 1.378 4293455345
-0.26672897 0.04401591 1.373 4293455087
-0.26338318 0.043855619 1.368 4292797154
-0.26081797 0.043823559 1.3670001 4292731358
-0.25844526 0.043823559 1.3670001 4292731612
-0.2564472 0.043887675 1.3690001 4292928990
-0.25425661 0.043919735 1.3700001 4292928990
-0.25187871 0.043919735 1.3700001 4293060576
-0.24986506 0.043983851 1.3720001 4293126369
-0.24766405 0.04401591 1.373 4293125855
-0.24581687 0.044112083 1.376 4293191648
-0.24360548 0.044144139 1.3770001 4293191646
-0.24139059 0.044176199 1.378 4293257439
-0.23917224 0.044208258 1.3790001 4293191646
-0.2371221 0.044272374 1.381 4293060060
-0.2348951 0.044304434 1.3820001 4293060058
-0.23283282 0.044368546 1.3840001 4293125851
-0.2304306 0.044368546 1.3840001 4293060058
-0.2280284 0.044368546 1.3840001 4293125851
-0.22562619 0.044368546 1.3840001 4293060058
-0.22322398 0.044368546 1.3840001 4293060058
-0.22082178 0.044368546 1.3840001 4293257694
-0.21857738 0.044400606 1.3850001 4293257952
-0.21617344 0.044400606 1.3850001 4293192159
-0.2137695 0.044400606 1.3850001 4293258210
-0.21151817 0.044432666 1.386 4293323745
-0.20911248 0.044432666 1.386 4293323745
-0.20670681 0.044432666 1.386 4293454562
-0.20444855 0.044464722 1.3870001 4293322976
-0.20189546 0.044432666 1.386 4293322978
-0.19948977 0.044432666 1.386 4293389027
-0.19665751 0.04433649 1.383 4293323234
-0.19425704 0.04433649 1.383 4293322977
-0.19144039 0.044240318 1.3800001 4293125598
-0.1883602 0.044080026 1.3750001 4293125855
-0.18556784 0.043983851 1.3720001 4292862941
-0.18265238 0.043855619 1.368 4292731357
-0.26930809 0.04641626 1.3740001 4293455345
-0.26614615 0.046281137 1.3700001 4293192171
-0.26357573 0.046247352 1.3690001 4292666079
-0.26139033 0.046281137 1.3700001 4292731613
-0.25882336 0.046247352 1.3690001 4292863197
-0.25682187 0.046314918 1.3710001 4293060062
-0.2548134 0.046382483 1.373 4293191648
-0.25243029 0.046382483 1.373 4293191648
-0.25059351 0.046483826 1.376 4293257441
-0.24838559 0.046517607 1.3770001 4293191648
-0.24599554 0.046517607 1.3770001 4293125855
-0.2441362 0.046618957 1.3800001 4293060060
-0.24174093 0.046618957 1.3800001 4293060060
-0.23969257 0.046686519 1.3820001 4293191644
-0.23763722 0.046754081 1.3840001 4293191644
-0.23540498 0.046787862 1.3850001 4293191644
-0.23333749 0.046855424 1.3870001 4293060058
-0.2310966 0.046889208 1.388 4293125851
-0.22868745 0.046889208 1.388 4293191644
-0.22627829 0.046889208 1.388 4293257437
-0.22386913 0.046889208 1.388 4293257437
-0.22130044 0.046855424 1.3870001 4293389023
-0.2187352 0.046821646 1.386 4293389280
-0.2164856 0.046855424 1.3870001 4293258209
-0.2140782 0.046855424 1.3870001 4293455331
-0.21182339 0.046889208 1.388 4293520611
-0.20956512 0.046922989 1.3890001 4293520611
-0.20730338 0.04695677 1.3900001 4293520611
-0.20489076 0.04695677 1.3900001 4293454305
-0.20233245 0.046922989 1.3890001 4293520099
-0.19992158 0.046922989 1.3890001 4293454307
-0.19736849 0.046889208 1.388 4293454307
-0.19467843 0.046821646 1.386 4293388514
-0.19144039 0.046618957 1.3800001 4293322977
-0.18794923 0.046348698 1.3720001 4293191648
-0.18502682 0.046213571 1.368 4292994527
-0.18211833 0.046078444 1.3640001 4292731870
-0.26891607 0.048713546 1.3720001 4293455343
-0.2659519 0.048607033 1.3690001 4292994533
-0.26357573 0.048607033 1.3690001 4292731614
-0.26158115 0.048678041 1.3710001 4292797405
-0.25920153 0.048678041 1.3710001 4293060062
-0.25719652 0.048749056 1.373 4293060062
-0.25518456 0.048820063 1.3750001 4293060062
-0.25298184 0.048855569 1.376 4293191648
-0.25095776 0.048926581 1.378 4293060062
-0.24874635 0.048962086 1.3790001 4293060060
-0.24635282 0.048962086 1.3790001 4293125340
-0.2441362 0.048997592 1.3800001 4293059547
-0.2420913 0.049068604 1.3820001 4293125340
-0.239866 0.049104109 1.383 4293257180
-0.23780893 0.049175117 1.3850001 4293257180
-0.23574491 0.049246129 1.3870001 4293257180
-0.23350574 0.049281634 1.388 4293257180
-0.23142958 0.049352646 1.3900001 4293125594
-0.22901696 0.049352646 1.3900001 4293257180
-0.22660434 0.049352646 1.3900001 4293388766
-0.22386913 0.049281634 1.388 4293454816
-0.22130044 0.049246129 1.3870001 4293520866
-0.21889302 0.049246129 1.3870001 4293521379
-0.21664169 0.049281634 1.388 4293455588
-0.21423253 0.049281634 1.388 4293455588
-0.21212861 0.049352646 1.3900001 4293455588
-0.20986687 0.049388152 1.391 4293455331
-0.20760164 0.049423657 1.3920001 4293586404
-0.20518555 0.049423657 1.3920001 4293454818
-0.2026238 0.049388152 1.391 4293520355
-0.20020944 0.049388152 1.391 4293651684
-0.19765289 0.049352646 1.3900001 4293520098
-0.19481888 0.049246129 1.3870001 4293454562
-0.19144039 0.048997592 1.3800001 4293454820
-0.18767524 0.048642538 1.3700001 4293257442
-0.18462107 0.04846501 1.365 4292994785
-0.18185128 0.048358493 1.3620001 4293060580
-0.26695603 0.050706103 1.3620001 4293389804
-0.26498055 0.050780561 1.3640001 4292863202
-0.26319066 0.050892249 1.3670001 4292665821
-0.26177195 0.051078394 1.3720001 4292928221
-0.25976869 0.051152851 1.3740001 4293125855
-0.25794581 0.051264539 1.3770001 4293125855
-0.25611252 0.051376231 1.3800001 4293191648
-0.25371724 0.051376231 1.3800001 4293191135
-0.25168625 0.051450688 1.3820001 4292993756
-0.2492875 0.051450688 1.3820001 4292993754
-0.24688877 0.051450688 1.3820001 4293125340
-0.24449003 0.051450688 1.3820001 4293256926
-0.24244164 0.051525146 1.3840001 4293191133
-0.24038631 0.051599603 1.386 4293191133
-0.23832405 0.051674061 1.388 4293257180
-0.23608486 0.051711291 1.3890001 4293257180
-0.23384221 0.051748518 1.3900001 4293322973
-0.23159607 0.051785748 1.391 4293454559
-0.22918172 0.051785748 1.391 4293454559
-0.22660434 0.051748518 1.3900001 4293520609
-0.22403042 0.051711291 1.3890001 4293586403
-0.22161953 0.051711291 1.3890001 4293652196
-0.21920866 0.051711291 1.3890001 4293717990
-0.21710993 0.051785748 1.391 4293652197
-0.21469557 0.051785748 1.391 4293586661
-0.21258645 0.05186021 1.393 4293586917
-0.21031949 0.051897436 1.3940001 4293652197
-0.20789993 0.051897436 1.3940001 4293717990
-0.20533296 0.05186021 1.393 4293586404
-0.20276946 0.051822979 1.3920001 4293586404
-0.20035337 0.051822979 1.3920001 4293652197
-0.19679971 0.051525146 1.3840001 4293586404
-0.19397613 0.051413458 1.381 4293389027
-0.18548341 0.05040827 1.3540001 4293323492
-0.18313327 0.05040827 1.3540001 4293192164
-0.18131723 0.050557189 1.358 4293389803
-0.27223724 0.052703142 1.353 4293390068
-0.26988882 0.052703142 1.353 4293521138
-0.26714495 0.052625235 1.3510001 4293389551
-0.26480001 0.052625235 1.3510001 4293455084
-0.26381496 0.052897904 1.358 4292994787
-0.26242054 0.05309267 1.363 4292731612
-0.26158115 0.05340429 1.3710001 4292863197
-0.26033586 0.053638007 1.3770001 4293125855
-0.25832045 0.053715914 1.3790001 4293257441
-0.25666928 0.053871725 1.383 4293191648
-0.25445268 0.053910676 1.3840001 4293191133
-0.25223258 0.053949632 1.3850001 4293059547
-0.24982864 0.053949632 1.3850001 4293191133
-0.24724606 0.053910676 1.3840001 4293191133
-0.24502075 0.053949632 1.3850001 4293191133
-0.24279198 0.053988583 1.386 4293256926
-0.24073319 0.05406649 1.388 4293256926
-0.23866744 0.054144394 1.3900001 4293388512
-0.23642479 0.054183345 1.391 4293520352
-0.23401043 0.054183345 1.391 4293586146
-0.23159607 0.054183345 1.391 4293651938
-0.22918172 0.054183345 1.391 4293586146
-0.22676736 0.054183345 1.391 4293717989
-0.22419173 0.054144394 1.3900001 4293652197
-0.22177909 0.054144394 1.3900001 4293783783
-0.21952429 0.054183345 1.391 4293849576
-0.2174221 0.054261256 1.393 4293783783
-0.21500428 0.054261256 1.393 4293717990
-0.21273905 0.054300204 1.3940001 4293717990
-0.21016861 0.054261256 1.393 4293783783
-0.2077508 0.054261256 1.393 4293783783
-0.20518555 0.054222301 1.3920001 4293717990
-0.20247814 0.054144394 1.3900001 4293717991
-0.19977765 0.05406649 1.388 4293717992
-0.19694191 0.053949632 1.3850001 4293586406
-0.18713993 0.052547328 1.3490001 4293454564
-0.18493545 0.052586284 1.35 4293455078
-0.18259226 0.052586284 1.35 4293521131
-0.18091667 0.052781045 1.355 4293323755
-0.2716336 0.054913212 1.35 4293126380
-0.26909092 0.054872535 1.3490001 4293126379
-0.26655173 0.054831859 1.348 4292995047
-0.26440802 0.054872535 1.3490001 4293324009
-0.26342642 0.05515727 1.3560001 4293257957
-0.26184294 0.055319976 1.36 4292797405
-0.26119953 0.055686064 1.3690001 4293059807
-0.26033586 0.056011472 1.3770001 4293191648
-0.25850779 0.056133505 1.3800001 4293191646
-0.25685489 0.056296211 1.3840001 4293125853
-0.25463653 0.056336887 1.3850001 4293125853
-0.2525968 0.056418236 1.3870001 4292994267
-0.250009 0.056377564 1.386 4293191133
-0.24760333 0.056377564 1.386 4293191133
-0.24519765 0.056377564 1.386 4293322719
-0.24314235 0.056458917 1.388 4293388512
-0.24108006 0.056540266 1.3900001 4293454305
-0.23866744 0.056540266 1.3900001 4293520098
-0.23642479 0.05658095 1.391 4293651684
-0.23417866 0.056621622 1.3920001 4293717477
-0.23176256 0.056621622 1.3920001 4293783270
-0.22934647 0.056621622 1.3920001 4293783270
-0.22693038 0.056621622 1.3920001 4293717990
-0.224353 0.05658095 1.391 4293717990
-0.22193864 0.05658095 1.391 4293849576
-0.2196821 0.056621622 1.3920001 4293849576
-0.21757817 0.056702979 1.3940001 4293849576
-0.21515861 0.056702979 1.3940001 4293783783
-0.21258645 0.056662295 1.393 4293783783
-0.21016861 0.056662295 1.393 4293783783
-0.20760164 0.056621622 1.3920001 4293717990
-0.20503815 0.05658095 1.391 4293849576
-0.20204113 0.056418236 1.3870001 4293783784
-0.19877012 0.056174181 1.381 4293717992
-0.18672375 0.054750506 1.3460001 4293586408
-0.18466148 0.054831859 1.348 4293784044
-0.18245701 0.054872535 1.3490001 4293587182
-0.18078314 0.055075914 1.3540001 4292468448
-0.28031451 0.057579339 1.358 4293324277
-0.27734339 0.057452139 1.355 4293061103
-0.27478856 0.057409741 1.3540001 4292797415
-0.27183479 0.057282541 1.3510001 4293126380
-0.26929039 0.057240136 1.35 4293520880
-0.26674947 0.057197738 1.3490001 4292994534
-0.26440802 0.057197738 1.3490001 4293126117
-0.26245508 0.057282541 1.3510001 4293652716
-0.26030269 0.057324938 1.3520001 4293126370
-0.25666928 0.058639344 1.383 4293125853
-0.25426883 0.058639344 1.383 4293060060
-0.25205046 0.058681741 1.3840001 4293060060
-0.24982864 0.058724146 1.3850001 4293060060
-0.24760333 0.058766544 1.386 4293257439
-0.2455515 0.058851346 1.388 4293389025
-0.24331751 0.058893744 1.3890001 4293323230
-0.24108006 0.058936141 1.3900001 4293454818
-0.23901084 0.059020944 1.3920001 4293520611
-0.23659475 0.059020944 1.3920001 4293652197
-0.23451513 0.059105746 1.3940001 4293586405
-0.23192905 0.059063341 1.393 4293717990
-0.22951123 0.059063341 1.393 4293783783
-0.22676736 0.058978546 1.391 4293717990
-0.224353 0.058978546 1.391 4293783783
-0.22193864 0.058978546 1.391 4293915369
-0.21952429 0.058978546 1.391 4293981162
-0.21710993 0.058978546 1.391 4293981162
-0.21454124 0.058936141 1.3900001 4293849576
-0.21182339 0.058851346 1.388 4293849576
-0.20881075 0.058681741 1.3840001 4293849576
-0.2062594 0.058639344 1.383 4293849576
-0.18575267 0.056773741 1.3390001 4293718765
-0.18397653 0.056943338 1.3430001 4293521388
-0.1821865 0.057112936 1.3470001 4292468702
-0.18145072 0.057621736 1.3590001 4291876567
-0.28031451 0.059920058 1.358 4293126382
-0.27713871 0.059743565 1.3540001 4292863208
-0.27478856 0.059743565 1.3540001 4293455345
-0.27243844 0.059743565 1.3540001 4293850103
-0.26988882 0.059699435 1.353 4293784309
-0.26734266 0.059655316 1.3520001 4293389292
-0.264604 0.059567064 1.35 4292665568
-0.26148373 0.059390571 1.3460001 4293126373
-0.2591475 0.059390571 1.3460001 4293586923
-0.25719285 0.059478823 1.348 4293257700
-0.25428593 0.059346452 1.345 4293126370
-0.24484384 0.061067272 1.3840001 4293323230
-0.24279198 0.061155524 1.386 4293389023
-0.24038631 0.061155524 1.386 4293454816
-0.23815233 0.061199646 1.3870001 4293454818
-0.23608486 0.061287895 1.3890001 4293520611
-0.23384221 0.061332017 1.3900001 4293783784
-0.23126309 0.061287895 1.3890001 4293652197
-0.2288522 0.061287895 1.3890001 4293652197
-0.22595224 0.061155524 1.386 4293783783
-0.22322398 0.061067272 1.3840001 4293849576
-0.22082178 0.061067272 1.3840001 4293783783
-0.2187352 0.061155524 1.386 4293915369
-0.19128565 0.058640469 1.3290001 4293849837
-0.18912111 0.058684591 1.33 4293784301
-0.18667217 0.058640469 1.3290001 4293521388
-0.18492033 0.058816962 1.3330001 4293060839
-0.18383954 0.059214082 1.342 4292139738
-0.18232176 0.059478823 1.348 4291744725
-0.18318647 0.060537789 1.3720001 4291744727
-0.28754732 0.062810943 1.3700001 4293390068
-0.28433681 0.062627554 1.3660001 4293389554
-0.28134659 0.062490012 1.363 4292863208
-0.27877614 0.062444169 1.3620001 4293060587
-0.27600625 0.062352471 1.36 4293389552
-0.26519203 0.062031534 1.353 4292139738
-0.26167804 0.061756451 1.3470001 4292402395
-0.2585699 0.061573066 1.3430001 4293323497
-0.25604808 0.061527219 1.342 4293718509
-0.25334063 0.061435521 1.34 4293455335
-0.24635282 0.063223571 1.3790001 4293389025
-0.24378239 0.06317772 1.378 4293323230
-0.24156576 0.063223571 1.3790001 4293323230
-0.2395191 0.063315265 1.381 4293454816
-0.23746553 0.063406959 1.383 4293520609
-0.23506506 0.063406959 1.383 4293520611
-0.23300104 0.063498661 1.3850001 4293652197
-0.2304306 0.063452803 1.3840001 4293652197
-0.22786364 0.063406959 1.383 4293717990
-0.22513711 0.063315265 1.381 4293717991
-0.22225626 0.06317772 1.378 4293849576
-0.2197049 0.063131876 1.3770001 4293849576
-0.21794613 0.063315265 1.381 4293915369
-0.19085386 0.060793657 1.3260001 4293915632
-0.18869452 0.060839504 1.327 4293192167
-0.18653171 0.060885355 1.3280001 4292402910
-0.18505906 0.061160438 1.3340001 4291810518
-0.18411352 0.061618909 1.3440001 4291744726
-0.18259226 0.061893992 1.35 4291678934
-0.18278591 0.062765099 1.3690001 4291876313
-0.28775722 0.065219916 1.3710001 4293324275
-0.28496125 0.065124772 1.3690001 4292732392
-0.28217226 0.065029629 1.3670001 4292402657
-0.26148373 0.06403064 1.3460001 4291876567
-0.25779977 0.063697644 1.3390001 4292468703
-0.2543309 0.063412212 1.3330001 4292994532
-0.25182816 0.063364647 1.332 4293586923
-0.24895422 0.063221931 1.3290001 4293586921
-0.19716191 0.062888935 1.322 4293915886
-0.19516212 0.062984072 1.3240001 4293718508
-0.1927184 0.062936507 1.3230001 4293257702
-0.19042207 0.062936507 1.3230001 4292402652
-0.18841012 0.063031651 1.325 4291876566
-0.18639125 0.063126788 1.327 4291679189
-0.18505906 0.063459791 1.3340001 4291678933
-0.1842505 0.063983068 1.345 4291744726
-0.18245701 0.064173356 1.3490001 4291744727
-0.18145072 0.06464906 1.3590001 4291744727
-0.28796712 0.067632332 1.3720001 4293324275
-0.28516939 0.067533746 1.3700001 4292403427
-0.28258508 0.067484453 1.3690001 4291942619
-0.26128948 0.066301383 1.345 4292402656
-0.25760725 0.065956317 1.3380001 4292271070
-0.25375852 0.065561958 1.33 4292205531
-0.2510719 0.065463372 1.3280001 4292468701
-0.24820495 0.065315485 1.325 4293060579
-0.23900574 0.065315485 1.325 4293586921
-0.23599134 0.065118305 1.3210001 4293455335
-0.23458305 0.065364778 1.3260001 4293258210
-0.23158081 0.065167606 1.322 4293192416
-0.21045081 0.065019719 1.319 4293718506
-0.20816141 0.065019719 1.319 4293784300
-0.20587203 0.065019719 1.319 4293915887
-0.20311961 0.064871833 1.3160001 4293915887
-0.20068282 0.064822532 1.3150001 4293915886
-0.19840038 0.064822532 1.3150001 4293257957
-0.19626707 0.064871833 1.3160001 4292468442
-0.1942777 0.064970419 1.3180001 4292073429
-0.19213572 0.065019719 1.319 4291876308
-0.19042207 0.065216891 1.3230001 4291810773
-0.18869452 0.065414071 1.327 4291679188
-0.18667217 0.065512665 1.3290001 4291678932
-0.18519779 0.06580843 1.335 4291678934
-0.18411352 0.066252083 1.3440001 4291678934
-0.18232176 0.066449262 1.348 4291678934
-0.18171777 0.067090094 1.3610001 4291678934
-0.29267636 0.070558384 1.383 4293455861
-0.28796712 0.069997184 1.3720001 4293192943
-0.28558573 0.069997184 1.3720001 4292139742
-0.25741473 0.068211541 1.337 4292205277
-0.25394931 0.067905433 1.3310001 4292205277
-0.2510719 0.067752376 1.3280001 4292271324
-0.24764295 0.067446269 1.322 4292271324
-0.24479161 0.067293212 1.319 4292402908
-0.24231838 0.06724219 1.3180001 4292731871
-0.24003072 0.06724219 1.3180001 4293455594
-0.23774308 0.06724219 1.3180001 4293850095
-0.23509811 0.067140162 1.3160001 4293915886
-0.23316777 0.06724219 1.3180001 4293718251
-0.20949349 0.066987097 1.3130001 4293652972
-0.20737234 0.067038119 1.314 4293324008
-0.20493554 0.066987097 1.3130001 4292994787
-0.20265657 0.066987097 1.3130001 4292337113
-0.2003776 0.066987097 1.3130001 4291942356
-0.19809863 0.066987097 1.3130001 4291810771
-0.19611794 0.067089133 1.3150001 4291744979
-0.19442511 0.067293212 1.319 4291679187
-0.1922814 0.067344226 1.3200001 4291744980
-0.19056599 0.067548297 1.3240001 4291744725
-0.18897891 0.06780339 1.3290001 4291613140
-0.1869531 0.067905433 1.3310001 4291744726
-0.1853365 0.068160519 1.3360001 4291744726
-0.18411352 0.068568669 1.3440001 4291613141
-0.1821865 0.068721719 1.3470001 4291613141
-0.18145072 0.069333941 1.3590001 4291678934
-0.29246473 0.072889447 1.3820001 4293324275
-0.28796712 0.072362036 1.3720001 4293192943
-0.28558573 0.072362036 1.3720001 4292205278
-0.25934005 0.071043476 1.3470001 4292073692
-0.2545217 0.070357837 1.3340001 4292205278
-0.25145006 0.070146866 1.33 4292271070
-0.24783027 0.069777675 1.3230001 4292205277
-0.24460603 0.069513962 1.3180001 4292205531
-0.24195065 0.069408484 1.3160001 4292205529
-0.23930225 0.069302998 1.314 4292271322
-0.23666079 0.069197513 1.312 4292271322
-0.23402624 0.069092028 1.3100001 4292337115
-0.23157556 0.069039285 1.309 4292468701
-0.22930354 0.069039285 1.309 4292337115
-0.22703151 0.069039285 1.309 4292534492
-0.22441608 0.0689338 1.307 4292600541
-0.22214751 0.0689338 1.307 4292732125
-0.21987896 0.0689338 1.307 4292666076
-0.2176104 0.0689338 1.307 4292468699
-0.21550661 0.068986543 1.3080001 4292402906
-0.21339934 0.069039285 1.309 4292337113
-0.21112731 0.069039285 1.309 4292205527
-0.20869572 0.068986543 1.3080001 4291942355
-0.20626761 0.0689338 1.307 4291942357
-0.20399906 0.0689338 1.307 4291942357
-0.20188485 0.068986543 1.3080001 4291876564
-0.19991978 0.069092028 1.3100001 4291876564
-0.19779688 0.069144771 1.3110001 4291744979
-0.19596881 0.069302998 1.314 4291744724
-0.19442511 0.069566712 1.319 4291744982
-0.19242705 0.06967219 1.3210001 4291744726
-0.19085386 0.069935903 1.3260001 4291744726
-0.18912111 0.070146866 1.33 4291810519
-0.18709356 0.070252351 1.332 4291679189
-0.1853365 0.070463315 1.3360001 4291613396
-0.18397653 0.070832513 1.3430001 4291613140
-0.18205126 0.070990741 1.3460001 4291744726
-0.18131723 0.071623646 1.358 4291744727
-0.29225308 0.075217068 1.381 4293324275
-0.28796712 0.07472688 1.3720001 4293061357
-0.28537759 0.074672416 1.3710001 4292007899
-0.25953257 0.073419705 1.348 4292271073
-0.25471249 0.072711654 1.335 4292205278
-0.2516391 0.072493792 1.3310001 4292271071
-0.24801762 0.07211253 1.3240001 4292205277
-0.24479161 0.071840204 1.319 4292205277
-0.2421345 0.071731269 1.317 4292271324
-0.23930225 0.071567871 1.314 4292271324
-0.23648039 0.071404479 1.3110001 4292139738
-0.2338476 0.071295545 1.309 4292205531
-0.23122177 0.07118661 1.307 4292073945
-0.228778 0.071132146 1.3060001 4292008152
-0.22633776 0.071077682 1.3050001 4292073945
-0.22390096 0.071023211 1.304 4292139738
-0.22163761 0.071023211 1.304 4292073945
-0.21937425 0.071023211 1.304 4292008150
-0.21711092 0.071023211 1.304 4292008150
-0.21501233 0.071077682 1.3050001 4292008150
-0.21307328 0.07118661 1.307 4291942357
-0.21096602 0.071241081 1.3080001 4291876564
-0.20869572 0.071241081 1.3080001 4292008151
-0.20642544 0.071241081 1.3080001 4292073944
-0.20399906 0.07118661 1.307 4291942359
-0.2020392 0.071295545 1.309 4291810773
-0.20007239 0.071404479 1.3110001 4291744980
-0.19794776 0.071458943 1.312 4291876566
-0.19596881 0.071567871 1.314 4291942104
-0.1942777 0.071785733 1.3180001 4291876312
-0.1922814 0.071894668 1.3200001 4291744726
-0.19070992 0.072166994 1.325 4291744726
-0.18897891 0.072384857 1.3290001 4291678933
-0.1869531 0.072493792 1.3310001 4291678933
-0.1853365 0.07276611 1.3360001 4291678933
-0.18383954 0.073092915 1.342 4291744726
-0.1821865 0.073365234 1.3470001 4291744726
-0.18145072 0.074018821 1.3590001 4291744726
-0.29246473 0.077653617 1.3820001 4293455347
-0.28817698 0.077147916 1.373 4293257966
-0.28558573 0.077091731 1.3720001 4292139485
-0.25509408 0.075125106 1.337 4292008669
-0.2520172 0.074900344 1.3330001 4292271071
-0.24839227 0.07450702 1.3260001 4292271071
-0.24516279 0.074226074 1.3210001 4292139484
-0.24268608 0.074169889 1.3200001 4292271070
-0.23984858 0.07400132 1.317 4292336863
-0.23684116 0.073776558 1.3130001 4292139484
-0.2338476 0.073551804 1.309 4292205277
-0.23122177 0.073439419 1.307 4292139484
-0.228778 0.073383234 1.3060001 4292073691
-0.22633776 0.07332705 1.3050001 4292007898
-0.22407268 0.07332705 1.3050001 4292073691
-0.22163761 0.073270857 1.304 4292139484
-0.21937425 0.073270857 1.304 4292205277
-0.21727742 0.07332705 1.3050001 4292007898
-0.21534184 0.073439419 1.307 4291942105
-0.21339934 0.073551804 1.309 4291942360
-0.21112731 0.073551804 1.309 4291942359
-0.20901483 0.073607989 1.3100001 4292007896
-0.20674106 0.073607989 1.3100001 4292073946
-0.2044673 0.073607989 1.3100001 4292073691
-0.20219353 0.073607989 1.3100001 4292073946
-0.20007239 0.073664181 1.3110001 4292008152
-0.19794776 0.073720373 1.312 4291942359
-0.19596881 0.07383275 1.314 4291876567
-0.1942777 0.074057505 1.3180001 4291810519
-0.19213572 0.074113697 1.319 4291613140
-0.19056599 0.074394643 1.3240001 4291678933
-0.18897891 0.07467559 1.3290001 4291678933
-0.1869531 0.074787967 1.3310001 4291678933
-0.1853365 0.075068913 1.3360001 4291678933
-0.18411352 0.075518429 1.3440001 4291744726
-0.1821865 0.075686991 1.3470001 4291744726
-0.18158425 0.076417461 1.36 4291810520
-0.29267636 0.080093622 1.383 4293455604
-0.28838688 0.079572402 1.3740001 4293323761
-0.28558573 0.079456575 1.3720001 4292336864
-0.28361717 0.079572402 1.3740001 4291613141
-0.26011014 0.078240409 1.3510001 4292534759
-0.25547567 0.077545457 1.3390001 4291942622
-0.25239533 0.077313796 1.335 4292271071
-0.24857958 0.076850489 1.327 4292271071
-0.24534836 0.076560929 1.322 4292205278
-0.24286993 0.076503016 1.3210001 4292139484
-0.24021284 0.076387197 1.319 4292139484
-0.23702154 0.07609763 1.314 4292205277
-0.23438355 0.075981796 1.312 4292205277
-0.23175247 0.075865969 1.3100001 4292271070
-0.22930354 0.075808063 1.309 4292271070
-0.22685808 0.07575015 1.3080001 4292205277
-0.22441608 0.075692229 1.307 4292205277
-0.22214751 0.075692229 1.307 4292205277
-0.21987896 0.075692229 1.307 4292336863
-0.2176104 0.075692229 1.307 4292205277
-0.21567136 0.075808063 1.309 4292205277
-0.21372539 0.07592389 1.3110001 4292205277
-0.21144989 0.07592389 1.3110001 4292139484
-0.20933394 0.075981796 1.312 4292139484
-0.2070567 0.075981796 1.312 4292205277
-0.20477946 0.075981796 1.312 4292073691
-0.20234789 0.07592389 1.3110001 4292008154
-0.200225 0.075981796 1.312 4291942360
-0.19779688 0.07592389 1.3110001 4291876567
-0.19581966 0.076039709 1.3130001 4291810519
-0.1941303 0.076271363 1.317 4291810519
-0.19213572 0.076387197 1.319 4291678933
-0.19042207 0.076618843 1.3230001 4291678933
-0.18883671 0.07690841 1.3280001 4291678933
-0.18681262 0.077024229 1.33 4291678933
-0.18547523 0.077429622 1.337 4291744726
-0.1842505 0.077892929 1.345 4291744726
-0.18245701 0.078124583 1.3490001 4291744726
-0.18171777 0.078819536 1.3610001 4291744726
-0.28838688 0.081940703 1.3740001 4293324275
-0.28537759 0.081761792 1.3710001 4292600036
-0.28361717 0.081940703 1.3740001 4291810520
-0.25953257 0.080390148 1.348 4292732138
-0.25547567 0.079853423 1.3390001 4292205280
-0.25239533 0.07961487 1.335 4292402657
-0.24857958 0.07913778 1.327 4292402657
-0.24553394 0.078899235 1.3230001 4292336863
-0.24286993 0.078779958 1.3210001 4292205277
-0.24003072 0.078601047 1.3180001 4292271070
-0.23720191 0.078422137 1.3150001 4292139484
-0.23456219 0.07830286 1.3130001 4292205277
-0.23192938 0.078183591 1.3110001 4292271070
-0.22947872 0.078123957 1.3100001 4292271070
-0.22703151 0.078064322 1.309 4292139484
-0.22441608 0.077945046 1.307 4292205277
-0.22214751 0.077945046 1.307 4292271070
-0.21987896 0.077945046 1.307 4292336863
-0.21777691 0.078004688 1.3080001 4292271070
-0.21567136 0.078064322 1.309 4292271070
-0.21356235 0.078123957 1.3100001 4292139484
-0.21144989 0.078183591 1.3110001 4292139484
-0.20933394 0.078243226 1.312 4292139484
-0.2070567 0.078243226 1.312 4292073691
-0.20462339 0.078183591 1.3110001 4291942105
-0.20234789 0.078183591 1.3110001 4291876312
-0.19991978 0.078123957 1.3100001 4291942105
-0.19764601 0.078123957 1.3100001 4291942105
-0.19581966 0.07830286 1.3130001 4291810519
-0.1939829 0.078481779 1.3160001 4291744726
-0.19199005 0.078601047 1.3180001 4291744726
-0.19042207 0.078899235 1.3230001 4291744726
-0.18869452 0.07913778 1.327 4291678933
-0.18681262 0.079316683 1.33 4291744726
-0.18547523 0.079734147 1.337 4291678933
-0.1842505 0.080211237 1.345 4291744726
-0.18259226 0.080509417 1.35 4291744726
-0.18171777 0.081165425 1.3610001 4291744727
-0.28838688 0.084308997 1.3740001 4293324275
-0.28558573 0.084186271 1.3720001 4292797928
-0.28361717 0.084308997 1.3740001 4291876313
-0.25604808 0.082345471 1.342 4292205278
-0.25277346 0.082038663 1.337 4292402657
-0.24895422 0.081547782 1.3290001 4292271071
-0.24553394 0.081179619 1.3230001 4292336864
-0.24305376 0.081118263 1.322 4292205278
-0.24021284 0.080934182 1.319 4292073691
-0.23738229 0.0807501 1.3160001 4292139484
-0.23474084 0.080627382 1.314 4292073691
-0.23210631 0.080504656 1.312 4292205277
-0.22982907 0.080504656 1.312 4292271070
-0.22720495 0.080381937 1.3100001 4292007898
-0.22475949 0.080320574 1.309 4292007898
-0.22248745 0.080320574 1.309 4292205277
-0.22021542 0.080320574 1.309 4292271070
-0.2179434 0.080320574 1.309 4292205277
-0.21600088 0.0804433 1.3110001 4292007898
-0.21388841 0.080504656 1.312 4292073691
-0.21161118 0.080504656 1.312 4291942105
-0.20933394 0.080504656 1.312 4292007898
-0.2070567 0.080504656 1.312 4292007898
-0.20462339 0.0804433 1.3110001 4292007898
-0.20234789 0.0804433 1.3110001 4291942105
-0.20007239 0.0804433 1.3110001 4291942105
-0.19794776 0.080504656 1.312 4291810519
-0.19596881 0.080627382 1.314 4291810519
-0.19442511 0.080934182 1.319 4291810519
-0.19242705 0.0810569 1.3210001 4291744726
-0.19070992 0.081302345 1.325 4291744726
-0.18912111 0.081609137 1.33 4291744726
-0.18709356 0.081731863 1.332 4291876312
-0.18575267 0.082161389 1.3390001 4291810519
-0.18452449 0.082652263 1.3470001 4291810520
-0.18259226 0.082836345 1.35 4291744727
-0.18185128 0.083572678 1.3620001 4291810520
-0.28558573 0.086551122 1.3720001 4293061357
-0.2827915 0.086424954 1.3700001 4292008669
-0.28082296 0.086551122 1.3720001 4291416532
-0.25662044 0.08484786 1.345 4292336864
-0.25315157 0.084469356 1.3390001 4292271071
-0.24914157 0.083901599 1.33 4292336864
-0.24571955 0.083523095 1.3240001 4292402656
-0.24305376 0.083396927 1.322 4292139484
-0.24021284 0.083207682 1.319 4292205277
-0.23738229 0.08301843 1.3160001 4292336863
-0.23491947 0.082955338 1.3150001 4292336863
-0.23246013 0.082892254 1.314 4292139484
-0.22982907 0.082766086 1.312 4292139484
-0.2273784 0.082703009 1.3110001 4292139484
-0.22493118 0.082639918 1.3100001 4292139484
-0.22248745 0.082576834 1.309 4292271070
-0.22038364 0.082639918 1.3100001 4292205277
-0.21810989 0.082639918 1.3100001 4292139484
-0.21600088 0.082703009 1.3110001 4292073691
-0.21372539 0.082703009 1.3110001 4292007898
-0.21161118 0.082766086 1.312 4292007898
-0.20917439 0.082703009 1.3110001 4292139484
-0.2070567 0.082766086 1.312 4292007898
-0.20462339 0.082703009 1.3110001 4292007898
-0.20250224 0.082766086 1.312 4291876312
-0.20053022 0.082892254 1.314 4291942105
-0.19840038 0.082955338 1.3150001 4291876311
-0.19641621 0.083081506 1.317 4291744980
-0.19471991 0.083333842 1.3210001 4291810517
-0.1927184 0.083460011 1.3230001 4291678933
-0.19099779 0.083712347 1.327 4291678933
-0.1894055 0.084027767 1.332 4291744726
-0.18737447 0.084153935 1.3340001 4291744726
-0.1858914 0.08453244 1.34 4291744727
-0.18466148 0.085037112 1.348 4291744727
-0.18286277 0.085289441 1.3520001 4291810520
-0.18198481 0.085983366 1.363 4291744727
-0.28000423 0.088656746 1.368 4291482325
-0.25738364 0.087425396 1.3490001 4292468450
-0.25409687 0.087101355 1.3440001 4292271071
-0.24914157 0.086194053 1.33 4292336864
-0.24571955 0.085805207 1.3240001 4292271070
-0.24305376 0.085675597 1.322 4292205277
-0.24021284 0.085481174 1.319 4292336863
-0.23756267 0.085351557 1.317 4292336863
-0.23491947 0.085221939 1.3150001 4292007898
-0.23246013 0.085157134 1.314 4292271070
-0.22982907 0.085027516 1.312 4292073434
-0.2273784 0.084962711 1.3110001 4292205020
-0.22493118 0.084897898 1.3100001 4292467422
-0.22248745 0.084833093 1.309 4292401630
-0.22038364 0.084897898 1.3100001 4292335837
-0.21810989 0.084897898 1.3100001 4292205020
-0.21583612 0.084897898 1.3100001 4292139227
-0.21356235 0.084897898 1.3100001 4292205020
-0.21128859 0.084897898 1.3100001 4292073691
-0.20917439 0.084962711 1.3110001 4292073691
-0.20689888 0.084962711 1.3110001 4292073691
-0.20477946 0.085027516 1.312 4292073691
-0.20265657 0.085092321 1.3130001 4291942104
-0.20053022 0.085157134 1.314 4292008152
-0.19855125 0.085286751 1.3160001 4291942359
-0.19656536 0.085416362 1.3180001 4291810773
-0.19486731 0.085675597 1.322 4291810773
-0.19286406 0.085805207 1.3240001 4291679189
-0.19114172 0.086064443 1.3280001 4291810519
-0.1894055 0.086323671 1.332 4291810519
-0.18737447 0.086453289 1.3340001 4291744726
-0.1858914 0.086842127 1.34 4291744727
-0.18466148 0.087360591 1.348 4291744727
-0.18286277 0.087619819 1.3520001 4291744727
-0.18198481 0.088332705 1.363 4291744727
-0.26222801 0.090615511 1.3620001 4293915896
-0.25795603 0.089950196 1.3520001 4292929001
-0.25466406 0.089617535 1.3470001 4292271071
-0.25064015 0.089018755 1.3380001 4292271071
-0.24683309 0.088486508 1.33 4292205278
-0.24397305 0.088286914 1.327 4292271070
-0.24094129 0.088020794 1.3230001 4292271070
-0.23810384 0.0878212 1.3200001 4292073691
-0.23527676 0.087621607 1.317 4290626245
-0.23263703 0.08748854 1.3150001 4287270545
-0.23035459 0.08748854 1.3150001 4292598751
-0.22789872 0.087422013 1.314 4292335066
-0.225618 0.087422013 1.314 4292137175
-0.22316732 0.087355472 1.3130001 4292860386
-0.22088835 0.087355472 1.3130001 4293189608
-0.21860938 0.087355472 1.3130001 4292137175
-0.21633041 0.087355472 1.3130001 4292269274
-0.21405143 0.087355472 1.3130001 4292204507
-0.21144989 0.08722242 1.3110001 4292139227
-0.20933394 0.087288946 1.312 4292139484
-0.20721452 0.087355472 1.3130001 4292073691
-0.20509164 0.087422013 1.314 4292008153
-0.20296527 0.08748854 1.3150001 4292073945
-0.20114066 0.087688133 1.3180001 4292008152
-0.19900388 0.087754667 1.319 4291942359
-0.19716191 0.08795426 1.322 4291942359
-0.19530952 0.088153854 1.325 4291744981
-0.19330107 0.088286914 1.327 4291876312
-0.19142959 0.088486508 1.33 4291876312
-0.1896899 0.088752635 1.3340001 4291810520
-0.18765539 0.088885695 1.3360001 4291810519
-0.18616885 0.089284889 1.342 4291744727
-0.18479848 0.089750603 1.3490001 4291744727
-0.18299803 0.090016723 1.353 4291744727
-0.26203549 0.092894867 1.3610001 4291810519
-0.25814682 0.092348821 1.353 4291810519
-0.2550422 0.09207581 1.3490001 4291942105
-0.25082746 0.091393262 1.3390001 4292336863
-0.24701868 0.090847224 1.3310001 4292271070
-0.24434073 0.090710707 1.3290001 4292336863
-0.24112342 0.090369433 1.3240001 4292336863
-0.2382842 0.090164669 1.3210001 4292402399
-0.23527676 0.08989165 1.317 4291349711
-0.23281394 0.089823402 1.3160001 4284440163
-0.23035459 0.08975514 1.3150001 4292924893
-0.22772528 0.089618631 1.3130001 4288249228
-0.22527459 0.089550376 1.312 4284889166
-0.22299735 0.089550376 1.312 4288509320
-0.22072011 0.089550376 1.312 4290287014
-0.21844289 0.089550376 1.312 4285942880
-0.21616565 0.089550376 1.312 4286079342
-0.21405143 0.089618631 1.3130001 4291742417
-0.21177246 0.089618631 1.3130001 4292007386
-0.20965305 0.089686885 1.314 4292139485
-0.20753016 0.08975514 1.3150001 4292139996
-0.20540379 0.089823402 1.3160001 4292205274
-0.20327397 0.08989165 1.317 4292073945
-0.20129326 0.090028167 1.319 4292008152
-0.19930562 0.090164669 1.3210001 4291942359
-0.19746019 0.090369433 1.3240001 4291942359
-0.19560434 0.090574197 1.327 4291876566
-0.19344673 0.09064246 1.3280001 4291876311
-0.19157353 0.090847224 1.3310001 4291810519
-0.18983209 0.091120236 1.335 4291810519
-0.18765539 0.09118849 1.3360001 4291810520
-0.18603012 0.091529764 1.3410001 4291744727
-0.18466148 0.092007555 1.348 4291744727
-0.18299803 0.092348821 1.353 4291744727
-0.25891 0.094960839 1.3570001 4289507764
-0.2559875 0.094750904 1.3540001 4291547347
-0.25195143 0.094121099 1.345 4292336863
-0.24794662 0.093491286 1.3360001 4292336863
-0.24507615 0.093281351 1.3330001 4292271070
-0.24166977 0.092861481 1.327 4292205277
-0.23864496 0.09258157 1.3230001 4292205533
-0.23563407 0.092301659 1.319 4292336349
-0.23281394 0.092091724 1.3160001 4284571236
-0.23035459 0.092021741 1.3150001 4292792282
-0.22807215 0.092021741 1.3150001 4290151578
-0.225618 0.091951765 1.314 4286260552
-0.22333729 0.091951765 1.314 4287444569
-0.22105658 0.091951765 1.314 4288431721
-0.21877588 0.091951765 1.314 4287906660
-0.21649517 0.091951765 1.314 4286070616
-0.21421446 0.091951765 1.314 4289040284
-0.21193376 0.091951765 1.314 4292270301
-0.2098126 0.092021741 1.3150001 4292008412
-0.20768797 0.092091724 1.3160001 4292139484
-0.20555988 0.0921617 1.317 4292205277
-0.20358264 0.092301659 1.319 4292139483
-0.20159848 0.092441611 1.3210001 4292139738
-0.1994565 0.092511594 1.322 4292073945
-0.19775847 0.092791505 1.3260001 4292008152
-0.19589914 0.09300144 1.3290001 4292008153
-0.19373806 0.093071416 1.33 4291942105
-0.19171746 0.093211375 1.332 4291876312
-0.18983209 0.09342131 1.335 4291744727
-0.18779586 0.093561269 1.337 4291876313
-0.18616885 0.093911164 1.342 4291744727
-0.18479848 0.094401009 1.3490001 4291810520
-0.18299803 0.09468092 1.353 4291744727
-0.25307536 0.096869625 1.3510001 4292271071
-0.24887455 0.096152596 1.3410001 4292271071
-0.24581158 0.095865794 1.337 4292336864
-0.24239825 0.095435575 1.3310001 4292271071
-0.23918612 0.095077068 1.3260001 4292205277
-0.23581271 0.094646856 1.3200001 4292796388
-0.23316777 0.094503447 1.3180001 4284308578
-0.23070493 0.09443175 1.317 4289504428
-0.22824557 0.094360046 1.3160001 4293973989
-0.2259614 0.094360046 1.3160001 4290609564
-0.22367722 0.094360046 1.3160001 4287707741
-0.22139305 0.094360046 1.3160001 4287969629
-0.21910886 0.094360046 1.3160001 4287841381
-0.21682468 0.094360046 1.3160001 4287782517
-0.21454051 0.094360046 1.3160001 4292397267
-0.21225633 0.094360046 1.3160001 4292073435
-0.2101317 0.09443175 1.317 4292139228
-0.20800361 0.094503447 1.3180001 4292205534
-0.20587203 0.094575152 1.319 4292271326
-0.20373701 0.094646856 1.3200001 4292205276
-0.20190372 0.094861962 1.3230001 4292139738
-0.19975825 0.094933659 1.3240001 4292073945
-0.19790761 0.095148765 1.327 4292008152
-0.19589914 0.095292173 1.3290001 4292008154
-0.19388375 0.095435575 1.3310001 4291942105
-0.19200532 0.095650688 1.3340001 4291876312
-0.19011649 0.095865794 1.337 4291810519
-0.18807678 0.096009195 1.3390001 4291876313
-0.18644629 0.096367702 1.3440001 4291810520
-0.18507244 0.096869625 1.3510001 4291810520
-0.24906015 0.098537445 1.342 4292205278
-0.24599543 0.098243736 1.3380001 4292336864
-0.24258035 0.097803183 1.332 4292271071
-0.23918612 0.097362623 1.3260001 4292271070
-0.23616999 0.097068928 1.322 4292796387
-0.23334467 0.096848652 1.319 4288849321
-0.23088013 0.096775219 1.3180001 4287927193
-0.22841901 0.096701793 1.317 4292796388
-0.2259614 0.096628368 1.3160001 4293451495
-0.22367722 0.096628368 1.3160001 4293510102
-0.22139305 0.096628368 1.3160001 4287846257
-0.21910886 0.096628368 1.3160001 4289693081
-0.21682468 0.096628368 1.3160001 4293384932
-0.21454051 0.096628368 1.3160001 4292401374
-0.21225633 0.096628368 1.3160001 4292073436
-0.2101317 0.096701793 1.317 4292205021
-0.20800361 0.096775219 1.3180001 4292271070
-0.20587203 0.096848652 1.319 4292205790
-0.20389134 0.096995495 1.3210001 4292271325
-0.20190372 0.097142346 1.3230001 4292205531
-0.19960739 0.097142346 1.3230001 4292139738
-0.19775847 0.097362623 1.3260001 4292073945
-0.19589914 0.097582906 1.3290001 4291942360
-0.19373806 0.097656325 1.33 4291942105
-0.19200532 0.097950034 1.3340001 4291876312
-0.19025868 0.098243736 1.3380001 4291876312
-0.18807678 0.098317169 1.3390001 4291876313
-0.18658502 0.098757721 1.345 4291744727
-0.24673085 0.10085058 1.342 4292205278
-0.24312669 0.10032453 1.335 4291810520
-0.23990765 0.099948779 1.33 4290231488
-0.23742051 0.099873632 1.3290001 4292139485
-0.23387539 0.099347591 1.322 4292468449
-0.23140563 0.099272437 1.3210001 4292205277
-0.22893934 0.099197291 1.3200001 4292336607
-0.22647651 0.099122144 1.319 4292467680
-0.22418712 0.099122144 1.319 4292532959
-0.22189774 0.099122144 1.319 4292664032
-0.21944186 0.09904699 1.3180001 4292663776
-0.2171542 0.09904699 1.3180001 4292532703
-0.21470354 0.098971844 1.317 4292401887
-0.21257891 0.09904699 1.3180001 4292205021
-0.21045081 0.099122144 1.319 4292139998
-0.20831925 0.099197291 1.3200001 4292205790
-0.20634028 0.099347591 1.322 4292270813
-0.20420004 0.099422738 1.3230001 4292271069
-0.20220892 0.099573039 1.325 4292139739
-0.19990912 0.099573039 1.325 4292139739
-0.19805674 0.099798486 1.3280001 4292139738
-0.19619396 0.10002393 1.3310001 4291942360
-0.19402941 0.10009908 1.332 4291942104
-0.19229318 0.10039968 1.3360001 4291942105
-0.19068527 0.10077543 1.3410001 4291810519
-0.18863863 0.10092573 1.3430001 4291810519
-0.24403729 0.10300997 1.34 4292007899
-0.24080954 0.1026256 1.335 4288323491
-0.2381351 0.10247186 1.3330001 4289507765
-0.23440614 0.10185688 1.325 4291481554
-0.23193116 0.10178 1.3240001 4288915627
-0.22945964 0.10170313 1.3230001 4291678933
-0.22699162 0.10162625 1.322 4291218125
-0.22469702 0.10162625 1.322 4292665571
-0.22240244 0.10162625 1.322 4292138971
-0.21994135 0.10154938 1.3210001 4292532446
-0.21764849 0.10154938 1.3210001 4292664032
-0.21535563 0.10154938 1.3210001 4292796388
-0.21306278 0.10154938 1.3210001 4292731366
-0.21092947 0.10162625 1.322 4292007643
-0.2087927 0.10170313 1.3230001 4289441715
-0.20665245 0.10178 1.3240001 4289244335
-0.20466308 0.10193375 1.3260001 4292007898
-0.20266676 0.1020875 1.3280001 4292205277
-0.20036174 0.1020875 1.3280001 4292139484
-0.19835502 0.10224124 1.33 4292271070
-0.19648875 0.10247186 1.3330001 4292073691
-0.19446641 0.1026256 1.335 4291942105
-0.19272497 0.1029331 1.3390001 4292007898
-0.24098994 0.10500527 1.3360001 4291349969
-0.23831373 0.10484809 1.3340001 4287139217
-0.23458305 0.10421931 1.3260001 4290099902
-0.23228151 0.10421931 1.3260001 4287467669
-0.22963311 0.10406211 1.3240001 4290756805
-0.22716333 0.10398352 1.3230001 4284506213
-0.22469702 0.10390493 1.322 4291940565
-0.22240244 0.10390493 1.322 4287071884
-0.22010784 0.10390493 1.322 4284505957
-0.21781324 0.10390493 1.322 4286545540
