# .PCD v0.7 - Point Cloud Data file format
VERSION 0.7
FIELDS x y z rgba
SIZE 4 4 4 4
TYPE F F F U
COUNT 1 1 1 1
WIDTH 1006
HEIGHT 1
VIEWPOINT 0 0 0 1 0 0 0
POINTS 1006
DATA ascii
0.12451039 -0.17710124 1.7900001 4280627250
0.11957226 -0.16227469 1.7630001 4280364078
0.12256273 -0.16218264 1.7620001 4280232492
0.12562104 -0.16218264 1.7620001 4280363821
-0.12567906 -0.041838959 1.48 4293389811
-0.12344295 -0.041952036 1.4840001 4293521140
-0.12078573 -0.041923769 1.483 4293455604
-0.11821169 -0.041923769 1.483 4293455604
-0.11555966 -0.041895501 1.4820001 4293455603
-0.1130636 -0.041923769 1.483 4293455347
-0.11048956 -0.041923769 1.483 4293455603
-0.12772797 -0.03912868 1.4740001 4293652724
-0.12533937 -0.039181773 1.4760001 4293652723
-0.12286068 -0.039208319 1.4770001 4293652724
-0.12013415 -0.039155226 1.475 4293652724
-0.11757399 -0.039155226 1.475 4293652723
-0.11501384 -0.039155226 1.475 4293718259
-0.11237744 -0.03912868 1.4740001 4293652467
-0.10989353 -0.039155226 1.475 4293586931
-0.10420496 -0.038942859 1.4670001 4293652724
-0.10165869 -0.038942859 1.4670001 4293586932
-0.099179976 -0.038969405 1.4680001 4293652724
-0.096895278 -0.039075587 1.4720001 4293521139
-0.094404422 -0.039102137 1.473 4293389811
-0.091972448 -0.039155226 1.475 4293455861
-0.13994807 -0.036439087 1.4680001 4293521138
-0.13749366 -0.036463909 1.4690001 4293586930
-0.13494392 -0.036463909 1.4690001 4293587186
-0.13230406 -0.036439087 1.4680001 4293587185
-0.12966765 -0.036414266 1.4670001 4293586928
-0.12712137 -0.036414266 1.4670001 4293521391
-0.12466004 -0.036439087 1.4680001 4293324012
-0.12211204 -0.036439087 1.4680001 4293126633
-0.11956403 -0.036439087 1.4680001 4293060840
-0.11701602 -0.036439087 1.4680001 4293126119
-0.11446802 -0.036439087 1.4680001 4293126119
-0.11184377 -0.036414266 1.4670001 4293126376
-0.109372 -0.036439087 1.4680001 4293192425
-0.10675123 -0.036414266 1.4670001 4293192425
-0.10406289 -0.036364619 1.465 4293323756
-0.10152009 -0.036364619 1.465 4293586928
-0.099044859 -0.036389444 1.4660001 4293718514
-0.096631974 -0.036439087 1.4680001 4293784308
-0.094148062 -0.036463909 1.4690001 4293652723
-0.091723025 -0.036513552 1.4710001 4293652724
-0.14799424 -0.03400116 1.4720001 4293586931
-0.14524168 -0.033954967 1.47 4293521138
-0.14220487 -0.033839472 1.465 4293521137
-0.13956673 -0.033816371 1.4640001 4293455599
-0.13693208 -0.033793274 1.4630001 4293455341
-0.1344846 -0.033816371 1.4640001 4293060582
-0.13194354 -0.033816371 1.4640001 4292863458
-0.12940247 -0.033816371 1.4640001 4292731615
-0.12686142 -0.033816371 1.4640001 4292731614
-0.12432036 -0.033816371 1.4640001 4292731614
-0.12186249 -0.033839472 1.465 4292534234
-0.11940113 -0.033862572 1.4660001 4292600027
-0.1168566 -0.033862572 1.4660001 4292731613
-0.11431206 -0.033862572 1.4660001 4292731870
-0.11176753 -0.033862572 1.4660001 4292731613
-0.10922299 -0.033862572 1.4660001 4292731613
-0.10660569 -0.033839472 1.465 4292731613
-0.10399186 -0.033816371 1.4640001 4292797407
-0.1013815 -0.033793274 1.4630001 4292797408
-0.098842174 -0.033793274 1.4630001 4292863458
-0.09636867 -0.033816371 1.4640001 4292929251
-0.093827605 -0.033816371 1.4640001 4293192424
-0.091411255 -0.033862572 1.4660001 4293521135
-0.088927343 -0.033885669 1.4670001 4293718515
-0.086381078 -0.033885669 1.4670001 4293652725
-0.083834805 -0.033885669 1.4670001 4293521138
-0.081177711 -0.033839472 1.465 4293652725
-0.14749153 -0.031357072 1.4670001 4293521137
-0.14474767 -0.031314321 1.465 4293389805
-0.14201073 -0.031271573 1.4630001 4293060583
-0.13937607 -0.031250197 1.462 4292863202
-0.13693208 -0.031271573 1.4630001 4292863201
-0.1344846 -0.031292949 1.4640001 4292797406
-0.13194354 -0.031292949 1.4640001 4292797405
-0.12940247 -0.031292949 1.4640001 4292797405
-0.12686142 -0.031292949 1.4640001 4292731612
-0.12432036 -0.031292949 1.4640001 4292731612
-0.12177929 -0.031292949 1.4640001 4292600026
-0.11931968 -0.031314321 1.465 4292665818
-0.1168566 -0.0313357 1.4660001 4292731611
-0.11431206 -0.0313357 1.4660001 4292797404
-0.11184377 -0.031357072 1.4670001 4292731611
-0.10922299 -0.0313357 1.4660001 4292863197
-0.10660569 -0.031314321 1.465 4292797405
-0.10399186 -0.031292949 1.4640001 4292928991
-0.10145079 -0.031292949 1.4640001 4292797406
-0.098842174 -0.031271573 1.4630001 4292863198
-0.09636867 -0.031292949 1.4640001 4292731613
-0.093827605 -0.031292949 1.4640001 4292731614
-0.091348901 -0.031314321 1.465 4292731871
-0.088745482 -0.031292949 1.4640001 4292929254
-0.086204417 -0.031292949 1.4640001 4293324014
-0.083606213 -0.031271573 1.4630001 4293652723
-0.07879594 -0.031378448 1.4680001 4293718518
-0.15534185 -0.028867783 1.4690001 4293456115
-0.1526881 -0.028848128 1.4680001 4293521393
-0.14993553 -0.028808828 1.4660001 4293455342
-0.14718992 -0.028769525 1.4640001 4293126375
-0.14445126 -0.028730221 1.462 4292928995
-0.14191367 -0.028730221 1.462 4292863199
-0.1394714 -0.028749874 1.4630001 4292863198
-0.13702567 -0.028769525 1.4640001 4292994784
-0.13466834 -0.028808828 1.4660001 4292928991
-0.13221392 -0.028828479 1.4670001 4292994783
-0.12957926 -0.028808828 1.4660001 4292928990
-0.12703472 -0.028808828 1.4660001 4292863197
-0.12449019 -0.028808828 1.4660001 4292797404
-0.12194566 -0.028808828 1.4660001 4292731611
-0.11948257 -0.028828479 1.4670001 4292797404
-0.11701602 -0.028848128 1.4680001 4292928733
-0.11446802 -0.028848128 1.4680001 4292994269
-0.11199625 -0.028867783 1.4690001 4293125855
-0.109372 -0.028848128 1.4680001 4293060319
-0.106824 -0.028848128 1.4680001 4292994783
-0.10413393 -0.028808828 1.4660001 4292994783
-0.1015894 -0.028808828 1.4660001 4292994783
-0.099112421 -0.028828479 1.4670001 4292994783
-0.096631974 -0.028848128 1.4680001 4292928990
-0.094083972 -0.028848128 1.4680001 4292797404
-0.091473617 -0.028828479 1.4670001 4292731612
-0.088866726 -0.028808828 1.4660001 4292731614
-0.086263306 -0.028789174 1.465 4292731873
-0.083549067 -0.028730221 1.462 4292929254
-0.081177711 -0.028789174 1.465 4293455600
-0.1577841 -0.026317813 1.4680001 4293521651
-0.1550246 -0.026281955 1.4660001 4293521648
-0.15237606 -0.026264029 1.465 4293126631
-0.14962871 -0.026228173 1.4630001 4292995043
-0.14718992 -0.026246101 1.4640001 4292994785
-0.14464885 -0.026246101 1.4640001 4292994785
-0.14220487 -0.026264029 1.465 4292994783
-0.13975739 -0.026281955 1.4660001 4292994783
-0.13730645 -0.026299883 1.4670001 4293126369
-0.13485205 -0.026317813 1.4680001 4293126369
-0.13239418 -0.026335739 1.4690001 4293192162
-0.12984443 -0.026335739 1.4690001 4293060576
-0.12729469 -0.026335739 1.4690001 4292928990
-0.12474495 -0.026335739 1.4690001 4292928990
-0.12219521 -0.026335739 1.4690001 4292994783
-0.11972691 -0.026353667 1.47 4292928990
-0.11717544 -0.026353667 1.47 4293060319
-0.11462396 -0.026353667 1.47 4293191648
-0.11214872 -0.026371593 1.4710001 4293257441
-0.10952101 -0.026353667 1.47 4293060576
-0.10689677 -0.026335739 1.4690001 4293126369
-0.10434703 -0.026335739 1.4690001 4293060576
-0.10186658 -0.026353667 1.47 4293126369
-0.099315107 -0.026353667 1.47 4293126369
-0.096829452 -0.026371593 1.4710001 4293060576
-0.094276235 -0.026371593 1.4710001 4292928990
-0.091660678 -0.026353667 1.47 4292863197
-0.088987961 -0.026317813 1.4680001 4292797405
-0.086381078 -0.026299883 1.4670001 4292665821
-0.083606213 -0.026228173 1.4630001 4292600287
-0.081011474 -0.026210245 1.462 4292928741
-0.078742266 -0.026299883 1.4670001 4293521137
-0.076455697 -0.026389521 1.4720001 4293652724
-0.15767661 -0.023771288 1.4670001 4293521135
-0.15481311 -0.023722677 1.4640001 4293126631
-0.15216804 -0.023706473 1.4630001 4292994786
-0.14973098 -0.023722677 1.4640001 4292928992
-0.14718992 -0.023722677 1.4640001 4293126112
-0.14474767 -0.02373888 1.465 4293192162
-0.14230193 -0.023755083 1.4660001 4293192162
-0.13985273 -0.023771288 1.4670001 4293192162
-0.13740006 -0.023787493 1.4680001 4293192162
-0.13494392 -0.023803696 1.4690001 4293257955
-0.13248429 -0.023819901 1.47 4293192162
-0.12993282 -0.023819901 1.47 4293192162
-0.127468 -0.023836104 1.4710001 4293126369
-0.12482987 -0.023819901 1.47 4293060576
-0.12227838 -0.023819901 1.47 4292994783
-0.11972691 -0.023819901 1.47 4293060576
-0.11717544 -0.023819901 1.47 4293191905
-0.11462396 -0.023819901 1.47 4293191648
-0.11207249 -0.023819901 1.47 4293191648
-0.10952101 -0.023819901 1.47 4293257441
-0.10696954 -0.023819901 1.47 4293257441
-0.10441806 -0.023819901 1.47 4293257441
-0.10186658 -0.023819901 1.47 4293191648
-0.099382661 -0.023836104 1.4710001 4293126112
-0.096895278 -0.023852307 1.4720001 4293060576
-0.094276235 -0.023836104 1.4710001 4293060576
-0.091660678 -0.023819901 1.47 4292994783
-0.089048579 -0.023803696 1.4690001 4292863198
-0.086381078 -0.023771288 1.4670001 4292928478
-0.083606213 -0.023706473 1.4630001 4292797407
-0.081011474 -0.023690268 1.462 4292599774
-0.07863491 -0.02373888 1.465 4292928742
-0.076351814 -0.023819901 1.47 4293586674
-0.16376774 -0.021373015 1.4760001 4293324272
-0.16065976 -0.021300614 1.4710001 4293389808
-0.15756914 -0.021228211 1.4660001 4293060839
-0.15491886 -0.021213733 1.465 4292928994
-0.15237606 -0.021213733 1.465 4293060577
-0.14993553 -0.021228211 1.4660001 4293192162
-0.14749153 -0.021242693 1.4670001 4293257955
-0.14504407 -0.021257173 1.4680001 4293257955
-0.1426902 -0.021286134 1.47 4293257955
-0.14023407 -0.021300614 1.4710001 4293257955
-0.13768086 -0.021300614 1.4710001 4293257955
-0.1352195 -0.021315094 1.4720001 4293257955
-0.13275467 -0.021329576 1.473 4293126369
-0.13037477 -0.021358537 1.475 4293192162
-0.12790127 -0.021373015 1.4760001 4293192162
-0.12525447 -0.021358537 1.475 4293126369
-0.12269431 -0.021358537 1.475 4293126112
-0.12005271 -0.021344054 1.4740001 4293191648
-0.11741457 -0.021329576 1.473 4293257441
-0.11493587 -0.021344054 1.4740001 4293323234
-0.11237744 -0.021344054 1.4740001 4293323234
-0.10981902 -0.021344054 1.4740001 4293257441
-0.10726061 -0.021344054 1.4740001 4293323234
-0.10477322 -0.021358537 1.475 4293323234
-0.10221306 -0.021358537 1.475 4293191648
-0.099652909 -0.021358537 1.475 4293126369
-0.097026929 -0.021344054 1.4740001 4293126369
-0.094468504 -0.021344054 1.4740001 4293126369
-0.091785379 -0.021315094 1.4720001 4293126369
-0.089169815 -0.021300614 1.4710001 4293060576
-0.086557724 -0.021286134 1.47 4292994783
-0.083891951 -0.021257173 1.4680001 4292863200
-0.081177711 -0.021213733 1.465 4292731360
-0.078688592 -0.021228211 1.4660001 4292534496
-0.076247931 -0.021257173 1.4680001 4293389551
-0.16365679 -0.018816151 1.475 4293389808
-0.16044132 -0.018739611 1.4690001 4293192427
-0.15767661 -0.018714098 1.4670001 4292929251
-0.1552361 -0.018726856 1.4680001 4292994785
-0.1526881 -0.018726856 1.4680001 4293257955
-0.15024236 -0.018739611 1.4690001 4293389541
-0.14779316 -0.018752368 1.47 4293389541
-0.14543928 -0.018777881 1.4720001 4293323748
-0.14307848 -0.018803393 1.4740001 4293257955
-0.14061539 -0.018816151 1.475 4293323748
-0.13814883 -0.018828908 1.4760001 4293389284
-0.13558693 -0.018828908 1.4760001 4293389027
-0.13311519 -0.018841665 1.4770001 4293257441
-0.13063994 -0.018854422 1.478 4293323234
-0.12824789 -0.018879935 1.48 4293389027
-0.12559412 -0.018867178 1.4790001 4293389027
-0.12294386 -0.018854422 1.478 4293323234
-0.12037849 -0.018854422 1.478 4293323234
-0.11781313 -0.018854422 1.478 4293323234
-0.11532573 -0.018867178 1.4790001 4293389027
-0.11283489 -0.018879935 1.48 4293389027
-0.11026605 -0.018879935 1.48 4293389027
-0.10769722 -0.018879935 1.48 4293323234
-0.10512839 -0.018879935 1.48 4293389027
-0.10255955 -0.018879935 1.48 4293323234
-0.099923156 -0.018867178 1.4790001 4293257955
-0.097224399 -0.018841665 1.4770001 4293192162
-0.094660774 -0.018841665 1.4770001 4293126369
-0.091910087 -0.018803393 1.4740001 4293192162
-0.089291058 -0.018790638 1.473 4293060576
-0.086675487 -0.018777881 1.4720001 4292994783
-0.08400625 -0.018752368 1.47 4293060576
-0.081233121 -0.018701341 1.4660001 4292731614
-0.078688592 -0.018701341 1.4660001 4292534237
-0.076196 -0.018714098 1.4670001 4293257964
-0.16354583 -0.016262732 1.4740001 4293455344
-0.16044132 -0.016207568 1.4690001 4293060840
-0.1577841 -0.016196536 1.4680001 4292994786
-0.15565908 -0.016240668 1.4720001 4293192162
-0.15320814 -0.016251702 1.473 4293389541
-0.150856 -0.016273767 1.475 4293389541
-0.14839639 -0.016284799 1.4760001 4293455334
-0.14593332 -0.016295834 1.4770001 4293323748
-0.14346676 -0.016306866 1.478 4293257955
-0.14099671 -0.016317898 1.4790001 4293455077
-0.13842961 -0.016317898 1.4790001 4293455076
-0.13595439 -0.016328933 1.48 4293389025
-0.13338555 -0.016328933 1.48 4293257441
-0.13081673 -0.016328933 1.48 4293323234
-0.12833454 -0.016339963 1.4810001 4293454820
-0.12593381 -0.016362032 1.483 4293389027
-0.12335977 -0.016362032 1.483 4293454820
-0.12078573 -0.016362032 1.483 4293520613
-0.11813197 -0.016350998 1.4820001 4293520613
-0.11563765 -0.016362032 1.483 4293520613
-0.1130636 -0.016362032 1.483 4293454820
-0.11048956 -0.016362032 1.483 4293454819
-0.10791553 -0.016362032 1.483 4293454818
-0.10534149 -0.016362032 1.483 4293520611
-0.10276745 -0.016362032 1.483 4293454819
-0.10012584 -0.016350998 1.4820001 4293454820
-0.097553536 -0.016350998 1.4820001 4293389027
-0.094917141 -0.016339963 1.4810001 4293323748
-0.092221864 -0.016317898 1.4790001 4293192162
-0.089412287 -0.016273767 1.475 4293126369
-0.086793251 -0.016262732 1.4740001 4292994783
-0.083949097 -0.016207568 1.4690001 4293125600
-0.081011474 -0.016130337 1.462 4293059809
-0.078527562 -0.01614137 1.4630001 4292665567
-0.076092117 -0.016163437 1.465 4293323757
-0.16365679 -0.013731383 1.475 4293455344
-0.16044132 -0.013675526 1.4690001 4293060583
-0.15735416 -0.013628978 1.4640001 4293126372
-0.15544759 -0.013684835 1.47 4293323748
-0.15320814 -0.013712763 1.473 4293389541
-0.15106057 -0.013750001 1.4770001 4293323748
-0.148698 -0.01376862 1.4790001 4293455334
-0.14622973 -0.013777929 1.48 4293455077
-0.14375795 -0.013787239 1.4810001 4293389284
-0.14128271 -0.013796548 1.4820001 4293389026
-0.13871041 -0.013796548 1.4820001 4293454818
-0.1361381 -0.013796548 1.4820001 4293323232
-0.1335658 -0.013796548 1.4820001 4293389025
-0.13099349 -0.013796548 1.4820001 4293454819
-0.12850785 -0.013805857 1.483 4293454820
-0.12610364 -0.013824477 1.485 4293520613
-0.12360932 -0.013833785 1.4860001 4293520613
-0.12103007 -0.013833785 1.4860001 4293586406
-0.11845082 -0.013833785 1.4860001 4293586406
-0.11587157 -0.013833785 1.4860001 4293586406
-0.11329233 -0.013833785 1.4860001 4293586406
-0.11063857 -0.013824477 1.485 4293520612
-0.10806106 -0.013824477 1.485 4293586404
-0.10548355 -0.013824477 1.485 4293586404
-0.10290603 -0.013824477 1.485 4293520611
-0.10026096 -0.013815167 1.4840001 4293586406
-0.097685181 -0.013815167 1.4840001 4293520613
-0.094981231 -0.013796548 1.4820001 4293520613
-0.09215951 -0.01375931 1.478 4293389284
-0.089291058 -0.013712763 1.473 4293323748
-0.086557724 -0.013684835 1.47 4293126369
-0.080623597 -0.013545194 1.455 4293060320
-0.078312859 -0.013582432 1.4590001 4292928739
-0.075988233 -0.013619669 1.4630001 4293455343
-0.16376774 -0.011196584 1.4760001 4293389551
-0.16065976 -0.011158654 1.4710001 4292995047
-0.15703171 -0.011082797 1.4610001 4293060579
-0.1550246 -0.011120726 1.4660001 4293257956
-0.1527921 -0.011143483 1.4690001 4293323491
-0.150856 -0.011188998 1.475 4293323234
-0.148698 -0.011219341 1.4790001 4293389027
-0.14622973 -0.011226927 1.48 4293454820
-0.14385502 -0.011242098 1.4820001 4293454820
-0.14137806 -0.011249684 1.483 4293389026
-0.13871041 -0.011242098 1.4820001 4293389025
-0.1361381 -0.011242098 1.4820001 4293389025
-0.1335658 -0.011242098 1.4820001 4293454818
-0.13099349 -0.011242098 1.4820001 4293454819
-0.1285945 -0.011257269 1.4840001 4293652198
-0.12610364 -0.011264855 1.485 4293717992
-0.1236925 -0.011280026 1.4870001 4293652199
-0.12111151 -0.011280026 1.4870001 4293652199
-0.11853053 -0.011280026 1.4870001 4293652199
-0.11594954 -0.011280026 1.4870001 4293717992
-0.11329233 -0.011272441 1.4860001 4293717991
-0.11071308 -0.011272441 1.4860001 4293652197
-0.10806106 -0.011264855 1.485 4293652197
-0.10548355 -0.011264855 1.485 4293521381
-0.10283674 -0.011257269 1.4840001 4293521381
-0.1001934 -0.011249684 1.483 4293455334
-0.097553536 -0.011242098 1.4820001 4293389541
-0.094853051 -0.011226927 1.48 4293389541
-0.091972448 -0.011188998 1.475 4293455334
-0.088987961 -0.011135898 1.4680001 4293323748
-0.086263306 -0.01111314 1.465 4293257955
-0.08034654 -0.010999354 1.45 4292994786
-0.078205511 -0.011052454 1.457 4293455084
-0.075936295 -0.011090383 1.462 4293323758
-0.15574193 -0.0084941983 1.4490001 4293126373
-0.15322691 -0.0084941983 1.4490001 4293389285
-0.15060787 -0.0084883366 1.4480001 4293323234
-0.1478937 -0.0086231651 1.4710001 4293389027
-0.14543928 -0.0086290268 1.4720001 4293389027
-0.14336969 -0.0086583374 1.4770001 4293389026
-0.14118738 -0.0086817862 1.4810001 4293389025
-0.13871041 -0.008687648 1.4820001 4293454818
-0.13622998 -0.0086935097 1.483 4293454818
-0.13365594 -0.0086935097 1.483 4293586404
-0.13117027 -0.0086993724 1.4840001 4293586404
-0.12868115 -0.0087052342 1.485 4293717990
-0.12627348 -0.0087169586 1.4870001 4293717992
-0.12377568 -0.0087228213 1.488 4293717992
-0.12119297 -0.0087228213 1.488 4293783785
-0.11861025 -0.0087228213 1.488 4293717992
-0.11594954 -0.0087169586 1.4870001 4293717992
-0.11329233 -0.0087110968 1.4860001 4293717991
-0.11063857 -0.0087052342 1.485 4293652197
-0.10791553 -0.0086935097 1.483 4293717989
-0.10519941 -0.0086817862 1.4810001 4293586917
-0.10255955 -0.0086759236 1.48 4293586920
-0.099788032 -0.0086583374 1.4770001 4293521127
-0.097092755 -0.0086466139 1.475 4293521127
-0.094596691 -0.0086524757 1.4760001 4293521127
-0.084673472 -0.0084297154 1.4380001 4293455335
-0.082234681 -0.0084355772 1.439 4293257958
-0.080014072 -0.0084648877 1.4440001 4293389546
-0.077883452 -0.0085059218 1.4510001 4293455598
-0.075728528 -0.0085469577 1.4580001 4292665828
-0.15966246 -0.0059552444 1.439 4292994792
-0.15705556 -0.0059511056 1.4380001 4293521390
-0.15445215 -0.0059469673 1.437 4293455338
-0.15216945 -0.0059552444 1.439 4293389286
-0.13577066 -0.0061166445 1.478 4293652197
-0.13311519 -0.0061125057 1.4770001 4293783783
-0.13063994 -0.0061166445 1.478 4293915369
-0.12842119 -0.0061331978 1.4820001 4293915369
-0.12593381 -0.0061373366 1.483 4293783783
-0.12335977 -0.0061373366 1.483 4293783784
-0.12070427 -0.0061331978 1.4820001 4293915370
-0.11805226 -0.0061290595 1.4810001 4293783785
-0.11540372 -0.0061249211 1.48 4293717992
-0.11214872 -0.0060876752 1.4710001 4293783785
-0.10967002 -0.0060918136 1.4720001 4293783785
-0.088979445 -0.0059055826 1.427 4293586920
-0.086684458 -0.005917998 1.4300001 4293521128
-0.084379055 -0.0059304135 1.4330001 4293586922
-0.081948951 -0.0059345518 1.434 4293652974
-0.079903245 -0.0059676599 1.442 4293455597
-0.15944055 -0.0034700814 1.437 4292534241
-0.15661868 -0.0034628371 1.434 4292797668
-0.15391473 -0.0034580075 1.432 4293652718
-0.15142921 -0.0034580075 1.432 4293586923
-0.13494392 -0.0035473555 1.4690001 4293783784
-0.13248429 -0.0035497702 1.47 4293849577
-0.13019799 -0.0035570145 1.473 4293784041
-0.12781462 -0.0035618441 1.475 4293849835
-0.12533937 -0.0035642593 1.4760001 4293652456
-0.12286068 -0.003566674 1.4770001 4293718249
-0.12013415 -0.0035618441 1.475 4293849578
-0.11749429 -0.0035594297 1.4740001 4293915371
-0.11477991 -0.0035545998 1.4720001 4293717992
-0.11161505 -0.0035352812 1.4640001 4293783785
-0.10914849 -0.0035376963 1.465 4293652456
-0.088792384 -0.003438689 1.424 4293718507
-0.086441979 -0.0034435187 1.4260001 4293784301
-0.084202409 -0.0034531779 1.4300001 4293652975
-0.081777506 -0.0034555928 1.4310001 4293192425
-0.079903245 -0.0034821557 1.442 4292534241
-0.17322749 -0.0010007985 1.4480001 4293324018
-0.1704784 -0.00099941622 1.4460001 4293324016
-0.16738778 -0.00099596044 1.4410001 4293192173
-0.16454336 -0.00099388696 1.4380001 4292665829
-0.16193475 -0.0009931958 1.437 4291942361
-0.15921864 -0.00099181349 1.4350001 4291810773
-0.15640025 -0.00098974002 1.432 4292205531
-0.15337732 -0.00098628423 1.427 4292731618
-0.15068899 -0.00098490191 1.4250001 4293455595
-0.14811161 -0.00098421075 1.424 4293718509
-0.14584452 -0.00098559307 1.4260001 4293520872
-0.14346996 -0.00098628423 1.427 4293455078
-0.09580192 -0.00098006381 1.4180001 4293784299
-0.093472347 -0.00098144612 1.4200001 4293784300
-0.091071747 -0.00098213728 1.4210001 4293915887
-0.088605322 -0.00098213728 1.4210001 4293718509
-0.086260125 -0.0009835196 1.4230001 4293258218
-0.084143519 -0.00098766654 1.429 4292666081
-0.082177542 -0.00099388696 1.4380001 4292271070
-0.080014072 -0.00099803391 1.4440001 4292205277
-0.18064252 0.0014940149 1.447 4293389813
-0.17800787 0.0014929824 1.4460001 4293257969
-0.17537668 0.0014919499 1.4450001 4293126382
-0.17274895 0.0014909174 1.4440001 4293126380
-0.17024261 0.0014909174 1.4440001 4293192173
-0.16750395 0.0014888523 1.442 4293192172
-0.16477221 0.0014867875 1.4400001 4292600035
-0.16238549 0.0014878198 1.4410001 4291744725
-0.15977341 0.0014867875 1.4400001 4291547601
-0.15683714 0.0014826574 1.4360001 4292073945
-0.15359229 0.00147543 1.429 4292139738
-0.15068899 0.0014713 1.4250001 4292534495
-0.14779957 0.0014671701 1.4210001 4293126631
-0.14502631 0.0014640725 1.4180001 4293652973
-0.14246456 0.0014630401 1.4170001 4293784558
-0.13990627 0.0014620076 1.416 4293915631
-0.13744853 0.0014620076 1.416 4293718251
-0.13499078 0.0014620076 1.416 4293586664
-0.13262662 0.0014630401 1.4170001 4293586664
-0.12998341 0.0014609752 1.4150001 4293586921
-0.1271669 0.0014568452 1.411 4293521128
-0.10994543 0.0014558126 1.4100001 4293652713
-0.10780305 0.0014599427 1.414 4293718507
-0.10542329 0.0014609752 1.4150001 4293718507
-0.1028945 0.0014599427 1.414 4293850093
-0.10036919 0.0014589102 1.4130001 4293850093
-0.097916648 0.0014589102 1.4130001 4294047473
-0.09546411 0.0014589102 1.4130001 4294047473
-0.093011566 0.0014589102 1.4130001 4293784560
-0.090751298 0.0014620076 1.416 4293126630
-0.088480614 0.0014651051 1.419 4292666081
-0.086138889 0.0014671701 1.4210001 4292271069
-0.084202409 0.0014764626 1.4300001 4292139485
-0.08234898 0.0014878198 1.4410001 4292073692
-0.08018031 0.0014940149 1.447 4292139485
-0.18076737 0.0039908933 1.4480001 4293257968
-0.17788477 0.003982625 1.4450001 4292731624
-0.17549804 0.0039853808 1.4460001 4292994794
-0.17334712 0.0039936495 1.4490001 4293521137
-0.1707142 0.0039908933 1.4480001 4293586930
-0.16820091 0.0039908933 1.4480001 4293521137
-0.16557318 0.003988137 1.447 4292994793
-0.16294895 0.0039853808 1.4460001 4292468704
-0.16021721 0.0039798687 1.4440001 4291744980
-0.15705556 0.0039633317 1.4380001 4291679187
-0.15369977 0.0039412826 1.4300001 4292007897
-0.15090048 0.0039330143 1.427 4292205276
-0.14779957 0.0039164773 1.4210001 4292402911
-0.14492404 0.0039054528 1.4170001 4292600288
-0.14226347 0.0038999405 1.4150001 4292929254
-0.13960986 0.0038944283 1.4130001 4293389803
-0.13696319 0.0038889162 1.411 4293784560
-0.13451411 0.0038889162 1.411 4293850096
-0.13187784 0.003883404 1.409 4293652973
-0.12924853 0.0038778912 1.4070001 4293718765
-0.12662615 0.003872379 1.4050001 4293718765
-0.10947758 0.0038696232 1.404 4293915886
-0.10726938 0.0038778912 1.4070001 4293981935
-0.10490175 0.0038806475 1.4080001 4293916144
-0.1024579 0.0038806475 1.4080001 4293718766
-0.10001403 0.0038806475 1.4080001 4293389802
-0.097639464 0.003883404 1.409 4293126630
-0.095261425 0.0038861597 1.4100001 4292666081
-0.092814088 0.0038861597 1.4100001 4292468703
-0.090623118 0.0038971843 1.414 4291942359
-0.088480614 0.0039109653 1.419 4292073690
-0.086199515 0.0039192336 1.4220001 4292139484
-0.084202409 0.0039412826 1.4300001 4292073692
-0.08234898 0.0039716004 1.4410001 4292139485
-0.08018031 0.003988137 1.447 4292074462
-0.18114188 0.0065001785 1.4510001 4292863467
-0.17862339 0.0065001785 1.4510001 4292797416
-0.15738322 0.0064553809 1.4410001 4291678933
-0.1541297 0.0064240224 1.434 4292073691
-0.15121773 0.0064061028 1.4300001 4292139484
-0.14800759 0.0063747442 1.4230001 4292205277
-0.14502631 0.0063523455 1.4180001 4292205533
-0.14236403 0.0063433857 1.416 4292271069
-0.13951105 0.0063254666 1.4120001 4292271069
-0.13667198 0.0063075474 1.4080001 4292271325
-0.13413279 0.0063030673 1.4070001 4292600032
-0.13140987 0.0062896283 1.404 4292666081
-0.12888108 0.0062851482 1.4030001 4292797666
-0.12644589 0.0062851482 1.4030001 4293060837
-0.12409911 0.0062896283 1.404 4293258217
-0.12166218 0.0062896283 1.404 4293192423
-0.11922527 0.0062896283 1.404 4293192423
-0.11670516 0.0062851482 1.4030001 4293126630
-0.11426997 0.0062851482 1.4030001 4293061094
-0.11167537 0.0062761889 1.401 4293061093
-0.10924365 0.0062761889 1.401 4292995044
-0.10681194 0.0062761889 1.401 4292534493
-0.10445473 0.006280669 1.4020001 4292139736
-0.10216682 0.0062896283 1.404 4292139736
-0.099800929 0.006294108 1.4050001 4292008150
-0.097500868 0.0063030673 1.4070001 4292073943
-0.095261425 0.0063165068 1.4100001 4292073945
-0.092879914 0.0063209869 1.411 4292073945
-0.090687208 0.006338906 1.4150001 4291876566
-0.088605322 0.0063657844 1.4210001 4292073690
-0.086320743 0.0063792244 1.424 4292007899
-0.084320173 0.0064150626 1.432 4292139485
-0.082406126 0.0064598601 1.442 4291876826
-0.08018031 0.0064822594 1.447 4291877083
-0.18517928 0.009075637 1.4630001 4293126897
-0.18151641 0.009019806 1.4540001 4292534502
-0.1792389 0.0090322131 1.4560001 4292665830
-0.15902148 0.0090322131 1.4560001 4291810520
-0.15455963 0.0089205503 1.4380001 4291876313
-0.15153496 0.0088895336 1.4330001 4292007899
-0.14831963 0.0088461088 1.4260001 4292139484
-0.14533314 0.008815092 1.4210001 4292271070
-0.1425651 0.0087964823 1.4180001 4292205277
-0.13970867 0.0087716682 1.414 4292271070
-0.13696319 0.0087530576 1.411 4292205277
-0.13432345 0.0087406514 1.409 4292205277
-0.13159706 0.0087220399 1.406 4292139484
-0.12888108 0.0087034302 1.4030001 4292139483
-0.12635577 0.0086972266 1.4020001 4292271325
-0.12392233 0.0086972266 1.4020001 4292271324
-0.12148888 0.0086972266 1.4020001 4292139737
-0.11905543 0.0086972266 1.4020001 4292205531
-0.11662198 0.0086972266 1.4020001 4292139738
-0.11410709 0.008691024 1.401 4292205531
-0.11159565 0.0086848196 1.4000001 4292139737
-0.10916568 0.0086848196 1.4000001 4292139737
-0.1067357 0.0086848196 1.4000001 4292073945
-0.10445473 0.0086972266 1.4020001 4292008152
-0.10216682 0.0087096337 1.404 4291942359
-0.099871963 0.0087220399 1.406 4292008152
-0.097639464 0.0087406514 1.409 4292073945
-0.095396549 0.0087592611 1.4120001 4292007897
-0.093011566 0.0087654646 1.4130001 4292007898
-0.090815388 0.0087902779 1.4170001 4292073691
-0.088667676 0.0088212956 1.4220001 4292007898
-0.086320743 0.0088337017 1.424 4291942106
-0.084320173 0.00888333 1.432 4292073692
-0.082406126 0.0089453645 1.442 4292007899
-0.08018031 0.0089763813 1.447 4292073692
-0.18492612 0.011581482 1.4610001 4292995310
-0.18164124 0.011533921 1.455 4292074208
-0.1792389 0.011541848 1.4560001 4292074207
-0.15869382 0.011518066 1.4530001 4292073692
-0.15455963 0.011399159 1.4380001 4292007899
-0.15153496 0.011359525 1.4330001 4292007899
-0.14831963 0.011304035 1.4260001 4292139485
-0.14523087 0.011256472 1.4200001 4292139484
-0.1425651 0.011240618 1.4180001 4292073691
-0.13970867 0.01120891 1.414 4292139484
-0.13696319 0.011185128 1.411 4292205277
-0.13432345 0.011169274 1.409 4292139485
-0.13159706 0.011145493 1.406 4292139485
-0.12888108 0.011121712 1.4030001 4292139485
-0.12635577 0.011113784 1.4020001 4292139485
-0.12392233 0.011113784 1.4020001 4292139485
-0.12148888 0.011113784 1.4020001 4292139484
-0.11914034 0.011121712 1.4030001 4292205277
-0.11662198 0.011113784 1.4020001 4292007898
-0.11418853 0.011113784 1.4020001 4292073690
-0.11167537 0.011105858 1.401 4292073691
-0.10924365 0.011105858 1.401 4292008154
-0.1067357 0.01109793 1.4000001 4291942361
-0.10445473 0.011113784 1.4020001 4291942105
-0.10223959 0.011137567 1.4050001 4291942105
-0.099871963 0.011145493 1.406 4292139484
-0.097639464 0.011169274 1.409 4292139484
-0.095328987 0.011185128 1.411 4292073692
-0.093011566 0.011200983 1.4130001 4292007898
-0.090815388 0.011232691 1.4170001 4291876312
-0.088605322 0.0112644 1.4210001 4291876312
-0.086320743 0.01128818 1.424 4291942106
-0.084261291 0.01134367 1.4310001 4292073692
-0.08234898 0.011422941 1.4410001 4292073692
-0.08018031 0.011470503 1.447 4292139485
-0.18517928 0.014119038 1.4630001 4292863724
-0.15477459 0.013897071 1.4400001 4292073692
-0.15164071 0.013839167 1.434 4292007899
-0.14831963 0.013761961 1.4260001 4292205278
-0.14533314 0.013713706 1.4210001 4292139485
-0.14266564 0.013694406 1.419 4292205278
-0.13990627 0.013665453 1.416 4292073692
-0.13706024 0.01362685 1.4120001 4292073692
-0.13451411 0.013617199 1.411 4292205278
-0.13178425 0.013588247 1.4080001 4292205278
-0.12906481 0.013559295 1.4050001 4292205278
-0.12653603 0.013549645 1.404 4292205278
-0.12409911 0.013549645 1.404 4292271070
-0.12166218 0.013549645 1.404 4292271070
-0.11931018 0.013559295 1.4050001 4292271070
-0.11687153 0.013559295 1.4050001 4292139484
-0.11435143 0.013549645 1.404 4292139484
-0.11175508 0.013530343 1.4020001 4292139484
-0.10932163 0.013530343 1.4020001 4292139484
-0.10696442 0.013539993 1.4030001 4292139484
-0.10467824 0.013559295 1.4050001 4292205278
-0.10238513 0.013578597 1.4070001 4292139485
-0.10001403 0.013588247 1.4080001 4292008669
-0.097708754 0.013607549 1.4100001 4291877083
-0.09546411 0.013636501 1.4130001 4291811290
-0.093077391 0.013646152 1.414 4291811290
-0.090879478 0.013684754 1.4180001 4291811289
-0.088730022 0.013733009 1.4230001 4291811289
-0.086381368 0.01375231 1.4250001 4291811289
-0.084320173 0.013819865 1.432 4292007898
-0.082406126 0.013916372 1.442 4292073691
-0.08018031 0.013964626 1.447 4292139484
-0.18861678 0.016720358 1.47 4293324276
-0.18543243 0.016663486 1.465 4292732139
-0.15498956 0.016401876 1.442 4292139999
-0.15164071 0.016310882 1.434 4291942363
-0.14842364 0.016231259 1.427 4292205278
-0.14543542 0.016174387 1.4220001 4292271071
-0.14276618 0.016151641 1.4200001 4292271072
-0.13990627 0.016106142 1.416 4292271072
-0.13715732 0.01607202 1.4130001 4292205278
-0.13451411 0.01604927 1.411 4292139485
-0.13187784 0.016026521 1.409 4292139485
-0.12915666 0.015992397 1.406 4292139485
-0.12662615 0.015981024 1.4050001 4292139485
-0.12418749 0.015981024 1.4050001 4292205278
-0.12174883 0.015981024 1.4050001 4292271071
-0.11939509 0.015992397 1.406 4292402656
-0.11687153 0.015981024 1.4050001 4292271070
-0.11443287 0.015981024 1.4050001 4292271070
-0.1119145 0.015969649 1.404 4292205277
-0.10947758 0.015969649 1.404 4292336863
-0.1071169 0.015981024 1.4050001 4292205278
-0.10482725 0.016003773 1.4070001 4292073692
-0.1024579 0.016015148 1.4080001 4292007642
-0.10008506 0.016026521 1.409 4292007899
-0.09777806 0.01604927 1.411 4291811290
-0.095531672 0.016083393 1.414 4291877083
-0.093209051 0.016106142 1.416 4291877083
-0.091007657 0.016151641 1.4200001 4291745497
-0.088792384 0.016197138 1.424 4291745496
-0.086502604 0.016231259 1.427 4291942362
-0.084379055 0.016299507 1.4330001 4292139484
-0.082463272 0.016413251 1.4430001 4292007899
-0.08029113 0.016481496 1.4490001 4292139485
-0.18913002 0.019306518 1.4740001 4293258484
-0.18543243 0.019188635 1.465 4292534760
-0.15498956 0.01888738 1.442 4292206049
-0.15185221 0.018808791 1.4360001 4292008155
-0.14842364 0.018690908 1.427 4292205278
-0.14543542 0.01862542 1.4220001 4292271071
-0.14266564 0.018586125 1.419 4292205278
-0.13980746 0.018533733 1.4150001 4292336864
-0.13706024 0.01849444 1.4120001 4292205278
-0.13451411 0.01848134 1.411 4292139485
-0.13178425 0.018442048 1.4080001 4292139485
-0.12924853 0.01842895 1.4070001 4292139485
-0.12662615 0.018402753 1.4050001 4292007899
-0.12409911 0.018389653 1.404 4292205278
-0.12166218 0.018389653 1.404 4292402656
-0.11922527 0.018389653 1.404 4292271070
-0.11687153 0.018402753 1.4050001 4292073691
-0.11435143 0.018389653 1.404 4292139484
-0.1119145 0.018389653 1.404 4292139484
-0.10947758 0.018389653 1.404 4292073691
-0.1071169 0.018402753 1.4050001 4292073692
-0.10475275 0.01841585 1.406 4291942106
-0.10238513 0.01842895 1.4070001 4291942106
-0.10001403 0.018442048 1.4080001 4291942106
-0.097708754 0.018468244 1.4100001 4291811290
-0.09546411 0.018507537 1.4130001 4291877083
-0.093143217 0.018533733 1.4150001 4291811290
-0.090943567 0.018586125 1.419 4291811290
-0.088854738 0.018664714 1.4250001 4291877083
-0.086502604 0.018690908 1.427 4292007899
-0.084437944 0.018782595 1.434 4292007898
-0.082520418 0.018913576 1.4440001 4292205278
-0.08034654 0.018992163 1.45 4292007899
-0.185559 0.021728605 1.4660001 4292468967
-0.18301447 0.021728605 1.4660001 4291482071
-0.155312 0.02141735 1.4450001 4292205794
-0.15216945 0.021328419 1.439 4291876314
-0.14863166 0.021180201 1.429 4292205278
-0.14553769 0.021091273 1.4230001 4292205278
-0.14286672 0.021061629 1.4210001 4292205278
-0.13990627 0.02098752 1.416 4292271071
-0.13715732 0.020943055 1.4130001 4292139485
-0.13460945 0.020928234 1.4120001 4292139485
-0.13197145 0.02089859 1.4100001 4292205278
-0.12943225 0.020883767 1.409 4292139485
-0.12671627 0.020839304 1.406 4292139484
-0.12418749 0.020824483 1.4050001 4292270813
-0.12174883 0.020824483 1.4050001 4292270813
-0.11939509 0.020839304 1.406 4292270813
-0.11695471 0.020839304 1.406 4292205020
-0.11451431 0.020839304 1.406 4292139227
-0.11199421 0.020824483 1.4050001 4292139484
-0.10955556 0.020824483 1.4050001 4291942106
-0.10719314 0.020839304 1.406 4292007899
-0.10482725 0.020854125 1.4070001 4292007899
-0.10253067 0.020883767 1.409 4292007899
-0.10015609 0.02089859 1.4100001 4291942106
-0.097847357 0.020928234 1.4120001 4291942106
-0.095531672 0.020957876 1.414 4291942876
-0.093209051 0.02098752 1.416 4291877083
-0.091071747 0.021061629 1.4210001 4291877083
-0.088979445 0.021150557 1.427 4291942106
-0.086623833 0.021180201 1.429 4292007899
-0.084496826 0.021269133 1.4350001 4292007899
-0.08263471 0.021432171 1.4460001 4292139485
-0.080401957 0.02150628 1.4510001 4292205278
-0.185559 0.024255477 1.4660001 4292600553
-0.18263996 0.024205839 1.4630001 4291679450
-0.15238093 0.023841843 1.4410001 4291876570
-0.14894369 0.023692934 1.432 4292073692
-0.14584452 0.023593662 1.4260001 4292139485
-0.14306779 0.023544027 1.4230001 4292271071
-0.14020269 0.023477845 1.419 4292271071
-0.13744853 0.023428209 1.416 4292271071
-0.13480011 0.023395117 1.414 4292205278
-0.13215864 0.023362029 1.4120001 4292271071
-0.12961598 0.023345482 1.411 4292271071
-0.12698665 0.023312392 1.409 4292205278
-0.12445267 0.023295846 1.4080001 4292205278
-0.1220088 0.023295846 1.4080001 4292271071
-0.11956494 0.023295846 1.4080001 4292270814
-0.11712107 0.023295846 1.4080001 4292204765
-0.11459576 0.023279302 1.4070001 4292204508
-0.11215363 0.023279302 1.4070001 4292204251
-0.10963354 0.023262756 1.406 4292335837
-0.10726938 0.023279302 1.4070001 4292335837
-0.10497626 0.023312392 1.409 4292270044
-0.1026762 0.023345482 1.411 4292270301
-0.10029816 0.023362029 1.4120001 4292138972
-0.097985946 0.023395117 1.414 4292007899
-0.095666796 0.023428209 1.416 4292007899
-0.093340695 0.023461301 1.4180001 4292073692
-0.09119992 0.023544027 1.4230001 4292007899
-0.088979445 0.023610208 1.427 4291942106
-0.086684458 0.023659846 1.4300001 4292007899
-0.084673472 0.023792207 1.4380001 4292007899
-0.082749009 0.02395766 1.4480001 4292073692
-0.080623597 0.024073478 1.455 4292139485
-0.15259242 0.026362162 1.4430001 4291876314
-0.14904772 0.026179472 1.4330001 4292073692
-0.1459468 0.026069857 1.427 4292205278
-0.14316835 0.026015051 1.424 4292271071
-0.14030148 0.025941975 1.4200001 4292205278
-0.13744853 0.025868898 1.416 4292336607
-0.13489544 0.025850629 1.4150001 4292271071
-0.13215864 0.025795823 1.4120001 4292205791
-0.12952411 0.025759285 1.4100001 4292270815
-0.12698665 0.025741015 1.409 4292205278
-0.12445267 0.025722746 1.4080001 4291745240
-0.1220088 0.025722746 1.4080001 4291218383
-0.11956494 0.025722746 1.4080001 4292467423
-0.11712107 0.025722746 1.4080001 4292400090
-0.11459576 0.025704479 1.4070001 4292464856
-0.11207393 0.025686208 1.406 4292859358
-0.10963354 0.025686208 1.406 4293582568
-0.10719314 0.025686208 1.406 4291606211
-0.10490175 0.025722746 1.4080001 4290686650
-0.1026762 0.025777554 1.411 4292597213
-0.10022712 0.025777554 1.411 4292138458
-0.097916648 0.025814092 1.4130001 4292007899
-0.095666796 0.025868898 1.416 4291942106
-0.093274869 0.025887169 1.4170001 4292139485
-0.091135837 0.025978511 1.4220001 4292007899
-0.088979445 0.026069857 1.427 4291942106
-0.086684458 0.026124666 1.4300001 4292073692
-0.084673472 0.026270816 1.4380001 4292139485
-0.082806155 0.026471775 1.4490001 4292073692
-0.080623597 0.026581388 1.455 4292073692
-0.15280393 0.028889375 1.4450001 4291876569
-0.14925572 0.028689448 1.4350001 4292205278
-0.14615135 0.028569493 1.429 4292205278
-0.1435705 0.0285495 1.4280001 4292271071
-0.14059789 0.028449535 1.4230001 4292139742
-0.13764265 0.028349573 1.4180001 4292205278
-0.1350861 0.028329579 1.4170001 4292205535
-0.13234583 0.028269602 1.414 4292140255
-0.12970783 0.028229618 1.4120001 4292139742
-0.12707677 0.028189631 1.4100001 4292139485
-0.12462945 0.028189631 1.4100001 4291613397
-0.12218211 0.028189631 1.4100001 4284572777
-0.11973478 0.028189631 1.4100001 4291872977
-0.11728744 0.028189631 1.4100001 4292129475
-0.11484011 0.028189631 1.4100001 4286528600
-0.11231306 0.028169638 1.409 4288038503
-0.10986746 0.028169638 1.409 4291064468
-0.10742186 0.028169638 1.409 4286854999
-0.10505076 0.028189631 1.4100001 4285149514
-0.10282173 0.028249608 1.4130001 4291014844
-0.10044023 0.028269602 1.414 4292138201
-0.098055243 0.028289596 1.4150001 4292073434
-0.09573435 0.028329579 1.4170001 4292073692
-0.093406521 0.028369566 1.419 4292139485
-0.091264017 0.028469529 1.424 4292007899
-0.089104146 0.028569493 1.429 4292007899
-0.086805694 0.028629471 1.432 4292073692
-0.084791236 0.02878941 1.4400001 4292007899
-0.082920454 0.029009331 1.4510001 4292139485
-0.15248668 0.031314902 1.442 4291876313
-0.14956775 0.031228036 1.4380001 4292073692
-0.14645816 0.031097738 1.432 4292271071
-0.14367104 0.03103259 1.429 4292271071
-0.14079551 0.030945724 1.4250001 4292139998
-0.13793387 0.030858858 1.4210001 4292205278
-0.13527678 0.030815426 1.419 4292205792
-0.13253303 0.030750278 1.416 4292140512
-0.12989156 0.030706843 1.414 4292205534
-0.12734716 0.030685127 1.4130001 4292336607
-0.12489461 0.030685127 1.4130001 4292270814
-0.12244207 0.030685127 1.4130001 4284769899
-0.11998953 0.030685127 1.4130001 4291675341
-0.11753699 0.030685127 1.4130001 4291074477
-0.11500299 0.030663412 1.4120001 4285472062
-0.1125522 0.030663412 1.4120001 4286981708
-0.11017936 0.030685127 1.4130001 4287574101
-0.10772681 0.030685127 1.4130001 4287050324
-0.10534878 0.030706843 1.414 4285546325
-0.10296727 0.03072856 1.4150001 4291740620
-0.10058229 0.030750278 1.416 4292204763
-0.098263137 0.03079371 1.4180001 4292073434
-0.096004598 0.030858858 1.4210001 4292073691
-0.093669824 0.030902289 1.4230001 4292139485
-0.091456287 0.030989155 1.427 4292139485
-0.089291207 0.031097738 1.432 4292007899
-0.086987555 0.031162888 1.4350001 4292139485
-0.084909 0.031314902 1.442 4292139485
-0.15248668 0.033800405 1.442 4291547348
-0.14967178 0.033730086 1.439 4291876313
-0.14645816 0.033566006 1.432 4292271071
-0.14377157 0.033519123 1.4300001 4292271071
-0.14079551 0.033401925 1.4250001 4292205792
-0.13793387 0.033308167 1.4210001 4292271328
-0.1353721 0.033284724 1.4200001 4292271584
-0.13253303 0.033190966 1.416 4292140511
-0.12989156 0.033144087 1.414 4292205535
-0.12743728 0.033144087 1.414 4292270814
-0.12489461 0.033120643 1.4130001 4292665571
-0.12244207 0.033120643 1.4130001 4284966507
-0.11998953 0.033120643 1.4130001 4290491580
-0.11753699 0.033120643 1.4130001 4293516005
-0.11508445 0.033120643 1.4130001 4289167764
-0.1126319 0.033120643 1.4130001 4285935693
-0.11017936 0.033120643 1.4130001 4286064970
-0.10765058 0.033097208 1.4120001 4286927720
-0.10534878 0.033144087 1.414 4291345091
-0.10304005 0.033190966 1.416 4292663775
-0.10065332 0.033214405 1.4170001 4292205018
-0.098332435 0.033261288 1.419 4292139738
-0.096072167 0.033331607 1.4220001 4292139484
-0.09373565 0.033378486 1.424 4292073691
-0.091520377 0.033472244 1.4280001 4292007899
-0.089353569 0.033589445 1.4330001 4292073692
-0.087048166 0.033659764 1.4360001 4292073692
-0.084967881 0.033823844 1.4430001 4292139485
-0.15259242 0.036311071 1.4430001 4290757832
-0.14987978 0.036260746 1.4410001 4291876313
-0.14676499 0.036109764 1.4350001 4292139485
-0.1440732 0.036059435 1.4330001 4292205278
-0.14109193 0.035933618 1.4280001 4292271071
-0.138128 0.0358078 1.4230001 4292271328
-0.13556278 0.035782639 1.4220001 4292271328
-0.13281383 0.035707146 1.419 4292205535
-0.13016714 0.035656817 1.4170001 4292336864
-0.12761754 0.035631657 1.416 4292402144
-0.12515979 0.035631657 1.416 4292533729
-0.12261537 0.035606492 1.4150001 4285624694
-0.12007444 0.035581328 1.414 4288979881
-0.11762017 0.035581328 1.414 4293058789
-0.11524733 0.035606492 1.4150001 4293188579
-0.11271162 0.035581328 1.414 4293317342
-0.11033531 0.035606492 1.4150001 4289961642
-0.10795554 0.035631657 1.416 4292398549
-0.10557229 0.035656817 1.4170001 4292466652
-0.10318558 0.035681982 1.4180001 4292270301
-0.1007954 0.035707146 1.419 4292271069
-0.098540328 0.035782639 1.4220001 4292402910
-0.096342407 0.035883293 1.4260001 4292007898
-0.093998954 0.035933618 1.4280001 4291942105
-0.091776729 0.036034275 1.432 4292007899
-0.089540631 0.036134925 1.4360001 4292073692
-0.087169409 0.036185253 1.4380001 4292139485
-0.14417374 0.038556315 1.434 4292271071
-0.14119072 0.03842188 1.429 4292271071
-0.13832214 0.038314331 1.4250001 4292271071
-0.13575344 0.038287442 1.424 4292271071
-0.133001 0.038206778 1.4210001 4292271071
-0.13035086 0.038153008 1.419 4292139484
-0.12779777 0.038126118 1.4180001 4292533985
-0.12524816 0.038099229 1.4170001 4292599778
-0.12270203 0.038072344 1.416 4292401629
-0.12024429 0.038072344 1.416 4292336349
-0.11778653 0.038072344 1.416 4292730594
-0.11532879 0.038072344 1.416 4292598496
-0.11295074 0.038099229 1.4170001 4292532445
-0.11064722 0.038153008 1.419 4293124839
-0.1082605 0.038179893 1.4200001 4293191145
-0.10587031 0.038206778 1.4210001 4292796900
-0.10347665 0.038233668 1.4220001 4292600035
-0.10107952 0.038260553 1.4230001 4292205531
-0.098817512 0.038341217 1.4260001 4289508018
-0.096612647 0.038448766 1.4300001 4287797146
-0.09426225 0.03850254 1.432 4292073691
-0.092033096 0.038610086 1.4360001 4292073692
-0.13900161 0.04097081 1.432 4292205278
-0.13632543 0.040913586 1.4300001 4292271071
-0.13337541 0.040770531 1.4250001 4292139484
-0.13071831 0.040713307 1.4230001 4289244592
-0.12815829 0.0406847 1.4220001 4288191647
-0.12569012 0.0406847 1.4220001 4292862950
-0.12304865 0.040627476 1.4200001 4291020746
-0.12049904 0.040598866 1.419 4291810262
-0.11795289 0.040570255 1.4180001 4291547090
-0.11549167 0.040570255 1.4180001 4291217356
-0.11318988 0.040627476 1.4200001 4292599009
-0.11088114 0.0406847 1.4220001 4288783014
-0.10841298 0.0406847 1.4220001 4288783784
-0.10601932 0.040713307 1.4230001 4288257440
-0.10362219 0.04074192 1.424 4291678676
-0.10129262 0.040799145 1.4260001 4289244592
-0.099025398 0.040884975 1.429 4285823356
-0.096882895 0.04102803 1.434 4290692038
-0.13642076 0.04340874 1.4310001 4292205277
-0.13356259 0.0432874 1.427 4292336863
-0.13090202 0.043226734 1.4250001 4291481554
-0.12824841 0.043166064 1.4230001 4285099376
-0.12577851 0.043166064 1.4230001 4291941848
-0.12322196 0.043135729 1.4220001 4286546309
-0.12058395 0.043075059 1.4200001 4290954440
-0.11803608 0.043044727 1.419 4287796119
-0.11565457 0.043075059 1.4200001 4284045918
-0.11326959 0.043105394 1.4210001 4292336094
-0.11095911 0.043166064 1.4230001 4283914847
-0.10856546 0.043196399 1.424 4288191648
-0.10609382 0.043196399 1.424 4285099121
-0.10376772 0.043257069 1.4260001 4287270290
-0.10143469 0.043317735 1.4280001 4289704630
-0.13099389 0.045714993 1.4260001 4292731622
-0.12842865 0.045682937 1.4250001 4287073423
-0.1258669 0.045650877 1.424 4287204237
-0.12330861 0.045618817 1.4230001 4285822329
-0.12066887 0.045554701 1.4210001 4292598752
-0.11820244 0.045554701 1.4210001 4289638324
-0.11573602 0.045554701 1.4210001 4283387989
-0.1133493 0.045586761 1.4220001 4292928488
-0.11095911 0.045618817 1.4230001 4283783261
-0.10856546 0.045650877 1.424 4287138704
-0.10616833 0.045682937 1.4250001 4286349188
-0.11828563 0.048037793 1.4220001 4290559426
-0.11589891 0.048071571 1.4230001 4282598730
-0.11342901 0.048071571 1.4230001 4292402144
