# .PCD v0.7 - Point Cloud Data file format
VERSION 0.7
FIELDS x y z rgba
SIZE 4 4 4 4
TYPE F F F U
COUNT 1 1 1 1
WIDTH 1083
HEIGHT 1
VIEWPOINT 0 0 0 1 0 0 0
POINTS 1083
DATA ascii
-0.17638096 -0.027197419 1.3840001 4289028941
-0.17530642 -0.027217072 1.3850001 4288963920
-0.174733 -0.027315328 1.3900001 4288898644
-0.17365152 -0.027334979 1.391 4288309340
-0.17244434 -0.027334979 1.391 4287523683
-0.17148337 -0.027374281 1.393 4288908938
-0.19157913 -0.025948286 1.381 4288699465
-0.19038063 -0.025948286 1.381 4288700237
-0.18918213 -0.025948286 1.381 4289688678
-0.18771139 -0.025910705 1.3790001 4291006348
-0.18651462 -0.025910705 1.3790001 4291862428
-0.18518347 -0.025891917 1.378 4291862169
-0.18372053 -0.025854336 1.376 4291401614
-0.18252638 -0.025854336 1.376 4290678145
-0.18133222 -0.025854336 1.376 4290809729
-0.18013805 -0.025854336 1.376 4291663756
-0.17907393 -0.025873126 1.3770001 4291926154
-0.1778789 -0.025873126 1.3770001 4291661433
-0.17706881 -0.025929496 1.3800001 4290607713
-0.17612606 -0.025967075 1.3820001 4289882704
-0.17517985 -0.026004653 1.3840001 4289882445
-0.17460728 -0.0260986 1.3890001 4289882188
-0.17352669 -0.02611739 1.3900001 4289554768
-0.17244434 -0.02613618 1.391 4288373838
-0.19130167 -0.024722248 1.3790001 4288831045
-0.18996705 -0.024704322 1.378 4289094221
-0.18863416 -0.024686392 1.3770001 4289227353
-0.18703078 -0.02463261 1.3740001 4290215542
-0.18583834 -0.02463261 1.3740001 4291598225
-0.18451154 -0.024614682 1.373 4292124825
-0.18318647 -0.024596754 1.3720001 4291796115
-0.18199578 -0.024596754 1.3720001 4290743166
-0.18080509 -0.024596754 1.3720001 4290216821
-0.17961441 -0.024596754 1.3720001 4291070592
-0.17855376 -0.024614682 1.373 4292057226
-0.1778789 -0.024686392 1.3770001 4292517258
-0.17574374 -0.024722248 1.3790001 4290474843
-0.17435588 -0.02486567 1.3870001 4289816651
-0.17340183 -0.024901524 1.3890001 4289686350
-0.17244434 -0.024937382 1.391 4289096018
-0.19102421 -0.02349966 1.3770001 4289684541
-0.18982919 -0.02349966 1.3770001 4289619009
-0.18849717 -0.023482593 1.376 4289356611
-0.18689466 -0.023431398 1.373 4289555281
-0.1857031 -0.023431398 1.373 4290543465
-0.18437716 -0.023414331 1.3720001 4291925641
-0.18318647 -0.023414331 1.3720001 4292254865
-0.18199578 -0.023414331 1.3720001 4291464838
-0.1806733 -0.023397265 1.3710001 4290543479
-0.17961441 -0.023414331 1.3720001 4290542708
-0.17855376 -0.023431398 1.373 4291464321
-0.1778789 -0.02349966 1.3770001 4292385676
-0.1769405 -0.023533791 1.3790001 4292254084
-0.17587118 -0.023550857 1.3800001 4290936935
-0.17435588 -0.023670318 1.3870001 4289817160
-0.17340183 -0.023704449 1.3890001 4289686089
-0.17244434 -0.023738582 1.391 4289423183
-0.19074678 -0.022280518 1.3750001 4289684287
-0.18955348 -0.022280518 1.3750001 4289750338
-0.1882232 -0.022264315 1.3740001 4289553732
-0.18675853 -0.022231907 1.3720001 4289356871
-0.18556784 -0.022231907 1.3720001 4289621332
-0.18424277 -0.022215702 1.3710001 4290938485
-0.18305294 -0.022215702 1.3710001 4291991433
-0.18186313 -0.022215702 1.3710001 4291991179
-0.1806733 -0.022215702 1.3710001 4291201404
-0.17974532 -0.022248112 1.373 4290674545
-0.17855376 -0.022248112 1.373 4290872179
-0.1778789 -0.022312926 1.3770001 4291530879
-0.1768122 -0.022329131 1.378 4292056448
-0.17587118 -0.022361539 1.3800001 4291528560
-0.1749267 -0.022393946 1.3820001 4290211924
-0.17460728 -0.022507373 1.3890001 4290013771
-0.17377636 -0.022555986 1.3920001 4289751114
-0.17281626 -0.022588395 1.3940001 4289685841
-0.1908855 -0.021110849 1.376 4289750080
-0.18955348 -0.021095509 1.3750001 4289947201
-0.1883602 -0.021095509 1.3750001 4289815874
-0.18675853 -0.021049483 1.3720001 4289750083
-0.18556784 -0.021049483 1.3720001 4289619526
-0.18437716 -0.021049483 1.3720001 4290212951
-0.18305294 -0.02103414 1.3710001 4291463790
-0.18199578 -0.021049483 1.3720001 4292122749
-0.18080509 -0.021049483 1.3720001 4291859578
-0.17987622 -0.021080166 1.3740001 4291529846
-0.17881386 -0.021095509 1.3750001 4290871403
-0.17706881 -0.02117222 1.3800001 4291200110
-0.17599863 -0.021187562 1.381 4291067495
-0.17505327 -0.021218248 1.383 4290343255
-0.174733 -0.021325642 1.3900001 4290079309
-0.1739012 -0.021371668 1.393 4289947724
-0.17294024 -0.021402353 1.3950001 4289816656
-0.19102421 -0.01993946 1.3770001 4289881669
-0.18969133 -0.01992498 1.376 4289881925
-0.1883602 -0.019910499 1.3750001 4289816134
-0.18689466 -0.019881539 1.373 4289684551
-0.18556784 -0.019867059 1.3720001 4289619787
-0.18437716 -0.019867059 1.3720001 4289686353
-0.18318647 -0.019867059 1.3720001 4290147676
-0.18199578 -0.019867059 1.3720001 4291464050
-0.18080509 -0.019867059 1.3720001 4292253311
-0.17987622 -0.019896019 1.3740001 4291989626
-0.17881386 -0.019910499 1.3750001 4290871145
-0.17719713 -0.019997383 1.381 4290279003
-0.17612606 -0.020011861 1.3820001 4290475354
-0.17517985 -0.020040821 1.3840001 4290409046
-0.1748587 -0.020142186 1.391 4290210895
-0.17402604 -0.020185625 1.3940001 4289947725
-0.1730642 -0.020214587 1.396 4289553485
-0.19116296 -0.018766345 1.378 4290078797
-0.18982919 -0.018752726 1.3770001 4290079312
-0.18849717 -0.018739108 1.376 4289882448
-0.18703078 -0.018711871 1.3740001 4289816400
-0.1857031 -0.018698253 1.373 4289620050
-0.18451154 -0.018698253 1.373 4289685333
-0.18331999 -0.018698253 1.373 4289686100
-0.18212843 -0.018698253 1.373 4290410079
-0.18093687 -0.018698253 1.373 4291594350
-0.18000714 -0.01872549 1.3750001 4291594606
-0.17907393 -0.018752726 1.3770001 4290936933
-0.17800809 -0.018766345 1.378 4290410845
-0.17732544 -0.018820819 1.3820001 4290344795
-0.17638096 -0.018848056 1.3840001 4290475609
-0.17543299 -0.018875293 1.386 4290409045
-0.17511012 -0.018970624 1.393 4289882188
-0.17427573 -0.019011479 1.396 4289421382
-0.17343612 -0.019052336 1.399 4289092935
-0.19130167 -0.017591506 1.3790001 4289750094
-0.18996705 -0.017578751 1.378 4290079572
-0.18849717 -0.017553236 1.376 4289948500
-0.18703078 -0.017527722 1.3740001 4289883222
-0.1857031 -0.017514966 1.373 4289686100
-0.18451154 -0.017514966 1.373 4289750867
-0.18331999 -0.017514966 1.373 4289685329
-0.18212843 -0.017514966 1.373 4289816914
-0.18093687 -0.017514966 1.373 4290409306
-0.18013805 -0.017553236 1.376 4290738271
-0.17907393 -0.017565994 1.3770001 4290607455
-0.17800809 -0.017578751 1.378 4290344284
-0.17745374 -0.017642533 1.383 4290212954
-0.17638096 -0.017655289 1.3840001 4289949011
-0.17543299 -0.017680805 1.386 4289488201
-0.17523582 -0.017782856 1.3940001 4289026880
-0.17427573 -0.017808372 1.396 4288829502
-0.17343612 -0.017846642 1.399 4288632642
-0.19130167 -0.016403049 1.3790001 4289224269
-0.18996705 -0.016391154 1.378 4289552974
-0.18863416 -0.01637926 1.3770001 4289619281
-0.18703078 -0.016343575 1.3740001 4289554258
-0.1857031 -0.01633168 1.373 4289357136
-0.18451154 -0.01633168 1.373 4289487949
-0.18331999 -0.01633168 1.373 4289290569
-0.18212843 -0.01633168 1.373 4289355848
-0.18093687 -0.01633168 1.373 4289421639
-0.18013805 -0.016367365 1.376 4289487947
-0.17907393 -0.01637926 1.3770001 4289422411
-0.17800809 -0.016391154 1.378 4289159497
-0.17732544 -0.016438734 1.3820001 4289027912
-0.17625351 -0.016450631 1.383 4288764226
-0.17530642 -0.016474418 1.3850001 4288501052
-0.17511012 -0.016569579 1.393 4288435001
-0.17415088 -0.016593367 1.3950001 4288566588
-0.17331216 -0.016629053 1.3980001 4288501572
-0.19157913 -0.01523666 1.381 4288764487
-0.19010492 -0.015214592 1.3790001 4288960837
-0.18877116 -0.01520356 1.378 4288895813
-0.18703078 -0.015159427 1.3740001 4288830277
-0.18583834 -0.015159427 1.3740001 4288765253
-0.18464592 -0.015159427 1.3740001 4288830018
-0.1834535 -0.015159427 1.3740001 4288698431
-0.18226106 -0.015159427 1.3740001 4288632381
-0.18106864 -0.015159427 1.3740001 4288500794
-0.18013805 -0.015181493 1.376 4288435260
-0.17894389 -0.015181493 1.376 4288303675
-0.17800809 -0.01520356 1.378 4287974968
-0.17732544 -0.015247691 1.3820001 4288040761
-0.17638096 -0.015269757 1.3840001 4288172092
-0.17543299 -0.015291825 1.386 4288435005
-0.17511012 -0.015369056 1.393 4288369466
-0.17427573 -0.015402155 1.396 4288435261
-0.17343612 -0.015435255 1.399 4288633160
-0.19157913 -0.014046478 1.381 4288567881
-0.19024277 -0.014036307 1.3800001 4288566596
-0.18877116 -0.014015964 1.378 4288566592
-0.1871669 -0.013985451 1.3750001 4288435519
-0.18597361 -0.013985451 1.3750001 4288304445
-0.18464592 -0.013975279 1.3740001 4288435261
-0.1834535 -0.013975279 1.3740001 4288237882
-0.18226106 -0.013975279 1.3740001 4288040758
-0.18106864 -0.013975279 1.3740001 4288106295
-0.18013805 -0.013995622 1.376 4287974711
-0.17907393 -0.014005793 1.3770001 4287974711
-0.17800809 -0.014015964 1.378 4287974710
-0.17745374 -0.014066821 1.383 4287974709
-0.17638096 -0.014076992 1.3840001 4288106295
-0.17543299 -0.014097334 1.386 4288369466
-0.17523582 -0.014178704 1.3940001 4288369722
-0.17427573 -0.014199047 1.396 4288435775
-0.17343612 -0.014229561 1.399 4288633162
-0.19171785 -0.012865607 1.3820001 4288502600
-0.19024277 -0.012846989 1.3800001 4288435523
-0.18877116 -0.012828369 1.378 4288303935
-0.1871669 -0.012800441 1.3750001 4288369725
-0.18597361 -0.012800441 1.3750001 4288238140
-0.18478031 -0.012800441 1.3750001 4288303677
-0.1834535 -0.012791132 1.3740001 4288172092
-0.18226106 -0.012791132 1.3740001 4287974967
-0.18106864 -0.012791132 1.3740001 4287909173
-0.18013805 -0.012809751 1.376 4287908660
-0.17907393 -0.012819059 1.3770001 4288040245
-0.17800809 -0.012828369 1.378 4288106039
-0.17745374 -0.012874917 1.383 4288106039
-0.1765084 -0.012893535 1.3850001 4288171833
-0.17543299 -0.012902845 1.386 4288303419
-0.17511012 -0.01296801 1.393 4288435518
-0.17427573 -0.012995939 1.396 4288501313
-0.17343612 -0.013023867 1.399 4288633160
-0.19171785 -0.011674564 1.3820001 4288634443
-0.19038063 -0.011666116 1.381 4288305218
-0.18890814 -0.011649222 1.3790001 4288173630
-0.18730302 -0.011623879 1.376 4288369980
-0.18597361 -0.011615432 1.3750001 4288369725
-0.18464592 -0.011606984 1.3740001 4288303422
-0.1834535 -0.011606984 1.3740001 4288237630
-0.18226106 -0.011606984 1.3740001 4288106043
-0.18106864 -0.011606984 1.3740001 4287974710
-0.18013805 -0.011623879 1.376 4288039731
-0.17907393 -0.011632326 1.3770001 4288105779
-0.17813727 -0.011649222 1.3790001 4288171573
-0.17745374 -0.011683012 1.383 4288237112
-0.1765084 -0.011699907 1.3850001 4288368700
-0.17543299 -0.011708355 1.386 4288500030
-0.17511012 -0.011767488 1.393 4288631871
-0.17415088 -0.011784383 1.3950001 4288566849
-0.17331216 -0.011809726 1.3980001 4288698692
-0.17296062 -0.011868859 1.4050001 4288634189
-0.17210799 -0.011894202 1.4080001 4288306258
-0.17125016 -0.011919545 1.411 4287518806
-0.19171785 -0.010483522 1.3820001 4288699980
-0.19038063 -0.010475936 1.381 4288371011
-0.18890814 -0.010460765 1.3790001 4288239167
-0.1871669 -0.010430422 1.3750001 4288435774
-0.18597361 -0.010430422 1.3750001 4288435774
-0.18464592 -0.010422836 1.3740001 4288435008
-0.1834535 -0.010422836 1.3740001 4288435008
-0.18226106 -0.010422836 1.3740001 4288369214
-0.18106864 -0.010422836 1.3740001 4288106297
-0.18013805 -0.010438007 1.376 4288105781
-0.17907393 -0.010445593 1.3770001 4288171574
-0.17800809 -0.010453179 1.378 4288237110
-0.17745374 -0.010491109 1.383 4288302905
-0.17638096 -0.010498693 1.3840001 4288434493
-0.17530642 -0.010506279 1.3850001 4288566078
-0.17511012 -0.010566966 1.393 4288632126
-0.17415088 -0.010582137 1.3950001 4288632384
-0.17331216 -0.010604895 1.3980001 4288698180
-0.17320682 -0.010673166 1.4070001 4288633163
-0.17223023 -0.010688337 1.409 4288371023
-0.17137153 -0.010711095 1.4120001 4287518289
-0.19171785 -0.0092924796 1.3820001 4288633929
-0.19024277 -0.0092790313 1.3800001 4288633672
-0.18877116 -0.009265583 1.378 4288436291
-0.1871669 -0.0092454124 1.3750001 4288501312
-0.18597361 -0.0092454124 1.3750001 4288501313
-0.18464592 -0.0092386883 1.3740001 4288566594
-0.1834535 -0.0092386883 1.3740001 4288500801
-0.18226106 -0.0092386883 1.3740001 4288435262
-0.18106864 -0.0092386883 1.3740001 4288237883
-0.18013805 -0.0092521356 1.376 4288172089
-0.17907393 -0.0092588598 1.3770001 4288303418
-0.17732544 -0.0092924796 1.3820001 4288368698
-0.17638096 -0.0093059279 1.3840001 4288434493
-0.17530642 -0.0093126511 1.3850001 4288566078
-0.1749844 -0.0093597183 1.3920001 4288566078
-0.17402604 -0.0093731666 1.3940001 4288631615
-0.17318816 -0.009393339 1.3970001 4288828484
-0.17320682 -0.0094605777 1.4070001 4288829257
-0.17235248 -0.0094807493 1.4100001 4288435786
-0.17161427 -0.0095076449 1.414 4287451466
-0.19199531 -0.0081131617 1.3840001 4288502086
-0.19065633 -0.0081072999 1.383 4288567879
-0.18918213 -0.0080955746 1.381 4288436293
-0.18743913 -0.0080721267 1.3770001 4288435522
-0.1862441 -0.0080721267 1.3770001 4288566851
-0.18504907 -0.0080721267 1.3770001 4288632643
-0.18372053 -0.008066264 1.376 4288435264
-0.18265902 -0.0080721267 1.3770001 4288369469
-0.18146399 -0.0080721267 1.3770001 4288303420
-0.18039989 -0.0080779884 1.378 4288237884
-0.17933403 -0.0080838511 1.3790001 4288369213
-0.17826644 -0.0080897128 1.3800001 4288368957
-0.17745374 -0.0081072999 1.383 4288303164
-0.1765084 -0.0081190234 1.3850001 4288368699
-0.17555958 -0.0081307469 1.3870001 4288565821
-0.19227274 -0.0069303955 1.386 4288502086
-0.1907942 -0.0069203954 1.3840001 4288436293
-0.18945609 -0.0069153947 1.383 4288238914
-0.18771139 -0.0068953936 1.3790001 4288369730
-0.18651462 -0.0068953936 1.3790001 4288501315
-0.18518347 -0.0068903933 1.378 4288435521
-0.18398757 -0.0068903933 1.378 4288369728
-0.18279168 -0.0068903933 1.378 4288369470
-0.18159579 -0.0068903933 1.378 4288237884
-0.1805308 -0.0068953936 1.3790001 4288172092
-0.17946407 -0.0069003939 1.3800001 4288237885
-0.17839563 -0.0069053941 1.381 4288303422
-0.17771037 -0.0069253952 1.3850001 4288369214
-0.17676328 -0.0069353958 1.3870001 4288631871
-0.17581272 -0.0069453968 1.3890001 4288697665
-0.1925502 -0.0057441825 1.388 4288304707
-0.1910699 -0.0057359058 1.386 4288173120
-0.18959309 -0.0057276292 1.3840001 4288107071
-0.1878475 -0.0057110754 1.3800001 4288369728
-0.18664986 -0.0057110754 1.3800001 4288435521
-0.18545224 -0.0057110754 1.3800001 4288303935
-0.18412109 -0.0057069366 1.3790001 4288435521
-0.18292433 -0.0057069366 1.3790001 4288435521
-0.18185934 -0.0057110754 1.3800001 4288238142
-0.18079263 -0.0057152133 1.381 4288172349
-0.17972417 -0.005719352 1.3820001 4288238142
-0.17865399 -0.0057234904 1.383 4288435007
-0.177967 -0.0057400442 1.3870001 4288566592
-0.17701817 -0.0057483213 1.3890001 4288697665
-0.17593931 -0.0057524596 1.3900001 4288763459
-0.18893647 -0.0045479694 1.388 4288303935
-0.18759665 -0.0045446926 1.3870001 4288238399
-0.18639295 -0.0045446926 1.3870001 4288172606
-0.18492219 -0.0045381393 1.3850001 4288172607
-0.18385287 -0.0045414157 1.386 4288238399
-0.18265003 -0.0045414157 1.386 4288172605
-0.18157811 -0.0045446926 1.3870001 4288106555
-0.18050446 -0.0045479694 1.388 4288172091
-0.17942905 -0.0045512463 1.3890001 4288303676
-0.17505339 -0.0046593747 1.4220001 4288172097
-0.17418601 -0.0046692048 1.4250001 4288108361
-0.17331342 -0.0046790349 1.4280001 4288045142
-0.17167227 -0.0047019711 1.4350001 4287721326
-0.17054568 -0.0047052475 1.4360001 4288908173
-0.18920872 -0.0033565855 1.3900001 4287712055
-0.18800241 -0.0033565855 1.3900001 4287646520
-0.18666171 -0.0033541706 1.3890001 4287515192
-0.18532275 -0.0033517557 1.388 4287580985
-0.18411817 -0.0033517557 1.388 4287646521
-0.1829136 -0.0033517557 1.388 4287514934
-0.18183993 -0.0033541706 1.3890001 4287580213
-0.18076454 -0.0033565855 1.3900001 4287646262
-0.17968741 -0.0033590002 1.391 4287843641
-0.1752996 -0.003438689 1.424 4287844420
-0.17430824 -0.0034435187 1.4260001 4287912014
-0.17331342 -0.0034483483 1.4280001 4287979610
-0.17267664 -0.0034604224 1.4330001 4287915362
-0.17143302 -0.0034604224 1.4330001 4287390050
-0.17018938 -0.0034604224 1.4330001 4286799457
-0.20405172 -0.0022285327 1.4350001 4292593096
-0.20266503 -0.0022269797 1.434 4288706431
-0.20128009 -0.0022254267 1.4330001 4287585375
-0.20003645 -0.0022254267 1.4330001 4287715411
-0.19879283 -0.0022254267 1.4330001 4287188545
-0.19754919 -0.0022254267 1.4330001 4287188025
-0.18961708 -0.0021633073 1.393 4287186739
-0.18827291 -0.0021617543 1.3920001 4286989361
-0.18706486 -0.0021617543 1.3920001 4286857520
-0.18558979 -0.0021586483 1.3900001 4287186229
-0.18438348 -0.0021586483 1.3900001 4287382582
-0.18317717 -0.0021586483 1.3900001 4286988080
-0.18223268 -0.0021617543 1.3920001 4286922800
-0.18102463 -0.0021617543 1.3920001 4287186227
-0.17994577 -0.0021633073 1.393 4287515704
-0.1786299 -0.002206791 1.4210001 4287908670
-0.17764638 -0.0022098969 1.4230001 4287909439
-0.17665938 -0.0022130029 1.4250001 4287844931
-0.17591511 -0.0022192148 1.429 4287714632
-0.17467494 -0.0022192148 1.429 4287847508
-0.17343479 -0.0022192148 1.429 4288177247
-0.17219463 -0.0022192148 1.429 4288045921
-0.17071521 -0.0022161088 1.427 4287388250
-0.16935803 -0.0022145559 1.4260001 4286532944
-0.16776678 -0.0022098969 1.4230001 4286007117
-0.16641481 -0.0022083439 1.4220001 4285679439
-0.16506456 -0.002206791 1.4210001 4286207069
-0.20405172 -0.00099181349 1.4350001 4288643462
-0.20266503 -0.00099112233 1.434 4287060833
-0.20142053 -0.00099112233 1.434 4287387994
-0.20017605 -0.00099112233 1.434 4287913046
-0.19879283 -0.00099043117 1.4330001 4287846477
-0.19754919 -0.00099043117 1.4330001 4287648580
-0.18679145 -0.00096693175 1.399 4287120695
-0.18557733 -0.00096693175 1.399 4287251511
-0.1843632 -0.00096693175 1.399 4286988339
-0.18314908 -0.00096693175 1.399 4286857265
-0.18206501 -0.00096762291 1.4000001 4287186487
-0.18072084 -0.00096693175 1.399 4287515707
-0.17900704 -0.00098421075 1.424 4287712579
-0.17789607 -0.00098490191 1.4250001 4287647812
-0.17678334 -0.00098559307 1.4260001 4287714889
-0.17591511 -0.00098766654 1.429 4287781713
-0.17467494 -0.00098766654 1.429 4288111197
-0.17343479 -0.00098766654 1.429 4288374885
-0.17183313 -0.00098559307 1.4260001 4288045667
-0.17047594 -0.00098490191 1.4250001 4287256409
-0.16912051 -0.00098421075 1.424 4286729810
-0.1674131 -0.00098144612 1.4200001 4286598226
-0.16606373 -0.00098075496 1.419 4286598229
-0.16459993 -0.00097937265 1.4170001 4286532439
-0.20419392 0.0002450764 1.4360001 4285547595
-0.20280635 0.00024490574 1.4350001 4286072650
-0.20156099 0.00024490574 1.4350001 4287190357
-0.20017605 0.00024473507 1.434 4287715415
-0.19893155 0.00024473507 1.434 4288044119
-0.19768704 0.00024473507 1.434 4287846224
-0.18772607 0.00023995641 1.406 4287384128
-0.18637322 0.00023978575 1.4050001 4287449407
-0.1851539 0.00023978575 1.4050001 4287317822
-0.18393457 0.00023978575 1.4050001 4287186237
-0.18258519 0.00023961508 1.404 4287515201
-0.18123755 0.00023944442 1.4030001 4287581506
-0.17802089 0.00024336974 1.4260001 4287451723
-0.17690733 0.0002435404 1.427 4287781716
-0.17579201 0.00024371107 1.4280001 4288111455
-0.17455271 0.00024371107 1.4280001 4288374885
-0.17331342 0.00024371107 1.4280001 4288177766
-0.17159215 0.00024302841 1.424 4287717217
-0.17023668 0.00024285774 1.4230001 4287256410
-0.16888297 0.00024268708 1.4220001 4286992727
-0.16694151 0.00024166307 1.416 4287189337
-0.16559561 0.00024149241 1.4150001 4287517278
-0.16425143 0.00024132174 1.414 4287516510
-0.20348294 0.0014774951 1.4310001 4285809480
-0.20224105 0.0014774951 1.4310001 4286006598
-0.20113961 0.0014785274 1.432 4286861134
-0.19975726 0.0014774951 1.4310001 4287517779
-0.19851537 0.0014774951 1.4310001 4287978071
-0.19672206 0.001473365 1.427 4287977814
-0.19520965 0.0014713 1.4250001 4287780433
-0.19370072 0.0014692351 1.4230001 4287648332
-0.19178949 0.0014640725 1.4180001 4287516487
-0.19029012 0.0014620076 1.416 4287516229
-0.18892772 0.0014609752 1.4150001 4287516227
-0.18730177 0.0014578777 1.4120001 4287647299
-0.18607637 0.0014578777 1.4120001 4287581508
-0.18485096 0.0014578777 1.4120001 4287515717
-0.18388566 0.0014599427 1.414 4287581509
-0.18291688 0.0014620076 1.416 4287647301
-0.1809689 0.0014661376 1.4200001 4287384644
-0.17986313 0.0014671701 1.4210001 4287450951
-0.17888133 0.0014692351 1.4230001 4287648846
-0.17814575 0.001473365 1.427 4287846996
-0.17690733 0.001473365 1.427 4288176476
-0.16918214 0.0014496177 1.404 4287651677
-0.16808331 0.0014506502 1.4050001 4287519578
-0.16686398 0.0014506502 1.4050001 4287321430
-0.16552676 0.0014496177 1.404 4287452247
-0.16419126 0.0014485853 1.4030001 4287714650
-0.16297367 0.0014485853 1.4030001 4288042075
-0.16175607 0.0014485853 1.4030001 4288041049
-0.16076733 0.0014506502 1.4050001 4287777365
-0.20291416 0.0027031896 1.427 4286728779
-0.20181707 0.0027050839 1.4280001 4286729033
-0.20071822 0.0027069785 1.429 4286860360
-0.19933848 0.0027050839 1.4280001 4287320143
-0.1980992 0.0027050839 1.4280001 4287780693
-0.19644634 0.002699401 1.4250001 4288109658
-0.19493566 0.0026956124 1.4230001 4288043863
-0.19356461 0.0026937181 1.4220001 4287780434
-0.19165425 0.0026842465 1.4170001 4287648846
-0.19029012 0.0026823522 1.416 4287648331
-0.18892772 0.0026804579 1.4150001 4287582793
-0.18730177 0.0026747747 1.4120001 4287779658
-0.18607637 0.0026747747 1.4120001 4287779659
-0.1851128 0.0026785636 1.414 4287713868
-0.18401571 0.0026804579 1.4150001 4287648074
-0.18278769 0.0026804579 1.4150001 4287845709
-0.18207294 0.0026880351 1.419 4287977552
-0.1809689 0.0026899294 1.4200001 4287977811
-0.17986313 0.0026918238 1.4210001 4288044118
-0.17900704 0.0026975067 1.424 4288176218
-0.17789607 0.002699401 1.4250001 4288242525
-0.17678334 0.0027012953 1.4260001 4288439649
-0.16882063 0.0026539373 1.401 4288177762
-0.1677244 0.0026558316 1.4020001 4287980127
-0.16650768 0.0026558316 1.4020001 4287847514
-0.16517307 0.0026539373 1.401 4287780952
-0.16384017 0.002652043 1.4000001 4288043097
-0.16262518 0.002652043 1.4000001 4288370522
-0.1615255 0.0026539373 1.401 4288368981
-0.16042405 0.0026558316 1.4020001 4288367699
-0.20372339 0.0039247461 1.424 4286794831
-0.20248757 0.0039247461 1.424 4286860363
-0.20139308 0.0039275023 1.4250001 4286859592
-0.20029685 0.0039302581 1.4260001 4286990920
-0.19905929 0.0039302581 1.4260001 4287187788
-0.19768302 0.0039275023 1.4250001 4287517265
-0.19617061 0.0039219894 1.4230001 4287846486
-0.19479868 0.0039192336 1.4220001 4287978328
-0.19342847 0.0039164773 1.4210001 4288043607
-0.19165425 0.0039054528 1.4170001 4287977813
-0.19015573 0.0038999405 1.4150001 4287977298
-0.18879421 0.0038971843 1.414 4287977298
-0.18730177 0.003891672 1.4120001 4288109140
-0.18607637 0.003891672 1.4120001 4288109140
-0.1851128 0.0038971843 1.414 4287977555
-0.18388566 0.0038971843 1.414 4287977555
-0.18278769 0.0038999405 1.4150001 4288306776
-0.18181631 0.0039054528 1.4170001 4288438620
-0.18071401 0.003908209 1.4180001 4288373086
-0.17960998 0.0039109653 1.419 4288242270
-0.17875563 0.0039192336 1.4220001 4288176990
-0.17764638 0.0039219894 1.4230001 4288111710
-0.17653541 0.0039247461 1.424 4288506470
-0.16857964 0.0038558424 1.399 4288968562
-0.16748513 0.0038585986 1.4000001 4288507497
-0.16615139 0.0038558424 1.399 4288176993
-0.16481937 0.0038530859 1.3980001 4288044379
-0.16348909 0.0038503301 1.3970001 4288371802
-0.1622767 0.0038503301 1.3970001 4288698455
-0.16117962 0.0038530859 1.3980001 4288565327
-0.1601952 0.0038585986 1.4000001 4288564045
-0.20510015 0.0050940975 1.4080001 4284953912
-0.20387822 0.0050940975 1.4080001 4285741631
-0.20265628 0.0050940975 1.4080001 4286925131
-0.20129129 0.0050904793 1.4070001 4287056717
-0.19978583 0.0050832434 1.4050001 4287122250
-0.19842519 0.0050796256 1.404 4287056453
-0.19492991 0.0051158052 1.414 4287451984
-0.19356579 0.0051121875 1.4130001 4287912792
-0.19233951 0.0051121875 1.4130001 4288372830
-0.19097798 0.0051085693 1.4120001 4288241244
-0.18948382 0.0051013334 1.4100001 4288109143
-0.18812662 0.0050977156 1.409 4288043350
-0.18690382 0.0050977156 1.409 4288241242
-0.18568102 0.0050977156 1.409 4288241242
-0.18458915 0.0051013334 1.4100001 4288109656
-0.18323542 0.0050977156 1.409 4288241242
-0.18214181 0.0051013334 1.4100001 4288570206
-0.18091814 0.0051013334 1.4100001 4288504672
-0.17956702 0.0050977156 1.409 4288242014
-0.17834422 0.0050977156 1.409 4287979869
-0.17561294 0.0050543002 1.3970001 4287980381
-0.17452541 0.0050579179 1.3980001 4288046688
-0.17356008 0.0050651538 1.4000001 4288507754
-0.1723451 0.0050651538 1.4000001 4289429370
-0.17088564 0.0050579179 1.3980001 4289955971
-0.16918691 0.0050434461 1.3940001 4289890434
-0.16785663 0.0050398284 1.393 4289561468
-0.16652808 0.0050362102 1.3920001 4289099890
-0.16520128 0.005032592 1.391 4288637798
-0.16387621 0.0050289743 1.3900001 4288373085
-0.16255285 0.0050253561 1.3890001 4288568409
-0.16146359 0.0050289743 1.3900001 4288763218
-0.16037256 0.005032592 1.391 4288695626
-0.15939423 0.0050398284 1.393 4288694857
-0.15898022 0.0050651538 1.4000001 4288825933
-0.1581033 0.0050760075 1.4030001 4288629327
-0.157333 0.0050904793 1.4070001 4288038735
-0.15655574 0.0051049516 1.411 4287120463
-0.20466314 0.006294108 1.4050001 4285084472
-0.20344383 0.006294108 1.4050001 4286267717
-0.20222449 0.006294108 1.4050001 4286859337
-0.20071903 0.0062851482 1.4030001 4287384910
-0.19921705 0.0062761889 1.401 4287385165
-0.19785985 0.0062717092 1.4000001 4287253578
-0.19437848 0.0063165068 1.4100001 4287582799
-0.19315481 0.0063165068 1.4100001 4288503902
-0.19179502 0.0063120276 1.409 4289425262
-0.19043697 0.0063075474 1.4080001 4289096297
-0.18908066 0.0063030673 1.4070001 4288175194
-0.18772607 0.0062985881 1.406 4287977558
-0.18650587 0.0062985881 1.406 4288240987
-0.18528567 0.0062985881 1.406 4288306780
-0.1841964 0.0063030673 1.4070001 4288175450
-0.18284528 0.0062985881 1.406 4288241500
-0.18162508 0.0062985881 1.406 4288504672
-0.18040489 0.0062985881 1.406 4288438880
-0.17905726 0.006294108 1.4050001 4288175966
-0.17771135 0.0062896283 1.404 4287979614
-0.17523582 0.0062448303 1.3940001 4288177506
-0.17415088 0.0062493104 1.3950001 4288244325
-0.1730642 0.0062537896 1.396 4288639340
-0.17185268 0.0062537896 1.396 4289231991
-0.17039669 0.0062448303 1.3940001 4289692542
-0.16882281 0.0062313909 1.391 4289757821
-0.16749513 0.0062269112 1.3900001 4289691257
-0.16628882 0.0062269112 1.3900001 4289492594
-0.16496374 0.0062224311 1.3890001 4289096039
-0.16364041 0.0062179519 1.388 4288896862
-0.16243583 0.0062179519 1.388 4288829527
-0.16134742 0.0062224311 1.3890001 4288761935
-0.16037256 0.0062313909 1.391 4288826186
-0.15927981 0.006235871 1.3920001 4288891466
-0.15898022 0.0062717092 1.4000001 4288957003
-0.1581033 0.0062851482 1.4030001 4288759884
-0.15722117 0.0062985881 1.406 4288497487
-0.15633383 0.0063120276 1.409 4287973203
-0.20408048 0.0074836067 1.401 4285149240
-0.20286462 0.0074836067 1.401 4286266947
-0.20164877 0.0074836067 1.401 4286859080
-0.20014678 0.007472923 1.399 4287450187
-0.19879046 0.007467581 1.3980001 4287516494
-0.19743587 0.0074622394 1.3970001 4287450960
-0.19382705 0.0075103138 1.406 4287977047
-0.19260685 0.0075103138 1.406 4289358956
-0.19138665 0.0075103138 1.406 4290543486
-0.19003122 0.0075049726 1.4050001 4290083192
-0.18881188 0.0075049726 1.4050001 4288372574
-0.18745904 0.007499631 1.404 4287714901
-0.18624058 0.007499631 1.404 4288043097
-0.18502212 0.007499631 1.404 4288174939
-0.18367274 0.0074942894 1.4030001 4287977817
-0.18258519 0.007499631 1.404 4287978073
-0.18110839 0.0074889474 1.4020001 4288175709
-0.17976335 0.0074836067 1.401 4288110174
-0.17854749 0.0074836067 1.401 4287912796
-0.17733164 0.0074836067 1.401 4287913052
-0.1749844 0.0074355318 1.3920001 4288045664
-0.1739012 0.007440873 1.393 4288243813
-0.17269228 0.007440873 1.393 4288573291
-0.17136027 0.0074355318 1.3920001 4288903282
-0.17002998 0.0074301902 1.391 4289231990
-0.1684587 0.007414165 1.388 4289297269
-0.16725414 0.007414165 1.388 4289361522
-0.16604955 0.007414165 1.388 4289359724
-0.16472621 0.0074088238 1.3870001 4289160546
-0.16352251 0.0074088238 1.3870001 4288961369
-0.16231881 0.0074088238 1.3870001 4288828498
-0.16123125 0.007414165 1.388 4288827214
-0.16025726 0.0074248482 1.3900001 4288891979
-0.15916538 0.0074301902 1.391 4289023051
-0.15886666 0.007472923 1.399 4289088331
-0.1579906 0.0074889474 1.4020001 4288956490
-0.15710935 0.0075049726 1.4050001 4288759373
-0.15622288 0.0075209974 1.4080001 4288497492
-0.2026238 0.0086289886 1.391 4284820531
-0.20127182 0.0086227851 1.3900001 4285609532
-0.20006551 0.0086227851 1.3900001 4286661959
-0.19871613 0.0086165816 1.3890001 4287252811
-0.19751069 0.0086165816 1.3890001 4287450446
-0.19644658 0.0086227851 1.3900001 4287713620
-0.19524027 0.0086227851 1.3900001 4287648340
-0.19417354 0.0086289886 1.391 4287648339
-0.19324383 0.0086413957 1.393 4287648595
-0.19189705 0.0086351931 1.3920001 4288240732
-0.190826 0.0086413957 1.393 4289622385
-0.1897532 0.0086475993 1.3940001 4290675072
-0.18854342 0.0086475993 1.3940001 4290148985
-0.18733364 0.0086475993 1.3940001 4288635233
-0.18612385 0.0086475993 1.3940001 4287648594
-0.18464877 0.0086351931 1.3920001 4287648338
-0.18344073 0.0086351931 1.3920001 4287779924
-0.18223268 0.0086351931 1.3920001 4287583058
-0.18089458 0.0086289886 1.391 4287583058
-0.17968741 0.0086289886 1.391 4287714901
-0.17835192 0.0086227851 1.3900001 4287780694
-0.17689073 0.008610378 1.388 4287649365
-0.17555958 0.0086041754 1.3870001 4287649621
-0.17410445 0.0085917683 1.3850001 4288044380
-0.17290248 0.0085917683 1.3850001 4288637030
-0.17157654 0.0085855648 1.3840001 4289163887
-0.17025234 0.0085793613 1.383 4289427316
-0.16892986 0.0085731577 1.3820001 4289624181
-0.16760914 0.0085669542 1.381 4289623154
-0.16641064 0.0085669542 1.381 4289490540
-0.16521214 0.0085669542 1.381 4289423206
-0.1641324 0.0085731577 1.3820001 4289290335
-0.16305092 0.0085793613 1.383 4289091415
-0.16185068 0.0085793613 1.383 4288959057
-0.16088277 0.0085917683 1.3850001 4288958286
-0.15991139 0.0086041754 1.3870001 4288957772
-0.15893653 0.0086165816 1.3890001 4289088844
-0.15852599 0.0086600063 1.396 4289154380
-0.15765254 0.008678616 1.399 4288957002
-0.1568857 0.0087034302 1.4030001 4288759883
-0.20218679 0.009806592 1.388 4284230446
-0.20083742 0.009799527 1.3870001 4284690226
-0.19948977 0.009792462 1.386 4285676091
-0.19828694 0.009792462 1.386 4286726982
-0.1970841 0.009792462 1.386 4287515470
-0.1960226 0.009799527 1.3870001 4287844436
-0.19481888 0.009799527 1.3870001 4287975765
-0.19361518 0.009799527 1.3870001 4287909971
-0.19268891 0.009813657 1.3890001 4287911254
-0.19148347 0.009813657 1.3890001 4288109403
-0.19027804 0.009813657 1.3890001 4288636260
-0.18920872 0.009820722 1.3900001 4289557104
-0.18800241 0.009820722 1.3900001 4289227883
-0.18666171 0.009813657 1.3890001 4288371804
-0.18545626 0.009813657 1.3890001 4287647823
-0.18425082 0.009813657 1.3890001 4287318858
-0.18304537 0.009813657 1.3890001 4287385164
-0.18170902 0.009806592 1.388 4287254092
-0.18050446 0.009806592 1.388 4287188299
-0.1791707 0.009799527 1.3870001 4287385422
-0.17771037 0.009785396 1.3850001 4287780437
-0.1765084 0.009785396 1.3850001 4288174938
-0.17505327 0.0097712651 1.383 4288503903
-0.17385304 0.0097712651 1.383 4289161833
-0.1726528 0.0097712651 1.383 4289951349
-0.17120463 0.0097571351 1.381 4290280571
-0.17000613 0.0097571351 1.381 4290280314
-0.16868539 0.0097500701 1.3800001 4290148215
-0.16748776 0.0097500701 1.3800001 4289950065
-0.16629012 0.0097500701 1.3800001 4289751401
-0.1650925 0.0097500701 1.3800001 4289552994
-0.1641324 0.009764201 1.3820001 4289485917
-0.16293302 0.009764201 1.3820001 4289353559
-0.16173366 0.009764201 1.3820001 4289287251
-0.16088277 0.009785396 1.3850001 4289286737
-0.15991139 0.009799527 1.3870001 4289220686
-0.1588221 0.009806592 1.388 4289220428
-0.15852599 0.009863114 1.396 4289220428
-0.15765254 0.00988431 1.399 4289154380
-0.15677388 0.009905505 1.4020001 4288891211
-0.20174979 0.010979024 1.3850001 4284099630
-0.20040302 0.010971096 1.3840001 4284427055
-0.19905798 0.01096317 1.383 4284820014
-0.19785774 0.01096317 1.383 4286002491
-0.19665751 0.01096317 1.383 4287252043
-0.19545728 0.01096317 1.383 4287778387
-0.19439751 0.010971096 1.3840001 4288041815
-0.1931964 0.010971096 1.3840001 4288107093
-0.19213402 0.010979024 1.3850001 4288042327
-0.19093205 0.010979024 1.3850001 4287977560
-0.18986706 0.010986951 1.386 4287977817
-0.18852811 0.010979024 1.3850001 4288240474
-0.18746139 0.010986951 1.386 4288306011
-0.18625855 0.010986951 1.386 4288108118
-0.1850557 0.010986951 1.386 4287647566
-0.18385287 0.010986951 1.386 4287318857
-0.18265003 0.010986951 1.386 4287450700
-0.18131629 0.010979024 1.3850001 4287647565
-0.18011431 0.010979024 1.3850001 4287713359
-0.17865399 0.01096317 1.383 4287976532
-0.17732544 0.010955243 1.3820001 4288766304
-0.17612606 0.010955243 1.3820001 4289490540
-0.17480013 0.010947316 1.381 4290148214
-0.17347592 0.010939389 1.3800001 4290543228
-0.17227829 0.010939389 1.3800001 4290871937
-0.17095669 0.010931461 1.3790001 4290937730
-0.16975991 0.010931461 1.3790001 4290740351
-0.16856316 0.010931461 1.3790001 4290542202
-0.1673664 0.010931461 1.3790001 4290212466
-0.16616963 0.010931461 1.3790001 4289816937
-0.1650925 0.010939389 1.3800001 4289552738
-0.16401364 0.010947316 1.381 4289420379
-0.16281514 0.010947316 1.381 4289354328
-0.16173366 0.010955243 1.3820001 4289419864
-0.16088277 0.010979024 1.3850001 4289485142
-0.15991139 0.010994879 1.3870001 4289418835
-0.1588221 0.011002805 1.388 4289286991
-0.15852599 0.011066223 1.396 4289286477
-0.15765254 0.011090003 1.399 4289285964
-0.15677388 0.011113784 1.4020001 4289022794
-0.20265868 0.012155074 1.383 4283836973
-0.20087579 0.012119918 1.3790001 4284099373
-0.19953422 0.01211113 1.378 4284492591
-0.19805045 0.012093551 1.376 4284556586
-0.19671324 0.012084763 1.3750001 4285739063
-0.19551995 0.012084763 1.3750001 4287317066
-0.19418532 0.012075974 1.3740001 4288106325
-0.1929929 0.012075974 1.3740001 4288370010
-0.19166088 0.012067186 1.373 4288304216
-0.19060804 0.012075974 1.3740001 4288370522
-0.18941562 0.012075974 1.3740001 4288436315
-0.1883602 0.012084763 1.3750001 4288370778
-0.1871669 0.012084763 1.3750001 4288436057
-0.18597361 0.012084763 1.3750001 4288501849
-0.18478031 0.012084763 1.3750001 4288436055
-0.18358703 0.012084763 1.3750001 4288238675
-0.18252638 0.012093551 1.376 4288041809
-0.18120044 0.012084763 1.3750001 4288238932
-0.18000714 0.012084763 1.3750001 4288501847
-0.17881386 0.012084763 1.3750001 4288699226
-0.17749137 0.012075974 1.3740001 4289094240
-0.17629895 0.012075974 1.3740001 4289818219
-0.17510653 0.012075974 1.3740001 4290542200
-0.1739141 0.012075974 1.3740001 4290937472
-0.17272167 0.012075974 1.3740001 4291069315
-0.17152925 0.012075974 1.3740001 4291069315
-0.17033683 0.012075974 1.3740001 4291069314
-0.16914439 0.012075974 1.3740001 4291003008
-0.16807422 0.012084763 1.3750001 4290804602
-0.16700229 0.012093551 1.376 4290343539
-0.16592863 0.012102341 1.3770001 4290013803
-0.16485325 0.01211113 1.378 4289750117
-0.16389486 0.012128707 1.3800001 4289552222
-0.16281514 0.012137497 1.381 4289420379
-0.16173366 0.012146286 1.3820001 4289617756
-0.16088277 0.012172652 1.3850001 4289748827
-0.15991139 0.01219023 1.3870001 4289682520
-0.15893653 0.012207808 1.3890001 4289418834
-0.15841244 0.012260541 1.3950001 4289286477
-0.15765254 0.012295697 1.399 4289220684
-0.15677388 0.012322064 1.4020001 4288891978
-0.20609707 0.013414534 1.3900001 4283772211
-0.20459594 0.013395232 1.388 4283836974
-0.20207255 0.013308375 1.3790001 4283968301
-0.20073012 0.013298725 1.378 4284558898
-0.19953422 0.013298725 1.378 4284886066
-0.19790654 0.013269773 1.3750001 4285081903
-0.19671324 0.013269773 1.3750001 4286330685
-0.19551995 0.013269773 1.3750001 4287711566
-0.19404399 0.013250471 1.373 4288632669
-0.19285244 0.013250471 1.373 4289290854
-0.19166088 0.013250471 1.373 4289685355
-0.19046932 0.013250471 1.373 4289488232
-0.18927777 0.013250471 1.373 4289093731
-0.18808621 0.013250471 1.373 4288961888
-0.18703078 0.013260121 1.3740001 4289027423
-0.18583834 0.013260121 1.3740001 4288895580
-0.18464592 0.013260121 1.3740001 4288895321
-0.1834535 0.013260121 1.3740001 4288895320
-0.18226106 0.013260121 1.3740001 4288829784
-0.18093687 0.013250471 1.373 4288895834
-0.17974532 0.013250471 1.373 4289028189
-0.17855376 0.013250471 1.373 4289225568
-0.1773622 0.013250471 1.373 4289554533
-0.17617065 0.013250471 1.373 4290080621
-0.17497909 0.013250471 1.373 4290672501
-0.17378753 0.013250471 1.373 4290870394
-0.17259598 0.013250471 1.373 4290870652
-0.17140442 0.013250471 1.373 4290936702
-0.17033683 0.013260121 1.3740001 4291002495
-0.16914439 0.013260121 1.3740001 4290805116
-0.16807422 0.013269773 1.3750001 4290541431
-0.16712366 0.013289074 1.3770001 4290211953
-0.16604914 0.013298725 1.378 4289816938
-0.16485325 0.013298725 1.378 4289421922
-0.16401364 0.013327677 1.381 4289027161
-0.16293302 0.013337328 1.3820001 4288961111
-0.16173366 0.013337328 1.3820001 4289421148
-0.16099893 0.01337593 1.386 4289815390
-0.16002668 0.013395232 1.388 4289814363
-0.15893653 0.013404883 1.3890001 4289550163
-0.15863955 0.013482088 1.3970001 4289352013
-0.15765254 0.013501391 1.399 4289285707
-0.15677388 0.013530343 1.4020001 4289023049
-0.20609707 0.014612471 1.3900001 4284757563
-0.20444855 0.014580933 1.3870001 4284691254
-0.20207255 0.014496833 1.3790001 4284558385
-0.20073012 0.014486319 1.378 4285017139
-0.19938941 0.014475808 1.3770001 4285410101
-0.19790654 0.014454782 1.3750001 4286132539
-0.19657017 0.01444427 1.3740001 4287250503
-0.19523555 0.014433756 1.373 4288237139
-0.19390267 0.014423245 1.3720001 4289355620
-0.19271198 0.014423245 1.3720001 4290671993
-0.19152129 0.014423245 1.3720001 4291263874
-0.19033061 0.014423245 1.3720001 4290869115
-0.18913992 0.014423245 1.3720001 4290013806
-0.18794923 0.014423245 1.3720001 4289553254
-0.18675853 0.014423245 1.3720001 4289487202
-0.18556784 0.014423245 1.3720001 4289289566
-0.18437716 0.014423245 1.3720001 4289354587
-0.18318647 0.014423245 1.3720001 4289354331
-0.18199578 0.014423245 1.3720001 4289289051
-0.18080509 0.014423245 1.3720001 4289158236
-0.17961441 0.014423245 1.3720001 4289093469
-0.17829366 0.014412733 1.3710001 4289225569
-0.17710383 0.014412733 1.3710001 4289488740
-0.17604233 0.014423245 1.3720001 4289882728
-0.17485164 0.014423245 1.3720001 4290342509
-0.17366096 0.014423245 1.3720001 4290474353
-0.17259598 0.014433756 1.373 4290343282
-0.17140442 0.014433756 1.373 4290343538
-0.17033683 0.01444427 1.3740001 4290409331
-0.16914439 0.01444427 1.3740001 4290343538
-0.16807422 0.014454782 1.3750001 4290080366
-0.16712366 0.014475808 1.3770001 4289488230
-0.16604914 0.014486319 1.378 4288698970
-0.16497287 0.014496833 1.3790001 4287975246
-0.1641324 0.01452837 1.3820001 4287515206
-0.16293302 0.01452837 1.3820001 4287778121
-0.16185068 0.014538882 1.383 4288764500
-0.1611151 0.014580933 1.3870001 4289552988
-0.16002668 0.014591445 1.388 4289683034
-0.15905096 0.014612471 1.3900001 4289419090
-0.15863955 0.014686059 1.3970001 4289286477
-0.15776522 0.014717597 1.4000001 4289154377
-0.15677388 0.014738622 1.4020001 4288891719
-0.20594878 0.015799034 1.3890001 4285349182
-0.20444855 0.015776286 1.3870001 4285545790
-0.20207255 0.01568529 1.3790001 4285280822
-0.20073012 0.015673915 1.378 4285410611
-0.19938941 0.015662542 1.3770001 4286198588
-0.19776259 0.015628418 1.3740001 4287316041
-0.19642711 0.015617043 1.373 4287973455
-0.19523555 0.015617043 1.373 4288499540
-0.19376133 0.015594295 1.3710001 4289552229
-0.19257151 0.015594295 1.3710001 4291065725
-0.1912421 0.01558292 1.3700001 4291395459
-0.18991444 0.015571546 1.3690001 4291000444
-0.18872635 0.015571546 1.3690001 4290342001
-0.18740126 0.015560171 1.368 4289815399
-0.18621404 0.015560171 1.368 4289683812
-0.18489158 0.015548796 1.3670001 4289551968
-0.18370523 0.015548796 1.3670001 4289616991
-0.18251887 0.015548796 1.3670001 4289419868
-0.18133253 0.015548796 1.3670001 4289354331
-0.18014617 0.015548796 1.3670001 4289289308
-0.17895983 0.015548796 1.3670001 4289158749
-0.17777348 0.015548796 1.3670001 4289290335
-0.1767163 0.015560171 1.368 4289422178
-0.17552908 0.015560171 1.368 4289684580
-0.17446932 0.015571546 1.3690001 4289947238
-0.17353438 0.015594295 1.3710001 4290013546
-0.17234455 0.015594295 1.3710001 4289685866
-0.17127958 0.015605669 1.3720001 4289160805
-0.17033683 0.015628418 1.3740001 4288766562
-0.16914439 0.015628418 1.3740001 4288372317
-0.16807422 0.015639791 1.3750001 4287912279
-0.16712366 0.015662542 1.3770001 4287123019
-0.16616963 0.01568529 1.3790001 4286005052
-0.1650925 0.015696663 1.3800001 4285413171
-0.16425115 0.015730787 1.383 4285544755
-0.16316882 0.015742162 1.3840001 4286267194
-0.16208474 0.015753536 1.3850001 4287318597
-0.16134742 0.015799034 1.3890001 4288567122
-0.16037256 0.015821781 1.391 4289157717
-0.15939423 0.015844531 1.393 4289155919
-0.15886666 0.015912777 1.399 4289088842
-0.15787792 0.015935525 1.401 4288957255
-0.1568857 0.015958276 1.4030001 4288694598
-0.20580052 0.016983872 1.388 4286135356
-0.20385893 0.016922692 1.383 4286463292
-0.20192602 0.01686151 1.378 4286264889
-0.20043878 0.016837038 1.376 4286395449
-0.19909982 0.016824802 1.3750001 4287183940
-0.19761866 0.016800329 1.373 4288038733
-0.19642711 0.016800329 1.373 4288432720
-0.19523555 0.016800329 1.373 4288630099
-0.19376133 0.016775858 1.3710001 4289288286
-0.19257151 0.016775858 1.3710001 4290144109
-0.1912421 0.01676362 1.3700001 4290539636
-0.18991444 0.016751384 1.3690001 4290144622
-0.18872635 0.016751384 1.3690001 4289880936
-0.18740126 0.016739147 1.368 4289617764
-0.18607792 0.016726911 1.3670001 4289551969
-0.18489158 0.016726911 1.3670001 4289485662
-0.18357085 0.016714677 1.3660001 4289550685
-0.18238537 0.016714677 1.3660001 4289485149
-0.18119988 0.016714677 1.3660001 4289354076
-0.1800144 0.016714677 1.3660001 4289354332
-0.17882892 0.016714677 1.3660001 4289289052
-0.17764343 0.016714677 1.3660001 4289355102
-0.17658713 0.016726911 1.3670001 4289486432
-0.17552908 0.016739147 1.368 4289420895
-0.17446932 0.016751384 1.3690001 4289289566
-0.17353438 0.016775858 1.3710001 4289158495
-0.17234455 0.016775858 1.3710001 4288633436
-0.17127958 0.016788093 1.3720001 4287714131
-0.17033683 0.016812567 1.3740001 4286728776
-0.16914439 0.016812567 1.3740001 4285874751
-0.16807422 0.016824802 1.3750001 4285217591
-0.16712366 0.016849274 1.3770001 4284560431
-0.16616963 0.016873747 1.3790001 4284100393
-0.1650925 0.016885983 1.3800001 4284100136
-0.16436993 0.016934928 1.3840001 4284428586
-0.16328672 0.016947163 1.3850001 4285018668
-0.16220176 0.016959399 1.386 4285674543
-0.16146359 0.017008346 1.3900001 4287120190
-0.16048785 0.017032817 1.3920001 4288434251
-0.15927981 0.017032817 1.3920001 4288893260
-0.15886666 0.017118471 1.399 4288826440
-0.15787792 0.017142942 1.401 4288760133
-0.1568857 0.017167415 1.4030001 4288628548
-0.20580052 0.018180085 1.388 4286332478
-0.20371152 0.018101498 1.3820001 4286594364
-0.20177947 0.018036008 1.3770001 4286658875
-0.20043878 0.01802291 1.376 4287052607
-0.19909982 0.018009812 1.3750001 4287643719
-0.19761866 0.017983615 1.373 4288103756
-0.19642711 0.017983615 1.373 4288497744
-0.19523555 0.017983615 1.373 4288695123
-0.19390267 0.017970517 1.3720001 4288827222
-0.19257151 0.017957419 1.3710001 4289090907
-0.19138169 0.017957419 1.3710001 4289223263
-0.19005315 0.017944321 1.3700001 4289157983
-0.18872635 0.017931223 1.3690001 4289092190
-0.18726428 0.017905027 1.3670001 4289157982
-0.18607792 0.017905027 1.3670001 4289157982
-0.18475632 0.01789193 1.3660001 4289091419
-0.18343645 0.01787883 1.365 4289090904
-0.18225184 0.01787883 1.365 4289025625
-0.18106723 0.01787883 1.365 4288894553
-0.17988262 0.01787883 1.365 4288697944
-0.17869799 0.01787883 1.365 4288632408
-0.17751338 0.01787883 1.365 4288567128
-0.17658713 0.017905027 1.3670001 4288238677
-0.17552908 0.017918125 1.368 4287844175
-0.17434187 0.017918125 1.368 4287450187
-0.17353438 0.017957419 1.3710001 4287253322
-0.17234455 0.017957419 1.3710001 4286924872
-0.17127958 0.017970517 1.3720001 4286399555
-0.17033683 0.017996714 1.3740001 4285677116
-0.16914439 0.017996714 1.3740001 4284823091
-0.16795197 0.017996714 1.3740001 4283968809
-0.16712366 0.018036008 1.3770001 4283771687
-0.16616963 0.018062204 1.3790001 4283969323
-0.1650925 0.018075302 1.3800001 4284166445
-0.16436993 0.018127695 1.3840001 4284363308
-0.16328672 0.018140791 1.3850001 4284493353
-0.16220176 0.018153889 1.386 4284557604
-0.16146359 0.018206282 1.3900001 4285739053
-0.16037256 0.01821938 1.391 4287578946
-0.15939423 0.018245576 1.393 4288630092
-0.15886666 0.018324163 1.399 4288695113
-0.15787792 0.018350361 1.401 4288628549
-0.1568857 0.018376557 1.4030001 4288563013
-0.20580052 0.019376298 1.388 4286660416
-0.20371152 0.019292541 1.3820001 4286922301
-0.20163295 0.019208781 1.376 4287183932
-0.20043878 0.019208781 1.376 4287577407
-0.19909982 0.019194821 1.3750001 4288036677
-0.19776259 0.019180862 1.3740001 4288364873
-0.19642711 0.019166902 1.373 4288693069
-0.19523555 0.019166902 1.373 4288824913
-0.19390267 0.019152941 1.3720001 4288890962
-0.19271198 0.019152941 1.3720001 4288760916
-0.19138169 0.019138983 1.3710001 4288696405
-0.19005315 0.019125022 1.3700001 4288500053
-0.18872635 0.019111061 1.3690001 4288236881
-0.18726428 0.019083142 1.3670001 4288171345
-0.18594182 0.019069184 1.3660001 4288302674
-0.18475632 0.019069184 1.3660001 4288236880
-0.18330207 0.019041263 1.3640001 4288236623
-0.18211833 0.019041263 1.3640001 4288236880
-0.18080193 0.019027302 1.363 4287974478
-0.17975083 0.019041263 1.3640001 4287646283
-0.17856708 0.019041263 1.3640001 4287318346
-0.17738333 0.019041263 1.3640001 4286990408
-0.17645796 0.019069184 1.3660001 4286530883
-0.17552908 0.019097101 1.368 4286202175
-0.17446932 0.019111061 1.3690001 4286136126
-0.17366096 0.019152941 1.3720001 4286070846
-0.17247027 0.019152941 1.3720001 4286071359
-0.17140442 0.019166902 1.373 4286006080
-0.17033683 0.019180862 1.3740001 4285612350
-0.16926751 0.019194821 1.3750001 4284823862
-0.16807422 0.019194821 1.3750001 4283969837
-0.16712366 0.019222742 1.3770001 4283904301
-0.16616963 0.019250661 1.3790001 4284167217
-0.16521214 0.01927858 1.381 4284298289
-0.16436993 0.01932046 1.3840001 4284298031
-0.16340461 0.019348379 1.386 4284362796
-0.16243583 0.019376298 1.388 4284229668
-0.16181207 0.019446099 1.393 4284818981
-0.16071844 0.01946006 1.3940001 4286855739
-0.15973751 0.019487977 1.396 4288432715
-0.15909378 0.019557778 1.401 4288694858
-0.1581033 0.019585697 1.4030001 4288563271
-0.15710935 0.019613618 1.4050001 4288563527
-0.20550397 0.020542869 1.386 4286463040
-0.20371152 0.020483583 1.3820001 4287185220
-0.20192602 0.020424295 1.378 4287315007
-0.20073012 0.020424295 1.378 4287642945
-0.19938941 0.020409474 1.3770001 4288102210
-0.19790654 0.02037983 1.3750001 4288364869
-0.19671324 0.02037983 1.3750001 4288495687
-0.19551995 0.02037983 1.3750001 4288627275
-0.19418532 0.020365009 1.3740001 4288693582
-0.1929929 0.020365009 1.3740001 4288760657
-0.19180048 0.020365009 1.3740001 4288630355
-0.19046932 0.020350186 1.373 4287711049
-0.18913992 0.020335365 1.3720001 4286659902
-0.18740126 0.020276079 1.368 4286331964
-0.18607792 0.020261258 1.3670001 4286398270
-0.18475632 0.020246437 1.3660001 4286529857
-0.18330207 0.020216793 1.3640001 4286726979
-0.18211833 0.020216793 1.3640001 4286858822
-0.18093458 0.020216793 1.3640001 4286727749
-0.17975083 0.020216793 1.3640001 4286530627
-0.17856708 0.020216793 1.3640001 4286267714
-0.17751338 0.020231614 1.365 4285940032
-0.17658713 0.020261258 1.3670001 4285677886
-0.17552908 0.020276079 1.368 4285612863
-0.17446932 0.020290902 1.3690001 4285678913
-0.17366096 0.020335365 1.3720001 4285744962
-0.17259598 0.020350186 1.373 4285810755
-0.17140442 0.020350186 1.373 4285744963
-0.17046081 0.02037983 1.3750001 4285415999
-0.16926751 0.02037983 1.3750001 4284890169
-0.16807422 0.02037983 1.3750001 4284430132
-0.16712366 0.020409474 1.3770001 4284363827
-0.16604914 0.020424295 1.378 4284495157
