# .PCD v0.7 - Point Cloud Data file format
VERSION 0.7
FIELDS x y z rgba
SIZE 4 4 4 4
TYPE F F F U
COUNT 1 1 1 1
WIDTH 1086
HEIGHT 1
VIEWPOINT 0 0 0 1 0 0 0
POINTS 1086
DATA ascii
-0.05552002 0.076277368 1.337 4288043358
-0.054481678 0.076448515 1.34 4288045159
-0.053398341 0.076562621 1.342 4287652718
-0.1064449 0.076503016 1.3210001 4288502626
-0.10513905 0.076387197 1.319 4288369496
-0.10383667 0.076271363 1.317 4288106577
-0.10214788 0.075865969 1.3100001 4287844174
-0.10093389 0.075808063 1.309 4287253577
-0.09972164 0.07575015 1.3080001 4284953391
-0.098285004 0.075518496 1.304 4284296745
-0.097004324 0.07540267 1.302 4284888627
-0.095653474 0.075228937 1.299 4285019958
-0.094526134 0.075228937 1.299 4284888888
-0.093326896 0.075171016 1.2980001 4284626231
-0.091987334 0.074997276 1.2950001 4284494901
-0.090863466 0.074997276 1.2950001 4284298035
-0.089670315 0.07493937 1.294 4284429108
-0.088410452 0.074823536 1.2920001 4284495413
-0.087221637 0.07476563 1.291 4284627001
-0.086101241 0.07476563 1.291 4284759100
-0.084849194 0.074649803 1.289 4284825150
-0.083730534 0.074649803 1.289 4284693564
-0.082547791 0.07459189 1.2880001 4284693051
-0.081493221 0.074649803 1.289 4284758844
-0.080374561 0.074649803 1.289 4284824639
-0.079317391 0.074707709 1.2900001 4284825152
-0.078197867 0.074707709 1.2900001 4284627774
-0.077078342 0.074707709 1.2900001 4284496701
-0.076076582 0.074823536 1.2920001 4284496188
-0.07501334 0.074881457 1.2930001 4284430651
-0.073891208 0.074881457 1.2930001 4284298809
-0.072937913 0.075055197 1.296 4284166967
-0.071868598 0.075113103 1.2970001 4284034611
-0.070797533 0.075171016 1.2980001 4283968818
-0.069724746 0.075228937 1.299 4283837489
-0.068703018 0.075344756 1.3010001 4283705901
-0.06757395 0.075344756 1.3010001 4283704614
-0.066444881 0.075344756 1.3010001 4283703070
-0.065416217 0.075460583 1.3030001 4285739569
-0.064285412 0.075460583 1.3030001 4287448383
-0.063154601 0.075460583 1.3030001 4287841851
-0.062166598 0.075634323 1.3060001 4287906871
-0.061079923 0.075692229 1.307 4287906617
-0.059991505 0.07575015 1.3080001 4288038464
-0.059171338 0.076155536 1.3150001 4288038726
-0.058118373 0.076271363 1.317 4287973708
-0.057105206 0.076445103 1.3200001 4288040786
-0.055478495 0.077371709 1.3360001 4288240737
-0.054441024 0.077545457 1.3390001 4288308330
-0.053358555 0.077661276 1.3410001 4287652718
-0.10521877 0.077582717 1.3200001 4288370784
-0.10383667 0.077406392 1.317 4288238680
-0.10222585 0.077053741 1.3110001 4287976275
-0.10093389 0.076936193 1.309 4287057225
-0.09972164 0.076877415 1.3080001 4284756270
-0.098285004 0.076642312 1.304 4283902501
-0.097004324 0.076524772 1.302 4284625456
-0.095653474 0.076348446 1.299 4284888628
-0.094526134 0.076348446 1.299 4284757300
-0.093326896 0.076289669 1.2980001 4284428849
-0.092058368 0.076172121 1.296 4284363058
-0.090863466 0.076113343 1.2950001 4284166193
-0.089739606 0.076113343 1.2950001 4284297779
-0.088478886 0.075995795 1.2930001 4284297779
-0.087289192 0.075937018 1.2920001 4284363316
-0.086167932 0.075937018 1.2920001 4284561208
-0.08491502 0.075819463 1.2900001 4284627259
-0.083795495 0.075819463 1.2900001 4284364343
-0.082675971 0.075819463 1.2900001 4284430136
-0.081556447 0.075819463 1.2900001 4284693308
-0.080436915 0.075819463 1.2900001 4284693309
-0.079317391 0.075819463 1.2900001 4284627772
-0.078197867 0.075819463 1.2900001 4284430394
-0.077138096 0.075878248 1.291 4284102199
-0.076076582 0.075937018 1.2920001 4284233528
-0.07501334 0.075995795 1.2930001 4284102199
-0.073891208 0.075995795 1.2930001 4284035894
-0.072937913 0.076172121 1.296 4283903794
-0.071868598 0.076230891 1.2970001 4283771184
-0.070797533 0.076289669 1.2980001 4283771184
-0.069724746 0.076348446 1.299 4283771439
-0.068703018 0.076465987 1.3010001 4283640107
-0.06757395 0.076465987 1.3010001 4283507746
-0.066495955 0.076524772 1.302 4283637532
-0.065416217 0.076583542 1.3030001 4285082152
-0.064334743 0.076642312 1.304 4286988346
-0.063203067 0.076642312 1.304 4287776830
-0.062214203 0.076818638 1.307 4287841849
-0.061126649 0.076877415 1.3080001 4287710266
-0.060037371 0.076936193 1.309 4287776575
-0.059216339 0.077347614 1.3160001 4288105289
-0.058162507 0.077465162 1.3180001 4288040271
-0.057148464 0.077641487 1.3210001 4288040787
-0.055436973 0.078464337 1.335 4288240995
-0.054400366 0.078640655 1.3380001 4288505452
-0.053318761 0.07875821 1.34 4287652718
-0.10537819 0.0788396 1.322 4288437348
-0.10399436 0.078660689 1.319 4288370782
-0.10238181 0.07830286 1.3130001 4288042842
-0.10116522 0.078243226 1.312 4287057486
-0.099874124 0.078123957 1.3100001 4284757299
-0.098435752 0.077885412 1.3060001 4283837992
-0.097227834 0.077825777 1.3050001 4284232493
-0.095800743 0.077587225 1.3010001 4284363566
-0.094671674 0.077587225 1.3010001 4284428590
-0.093470708 0.07752759 1.3000001 4284362542
-0.092200428 0.077408314 1.2980001 4284231216
-0.09107396 0.077408314 1.2980001 4284165936
-0.089878201 0.077348679 1.2970001 4284231474
-0.088684171 0.077289045 1.296 4284165937
-0.087559439 0.077289045 1.296 4284297010
-0.086434707 0.077289045 1.296 4284363060
-0.085244149 0.077229403 1.2950001 4284363316
-0.084185243 0.077289045 1.296 4284232500
-0.08306051 0.077289045 1.296 4284429879
-0.081872553 0.077229403 1.2950001 4284495929
-0.080748685 0.077229403 1.2950001 4284495928
-0.079624824 0.077229403 1.2950001 4284364342
-0.078440346 0.077169769 1.294 4284166707
-0.07731735 0.077169769 1.294 4283969585
-0.076194353 0.077169769 1.294 4284100915
-0.07512936 0.077229403 1.2950001 4283969843
-0.074005499 0.077229403 1.2950001 4283838003
-0.072994195 0.077348679 1.2970001 4283706160
-0.071924001 0.077408314 1.2980001 4283574060
-0.070852078 0.077467956 1.299 4283442731
-0.06977842 0.07752759 1.3000001 4283508781
-0.068808645 0.077706501 1.3030001 4283312172
-0.067729771 0.077766135 1.304 4283311657
-0.066598095 0.077766135 1.304 4283573800
-0.06556683 0.077885412 1.3060001 4284295467
-0.064482756 0.077945046 1.307 4286266942
-0.06334848 0.077945046 1.307 4287646280
-0.062357005 0.078123957 1.3100001 4287776836
-0.061266851 0.078183591 1.3110001 4287776579
-0.060174964 0.078243226 1.312 4287842629
-0.059306331 0.078601047 1.3180001 4288040013
-0.05825077 0.078720324 1.3200001 4288040529
-0.056086823 0.078899235 1.3230001 4288238940
-0.055353917 0.079495594 1.3330001 4288306276
-0.05431905 0.079674505 1.3360001 4288373611
-0.053318761 0.079913057 1.34 4287520875
-0.10569703 0.080220923 1.3260001 4288634984
-0.10415205 0.079918429 1.3210001 4288437348
-0.10245978 0.079494946 1.314 4288174945
-0.10124233 0.07943444 1.3130001 4287321175
-0.1000266 0.079373941 1.312 4285218109
-0.098511122 0.079071447 1.307 4284495923
-0.09730234 0.079010956 1.3060001 4284496435
-0.095874384 0.078768961 1.302 4284298544
-0.094744444 0.078768961 1.302 4284297262
-0.093542598 0.078708462 1.3010001 4284559922
-0.09227147 0.078587465 1.299 4284494901
-0.09114413 0.078587465 1.299 4284165936
-0.090016797 0.078587465 1.299 4284099888
-0.088821024 0.078526966 1.2980001 4284165681
-0.087694556 0.078526966 1.2980001 4284297267
-0.086568087 0.078526966 1.2980001 4284428596
-0.085375801 0.078466468 1.2970001 4284231986
-0.084250197 0.078466468 1.2970001 4284166450
-0.08306051 0.078405969 1.296 4284232243
-0.081935778 0.078405969 1.296 4284232499
-0.080811046 0.078405969 1.296 4284101170
-0.079686314 0.078405969 1.296 4283969584
-0.078561582 0.078405969 1.296 4283969071
-0.077436842 0.078405969 1.296 4284034864
-0.07631211 0.078405969 1.296 4284100401
-0.075187378 0.078405969 1.296 4284100658
-0.074062645 0.078405969 1.296 4284297525
-0.073050469 0.078526966 1.2980001 4284297525
-0.071979418 0.078587465 1.299 4284100659
-0.070906624 0.078647964 1.3000001 4283969330
-0.069832094 0.078708462 1.3010001 4283706417
-0.068861447 0.078889951 1.304 4283575858
-0.067729771 0.078889951 1.304 4283443505
-0.066649169 0.078950457 1.3050001 4283574575
-0.06561704 0.079071447 1.307 4283901997
-0.064532094 0.079131953 1.3080001 4285807936
-0.063396946 0.079131953 1.3080001 4287581262
-0.062404599 0.07931345 1.3110001 4287843146
-0.061313584 0.079373941 1.312 4287908938
-0.060220834 0.07943444 1.3130001 4287843657
-0.058206636 0.079797439 1.319 4287909456
-0.057148464 0.079918429 1.3210001 4288106837
-0.056086823 0.080039427 1.3230001 4288239197
-0.055353917 0.080644406 1.3330001 4288174433
-0.05431905 0.080825903 1.3360001 4288044390
-0.053278971 0.081007406 1.3390001 4287520874
-0.10585645 0.081486426 1.3280001 4288898670
-0.10430973 0.081179619 1.3230001 4288438375
-0.10277168 0.080872819 1.3180001 4288110949
-0.10155075 0.080811463 1.317 4287388251
-0.10033156 0.0807501 1.3160001 4285612867
-0.09888798 0.080504656 1.312 4285218620
-0.097674854 0.0804433 1.3110001 4285218366
-0.096389838 0.080320574 1.309 4285086780
-0.094962746 0.080075137 1.3050001 4284889143
-0.093830206 0.080075137 1.3050001 4285152316
-0.092342503 0.079768337 1.3000001 4285020989
-0.091214299 0.079768337 1.3000001 4284428853
-0.090086095 0.079768337 1.3000001 4284297267
-0.088889457 0.079706982 1.299 4284363060
-0.087762125 0.079706982 1.299 4284495159
-0.086634785 0.079706982 1.299 4284692795
-0.085441619 0.079645611 1.2980001 4284495672
-0.084315151 0.079645611 1.2980001 4283970098
-0.083188683 0.079645611 1.2980001 4283641389
-0.082062215 0.079645611 1.2980001 4283641389
-0.080935746 0.079645611 1.2980001 4283640876
-0.079809278 0.079645611 1.2980001 4283640619
-0.07868281 0.079645611 1.2980001 4284231473
-0.077496596 0.079584256 1.2970001 4284757304
-0.076370999 0.079584256 1.2970001 4285611329
-0.075245395 0.079584256 1.2970001 4285677122
-0.074119799 0.079584256 1.2970001 4285874502
-0.073106751 0.079706982 1.299 4285941322
-0.072034828 0.079768337 1.3000001 4285613640
-0.070961162 0.079829693 1.3010001 4284890689
-0.069885768 0.079891056 1.302 4283970103
-0.068861447 0.080013774 1.304 4283904568
-0.067781709 0.080075137 1.3050001 4283575348
-0.066700242 0.0801365 1.3060001 4283443247
-0.065667234 0.080259219 1.3080001 4283771184
-0.064581431 0.080320574 1.309 4285545537
-0.063493885 0.080381937 1.3100001 4287516755
-0.062452201 0.080504656 1.312 4287843919
-0.061360318 0.080566019 1.3130001 4287974991
-0.060266692 0.080627382 1.314 4287909198
-0.059351329 0.080934182 1.319 4287909199
-0.057148464 0.0810569 1.3210001 4288238423
-0.056086823 0.081179619 1.3230001 4288173659
-0.055353917 0.081793219 1.3330001 4287845723
-0.05431905 0.0819773 1.3360001 4287781217
-0.053239182 0.082100026 1.3380001 4287651945
-0.10585645 0.082630932 1.3280001 4289096307
-0.10438857 0.082382038 1.3240001 4288570731
-0.10277168 0.082008705 1.3180001 4288046183
-0.10155075 0.081946485 1.317 4287257436
-0.10033156 0.081884265 1.3160001 4285744453
-0.09888798 0.081635371 1.312 4285481023
-0.097674854 0.081573151 1.3110001 4285612099
-0.096463479 0.081510924 1.3100001 4285743428
-0.095035516 0.081262037 1.3060001 4285612098
-0.093830206 0.081199817 1.3050001 4285481283
-0.092555597 0.081075378 1.3030001 4285283905
-0.091424793 0.081075378 1.3030001 4284955197
-0.090224683 0.081013158 1.302 4284823611
-0.089026317 0.080950931 1.3010001 4284823354
-0.087897241 0.080950931 1.3010001 4284955712
-0.086834863 0.081013158 1.302 4285022018
-0.085704923 0.081013158 1.302 4284693308
-0.084510028 0.080950931 1.3010001 4284102454
-0.083380952 0.080950931 1.3010001 4283641902
-0.082251884 0.080950931 1.3010001 4283378730
-0.081122808 0.080950931 1.3010001 4283509803
-0.07999374 0.080950931 1.3010001 4283772461
-0.078864664 0.080950931 1.3010001 4284823353
-0.077735595 0.080950931 1.3010001 4286203979
-0.076606527 0.080950931 1.3010001 4287057492
-0.075419441 0.080888711 1.3000001 4287057492
-0.074291237 0.080888711 1.3000001 4287123542
-0.073219307 0.080950931 1.3010001 4287059289
-0.072145648 0.081013158 1.302 4286600022
-0.071015708 0.081013158 1.302 4285088067
-0.069939449 0.081075378 1.3030001 4283904823
-0.068967067 0.081262037 1.3060001 4283839545
-0.067885593 0.081324257 1.307 4283707960
-0.066751316 0.081324257 1.307 4283444530
-0.065767653 0.081510924 1.3100001 4283640625
-0.064680099 0.081573151 1.3110001 4285217599
-0.063590817 0.081635371 1.312 4287451478
-0.062547401 0.081759818 1.314 4287844179
-0.061453782 0.081822038 1.3150001 4288040788
-0.060312562 0.081822038 1.3150001 4288040530
-0.05825077 0.082133152 1.3200001 4288172630
-0.057148464 0.082195371 1.3210001 4288172630
-0.056086823 0.082319818 1.3230001 4287976279
-0.055312395 0.082879812 1.332 4287714136
-0.054237731 0.083004259 1.3340001 4287781216
-0.053199392 0.083190925 1.337 4287717481
-0.10585645 0.083775431 1.3280001 4289227638
-0.10438857 0.083523095 1.3240001 4288899184
-0.10277168 0.08314459 1.3180001 4288439401
-0.10155075 0.083081506 1.317 4287584606
-0.10033156 0.08301843 1.3160001 4286138187
-0.09888798 0.082766086 1.312 4285546049
-0.097674854 0.082703009 1.3110001 4285677892
-0.096463479 0.082639918 1.3100001 4285809479
-0.095035516 0.082387581 1.3060001 4285744199
-0.093830206 0.082324505 1.3050001 4285678150
-0.092484564 0.082135253 1.302 4285612358
-0.091354623 0.082135253 1.302 4285546565
-0.090224683 0.082135253 1.302 4285283650
-0.089026317 0.082072161 1.3010001 4285218370
-0.087897241 0.082072161 1.3010001 4285219398
-0.086834863 0.082135253 1.302 4284956996
-0.085704923 0.082135253 1.302 4284497214
-0.084510028 0.082072161 1.3010001 4284366141
-0.083380952 0.082072161 1.3010001 4283905845
-0.082251884 0.082072161 1.3010001 4283313708
-0.081122808 0.082072161 1.3010001 4283641902
-0.07999374 0.082072161 1.3010001 4283970611
-0.078864664 0.082072161 1.3010001 4284890172
-0.077735595 0.082072161 1.3010001 4286403155
-0.076606527 0.082072161 1.3010001 4286993753
-0.075419441 0.082009085 1.3000001 4287059802
-0.074291237 0.082009085 1.3000001 4286928473
-0.073219307 0.082072161 1.3010001 4286666071
-0.072145648 0.082135253 1.302 4286074191
-0.071070254 0.082198337 1.3030001 4284561721
-0.069939449 0.082198337 1.3030001 4283970099
-0.068967067 0.082387581 1.3060001 4283971382
-0.067885593 0.082450666 1.307 4284168763
-0.066751316 0.082450666 1.307 4283971126
-0.065767653 0.082639918 1.3100001 4283837742
-0.064680099 0.082703009 1.3110001 4285020216
-0.063590817 0.082766086 1.312 4287385427
-0.062547401 0.082892254 1.314 4287778899
-0.061453782 0.082955338 1.3150001 4287976021
-0.060312562 0.082955338 1.3150001 4288041557
-0.059351329 0.083207682 1.319 4288107095
-0.057148464 0.083333842 1.3210001 4287975507
-0.05604443 0.083396927 1.322 4287778900
-0.055270866 0.083964683 1.3310001 4287714393
-0.054237731 0.084153935 1.3340001 4287912802
-0.053119812 0.084217019 1.335 4287783274
-0.10593616 0.084983878 1.3290001 4289227383
-0.10438857 0.084664151 1.3240001 4289030000
-0.10284966 0.084344424 1.319 4288701034
-0.10162786 0.084280476 1.3180001 4288043874
-0.10040779 0.084216535 1.317 4286729043
-0.09903872 0.084024698 1.314 4285743431
-0.097823873 0.083960749 1.3130001 4285875272
-0.096610747 0.083896801 1.312 4285941322
-0.095253825 0.083704963 1.309 4285875529
-0.093902104 0.083513126 1.3060001 4286137932
-0.092626624 0.083385237 1.304 4286268749
-0.091424793 0.083321288 1.3030001 4286071370
-0.090293981 0.083321288 1.3030001 4285611847
-0.089094743 0.083257347 1.302 4285481288
-0.087964803 0.083257347 1.302 4285482571
-0.086834863 0.083257347 1.302 4285089096
-0.085704923 0.083257347 1.302 4284760645
-0.084574983 0.083257347 1.302 4284629829
-0.08344505 0.083257347 1.302 4284037946
-0.082251884 0.083193399 1.3010001 4283577395
-0.08118517 0.083257347 1.302 4283839539
-0.080055229 0.083257347 1.302 4283970868
-0.078925289 0.083257347 1.302 4284430392
-0.077855103 0.083321288 1.3030001 4285219651
-0.076724291 0.083321288 1.3030001 4286271569
-0.075535469 0.083257347 1.302 4286534741
-0.074462682 0.083321288 1.3030001 4286008911
-0.07333187 0.083321288 1.3030001 4285614409
-0.072201066 0.083321288 1.3030001 4285152832
-0.071124792 0.083385237 1.304 4284166707
-0.069993123 0.083385237 1.304 4284101426
-0.069019876 0.083577074 1.307 4284102710
-0.067885593 0.083577074 1.307 4284366394
-0.066802382 0.083641022 1.3080001 4284366137
-0.065767653 0.083768912 1.3100001 4284166960
-0.064729437 0.083896801 1.312 4285151543
-0.063639291 0.083960749 1.3130001 4287385681
-0.062547401 0.084024698 1.314 4287778898
-0.061453782 0.084088638 1.3150001 4287975765
-0.060312562 0.084088638 1.3150001 4287975765
-0.059351329 0.084344424 1.319 4287844181
-0.057148464 0.084472314 1.3210001 4287909715
-0.055187814 0.084983878 1.3290001 4287977053
-0.054115757 0.085111775 1.3310001 4288044645
-0.053080022 0.085303612 1.3340001 4287914603
-0.10593616 0.086129248 1.3290001 4289030261
-0.10446741 0.08587002 1.325 4288898159
-0.10284966 0.085481174 1.319 4288569450
-0.10170497 0.085481174 1.319 4288175717
-0.10048404 0.085416362 1.3180001 4287124059
-0.099114098 0.085221939 1.3150001 4286269776
-0.097898372 0.085157134 1.314 4286138190
-0.096610747 0.085027516 1.312 4286138447
-0.095253825 0.084833093 1.309 4286006860
-0.094045907 0.084768288 1.3080001 4286138960
-0.092697658 0.084573865 1.3050001 4286204754
-0.091494948 0.084509052 1.304 4285744973
-0.090363279 0.084509052 1.304 4285350474
-0.089163177 0.084444247 1.3030001 4285285194
-0.088032365 0.084444247 1.3030001 4285417037
-0.08690156 0.084444247 1.3030001 4285352014
-0.085770756 0.084444247 1.3030001 4285155147
-0.084639944 0.084444247 1.3030001 4284629830
-0.08344505 0.084379442 1.302 4284037947
-0.08231511 0.084379442 1.302 4283840825
-0.081247523 0.084444247 1.3030001 4283906359
-0.080116719 0.084444247 1.3030001 4283905589
-0.079046525 0.084509052 1.304 4283971124
-0.077914849 0.084509052 1.304 4284430649
-0.076783173 0.084509052 1.304 4285285443
-0.075651497 0.084509052 1.304 4285613896
-0.074519821 0.084509052 1.304 4285416262
-0.073388144 0.084509052 1.304 4285087041
-0.072256468 0.084509052 1.304 4284757819
-0.071179338 0.084573865 1.3050001 4284561210
-0.070046797 0.084573865 1.3050001 4284495929
-0.069019876 0.084703475 1.307 4284365369
-0.067937531 0.084768288 1.3080001 4284432187
-0.066802382 0.084768288 1.3080001 4284432444
-0.065817848 0.084962711 1.3110001 4284365109
-0.064729437 0.085027516 1.312 4285152572
-0.063639291 0.085092321 1.3130001 4287255380
-0.062595002 0.085221939 1.3150001 4287647828
-0.061453782 0.085221939 1.3150001 4287778388
-0.060358427 0.085286751 1.3160001 4287777875
-0.059351329 0.085481174 1.319 4287711826
-0.057148464 0.085610785 1.3210001 4287975253
-0.055187814 0.086129248 1.3290001 4288174433
-0.054156419 0.086323671 1.332 4288175975
-0.053080022 0.086453289 1.3340001 4288045932
-0.10593616 0.087274611 1.3290001 4288898932
-0.10446741 0.087011933 1.325 4288766831
-0.10292764 0.086683586 1.3200001 4288372586
-0.10170497 0.086617924 1.319 4288044389
-0.10048404 0.086552247 1.3180001 4287453279
-0.09903872 0.08628957 1.314 4286598485
-0.097823873 0.0862239 1.3130001 4286006606
-0.096684381 0.0862239 1.3130001 4286006863
-0.095326595 0.086026892 1.3100001 4286007117
-0.094117805 0.085961223 1.309 4285876813
-0.092768699 0.085764214 1.3060001 4285745744
-0.091565117 0.085698552 1.3050001 4285351756
-0.090363279 0.085632876 1.304 4285022793
-0.089163177 0.085567206 1.3030001 4285022793
-0.088032365 0.085567206 1.3030001 4285088843
-0.08690156 0.085567206 1.3030001 4285155149
-0.085770756 0.085567206 1.3030001 4285023562
-0.084639944 0.085567206 1.3030001 4284300866
-0.08350914 0.085567206 1.3030001 4283972155
-0.082378328 0.085567206 1.3030001 4284104253
-0.081247523 0.085567206 1.3030001 4284038202
-0.080178201 0.085632876 1.304 4283840309
-0.079107143 0.085698552 1.3050001 4283971380
-0.077974603 0.085698552 1.3050001 4284365625
-0.076842055 0.085698552 1.3050001 4284693820
-0.075709514 0.085698552 1.3050001 4284955966
-0.074576974 0.085698552 1.3050001 4285350212
-0.073444426 0.085698552 1.3050001 4285087039
-0.072311886 0.085698552 1.3050001 4284955454
-0.071233884 0.085764214 1.3060001 4285219139
-0.070100479 0.085764214 1.3060001 4285088066
-0.069072679 0.085895553 1.3080001 4284825150
-0.067937531 0.085895553 1.3080001 4284825918
-0.066853456 0.085961223 1.309 4284563003
-0.065817848 0.086092561 1.3110001 4284365365
-0.064729437 0.086158231 1.312 4285021755
-0.063639291 0.0862239 1.3130001 4287124051
-0.06150052 0.086420916 1.3160001 4287647058
-0.060358427 0.086420916 1.3160001 4287777873
-0.058206636 0.086617924 1.319 4287908946
-0.057105206 0.086683586 1.3200001 4287975254
-0.05604443 0.086814933 1.322 4288042075
-0.055187814 0.087274611 1.3290001 4288240227
-0.054156419 0.087471619 1.332 4288176233
-0.053080022 0.087602958 1.3340001 4288046189
-0.10601587 0.088486508 1.33 4288964725
-0.10438857 0.08808732 1.3240001 4288832367
-0.10284966 0.087754667 1.319 4288503148
-0.10162786 0.087688133 1.3180001 4288174695
-0.10040779 0.087621607 1.317 4287715425
-0.099114098 0.08748854 1.3150001 4286664278
-0.097898372 0.087422013 1.314 4285284422
-0.096684381 0.087355472 1.3130001 4285285448
-0.095399357 0.08722242 1.3110001 4285416778
-0.094261609 0.08722242 1.3110001 4285220168
-0.092910759 0.087022826 1.3080001 4284958026
-0.091705449 0.086956285 1.307 4284761160
-0.090501875 0.086889759 1.3060001 4284760391
-0.089231603 0.086756699 1.304 4284694598
-0.088099927 0.086756699 1.304 4284760391
-0.086968251 0.086756699 1.304 4284826441
-0.085836574 0.086756699 1.304 4284629318
-0.084704898 0.086756699 1.304 4284103488
-0.083573222 0.086756699 1.304 4283971900
-0.082441546 0.086756699 1.304 4284366658
-0.081372231 0.086823232 1.3050001 4284300350
-0.080239683 0.086823232 1.3050001 4283971384
-0.079167761 0.086889759 1.3060001 4284430907
-0.078094102 0.086956285 1.307 4284891201
-0.076959826 0.086956285 1.307 4284956223
-0.07582555 0.086956285 1.307 4285021760
-0.074691266 0.086956285 1.307 4285481541
-0.073500708 0.086889759 1.3060001 4285415748
-0.072367296 0.086889759 1.3060001 4285284675
-0.071288429 0.086956285 1.307 4285548103
-0.070154153 0.086956285 1.307 4285416004
-0.069072679 0.087022826 1.3080001 4285219137
-0.067989476 0.087089352 1.309 4284891197
-0.066853456 0.087089352 1.309 4284365367
-0.065817848 0.08722242 1.3110001 4284101423
-0.064778775 0.087355472 1.3130001 4284823863
-0.063687757 0.087422013 1.314 4286992207
-0.061453782 0.08748854 1.3150001 4287778899
-0.060358427 0.087555073 1.3160001 4287843409
-0.058206636 0.087754667 1.319 4288105810
-0.057148464 0.087887727 1.3210001 4288040790
-0.056086823 0.088020794 1.3230001 4287976281
-0.055187814 0.088419974 1.3290001 4288240483
-0.054156419 0.088619567 1.332 4288175975
-0.053119812 0.088819161 1.335 4288177517
-0.10593616 0.089565344 1.3290001 4289030517
-0.10430973 0.089160986 1.3230001 4288964209
-0.10277168 0.088824019 1.3180001 4288568684
-0.10155075 0.088756628 1.317 4288371049
-0.10033156 0.088689238 1.3160001 4287780707
-0.09903872 0.088554449 1.314 4286533205
-0.097823873 0.088487051 1.3130001 4284759617
-0.096684381 0.088487051 1.3130001 4284629569
-0.095399357 0.08835227 1.3110001 4284563522
-0.094189711 0.088284872 1.3100001 4284432193
-0.092839733 0.088082694 1.307 4284366916
-0.091635287 0.088015303 1.3060001 4284301381
-0.090432577 0.087947913 1.3050001 4284498246
-0.089163177 0.087813124 1.3030001 4284366660
-0.088032365 0.087813124 1.3030001 4284432453
-0.08690156 0.087813124 1.3030001 4284563782
-0.085770756 0.087813124 1.3030001 4284497989
-0.084639944 0.087813124 1.3030001 4284300610
-0.08350914 0.087813124 1.3030001 4284234303
-0.082441546 0.087880515 1.304 4284300351
-0.08130987 0.087880515 1.304 4284299836
-0.080239683 0.087947913 1.3050001 4284233529
-0.079167761 0.088015303 1.3060001 4284693822
-0.078034356 0.088015303 1.3060001 4285153859
-0.076900944 0.088015303 1.3060001 4285153858
-0.075767532 0.088015303 1.3060001 4285285443
-0.07463412 0.088015303 1.3060001 4285482311
-0.073500708 0.088015303 1.3060001 4285613898
-0.072367296 0.088015303 1.3060001 4285482311
-0.071233884 0.088015303 1.3060001 4285482054
-0.070100479 0.088015303 1.3060001 4285283904
-0.069072679 0.088150091 1.3080001 4284890173
-0.067937531 0.088150091 1.3080001 4284562745
-0.066802382 0.088150091 1.3080001 4283970865
-0.065817848 0.08835227 1.3110001 4283641387
-0.064729437 0.088419661 1.312 4284692022
-0.063590817 0.088419661 1.312 4286926158
-0.062547401 0.088554449 1.314 4287582035
-0.061453782 0.08862184 1.3150001 4287844180
-0.060312562 0.08862184 1.3150001 4287908946
-0.058206636 0.088891417 1.319 4288171603
-0.05604443 0.089093596 1.322 4288107865
-0.05522934 0.089632735 1.33 4288240482
-0.054156419 0.089767523 1.332 4288044388
-0.053119812 0.089969702 1.335 4288045930
-0.10585645 0.09064246 1.3280001 4289031032
-0.10430973 0.090301178 1.3230001 4288898674
-0.10269371 0.08989165 1.317 4288568940
-0.10147365 0.089823402 1.3160001 4288371816
-0.10033156 0.089823402 1.3160001 4287977829
-0.098963358 0.089618631 1.3130001 4286664020
-0.097823873 0.089618631 1.3130001 4284890434
-0.096610747 0.089550376 1.312 4284825924
-0.095326595 0.089413866 1.3100001 4284562241
-0.094189711 0.089413866 1.3100001 4284694083
-0.092839733 0.089209102 1.307 4284759879
-0.091635287 0.089140847 1.3060001 4284563269
-0.090432577 0.089072593 1.3050001 4284629319
-0.089163177 0.088936083 1.3030001 4284498246
-0.088032365 0.088936083 1.3030001 4284432453
-0.08690156 0.088936083 1.3030001 4284498503
-0.085770756 0.088936083 1.3030001 4284498503
-0.084639944 0.088936083 1.3030001 4284432453
-0.08350914 0.088936083 1.3030001 4284365889
-0.082378328 0.088936083 1.3030001 4284168765
-0.08130987 0.089004338 1.304 4284167996
-0.080178201 0.089004338 1.304 4284233531
-0.079107143 0.089072593 1.3050001 4284364858
-0.077974603 0.089072593 1.3050001 4284759359
-0.076900944 0.089140847 1.3060001 4285219652
-0.075767532 0.089140847 1.3060001 4285417031
-0.074576974 0.089072593 1.3050001 4285285188
-0.073444426 0.089072593 1.3050001 4285219139
-0.072311886 0.089072593 1.3050001 4285218626
-0.071179338 0.089072593 1.3050001 4285350211
-0.070100479 0.089140847 1.3060001 4285217854
-0.069019876 0.089209102 1.307 4284758330
-0.067937531 0.089277357 1.3080001 4284167474
-0.066802382 0.089277357 1.3080001 4283839022
-0.065767653 0.089413866 1.3100001 4283640874
-0.064630769 0.089413866 1.3100001 4284954679
-0.063542351 0.089482121 1.3110001 4287056717
-0.062547401 0.089686885 1.314 4287712338
-0.061407048 0.089686885 1.314 4287908946
-0.060312562 0.08975514 1.3150001 4287974482
-0.059351329 0.090028167 1.319 4288105553
-0.05825077 0.090096414 1.3200001 4288171859
-0.05604443 0.090232931 1.322 4288370524
-0.055187814 0.090710707 1.3290001 4288305762
-0.054156419 0.090915471 1.332 4288043875
-0.053080022 0.091051988 1.3340001 4287913831
-0.10585645 0.091786958 1.3280001 4288965498
-0.10423089 0.091372259 1.322 4288767345
-0.10269371 0.091026679 1.317 4288569196
-0.10147365 0.09095756 1.3160001 4288371815
-0.10025532 0.090888441 1.3150001 4288174693
-0.098963358 0.090750203 1.3130001 4286991959
-0.097749367 0.090681091 1.312 4285283911
-0.096537106 0.090611979 1.3110001 4285219146
-0.095326595 0.090542853 1.3100001 4285152328
-0.094117805 0.090473741 1.309 4285284426
-0.092839733 0.090335503 1.307 4285284683
-0.091635287 0.090266392 1.3060001 4284956744
-0.090363279 0.090128154 1.304 4284891208
-0.089094743 0.08998993 1.302 4284629319
-0.087964803 0.08998993 1.302 4284366660
-0.086834863 0.08998993 1.302 4284432710
-0.085704923 0.08998993 1.302 4284498760
-0.084574983 0.08998993 1.302 4284564552
-0.08344505 0.08998993 1.302 4284300865
-0.082378328 0.090059042 1.3030001 4283971644
-0.081247523 0.090059042 1.3030001 4284036410
-0.080116719 0.090059042 1.3030001 4284102203
-0.079046525 0.090128154 1.304 4284101431
-0.077974603 0.09019728 1.3050001 4284496189
-0.076842055 0.09019728 1.3050001 4285284934
-0.075709514 0.09019728 1.3050001 4285482312
-0.074576974 0.09019728 1.3050001 4285284419
-0.073388144 0.090128154 1.304 4285152832
-0.072256468 0.090128154 1.304 4285414977
-0.071179338 0.09019728 1.3050001 4285546563
-0.070046797 0.09019728 1.3050001 4285349441
-0.069019876 0.090335503 1.307 4284758073
-0.067885593 0.090335503 1.307 4283970095
-0.066700242 0.090266392 1.3060001 4283904302
-0.065717444 0.090473741 1.309 4283969067
-0.064630769 0.090542853 1.3100001 4285282617
-0.063542351 0.090611979 1.3110001 4287121997
-0.062499806 0.090750203 1.3130001 4287777617
-0.061407048 0.090819329 1.314 4287974225
-0.060312562 0.090888441 1.3150001 4288039504
-0.059306331 0.09109579 1.3180001 4288039760
-0.05825077 0.091234028 1.3200001 4288237139
-0.057148464 0.09130314 1.3210001 4288303448
-0.055187814 0.091856077 1.3290001 4288304992
-0.054156419 0.092063427 1.332 4288043618
-0.053119812 0.092270777 1.335 4287979111
-0.10585645 0.092931464 1.3280001 4288965240
-0.10430973 0.09258157 1.3230001 4288833136
-0.10261574 0.092091724 1.3160001 4288634729
-0.10139654 0.092021741 1.3150001 4288371555
-0.10025532 0.092021741 1.3150001 4288108895
-0.09888798 0.091811806 1.312 4287123797
-0.097674854 0.09174183 1.3110001 4285547079
-0.096537106 0.09174183 1.3110001 4285285191
-0.095253825 0.091601871 1.309 4285219144
-0.094117805 0.091601871 1.309 4285350473
-0.092839733 0.091461912 1.307 4285350733
-0.091635287 0.091391936 1.3060001 4285087818
-0.090432577 0.09132196 1.3050001 4284956489
-0.089163177 0.091182001 1.3030001 4284694343
-0.088032365 0.091182001 1.3030001 4284431683
-0.086834863 0.091112025 1.302 4284497733
-0.085704923 0.091112025 1.302 4284695112
-0.084574983 0.091112025 1.302 4284826441
-0.08344505 0.091112025 1.302 4284366401
-0.082378328 0.091182001 1.3030001 4283905848
-0.081247523 0.091182001 1.3030001 4283773750
-0.080116719 0.091182001 1.3030001 4283971384
-0.079046525 0.091251977 1.304 4284299320
-0.077914849 0.091251977 1.304 4284628029
-0.076783173 0.091251977 1.304 4285350981
-0.075651497 0.091251977 1.304 4285548359
-0.074519821 0.091251977 1.304 4285744712
-0.07333187 0.091182001 1.3030001 4285678918
-0.072201066 0.091182001 1.3030001 4285875271
-0.071124792 0.091251977 1.304 4285809221
-0.069993123 0.091251977 1.304 4285479999
-0.068914257 0.09132196 1.3050001 4284756531
-0.067833655 0.091391936 1.3060001 4284230444
-0.066700242 0.091391936 1.3060001 4284361773
-0.065717444 0.091601871 1.309 4284952625
-0.064630769 0.091671847 1.3100001 4286069309
-0.063493885 0.091671847 1.3100001 4287448908
-0.062547401 0.091951765 1.314 4287908176
-0.061407048 0.091951765 1.314 4288039760
-0.060312562 0.092021741 1.3150001 4287974224
-0.05825077 0.092371635 1.3200001 4288171859
-0.057148464 0.092441611 1.3210001 4288368983
-0.056086823 0.09258157 1.3230001 4288369241
-0.055270866 0.093141399 1.3310001 4288172893
-0.054197077 0.093281351 1.3330001 4288108641
-0.053159602 0.093491286 1.3360001 4288109927
-0.10593616 0.094146803 1.3290001 4289030519
-0.10430973 0.093721762 1.3230001 4289030000
-0.10261574 0.093225889 1.3160001 4288831847
-0.10147365 0.093225889 1.3160001 4288502623
-0.10025532 0.093155041 1.3150001 4287977304
-0.09888798 0.092942521 1.312 4287189329
-0.097749367 0.092942521 1.312 4285678147
-0.096537106 0.092871681 1.3110001 4285218881
-0.095253825 0.092730001 1.309 4285219397
-0.094117805 0.092730001 1.309 4285219144
-0.092839733 0.092588313 1.307 4285284427
-0.091705449 0.092588313 1.307 4285087563
-0.090501875 0.09251748 1.3060001 4285022027
-0.089163177 0.09230496 1.3030001 4284825161
-0.088032365 0.09230496 1.3030001 4284496964
-0.08690156 0.09230496 1.3030001 4284628549
-0.085704923 0.09223412 1.302 4284891464
-0.084639944 0.09230496 1.3030001 4284891977
-0.08350914 0.09230496 1.3030001 4284563010
-0.082378328 0.09230496 1.3030001 4284037177
-0.081247523 0.09230496 1.3030001 4283642933
-0.080116719 0.09230496 1.3030001 4283840309
-0.079046525 0.092375793 1.304 4284168503
-0.077914849 0.092375793 1.304 4284562490
-0.076783173 0.092375793 1.304 4285219392
-0.075651497 0.092375793 1.304 4285613381
-0.074519821 0.092375793 1.304 4285876039
-0.07333187 0.09230496 1.3030001 4285744197
-0.072256468 0.092375793 1.304 4285743427
-0.071070254 0.09230496 1.3030001 4285611328
-0.069939449 0.09230496 1.3030001 4285018420
-0.068914257 0.09244664 1.3050001 4284820271
-0.067833655 0.09251748 1.3060001 4284688170
-0.066700242 0.09251748 1.3060001 4285411123
-0.065717444 0.092730001 1.309 4286265661
-0.064630769 0.092800841 1.3100001 4286988357
-0.063542351 0.092871681 1.3110001 4287711309
-0.062547401 0.093084201 1.314 4287908175
-0.061453782 0.093155041 1.3150001 4287974480
-0.060358427 0.093225889 1.3160001 4288040530
-0.058294892 0.093580082 1.3210001 4288171603
-0.05719173 0.09365093 1.322 4288237141
-0.056086823 0.093721762 1.3230001 4288237655
-0.055312395 0.094359323 1.332 4288172636
-0.054237731 0.094501011 1.3340001 4288108128
-0.053199392 0.094713531 1.337 4288240999
-0.10601587 0.09536387 1.33 4289030772
-0.10430973 0.094861962 1.3230001 4288964204
-0.10269371 0.09443175 1.317 4288831845
-0.10147365 0.094360046 1.3160001 4288633950
-0.10025532 0.094288342 1.3150001 4288239192
-0.098963358 0.094144933 1.3130001 4287517010
-0.097749367 0.094073236 1.312 4286268229
-0.096537106 0.094001532 1.3110001 4285611328
-0.095326595 0.093929827 1.3100001 4285677379
-0.094189711 0.093929827 1.3100001 4285480516
-0.092910759 0.093786426 1.3080001 4285414211
-0.091705449 0.093714722 1.307 4285086275
-0.090501875 0.093643025 1.3060001 4285087301
-0.089231603 0.093499616 1.304 4284890949
-0.088032365 0.093427919 1.3030001 4284563009
-0.08690156 0.093427919 1.3030001 4284629059
-0.085770756 0.093427919 1.3030001 4284760901
-0.084639944 0.093427919 1.3030001 4284761157
-0.08350914 0.093427919 1.3030001 4284497984
-0.082441546 0.093499616 1.304 4284103738
-0.08130987 0.093499616 1.304 4283774773
-0.080178201 0.093499616 1.304 4283708466
-0.079046525 0.093499616 1.304 4283970609
-0.077914849 0.093499616 1.304 4284298548
-0.076842055 0.09357132 1.3050001 4284889400
-0.075709514 0.09357132 1.3050001 4285217595
-0.074519821 0.093499616 1.304 4285479996
-0.073275588 0.093356214 1.302 4285413946
-0.072201066 0.093427919 1.3030001 4285216054
-0.071070254 0.093427919 1.3030001 4285149748
-0.069993123 0.093499616 1.304 4284886062
-0.068914257 0.09357132 1.3050001 4285476916
-0.067833655 0.093643025 1.3060001 4286068539
-0.066751316 0.093714722 1.307 4286857285
-0.065717444 0.09385813 1.309 4287383371
-0.064630769 0.093929827 1.3100001 4287646030
-0.063542351 0.094001532 1.3110001 4287843151
-0.062595002 0.094288342 1.3150001 4287843151
-0.06150052 0.094360046 1.3160001 4287974223
-0.06040429 0.09443175 1.317 4288171602
-0.058294892 0.094718553 1.3210001 4288302418
-0.057234991 0.094861962 1.3230001 4288171091
-0.056171611 0.095005363 1.325 4288171605
-0.055312395 0.095507279 1.332 4288172636
-0.054278392 0.095722385 1.335 4288108385
-0.053239182 0.09593749 1.3380001 4288240999
-0.10609558 0.096582666 1.3310001 4288899951
-0.10446741 0.096147284 1.325 4288832871
-0.10269371 0.095566772 1.317 4288765792
-0.10155075 0.095566772 1.317 4288699483
-0.10033156 0.095494211 1.3160001 4288435799
-0.098963358 0.095276512 1.3130001 4287910483
-0.097749367 0.095203951 1.312 4287056716
-0.096537106 0.09513139 1.3110001 4286399301
-0.095253825 0.09498626 1.309 4286267972
-0.094117805 0.09498626 1.309 4286005059
-0.092839733 0.09484113 1.307 4285544767
-0.091705449 0.09484113 1.307 4285019707
-0.090501875 0.094768569 1.3060001 4284889404
-0.089231603 0.094623439 1.304 4284693564
-0.088032365 0.094550878 1.3030001 4284365883
-0.08690156 0.094550878 1.3030001 4284432446
-0.085770756 0.094550878 1.3030001 4284498496
-0.084639944 0.094550878 1.3030001 4284498496
-0.08350914 0.094550878 1.3030001 4284301115
-0.082378328 0.094550878 1.3030001 4283972151
-0.081247523 0.094550878 1.3030001 4283708978
-0.080116719 0.094550878 1.3030001 4283642671
-0.079046525 0.094623439 1.304 4283904302
-0.077914849 0.094623439 1.304 4284232497
-0.076783173 0.094623439 1.304 4284691763
-0.075651497 0.094623439 1.304 4285019959
-0.074462682 0.094550878 1.3030001 4285348152
-0.073275588 0.094478309 1.302 4285413945
-0.072145648 0.094478309 1.302 4285676091
-0.071070254 0.094550878 1.3030001 4285872700
-0.069939449 0.094550878 1.3030001 4286069565
-0.068914257 0.094696008 1.3050001 4286792005
-0.067833655 0.094768569 1.3060001 4287514958
-0.066700242 0.094768569 1.3060001 4287711824
-0.065717444 0.09498626 1.309 4287908944
-0.064630769 0.095058821 1.3100001 4287908944
-0.063590817 0.095203951 1.312 4287777358
-0.062595002 0.095421642 1.3150001 4287842894
-0.061547246 0.095566772 1.317 4287973966
-0.060450155 0.095639333 1.3180001 4288171089
-0.058383156 0.096002154 1.3230001 4288170832
-0.057278249 0.096074715 1.3240001 4288105299
-0.056214005 0.096219845 1.3260001 4288171606
-0.055395443 0.096800357 1.3340001 4288303709
-0.05431905 0.09694548 1.3360001 4288371043
-0.053239182 0.097090609 1.3380001 4288372328
-0.10609558 0.097729757 1.3310001 4288899442
-0.10446741 0.097289205 1.325 4288963691
-0.10277168 0.096775219 1.3180001 4288831075
-0.10155075 0.096701793 1.317 4288764766
-0.10033156 0.096628368 1.3160001 4288435800
-0.09888798 0.096334666 1.312 4287976275
-0.097749367 0.096334666 1.312 4287517263
-0.096537106 0.096261241 1.3110001 4287057228
-0.095253825 0.09611439 1.309 4286925389
-0.094117805 0.09611439 1.309 4286794061
-0.092839733 0.095967531 1.307 4286333512
-0.091635287 0.095894113 1.3060001 4285742144
-0.090432577 0.095820688 1.3050001 4285413950
-0.089163177 0.095673829 1.3030001 4285283390
-0.088032365 0.095673829 1.3030001 4285087038
-0.08690156 0.095673829 1.3030001 4285087551
-0.085770756 0.095673829 1.3030001 4285022015
-0.084639944 0.095673829 1.3030001 4285022015
-0.08350914 0.095673829 1.3030001 4284890427
-0.082378328 0.095673829 1.3030001 4284890427
-0.081247523 0.095673829 1.3030001 4284890169
-0.080116719 0.095673829 1.3030001 4284890169
-0.079046525 0.095747255 1.304 4285086522
-0.077914849 0.095747255 1.304 4285349180
-0.076724291 0.095673829 1.3030001 4285677117
-0.075535469 0.095600411 1.302 4286071362
-0.074405529 0.095600411 1.302 4286465093
-0.073275588 0.095600411 1.302 4286662216
-0.072145648 0.095600411 1.302 4287122252
-0.071070254 0.095673829 1.3030001 4287319118
-0.069939449 0.095673829 1.3030001 4287318862
-0.068914257 0.095820688 1.3050001 4287515727
-0.067781709 0.095820688 1.3050001 4287777873
-0.066700242 0.095894113 1.3060001 4287777872
-0.065717444 0.09611439 1.309 4287843407
-0.064630769 0.096187808 1.3100001 4287777613
-0.063542351 0.096261241 1.3110001 4287646027
-0.06150052 0.096628368 1.3160001 4287908685
-0.060450155 0.096775219 1.3180001 4287974478
-0.058383156 0.097142346 1.3230001 4288105808
-0.057278249 0.097215772 1.3240001 4288106067
-0.056214005 0.097362623 1.3260001 4288238167
-0.055395443 0.097950034 1.3340001 4288370269
-0.05431905 0.098096885 1.3360001 4288371554
-0.053239182 0.098243736 1.3380001 4288307048
-0.1061753 0.098951131 1.332 4288964979
-0.10446741 0.098431118 1.325 4289095022
-0.10277168 0.097911105 1.3180001 4288896358
-0.10155075 0.097836822 1.317 4288830050
-0.10033156 0.097762533 1.3160001 4288566875
-0.098963358 0.097539663 1.3130001 4288107604
-0.097749367 0.097465381 1.312 4287648334
-0.096537106 0.097391091 1.3110001 4287319883
-0.095253825 0.097242519 1.309 4287253838
-0.094045907 0.09716823 1.3080001 4287385426
-0.092839733 0.09709394 1.307 4287254098
-0.091635287 0.09701965 1.3060001 4286859852
-0.090432577 0.096945368 1.3050001 4286728267
-0.089163177 0.096796788 1.3030001 4286662987
-0.088032365 0.096796788 1.3030001 4286597195
-0.08690156 0.096796788 1.3030001 4286400073
-0.085704923 0.096722506 1.302 4286203207
-0.084574983 0.096722506 1.302 4286137414
-0.08344505 0.096722506 1.302 4286269255
-0.082378328 0.096796788 1.3030001 4286466890
-0.081247523 0.096796788 1.3030001 4286532426
-0.080116719 0.096796788 1.3030001 4286466633
-0.078925289 0.096722506 1.302 4286597706
-0.077795349 0.096722506 1.302 4286729036
-0.076665409 0.096722506 1.302 4286794317
-0.075535469 0.096722506 1.302 4287056975
-0.074405529 0.096722506 1.302 4287450192
-0.073275588 0.096722506 1.302 4287581521
-0.072145648 0.096722506 1.302 4287647312
-0.071015708 0.096722506 1.302 4287581519
-0.069939449 0.096796788 1.3030001 4287515469
-0.068914257 0.096945368 1.3050001 4287449676
-0.067781709 0.096945368 1.3050001 4287580748
-0.066700242 0.09701965 1.3060001 4287646541
-0.065717444 0.097242519 1.309 4287646284
-0.064630769 0.097316802 1.3100001 4287646282
-0.063542351 0.097391091 1.3110001 4287646025
-0.062595002 0.097688243 1.3150001 4287711816
-0.061547246 0.097836822 1.317 4287777610
-0.060450155 0.097911105 1.3180001 4287843147
-0.058383156 0.098282546 1.3230001 4288106322
-0.057321511 0.098431118 1.325 4288238166
-0.056214005 0.098505408 1.3260001 4288304472
-0.055353917 0.099025413 1.3330001 4288371035
-0.05431905 0.099248283 1.3360001 4288240735
-0.053278971 0.099471152 1.3390001 4288175974
-0.10633472 0.10024939 1.3340001 4289030769
-0.10494047 0.10002393 1.3310001 4289095278
-0.10292764 0.099197291 1.3200001 4288962150
-0.10170497 0.099122144 1.319 4288830306
-0.10048404 0.09904699 1.3180001 4288632926
-0.09903872 0.098746397 1.314 4288238936
-0.097823873 0.098671243 1.3130001 4287647823
-0.096610747 0.098596096 1.312 4287187785
-0.095326595 0.098445795 1.3100001 4287121737
-0.094189711 0.098445795 1.3100001 4287319116
-0.092839733 0.098220341 1.307 4287253581
-0.091635287 0.098145194 1.3060001 4287056716
-0.090501875 0.098145194 1.3060001 4287253581
-0.089231603 0.097994894 1.304 4287253838
-0.088099927 0.097994894 1.304 4287187534
-0.086968251 0.097994894 1.304 4287056204
-0.085770756 0.097919747 1.3030001 4287055948
-0.084639944 0.097919747 1.3030001 4286924618
-0.08350914 0.097919747 1.3030001 4287122252
-0.082378328 0.097919747 1.3030001 4287188559
-0.081247523 0.097919747 1.3030001 4287122766
-0.080116719 0.097919747 1.3030001 4286991180
-0.078985907 0.097919747 1.3030001 4287122509
-0.077855103 0.097919747 1.3030001 4287188559
-0.076724291 0.097919747 1.3030001 4287188047
-0.075593486 0.097919747 1.3030001 4287187790
-0.074462682 0.097919747 1.3030001 4287252812
-0.07333187 0.097919747 1.3030001 4287252555
-0.072201066 0.097919747 1.3030001 4287318089
-0.071124792 0.097994894 1.304 4287252296
-0.069993123 0.097994894 1.304 4287252038
-0.068967067 0.098145194 1.3060001 4287252038
-0.067833655 0.098145194 1.3060001 4287449162
-0.066751316 0.098220341 1.307 4287580747
-0.065767653 0.098445795 1.3100001 4287711819
-0.064680099 0.098520949 1.3110001 4287711818
-0.063590817 0.098596096 1.312 4287777610
-0.061547246 0.098971844 1.317 4287777352
-0.060450155 0.09904699 1.3180001 4287908682
-0.059351329 0.099122144 1.319 4288106064
-0.058427282 0.099497885 1.3240001 4288106322
-0.057364777 0.099648185 1.3260001 4288238166
-0.056298792 0.099798486 1.3280001 4288304473
-0.055436973 0.10032453 1.335 4288305243
-0.054359704 0.10047483 1.337 4288174943
-0.10633472 0.10139906 1.3340001 4289030770
-0.10501932 0.10124703 1.332 4289292400
-0.10300562 0.10041091 1.3210001 4288962664
-0.10178208 0.1003349 1.3200001 4288896099
-0.10056028 0.10025889 1.319 4288633183
-0.099114098 0.099954844 1.3150001 4288173400
-0.097898372 0.099878833 1.314 4287647312
-0.096684381 0.099802814 1.3130001 4287252809
-0.095399357 0.0996508 1.3110001 4287186760
-0.094189711 0.099574782 1.3100001 4287187271
-0.092910759 0.099422768 1.3080001 4287055431
-0.091705449 0.099346749 1.307 4286924358
-0.090501875 0.099270739 1.3060001 4287054917
-0.089300029 0.099194735 1.3050001 4287120453
-0.088099927 0.099118717 1.304 4287119685
-0.086968251 0.099118717 1.304 4287185478
-0.085836574 0.099118717 1.304 4287185735
-0.084704898 0.099118717 1.304 4287120198
-0.083573222 0.099118717 1.304 4287120198
-0.082378328 0.099042706 1.3030001 4287055175
-0.081247523 0.099042706 1.3030001 4286989895
-0.080116719 0.099042706 1.3030001 4286989895
-0.079046525 0.099118717 1.304 4287252554
-0.077914849 0.099118717 1.304 4287186761
-0.076783173 0.099118717 1.304 4287185992
-0.075651497 0.099118717 1.304 4287120454
-0.074462682 0.099042706 1.3030001 4286923332
-0.07333187 0.099042706 1.3030001 4286923331
-0.072256468 0.099118717 1.304 4286923073
-0.071124792 0.099118717 1.304 4286923073
-0.070046797 0.099194735 1.3050001 4286922816
-0.068967067 0.099270739 1.3060001 4287120195
-0.067885593 0.099346749 1.307 4287448647
-0.066751316 0.099346749 1.307 4287646027
-0.065817848 0.0996508 1.3110001 4287843147
-0.064729437 0.099726811 1.312 4287843403
-0.063639291 0.099802814 1.3130001 4288040267
-0.061547246 0.10010687 1.317 4287908424
-0.060496025 0.10025889 1.319 4288040011
-0.05939633 0.1003349 1.3200001 4288171856
-0.058471411 0.10071496 1.325 4288106322
-0.057408031 0.10086697 1.327 4288172116
-0.056298792 0.10094299 1.3280001 4288172888
-0.055436973 0.10147507 1.335 4288239451
-0.10649414 0.10270248 1.3360001 4288899699
-0.10501932 0.10239498 1.332 4289161071
-0.10308359 0.10162625 1.322 4289027943
-0.10185918 0.10154938 1.3210001 4288896353
-0.10063652 0.10147251 1.3200001 4288633179
-0.099189468 0.10116502 1.3160001 4288173139
-0.097972877 0.10108814 1.3150001 4287778383
-0.096758015 0.10101127 1.314 4287384394
-0.095399357 0.10078065 1.3110001 4287449673
-0.094261609 0.10078065 1.3110001 4287449929
-0.092981793 0.1006269 1.309 4287318343
-0.091775611 0.10055003 1.3080001 4287121477
-0.090571173 0.10047316 1.307 4287055172
-0.089300029 0.10031942 1.3050001 4286923586
-0.088167489 0.10031942 1.3050001 4286923074
-0.087034948 0.10031942 1.3050001 4286923075
-0.0859024 0.10031942 1.3050001 4286988868
-0.084704898 0.10024253 1.304 4286923331
-0.08350914 0.10016567 1.3030001 4286923074
-0.082378328 0.10016567 1.3030001 4286857537
-0.08130987 0.10024253 1.304 4286857538
-0.080178201 0.10024253 1.304 4287054917
-0.079046525 0.10024253 1.304 4287186502
-0.077914849 0.10024253 1.304 4287054917
-0.076783173 0.10024253 1.304 4286923076
-0.075651497 0.10024253 1.304 4286923075
-0.074519821 0.10024253 1.304 4286922817
-0.073388144 0.10024253 1.304 4286923073
-0.072256468 0.10024253 1.304 4286922814
-0.071179338 0.10031942 1.3050001 4286857021
-0.070100479 0.10039628 1.3060001 4286856765
-0.069019876 0.10047316 1.307 4286988352
-0.067937531 0.10055003 1.3080001 4287251011
-0.066802382 0.10055003 1.3080001 4287448390
-0.065817848 0.10078065 1.3110001 4287842889
-0.064729437 0.10085753 1.312 4287974731
-0.063687757 0.10101127 1.314 4288105802
-0.06159398 0.10131876 1.3180001 4287974216
-0.060496025 0.10139564 1.319 4288105803
-0.059441321 0.10154938 1.3210001 4288171856
-0.058471411 0.10185688 1.325 4288106322
-0.057408031 0.10201062 1.327 4288106580
-0.056341186 0.10216437 1.3290001 4288107095
-0.10509816 0.10362067 1.3330001 4289029743
-0.10323954 0.10292105 1.3240001 4288962661
-0.1020134 0.10284332 1.3230001 4288830815
-0.10071275 0.10268785 1.3210001 4288567895
-0.099264838 0.10237692 1.317 4288239185
-0.098047383 0.10229918 1.3160001 4287844686
-0.096831657 0.10222144 1.3150001 4287581771
-0.095544897 0.10206597 1.3130001 4287778124
-0.094333507 0.10198824 1.312 4287909709
-0.093052827 0.10183276 1.3100001 4287777865
-0.091845781 0.10175503 1.309 4287515462
-0.090640463 0.1016773 1.3080001 4287449415
-0.089368463 0.10152183 1.3060001 4287187013
-0.08823505 0.10152183 1.3060001 4286989892
-0.087034948 0.1014441 1.3050001 4286990149
-0.085836574 0.10136636 1.304 4287055943
-0.084704898 0.10136636 1.304 4287055942
-0.083573222 0.10136636 1.304 4287054659
-0.082441546 0.10136636 1.304 4286857537
-0.08130987 0.10136636 1.304 4286988353
-0.080239683 0.1014441 1.3050001 4287185732
-0.079107143 0.1014441 1.3050001 4287252038
-0.077974603 0.1014441 1.3050001 4287120452
-0.076842055 0.1014441 1.3050001 4286923588
-0.075709514 0.1014441 1.3050001 4286923588
-0.07463412 0.10152183 1.3060001 4287186244
-0.073500708 0.10152183 1.3060001 4287120451
-0.072367296 0.10152183 1.3060001 4287054143
-0.071288429 0.10159956 1.307 4286856764
-0.070154153 0.10159956 1.307 4286790971
-0.067989476 0.10175503 1.309 4287184960
-0.06690453 0.10183276 1.3100001 4287316546
-0.064778775 0.10206597 1.3130001 4288040011
-0.063687757 0.10214371 1.314 4288105802
-0.061640717 0.10253239 1.319 4288040009
-0.060541891 0.10261012 1.3200001 4288105802
