# .PCD v0.7 - Point Cloud Data file format
VERSION 0.7
FIELDS x y z rgba
SIZE 4 4 4 4
TYPE F F F U
COUNT 1 1 1 1
WIDTH 1090
HEIGHT 1
VIEWPOINT 0 0 0 1 0 0 0
POINTS 1090
DATA ascii
-0.11207393 0.01841585 1.406 4281349682
-0.10963354 0.01841585 1.406 4280033822
-0.10719314 0.01841585 1.406 4281941819
-0.10475275 0.01841585 1.406 4281020717
-0.10231236 0.01841585 1.406 4280691752
-0.099871963 0.01841585 1.406 4280560166
-0.097362272 0.018402753 1.4050001 4280560166
-0.094923623 0.018402753 1.4050001 4281020717
-0.092484966 0.018402753 1.4050001 4280231201
-0.090110399 0.01841585 1.406 4280560166
-0.087607652 0.018402753 1.4050001 4280428582
-0.085168995 0.018402753 1.4050001 4280033824
-0.082730338 0.018402753 1.4050001 4279968031
-0.080234535 0.018389653 1.404 4279836445
-0.077797614 0.018389653 1.404 4280296996
-0.075360693 0.018389653 1.404 4279836444
-0.072923772 0.018389653 1.404 4279968029
-0.070436649 0.018376557 1.4030001 4279968029
-0.068001464 0.018376557 1.4030001 4279902236
-0.065519549 0.018363459 1.4020001 4279968029
-0.063041098 0.018350361 1.401 4279902236
-0.060566124 0.018337263 1.4000001 4280034076
-0.058094624 0.018324163 1.399 4279902236
-0.05562659 0.018311067 1.3980001 4280033822
-0.053200081 0.018311067 1.3980001 4280428582
-0.050737258 0.018297968 1.3970001 4280296996
-0.048243321 0.018271772 1.3950001 4280494375
-0.045822021 0.018271772 1.3950001 4280757547
-0.043369614 0.018258676 1.3940001 4280428582
-0.040979423 0.018271772 1.3950001 4280428584
-0.038530488 0.018258676 1.3940001 4280757549
-0.036110923 0.018258676 1.3940001 4281481272
-0.033618852 0.01821938 1.391 4281349686
-0.03115963 0.018193185 1.3890001 4281810237
-0.028769441 0.018206282 1.3900001 4282270788
-0.026375782 0.01821938 1.391 4281678651
-0.023995878 0.018245576 1.393 4282336581
-0.021624522 0.01828487 1.396 4282336581
-0.019201487 0.01828487 1.396 4281744444
-0.016790472 0.018297968 1.3970001 4280362791
-0.0143657 0.018297968 1.3970001 4279968033
-0.011949477 0.018311067 1.3980001 4280165412
-0.0095229708 0.018311067 1.3980001 4280231203
-0.0070964643 0.018311067 1.3980001 4280099617
-0.0046666176 0.018297968 1.3970001 4280165410
-0.0022418471 0.018297968 1.3970001 4279968031
0.00018292337 0.018297968 1.3970001 4280362789
0.0026095605 0.018311067 1.3980001 4280560168
0.0050432715 0.018337263 1.4000001 4280494377
0.0074839252 0.018363459 1.4020001 4280625709
0.0099527435 0.01842895 1.4070001 4280625710
-0.17107412 0.021195024 1.4300001 4283389265
-0.16682361 0.020972699 1.4150001 4283060302
-0.16355447 0.020868946 1.4080001 4282599751
-0.16076733 0.020824483 1.4050001 4281349684
-0.15776522 0.020750374 1.4000001 4281415478
-0.15511335 0.02072073 1.3980001 4281941823
-0.15268685 0.02072073 1.3980001 4283257683
-0.15015285 0.020705909 1.3970001 4282665548
-0.14772809 0.020705909 1.3970001 4282402120
-0.14530331 0.020705909 1.3970001 4282665292
-0.14298083 0.02072073 1.3980001 4282204741
-0.14055431 0.02072073 1.3980001 4282270534
-0.13832541 0.020750374 1.4000001 4283454808
-0.13608956 0.020780018 1.4020001 4282138948
-0.13365611 0.020780018 1.4020001 4281744190
-0.13122267 0.020780018 1.4020001 4282073153
-0.12878922 0.020780018 1.4020001 4281941823
-0.12635577 0.020780018 1.4020001 4282731339
-0.12401071 0.020794839 1.4030001 4281547065
-0.12166218 0.02080966 1.404 4281415479
-0.11931018 0.020824483 1.4050001 4282007615
-0.11695471 0.020839304 1.406 4281678649
-0.11459576 0.020854125 1.4070001 4281678647
-0.11223335 0.020868946 1.4080001 4280889131
-0.10978948 0.020868946 1.4080001 4281547061
-0.10734562 0.020868946 1.4080001 4282073660
-0.10482725 0.020854125 1.4070001 4281152557
-0.10231236 0.020839304 1.406 4281547060
-0.099800929 0.020824483 1.4050001 4281218096
-0.097362272 0.020824483 1.4050001 4281086510
-0.094856054 0.02080966 1.404 4281086510
-0.092484966 0.020824483 1.4050001 4280494373
-0.090046309 0.020824483 1.4050001 4280954924
-0.087607652 0.020824483 1.4050001 4280362787
-0.085168995 0.020824483 1.4050001 4280362789
-0.082612574 0.020794839 1.4030001 4280231203
-0.080177389 0.020794839 1.4030001 4280231203
-0.077742204 0.020794839 1.4030001 4280296996
-0.075307019 0.020794839 1.4030001 4279968031
-0.072819896 0.020780018 1.4020001 4280231201
-0.070336238 0.020765195 1.401 4280099615
-0.067904525 0.020765195 1.401 4280033822
-0.065426074 0.020750374 1.4000001 4280033822
-0.062996097 0.020750374 1.4000001 4280033822
-0.060566124 0.020750374 1.4000001 4279968283
-0.058094624 0.020735551 1.399 4279770904
-0.05566638 0.020735551 1.399 4279836443
-0.053238139 0.020735551 1.399 4279968029
-0.050773576 0.02072073 1.3980001 4279902236
-0.048312489 0.020705909 1.3970001 4280033824
-0.045887716 0.020705909 1.3970001 4279968031
-0.043462947 0.020705909 1.3970001 4279968031
-0.041067552 0.02072073 1.3980001 4279902238
-0.038641047 0.02072073 1.3980001 4279836445
-0.036214538 0.02072073 1.3980001 4279836445
-0.033763867 0.020705909 1.3970001 4279902239
-0.031316664 0.020691086 1.396 4280823340
-0.028872928 0.020676265 1.3950001 4281086514
-0.02647059 0.020691086 1.396 4281349686
-0.024064783 0.020705909 1.3970001 4281349686
-0.021655502 0.02072073 1.3980001 4280231205
-0.019228995 0.02072073 1.3980001 4280296998
-0.016802488 0.02072073 1.3980001 4280033826
-0.014375983 0.02072073 1.3980001 4280231205
-0.01194093 0.020705909 1.3970001 4280165410
-0.0095161591 0.020705909 1.3970001 4280099617
-0.0070913886 0.020705909 1.3970001 4279968031
-0.0046632774 0.020691086 1.396 4279968031
-0.0022402424 0.020691086 1.396 4280165410
0.00018292337 0.020705909 1.3970001 4280823340
0.0026114271 0.020735551 1.399 4280362789
0.0050468738 0.020765195 1.401 4280494377
0.0074839252 0.020780018 1.4020001 4280954674
0.0099315215 0.02080966 1.404 4280296744
0.012394871 0.020854125 1.4070001 4286152322
0.014858088 0.020883767 1.409 4293915896
-0.16987778 0.023494391 1.4200001 4283323471
-0.16646992 0.023362029 1.4120001 4282731335
-0.163206 0.02324621 1.4050001 4281612855
-0.16042405 0.023196574 1.4020001 4281415477
-0.15742716 0.023113849 1.3970001 4281876028
-0.15489145 0.023097303 1.396 4282402374
-0.15235919 0.023080757 1.3950001 4283718234
-0.1499379 0.023080757 1.3950001 4282599755
-0.14762233 0.023097303 1.396 4282796878
-0.1451993 0.023097303 1.396 4282270534
-0.14298083 0.023130393 1.3980001 4282007362
-0.14055431 0.023130393 1.3980001 4283191636
-0.13842422 0.023180028 1.401 4282731084
-0.13608956 0.023196574 1.4020001 4282468168
-0.13375145 0.02321312 1.4030001 4282797133
-0.13112909 0.023180028 1.401 4282204995
-0.12869737 0.023180028 1.401 4282402374
-0.12644589 0.02321312 1.4030001 4282665545
-0.12418749 0.02324621 1.4050001 4280757547
-0.12183549 0.023262756 1.406 4282204993
-0.11939509 0.023262756 1.406 4281547063
-0.11703789 0.023279302 1.4070001 4281349684
-0.11467721 0.023295846 1.4080001 4281744440
-0.11231306 0.023312392 1.409 4281415475
-0.10986746 0.023312392 1.409 4282139198
-0.10742186 0.023312392 1.409 4280691752
-0.10490175 0.023295846 1.4080001 4281218096
-0.10223959 0.02324621 1.4050001 4281152303
-0.099729896 0.023229664 1.404 4281152303
-0.097223684 0.02321312 1.4030001 4281218096
-0.094788499 0.02321312 1.4030001 4281020717
-0.092353314 0.02321312 1.4030001 4280823338
-0.089982219 0.023229664 1.404 4280560166
-0.087482944 0.02321312 1.4030001 4280296994
-0.084987141 0.023196574 1.4020001 4280625960
-0.082494803 0.023180028 1.401 4280428582
-0.079948798 0.023146939 1.399 4280560168
-0.077465147 0.023130393 1.3980001 4280296996
-0.075038642 0.023130393 1.3980001 4280165410
-0.072508253 0.023097303 1.396 4280362789
-0.07008522 0.023097303 1.396 4280033822
-0.067662187 0.023097303 1.396 4280033822
-0.065192416 0.023080757 1.3950001 4280099615
-0.062771119 0.023080757 1.3950001 4280099615
-0.060349818 0.023080757 1.3950001 4280099615
-0.057886992 0.023064213 1.3940001 4279836443
-0.055467431 0.023064213 1.3940001 4279902236
-0.053047866 0.023064213 1.3940001 4279902236
-0.050591983 0.023047667 1.393 4279968029
-0.048139572 0.023031121 1.3920001 4279902238
-0.045756325 0.023047667 1.393 4279902238
-0.043400723 0.023080757 1.3950001 4279902238
-0.041038178 0.023113849 1.3970001 4279770652
-0.038641047 0.023130393 1.3980001 4279770652
-0.036240447 0.023146939 1.399 4279770652
-0.033812203 0.023146939 1.399 4279770652
-0.031361528 0.023130393 1.3980001 4279902238
-0.028935021 0.023130393 1.3980001 4279968033
-0.026527476 0.023146939 1.399 4280099619
-0.02411646 0.023163484 1.4000001 4280231205
-0.021686483 0.023163484 1.4000001 4280231203
-0.019256504 0.023163484 1.4000001 4280560168
-0.016814508 0.023146939 1.399 4280033824
-0.014375983 0.023130393 1.3980001 4280165410
-0.01194093 0.023113849 1.3970001 4280428582
-0.0095093474 0.023097303 1.396 4280494375
-0.0070863124 0.023097303 1.396 4280757545
-0.0046632774 0.023097303 1.396 4280231201
-0.002243452 0.023130393 1.3980001 4280231203
0.00018318524 0.023146939 1.399 4280757547
0.0026132939 0.023163484 1.4000001 4280165410
0.0050504762 0.023196574 1.4020001 4280757547
0.0074892635 0.02321312 1.4030001 4280560170
0.0099244481 0.02321312 1.4030001 4280625709
0.012377251 0.02324621 1.4050001 4280362538
0.014847543 0.023295846 1.4080001 4292731622
-0.16963851 0.025905436 1.4180001 4282600004
-0.16623414 0.025759285 1.4100001 4282402626
-0.16297367 0.025631402 1.4030001 4282336578
-0.1601952 0.025576595 1.4000001 4281612855
-0.1572018 0.025485249 1.3950001 4281678649
-0.15455858 0.025448712 1.393 4282073407
-0.15214075 0.025448712 1.393 4282204995
-0.14972292 0.025448712 1.393 4282731341
-0.14741084 0.025466982 1.3940001 4283060050
-0.14509529 0.025485249 1.3950001 4282862672
-0.14277627 0.025503518 1.396 4282796878
-0.14045377 0.025521789 1.3970001 4282665292
-0.13832541 0.025576595 1.4000001 4281744445
-0.13599251 0.025594862 1.401 4283060048
-0.13346545 0.025576595 1.4000001 4282862668
-0.13103548 0.025576595 1.4000001 4282994253
-0.12869737 0.025594862 1.401 4282994509
-0.12635577 0.025613133 1.4020001 4282468165
-0.12409911 0.025649671 1.404 4282402372
-0.12174883 0.025667939 1.4050001 4282533959
-0.11931018 0.025667939 1.4050001 4282007614
-0.11695471 0.025686208 1.406 4282204993
-0.11451431 0.025686208 1.406 4281941819
-0.11223335 0.025722746 1.4080001 4281547061
-0.10986746 0.025741015 1.409 4281283889
-0.10734562 0.025722746 1.4080001 4281218096
-0.10475275 0.025686208 1.406 4281612854
-0.10216682 0.025649671 1.404 4280954924
-0.099658869 0.025631402 1.4030001 4281349937
-0.097085088 0.025594862 1.401 4281349938
-0.094653375 0.025594862 1.401 4281086510
-0.092155829 0.025576595 1.4000001 4280823340
-0.089725852 0.025576595 1.4000001 4280889132
-0.087295875 0.025576595 1.4000001 4280757546
-0.084805287 0.025558325 1.399 4281086512
-0.082200393 0.025503518 1.396 4280889133
-0.07977736 0.025503518 1.396 4281152305
-0.077243499 0.025466982 1.3940001 4280757547
-0.074823938 0.025466982 1.3940001 4280954926
-0.072352439 0.025448712 1.393 4280691754
-0.069884405 0.025430443 1.3920001 4280428582
-0.067419842 0.025412172 1.391 4280494374
-0.065005481 0.025412172 1.391 4280296994
-0.062591128 0.025412172 1.391 4280362787
-0.060176771 0.025412172 1.391 4280099869
-0.057762414 0.025412172 1.391 4280231455
-0.055348061 0.025412172 1.391 4280231201
-0.052857593 0.025375636 1.3890001 4279968029
-0.05041039 0.025357366 1.388 4280033822
-0.048001241 0.025357366 1.388 4280033822
-0.045624938 0.025375636 1.3890001 4279836443
-0.04330739 0.025430443 1.3920001 4279968029
-0.040950049 0.025466982 1.3940001 4279968033
-0.038585767 0.025503518 1.396 4279968031
-0.036188636 0.025521789 1.3970001 4279968031
-0.033763867 0.025521789 1.3970001 4279902238
-0.031339094 0.025521789 1.3970001 4279902238
-0.028935021 0.025540056 1.3980001 4280033824
-0.026527476 0.025558325 1.399 4280165410
-0.024133688 0.025594862 1.401 4280231203
-0.021686483 0.025576595 1.4000001 4280165410
-0.019256504 0.025576595 1.4000001 4280428582
-0.016814508 0.025558325 1.399 4280033824
-0.0143657 0.025521789 1.3970001 4280428582
-0.011932382 0.025503518 1.396 4280231203
-0.0095093474 0.025503518 1.396 4280231203
-0.0070863124 0.025503518 1.396 4280494375
-0.0046666176 0.025521789 1.3970001 4280560168
-0.002243452 0.025540056 1.3980001 4280691754
0.00018318524 0.025558325 1.399 4280560168
0.0026151605 0.025594862 1.401 4280494375
0.0050504762 0.025613133 1.4020001 4281020719
0.0074892635 0.025631402 1.4030001 4280889135
0.0099244481 0.025631402 1.4030001 4281283639
0.012368442 0.025649671 1.404 4280165159
0.014826454 0.025686208 1.406 4281217847
-0.17222111 0.028369566 1.419 4282534212
-0.16915999 0.028269602 1.414 4283060299
-0.16576254 0.02810966 1.406 4282862921
-0.16262518 0.027989706 1.4000001 4282270786
-0.15985194 0.027929727 1.3970001 4281744442
-0.1569764 0.027849756 1.393 4281876028
-0.15433668 0.027809771 1.391 4282007614
-0.1518131 0.027789779 1.3900001 4282336581
-0.14940047 0.027789779 1.3900001 4283520600
-0.14709359 0.027809771 1.391 4282599499
-0.14488727 0.027849756 1.393 4282467913
-0.142674 0.027889742 1.3950001 4282731085
-0.14035323 0.027909733 1.396 4282402120
-0.13802899 0.027929727 1.3970001 4282797133
-0.13579836 0.027969712 1.399 4282994511
-0.13337013 0.027969712 1.399 4282731338
-0.13094188 0.027969712 1.399 4283060302
-0.12851363 0.027969712 1.399 4282599751
-0.12626566 0.028009698 1.401 4282665544
-0.12392233 0.028029691 1.4020001 4282731337
-0.12157553 0.028049683 1.4030001 4282270786
-0.11905543 0.028029691 1.4020001 4282797130
-0.11670516 0.028049683 1.4030001 4282270786
-0.11435143 0.028069675 1.404 4282468164
-0.11199421 0.028089669 1.4050001 4281941819
-0.10955556 0.028089669 1.4050001 4281810233
-0.1071169 0.028089669 1.4050001 4282139198
-0.10452924 0.028049683 1.4030001 4281218096
-0.10187574 0.027989706 1.4000001 4281415475
-0.099374734 0.027969712 1.399 4281612854
-0.096738607 0.027909733 1.396 4281612854
-0.094315566 0.027909733 1.396 4281283891
-0.091892533 0.027909733 1.396 4281283891
-0.08940541 0.027889742 1.3950001 4281020719
-0.086921751 0.02786975 1.3940001 4281152305
-0.084380955 0.027829764 1.3920001 4281152305
-0.081788212 0.027769787 1.3890001 4281349684
-0.079320177 0.027749794 1.388 4280823340
-0.076800212 0.027709808 1.386 4281283891
-0.074340858 0.027689815 1.3850001 4280889133
-0.071884975 0.027669823 1.3840001 4281612856
-0.069432564 0.027649829 1.383 4281086512
-0.066983625 0.027629837 1.3820001 4280954925
-0.064538151 0.027609844 1.381 4280757545
-0.062186152 0.027629837 1.3820001 4280823081
-0.059787419 0.027629837 1.3820001 4280823081
-0.057388682 0.027629837 1.3820001 4280428580
-0.055029739 0.027649829 1.383 4280231201
-0.05262927 0.027649829 1.383 4280494373
-0.050156161 0.027609844 1.381 4280099615
-0.04775916 0.027609844 1.381 4280099615
-0.045395005 0.027629837 1.3820001 4280165408
-0.043089606 0.027689815 1.3850001 4280033822
-0.040744416 0.027729802 1.3870001 4279902238
-0.038392283 0.027769787 1.3890001 4280296996
-0.036059111 0.027829764 1.3920001 4280099617
-0.033667188 0.027849756 1.393 4279968031
-0.031249361 0.027849756 1.393 4280099617
-0.028914323 0.027929727 1.3970001 4280231203
-0.026508514 0.027949721 1.3980001 4280296996
-0.02411646 0.027989706 1.4000001 4280296996
-0.021686483 0.027989706 1.4000001 4280362789
-0.01924275 0.027969712 1.399 4280494375
-0.016802488 0.027949721 1.3980001 4280165410
-0.0143657 0.027929727 1.3970001 4280889133
-0.011932382 0.027909733 1.396 4280757034
-0.0095161591 0.027929727 1.3970001 4281283378
-0.0070913886 0.027929727 1.3970001 4281085999
-0.0046699583 0.027949721 1.3980001 4281086512
-0.0022466616 0.027989706 1.4000001 4280560170
0.00018344713 0.028009698 1.401 4280428584
0.0026170271 0.028029691 1.4020001 4280954928
0.0050540785 0.028049683 1.4030001 4281020721
0.0074946014 0.028069675 1.404 4280428584
0.0099244481 0.028049683 1.4030001 4281349432
0.012359633 0.028049683 1.4030001 4282138949
0.014794818 0.028049683 1.4030001 4281349433
0.017279126 0.028129654 1.4070001 4290692041
-0.16904037 0.030685127 1.4130001 4282929484
-0.16564465 0.030511398 1.4050001 4282665800
-0.16250902 0.0303811 1.399 4282533958
-0.15973751 0.030315952 1.396 4282139200
-0.1569764 0.030250803 1.393 4281612856
-0.15433668 0.030207369 1.391 4281612857
-0.1518131 0.030185651 1.3900001 4282336581
-0.14929299 0.030163938 1.3890001 4282533962
-0.14698786 0.030185651 1.3900001 4282862671
-0.14457524 0.030185651 1.3900001 4282862671
-0.14236715 0.030229086 1.3920001 4282599499
-0.14015214 0.030272517 1.3940001 4282731085
-0.1378314 0.030294234 1.3950001 4282731854
-0.13550717 0.030315952 1.396 4282666316
-0.13308413 0.030315952 1.396 4283323476
-0.13066109 0.030315952 1.396 4282928717
-0.12832992 0.030337665 1.3970001 4283126095
-0.12590514 0.030337665 1.3970001 4283257681
-0.12356877 0.030359384 1.3980001 4282731337
-0.12122891 0.0303811 1.399 4282862923
-0.11871576 0.030359384 1.3980001 4282468165
-0.11628925 0.030359384 1.3980001 4283126095
-0.11394419 0.0303811 1.399 4282862923
-0.11159565 0.030402815 1.4000001 4282599751
-0.10916568 0.030402815 1.4000001 4282797129
-0.10665946 0.0303811 1.399 4282599749
-0.10408221 0.030337665 1.3970001 4282204991
-0.10143913 0.030272517 1.3940001 4282073405
-0.098948538 0.030250803 1.393 4282402371
-0.096461415 0.030229086 1.3920001 4281547063
-0.094045326 0.030229086 1.3920001 4282533958
-0.091563404 0.030207369 1.391 4281678649
-0.089020871 0.030163938 1.3890001 4281612856
-0.086547628 0.03014222 1.388 4281547063
-0.083956622 0.030077072 1.3850001 4281744442
-0.08143492 0.030033641 1.383 4281415477
-0.078920148 0.029990206 1.381 4281941821
-0.076356918 0.029925058 1.378 4281481270
-0.073911451 0.029903339 1.3770001 4281941821
-0.071417511 0.029859908 1.3750001 4281415477
-0.068980724 0.029838191 1.3740001 4281612854
-0.066595875 0.029838191 1.3740001 4281547061
-0.064164296 0.029816477 1.373 4281283632
-0.061781179 0.029816477 1.373 4280954667
-0.059441328 0.029838191 1.3740001 4280888874
-0.057098001 0.029859908 1.3750001 4280823081
-0.054751206 0.029881626 1.376 4281349684
-0.052400939 0.029903339 1.3770001 4280691754
-0.049938247 0.029859908 1.3750001 4280691754
-0.047551662 0.029859908 1.3750001 4280889133
-0.045230769 0.029903339 1.3770001 4280560166
-0.042902939 0.029946774 1.3790001 4280099615
-0.040568162 0.029990206 1.381 4280231201
-0.038226444 0.030033641 1.383 4280033824
-0.035877779 0.030077072 1.3850001 4280033824
-0.033498008 0.030098788 1.386 4280165410
-0.031137194 0.03014222 1.388 4280165410
-0.028790141 0.030207369 1.391 4280296996
-0.026394743 0.030229086 1.3920001 4280625961
-0.023995878 0.030250803 1.393 4280494375
-0.021609031 0.030294234 1.3950001 4280625961
-0.019187732 0.030294234 1.3950001 4280428582
-0.016766433 0.030294234 1.3950001 4280691754
-0.014345133 0.030294234 1.3950001 4280625961
-0.011923834 0.030294234 1.3950001 4280757036
-0.0095025348 0.030294234 1.3950001 4281217587
-0.0070863124 0.030315952 1.396 4281151794
-0.0046666176 0.030337665 1.3970001 4281480759
-0.0022450567 0.0303811 1.399 4281414966
0.00018331618 0.030402815 1.4000001 4280165412
0.0026151605 0.030424532 1.401 4281020721
0.0050468738 0.030424532 1.401 4280625963
0.0074839252 0.03044625 1.4020001 4281152307
0.0099103004 0.030424532 1.401 4281678397
0.012342013 0.030424532 1.401 4281415225
0.014773726 0.030424532 1.401 4280691503
0.017266845 0.030533114 1.406 4287468182
-0.16892073 0.033097208 1.4120001 4283192656
-0.16529095 0.032862809 1.4020001 4283126351
-0.16204439 0.032698728 1.3950001 4282797130
-0.15939423 0.032651849 1.393 4282336579
-0.15663834 0.032581527 1.3900001 4282073408
-0.15411475 0.032558087 1.3890001 4281941823
-0.15159465 0.032534648 1.388 4281612859
-0.14918551 0.032534648 1.388 4281744190
-0.14667062 0.032511204 1.3870001 4283389015
-0.14426321 0.032511204 1.3870001 4282599499
-0.14206032 0.032558087 1.3890001 4282796878
-0.13974999 0.032581527 1.3900001 4282796878
-0.13753498 0.032628406 1.3920001 4282468683
-0.13521595 0.032651849 1.393 4282928721
-0.13279814 0.032651849 1.393 4283060306
-0.1303803 0.032651849 1.393 4283060304
-0.12796247 0.032651849 1.393 4282928718
-0.12563477 0.032675285 1.3940001 4283126097
-0.1233036 0.032698728 1.3950001 4282862925
-0.1208823 0.032698728 1.3950001 4282599753
-0.11846101 0.032698728 1.3950001 4282928718
-0.11603971 0.032698728 1.3950001 4283126097
-0.1136184 0.032698728 1.3950001 4282862924
-0.11127681 0.032722168 1.396 4283191890
-0.10885378 0.032722168 1.396 4282533958
-0.10627826 0.032675285 1.3940001 4282599751
-0.10370969 0.032628406 1.3920001 4282336579
-0.10114806 0.032581527 1.3900001 4282862923
-0.09866441 0.032558087 1.3890001 4282270786
-0.096253522 0.032558087 1.3890001 4282599751
-0.093775079 0.032534648 1.388 4282139200
-0.091234274 0.032487769 1.386 4282731337
-0.088764511 0.032464329 1.3850001 4281941821
-0.086298212 0.032440886 1.3840001 4282468165
-0.083774768 0.032394007 1.3820001 4282468165
-0.081140503 0.032300249 1.378 4282270788
-0.078691565 0.032276805 1.3770001 4282073409
-0.076135278 0.032206487 1.3740001 4282402372
-0.073696747 0.032183047 1.373 4282402372
-0.071261689 0.032159608 1.3720001 4281481270
-0.068779908 0.032112729 1.3700001 4283191886
-0.066305056 0.032065846 1.368 4281349682
-0.063930623 0.032065846 1.368 4282599749
-0.061646186 0.032112729 1.3700001 4281941819
-0.059268281 0.032112729 1.3700001 4281547061
-0.056973424 0.032159608 1.3720001 4281415475
-0.054631837 0.032183047 1.373 4281218098
-0.052286778 0.032206487 1.3740001 4280691754
-0.049829289 0.032159608 1.3720001 4281349684
-0.047482494 0.032183047 1.373 4280889133
-0.045132227 0.032206487 1.3740001 4280889131
-0.042778492 0.032229926 1.3750001 4280691752
-0.040450655 0.032276805 1.3770001 4280362787
-0.038115881 0.032323688 1.3790001 4280231201
-0.035774164 0.032370567 1.381 4280625961
-0.033401333 0.032394007 1.3820001 4280231203
-0.031047463 0.032440886 1.3840001 4280691754
-0.028645257 0.032440886 1.3840001 4280625961
-0.026280975 0.032487769 1.386 4280494375
-0.023909748 0.032534648 1.388 4280691754
-0.02151609 0.032558087 1.3890001 4281086512
-0.019118957 0.032581527 1.3900001 4280757547
-0.016706336 0.032581527 1.3900001 4281020721
-0.014293716 0.032581527 1.3900001 4280823342
-0.011898192 0.032628406 1.3920001 4281612345
-0.0094889123 0.032651849 1.393 4281283380
-0.0070710839 0.032651849 1.393 4281875517
-0.0046599368 0.032698728 1.3950001 4281876030
-0.0022402424 0.032722168 1.396 4282138689
0.00018279243 0.032722168 1.396 4280954415
0.0026076939 0.032745607 1.3970001 4281349686
0.0050360668 0.032769047 1.3980001 4280757549
0.0074679116 0.032792486 1.399 4283126097
0.0098961536 0.032792486 1.399 4282270533
0.012324396 0.032792486 1.399 4282796878
0.014742093 0.032769047 1.3980001 4281612605
0.017242283 0.032909684 1.404 4281349433
-0.16517307 0.035254199 1.401 4283126607
-0.16181207 0.035052892 1.393 4282928716
-0.15916538 0.035002563 1.391 4282797132
-0.15641296 0.034927074 1.388 4282336581
-0.15389286 0.03490191 1.3870001 4282270788
-0.15137622 0.034876749 1.386 4281678652
-0.14875558 0.03482642 1.3840001 4281612604
-0.14624763 0.034801256 1.383 4282270534
-0.14384715 0.034801256 1.383 4283060050
-0.14154896 0.03482642 1.3840001 4283125844
-0.1392473 0.034851585 1.3850001 4282994257
-0.13684335 0.034851585 1.3850001 4282928465
-0.13443941 0.034851585 1.3850001 4283125844
-0.13194014 0.03482642 1.3840001 4283191637
-0.12953794 0.03482642 1.3840001 4283060050
-0.12722759 0.034851585 1.3850001 4282928464
-0.12482364 0.034851585 1.3850001 4283257428
-0.1224197 0.034851585 1.3850001 4282994513
-0.12010241 0.034876749 1.386 4283257428
-0.11769672 0.034876749 1.386 4283257685
-0.11520787 0.034851585 1.3850001 4283257428
-0.11272249 0.03482642 1.3840001 4283125842
-0.11039998 0.034851585 1.3850001 4282665546
-0.10799605 0.034851585 1.3850001 4282533960
-0.10551587 0.03482642 1.3840001 4282665545
-0.10311366 0.03482642 1.3840001 4282797132
-0.10063869 0.034801256 1.383 4282533959
-0.098167181 0.034776092 1.3820001 4282533702
-0.095699146 0.034750927 1.381 4282402115
-0.093234591 0.034725767 1.3800001 4282731337
-0.090707667 0.034675438 1.378 4282204993
-0.088251792 0.034650274 1.3770001 4282994509
-0.085799381 0.034625113 1.376 4282533958
-0.083289824 0.034574784 1.3740001 4282533959
-0.08072833 0.034499291 1.3710001 4282270786
-0.078291535 0.034474131 1.3700001 4282468165
-0.075802803 0.034423802 1.368 4282336579
-0.073321015 0.034373477 1.3660001 4282139200
-0.070846178 0.034323145 1.3640001 4283126093
-0.06837827 0.03427282 1.3620001 4281810234
-0.066014245 0.03427282 1.3620001 4282402370
-0.063650228 0.03427282 1.3620001 4283257679
-0.061331205 0.034297984 1.363 4282402370
-0.059008714 0.034323145 1.3640001 4281941819
-0.056724269 0.034373477 1.3660001 4281415475
-0.054393098 0.034398638 1.3670001 4280823340
-0.052058451 0.034423802 1.368 4282007614
-0.049684014 0.034423802 1.368 4281218098
-0.047309581 0.034423802 1.368 4280823340
-0.044935144 0.034423802 1.368 4281547063
-0.042591821 0.034448966 1.3690001 4281086510
-0.040245026 0.034474131 1.3700001 4281086512
-0.037894759 0.034499291 1.3710001 4281349684
-0.035566926 0.03454962 1.373 4280494375
-0.033159643 0.034524456 1.3720001 4280625959
-0.03082313 0.034574784 1.3740001 4281152303
-0.028479677 0.034625113 1.376 4280757034
-0.026091356 0.034625113 1.376 4280888620
-0.023720263 0.034650274 1.3770001 4280953899
-0.021361185 0.034700602 1.3790001 4281020208
-0.018967656 0.034700602 1.3790001 4282993998
-0.016586149 0.034725767 1.3800001 4281941566
-0.014201169 0.034750927 1.381 4281809982
-0.011821263 0.034801256 1.383 4282007105
-0.0094344169 0.034851585 1.3850001 4281941312
-0.0070304745 0.034851585 1.3850001 4282599242
-0.0046298727 0.034876749 1.386 4282467914
-0.0022257997 0.03490191 1.3870001 4282796621
0.00018161397 0.03490191 1.3870001 4282467655
0.0025908942 0.034927074 1.388 4282204482
0.005003646 0.034952238 1.3890001 4282270788
0.0074198688 0.034977399 1.3900001 4283652441
0.0098395636 0.035002563 1.391 4281678397
0.012271538 0.035052892 1.393 4282862671
0.014699911 0.035078056 1.3940001 4283257429
0.017180879 0.035203874 1.399 4282928465
-0.16529095 0.037695922 1.4020001 4282994509
-0.1616959 0.037427049 1.3920001 4283060303
-0.15893653 0.037346389 1.3890001 4282862925
-0.15630028 0.037292611 1.3870001 4282797132
-0.15378189 0.037265729 1.386 4282468167
-0.15126701 0.03723884 1.3850001 4281941823
-0.1486481 0.037185065 1.383 4281809982
-0.14603613 0.037131291 1.381 4281678397
-0.14353512 0.037104405 1.3800001 4282467913
-0.14113985 0.037104405 1.3800001 4283125844
-0.13884515 0.037131291 1.381 4283323223
-0.13644814 0.037131291 1.381 4283191637
-0.13395406 0.037104405 1.3800001 4282928465
-0.13165414 0.037131291 1.381 4282731086
-0.12925714 0.037131291 1.381 4282731086
-0.12686014 0.037131291 1.381 4282862672
-0.12446314 0.037131291 1.381 4283125843
-0.12206615 0.037131291 1.381 4283125844
-0.11966915 0.037131291 1.381 4283586394
-0.11727215 0.037131291 1.381 4283257429
-0.11420968 0.036916193 1.373 4283520601
-0.11182657 0.036916193 1.373 4283191636
-0.10936374 0.036889303 1.3720001 4282731085
-0.10706034 0.036916193 1.373 4283125842
-0.10475347 0.036943078 1.3740001 4282994511
-0.10236862 0.036943078 1.3740001 4282731339
-0.099983767 0.036943078 1.3740001 4282665546
-0.097598918 0.036943078 1.3740001 4282599497
-0.095214069 0.036943078 1.3740001 4282533446
-0.092761658 0.036916193 1.373 4282467652
-0.090181068 0.036835533 1.3700001 4282336579
-0.087739073 0.036808643 1.3690001 4282731337
-0.085300542 0.036781754 1.368 4282270786
-0.082865492 0.036754869 1.3670001 4282928716
-0.080375023 0.036701094 1.365 4282599751
-0.077948652 0.036674205 1.3640001 4283191888
-0.075414926 0.036593545 1.3610001 4282928716
-0.072998963 0.03656666 1.36 4283191888
-0.070534535 0.036512882 1.358 4282731335
-0.068127252 0.036485996 1.3570001 4282402370
-0.065771908 0.036485996 1.3570001 4284639332
-0.063416563 0.036485996 1.3570001 4282007612
-0.061106224 0.036512882 1.358 4282928714
-0.058835663 0.03656666 1.36 4283389265
-0.056558166 0.036620431 1.3620001 4283060300
-0.054233935 0.03664732 1.363 4283060302
-0.051906236 0.036674205 1.3640001 4282336579
-0.049538743 0.036674205 1.3640001 4280691754
-0.04717125 0.036674205 1.3640001 4283191888
-0.044803757 0.036674205 1.3640001 4281481268
-0.042467374 0.036701094 1.365 4281086510
-0.040098146 0.036701094 1.365 4281349684
-0.037701279 0.036674205 1.3640001 4281283891
-0.035333786 0.036674205 1.3640001 4281283891
-0.032990463 0.036701094 1.365 4282270786
-0.030666102 0.036754869 1.3670001 4281020719
-0.028314097 0.036781754 1.368 4281612856
-0.025939662 0.036781754 1.368 4281941823
-0.023582453 0.036808643 1.3690001 4282270275
-0.021206282 0.036808643 1.3690001 4282533447
-0.018830111 0.036808643 1.3690001 4283059791
-0.01646596 0.036835533 1.3700001 4281876030
-0.014098335 0.036862418 1.3710001 4283060304
-0.011727241 0.036889303 1.3720001 4282599242
-0.0093594864 0.036943078 1.3740001 4282533449
-0.0069797128 0.036969967 1.3750001 4282599499
-0.0045931279 0.036969967 1.3750001 4282533706
-0.0022081472 0.036996856 1.376 4282138948
0.00018030456 0.037023738 1.3770001 4283586394
0.0025703611 0.037023738 1.3770001 4282665546
0.0049604177 0.037023738 1.3770001 4282862925
0.0073558125 0.037050627 1.378 4283191636
0.0097617526 0.037104405 1.3800001 4282599499
0.012201062 0.03723884 1.3850001 4283389016
0.014626096 0.037292611 1.3870001 4282665293
0.01703351 0.037292611 1.3870001 4282270535
0.019567071 0.037534598 1.396 4283652188
0.021958601 0.037480824 1.3940001 4292271072
-0.16204439 0.039912205 1.3950001 4283191376
-0.15905096 0.039769147 1.3900001 4283125584
-0.1558495 0.039568875 1.383 4282994255
-0.15289427 0.03942582 1.378 4282797132
-0.14984718 0.039254155 1.3720001 4282599498
-0.14714335 0.039168321 1.3690001 4282204741
-0.14466143 0.03913971 1.368 4281546811
-0.14197496 0.039053876 1.365 4281546811
-0.13950346 0.039025266 1.3640001 4281875776
-0.13683435 0.038939431 1.3610001 4283060050
-0.13417566 0.038853601 1.358 4283191637
-0.1317215 0.03882499 1.3570001 4283125844
-0.13041481 0.03913971 1.368 4282796879
-0.12804037 0.03913971 1.368 4282928465
-0.12575781 0.039168321 1.3690001 4283191637
-0.12338164 0.039168321 1.3690001 4282928465
-0.12091707 0.03913971 1.368 4283323223
-0.11854263 0.03913971 1.368 4283191637
-0.11608329 0.039111096 1.3670001 4283257429
-0.1136274 0.03908249 1.3660001 4283125843
-0.11125644 0.03908249 1.3660001 4283389015
-0.10896519 0.039111096 1.3670001 4283257429
-0.10659249 0.039111096 1.3670001 4282928464
-0.10429602 0.03913971 1.368 4283125842
-0.1020706 0.039196935 1.3700001 4283126097
-0.099692695 0.039196935 1.3700001 4282797132
-0.097243756 0.039168321 1.3690001 4282796620
-0.09486758 0.039168321 1.3690001 4282796619
-0.092423849 0.03913971 1.368 4283060304
-0.089917764 0.03908249 1.3660001 4282731337
-0.087418623 0.039025266 1.3640001 4282533958
-0.085051127 0.039025266 1.3640001 4283455060
-0.08262302 0.038996655 1.363 4282007614
-0.080080613 0.038910825 1.36 4284244576
-0.077720061 0.038910825 1.36 4282468165
-0.075304098 0.038882211 1.3590001 4282994509
-0.072891615 0.038853601 1.358 4283191888
-0.070430651 0.03879638 1.3560001 4282533958
-0.068026848 0.038767766 1.355 4283520851
-0.065626502 0.038739156 1.3540001 4281810233
-0.063323103 0.038767766 1.355 4281547061
-0.06097123 0.038767766 1.355 4284573539
-0.058705881 0.03882499 1.3570001 4282797128
-0.056433592 0.038882211 1.3590001 4282533956
-0.054114565 0.038910825 1.36 4282665542
-0.05179207 0.038939431 1.3610001 4282533958
-0.049466103 0.038968045 1.3620001 4283060302
-0.047102083 0.038968045 1.3620001 4283652437
-0.044738062 0.038968045 1.3620001 4281349682
-0.042374041 0.038968045 1.3620001 4282402370
-0.039980642 0.038939431 1.3610001 4282073407
-0.037618358 0.038939431 1.3610001 4281547063
-0.035256069 0.038939431 1.3610001 4281876028
-0.032917958 0.038968045 1.3620001 4281415477
-0.030598802 0.039025266 1.3640001 4280823342
-0.028252006 0.039053876 1.365 4282468167
-0.025882777 0.039053876 1.365 4281941823
-0.02351355 0.039053876 1.365 4282533960
-0.021144321 0.039053876 1.365 4283322963
-0.018775092 0.039053876 1.365 4282862412
-0.016405866 0.039053876 1.365 4283191890
-0.01404692 0.03908249 1.3660001 4284639336
-0.01169305 0.03913971 1.368 4282073153
-0.009325427 0.039168321 1.3690001 4283060304
-0.0069492562 0.039168321 1.3690001 4282862925
-0.0045797657 0.039225541 1.3710001 4281876031
-0.0022001234 0.039225541 1.3710001 4283520855
0.00017938798 0.039196935 1.3700001 4282994511
0.0025591613 0.039225541 1.3710001 4281941823
0.0049388036 0.039225541 1.3710001 4283323221
0.0073397988 0.039339986 1.3750001 4283389015
0.012157016 0.039483041 1.3800001 4283125844
0.014573371 0.039540261 1.3820001 4282731086
0.016996667 0.039597481 1.3840001 4283389016
0.019482974 0.039769147 1.3900001 4282862672
0.021895593 0.039769147 1.3900001 4286218115
-0.16239287 0.042407699 1.3980001 4282730824
-0.15927981 0.042225692 1.3920001 4283520342
-0.1558495 0.041952685 1.383 4283586392
-0.15245046 0.041679669 1.3740001 4283389014
-0.14962873 0.041558333 1.3700001 4283323222
-0.1468209 0.041436996 1.3660001 4282731085
-0.14434418 0.041406661 1.365 4282402120
-0.14176695 0.041345991 1.363 4282007362
-0.13919663 0.041285321 1.3610001 4281086260
-0.13653272 0.041194316 1.358 4281612604
-0.13387924 0.041103315 1.355 4282599500
-0.1314303 0.04107298 1.3540001 4282994257
-0.1288895 0.041012309 1.3520001 4282994258
-0.12654284 0.041012309 1.3520001 4282796879
-0.12428803 0.041042645 1.353 4283389016
-0.12202975 0.04107298 1.3540001 4282862672
-0.11967961 0.04107298 1.3540001 4283060051
-0.11724283 0.041042645 1.353 4283323223
-0.11472459 0.040981974 1.3510001 4283191636
-0.11237967 0.040981974 1.3510001 4283323222
-0.11011618 0.041012309 1.3520001 4283323222
-0.10784923 0.041042645 1.353 4283257429
-0.10557881 0.04107298 1.3540001 4283125843
-0.10330492 0.041103315 1.355 4283125843
-0.10095304 0.041103315 1.355 4283191635
-0.09860117 0.041103315 1.355 4283257683
-0.096249297 0.041103315 1.355 4282402374
-0.093828127 0.04107298 1.3540001 4283520855
-0.091545559 0.041103315 1.355 4282797132
-0.089127861 0.04107298 1.3540001 4282862923
-0.086713634 0.041042645 1.353 4283060302
-0.084365234 0.041042645 1.353 4282599751
-0.082016833 0.041042645 1.353 4284178783
-0.079609551 0.041012309 1.3520001 4284178783
-0.077320032 0.041042645 1.353 4281810235
-0.074971631 0.041042645 1.353 4283784025
-0.072569564 0.041012309 1.3520001 4283126095
-0.070170954 0.040981974 1.3510001 4283520853
-0.067775823 0.040951643 1.35 4283520853
-0.06543263 0.040951643 1.35 4282204993
-0.063089438 0.040951643 1.35 4285165677
-0.060746241 0.040951643 1.35 4282994507
-0.058489576 0.041012309 1.3520001 4282665542
-0.056225959 0.04107298 1.3540001 4284178781
-0.053875826 0.04107298 1.3540001 4284112988
-0.051601797 0.04113365 1.3560001 4282928714
-0.04928451 0.041163985 1.3570001 4283455058
-0.046929166 0.041163985 1.3570001 4281349682
-0.044540975 0.04113365 1.3560001 4282468163
-0.042187367 0.04113365 1.3560001 4282599749
-0.039833762 0.04113365 1.3560001 4281612856
-0.037480153 0.04113365 1.3560001 4282204993
-0.035152454 0.041163985 1.3570001 4282402372
-0.032797113 0.041163985 1.3570001 4281415478
-0.030486636 0.041224655 1.3590001 4284376164
-0.028148519 0.04125499 1.36 4283323476
-0.025787968 0.04125499 1.36 4283060304
-0.023427419 0.04125499 1.36 4284441957
-0.021051379 0.041224655 1.3590001 4283519572
-0.018692564 0.041224655 1.3590001 4282138689
-0.01633375 0.041224655 1.3590001 4283981406
-0.013985219 0.04125499 1.36 4281744444
-0.011633218 0.041285321 1.3610001 4282270788
-0.0092777442 0.041315656 1.3620001 4284376164
-0.006913723 0.041315656 1.3620001 4282862923
-0.0045530424 0.041345991 1.363 4283323475
-0.0021872853 0.041345991 1.363 4283652441
0.0001784714 0.041345991 1.363 4281152307
0.0025442282 0.041345991 1.363 4283849820
0.0049099852 0.041345991 1.363 4284112992
0.0072917561 0.041436996 1.3660001 4282928464
0.0096910149 0.041558333 1.3700001 4282928464
0.01208654 0.041619003 1.3720001 4283257430
0.014499554 0.041710004 1.3750001 4282796879
0.016935263 0.041831344 1.3790001 4282994258
0.019356823 0.041892011 1.381 4283257430
0.021801079 0.041983016 1.3840001 4283915360
0.024255751 0.042074017 1.3870001 4282731086
0.026663164 0.042074017 1.3870001 4282007363
0.029049616 0.042043686 1.386 4282467914
-0.15973751 0.04475325 1.396 4283191633
-0.1558495 0.04433649 1.383 4283652441
-0.15200664 0.043919735 1.3700001 4283257428
-0.14908265 0.043759443 1.365 4283257429
-0.14628349 0.043631211 1.3610001 4283125843
-0.1437097 0.043567095 1.3590001 4282796878
-0.14103886 0.043470919 1.3560001 4282796878
-0.13858299 0.043438859 1.355 4282204740
-0.1359295 0.043342687 1.3520001 4281547066
-0.13308881 0.043182395 1.3470001 4281612859
-0.13065375 0.043150339 1.3460001 4282665547
-0.12812683 0.04308622 1.3440001 4282402120
-0.12579405 0.04308622 1.3440001 4283191636
-0.12346128 0.04308622 1.3440001 4282994257
-0.12121862 0.043118279 1.345 4282928464
-0.11888411 0.043118279 1.345 4283257429
-0.1165496 0.043118279 1.345 4282994257
-0.11413017 0.04308622 1.3440001 4283191636
-0.11188057 0.043118279 1.345 4283323476
-0.1096275 0.043150339 1.3460001 4282862926
-0.10737097 0.043182395 1.3470001 4283389270
-0.10503298 0.043182395 1.3470001 4283125843
-0.10277124 0.043214452 1.348 4283454808
-0.100357 0.043182395 1.3470001 4283389270
-0.098019019 0.043182395 1.3470001 4282533960
-0.09561 0.043150339 1.3460001 4283784027
-0.093135156 0.04308622 1.3440001 4283455062
-0.090869941 0.043118279 1.345 4282599751
-0.088601254 0.043150339 1.3460001 4283389267
-0.086264998 0.043150339 1.3460001 4282994509
-0.083928749 0.043150339 1.3460001 4282731337
-0.0815925 0.043150339 1.3460001 4283718232
-0.079256251 0.043150339 1.3460001 4281349686
-0.076977149 0.043182395 1.3470001 4284376164
-0.074694581 0.043214452 1.348 4283257683
-0.072301179 0.043182395 1.3470001 4283060302
-0.069859318 0.043118279 1.345 4282994509
-0.067524798 0.043118279 1.345 4282204993
-0.065190285 0.043118279 1.345 4283323474
-0.062855773 0.043118279 1.345 4284178783
-0.06056625 0.043150339 1.3460001 4280362789
-0.058316529 0.043214452 1.348 4284047195
-0.05601833 0.043246511 1.3490001 4282599749
-0.053637087 0.043214452 1.348 4282073407
-0.051335417 0.043246511 1.3490001 4283520853
-0.049030278 0.043278571 1.35 4283191888
-0.046687085 0.043278571 1.35 4281810235
-0.044343892 0.043278571 1.35 4285363055
-0.0420007 0.043278571 1.35 4283191886
-0.039686885 0.043310627 1.3510001 4282862923
-0.037369594 0.043342687 1.3520001 4282402372
-0.035022929 0.043342687 1.3520001 4281283891
-0.032700434 0.043374747 1.353 4282402372
-0.030374469 0.043406799 1.3540001 4284244578
-0.028024334 0.043406799 1.3540001 4281218100
-0.02569316 0.043438859 1.355 4283257683
-0.023341289 0.043438859 1.355 4283126097
-0.020989416 0.043438859 1.355 4284375651
-0.018637545 0.043438859 1.355 4284704616
-0.016297694 0.043470919 1.3560001 4284046686
-0.01395437 0.043502979 1.3570001 4281480759
-0.01159048 0.043470919 1.3560001 4285625718
-0.0092436848 0.043502979 1.3570001 4284704614
-0.0068934183 0.043535035 1.358 4283323474
-0.0045396802 0.043567095 1.3590001 4282665544
-0.0021808664 0.043567095 1.3590001 4282468165
0.00017794764 0.043567095 1.3590001 4282994511
0.002534895 0.043535035 1.358 4285692024
0.0048919735 0.043535035 1.358 4281941569
0.00725439 0.043567095 1.3590001 4283454808
0.0096273506 0.043631211 1.3610001 4284441704
0.011998446 0.043663267 1.3620001 4283257430
0.014383557 0.043727383 1.3640001 4282994258
0.016775612 0.043791503 1.3660001 4283454809
0.019160593 0.043823559 1.3670001 4283454809
0.021549044 0.043855619 1.368 4283981153
0.023958454 0.043919735 1.3700001 4281941570
0.026336361 0.043919735 1.3700001 4284375911
0.028756188 0.043983851 1.3720001 4283454809
0.031228345 0.044112083 1.376 4282402121
0.033665527 0.044176199 1.378 4286547080
-0.15449724 0.046314918 1.3710001 4282731085
-0.15167378 0.046179786 1.3670001 4283191636
-0.14853656 0.045943316 1.36 4283323222
-0.14574607 0.045808189 1.3560001 4283323222
-0.14318097 0.045740623 1.3540001 4283191636
-0.14041479 0.045605499 1.35 4282731085
-0.13786705 0.045537934 1.348 4282928718
-0.13522571 0.045436587 1.345 4282336581
-0.13259478 0.045335244 1.342 4281612858
-0.13016841 0.04530146 1.3410001 4281876030
-0.12755485 0.045200113 1.3380001 4283652187
-0.12523247 0.045200113 1.3380001 4283454808
-0.12291011 0.045200113 1.3380001 4282796878
-0.12067787 0.045233898 1.3390001 4283257429
-0.11835377 0.045233898 1.3390001 4283257429
-0.11602967 0.045233898 1.3390001 4283191636
-0.1137905 0.045267679 1.34 4283323222
-0.11146466 0.045267679 1.34 4282862925
-0.10922027 0.04530146 1.3410001 4283586648
-0.1068927 0.04530146 1.3410001 4283652441
-0.10464311 0.045335244 1.342 4283257429
-0.10231379 0.045335244 1.342 4282994257
-0.099984489 0.045335244 1.342 4282533706
-0.097509637 0.045267679 1.34 4283060304
-0.095112778 0.045233898 1.3390001 4283455062
-0.092788674 0.045233898 1.3390001 4281941823
-0.090464577 0.045233898 1.3390001 4284310370
-0.088206299 0.045267679 1.34 4283191890
-0.085880458 0.045267679 1.34 4283191889
-0.083616979 0.04530146 1.3410001 4283389269
-0.081289411 0.04530146 1.3410001 4282928718
-0.079020724 0.045335244 1.342 4283718234
-0.076748557 0.045369025 1.3430001 4284968301
-0.074472934 0.045402806 1.3440001 4281744444
-0.072086476 0.045369025 1.3430001 4284244578
-0.069703497 0.045335244 1.342 4284178785
-0.067374192 0.045335244 1.342 4284770920
-0.065093346 0.045369025 1.3430001 4284573541
-0.062809035 0.045402806 1.3440001 4282270786
-0.06052126 0.045436587 1.345 4283257681
-0.058143482 0.045402806 1.3440001 4285823608
-0.055852227 0.045436587 1.345 4282797130
-0.05351771 0.045436587 1.345 4284244576
-0.051183198 0.045436587 1.345 4283455060
-0.048885003 0.045470372 1.3460001 4282204993
-0.046548754 0.045470372 1.3460001 4284178783
-0.044212505 0.045470372 1.3460001 4284968297
-0.041907366 0.045504153 1.3470001 4281415475
-0.039598759 0.045537934 1.348 4283915611
-0.037286676 0.045571715 1.3490001 4284112990
-0.034971122 0.045605499 1.35 4284441955
-0.032627929 0.045605499 1.35 4283981406
-0.030284736 0.045605499 1.35 4281547065
-0.027962241 0.04563928 1.3510001 4281810237
-0.025617313 0.04563928 1.3510001 4284968301
-0.02328961 0.045673061 1.3520001 4282270788
-0.020958437 0.045706846 1.353 4282270275
-0.018610038 0.045706846 1.353 4282336068
-0.016273657 0.045740623 1.3540001 4282599240
-0.013933803 0.045774408 1.355 4284112479
-0.011581932 0.045774408 1.355 4286020476
-0.0092300605 0.045774408 1.355 4281743931
-0.0068832659 0.045808189 1.3560001 4283718233
-0.0045329994 0.045841973 1.3570001 4284770922
-0.0021792615 0.04587575 1.358 4282797132
0.00017781671 0.04587575 1.358 4283191890
0.0025330284 0.045841973 1.3570001 4283257683
0.0048847687 0.045808189 1.3560001 4280954674
0.0072437134 0.045841973 1.3570001 4283915359
0.0096061304 0.04587575 1.358 4283060050
0.011972019 0.045909535 1.3590001 4284639082
0.014351922 0.045977097 1.3610001 4284375911
0.016738771 0.046044663 1.363 4283191636
0.019118542 0.046078444 1.3640001 4283520602
0.021486035 0.046078444 1.3640001 4283520601
0.023871016 0.046112224 1.365 4283257429
0.026259469 0.046146009 1.3660001 4285428599
0.028672351 0.046213571 1.368 4282796879
0.031092174 0.046281137 1.3700001 4284046946
0.033518944 0.046348698 1.3720001 4283652188
0.036109652 0.046618957 1.3800001 4287073426
-0.15438455 0.048642538 1.3700001 4281744189
-0.15145187 0.04846501 1.365 4282599499
-0.14831813 0.04821647 1.358 4283323222
-0.14542362 0.048038945 1.353 4283323222
-0.14286374 0.047967929 1.3510001 4282994257
-0.14010276 0.04782591 1.3470001 4283323222
-0.1376625 0.047790404 1.3460001 4282928718
-0.13512518 0.047719393 1.3440001 4282204995
-0.13249598 0.047612876 1.3410001 4283257683
-0.13007134 0.047577374 1.34 4281481272
-0.12745951 0.047470856 1.337 4282599754
-0.12513889 0.047470856 1.337 4282467913
-0.12281826 0.047470856 1.337 4283586394
-0.12049763 0.047470856 1.337 4282994257
-0.11826538 0.047506358 1.3380001 4282862671
-0.11594302 0.047506358 1.3380001 4282796878
-0.11370558 0.047541864 1.3390001 4283060050
-0.11138148 0.047541864 1.3390001 4283323222
-0.10905737 0.047541864 1.3390001 4283849820
-0.10673328 0.047541864 1.3390001 4282468167
-0.10440918 0.047541864 1.3390001 4283454806
-0.10208508 0.047541864 1.3390001 4283125843
-0.099760979 0.047541864 1.3390001 4283257429
-0.097364105 0.047506358 1.3380001 4283455062
-0.095041744 0.047506358 1.3380001 4282270534
-0.092719376 0.047506358 1.3380001 4284375909
-0.090397015 0.047506358 1.3380001 4284902510
-0.088074647 0.047506358 1.3380001 4282599753
-0.085816376 0.047541864 1.3390001 4284376164
-0.083554626 0.047577374 1.34 4283717979
-0.081228793 0.047577374 1.34 4282665291
-0.078961842 0.047612876 1.3410001 4283849566
-0.076691419 0.047648381 1.342 4282138948
-0.074417517 0.047683887 1.3430001 4283125843
-0.072032802 0.047648381 1.342 4285757817
-0.069703497 0.047648381 1.342 4282336581
-0.067374192 0.047648381 1.342 4281876030
-0.065093346 0.047683887 1.3430001 4282270788
-0.062762305 0.047683887 1.3430001 4282402372
-0.060476258 0.047719393 1.3440001 4286284159
-0.058143482 0.047719393 1.3440001 4283784025
-0.055769179 0.047683887 1.3430001 4281349684
-0.053438134 0.047683887 1.3430001 4283586646
-0.051145144 0.047719393 1.3440001 4284836713
-0.048812367 0.047719393 1.3440001 4284507748
-0.046514168 0.047754899 1.345 4283718232
-0.044212505 0.047790404 1.3460001 4281349684
-0.041907366 0.04782591 1.3470001 4282797130
-0.039569378 0.04782591 1.3470001 4285165678
-0.037286676 0.047896922 1.3490001 4282204993
-0.03494522 0.047896922 1.3490001 4282073407
-0.032603759 0.047896922 1.3490001 4283981406
-0.030284736 0.047932427 1.35 4282994511
-0.027941544 0.047932427 1.35 4285034094
-0.025617313 0.047967929 1.3510001 4284376164
-0.02328961 0.048003439 1.3520001 4281414966
-0.020942947 0.048003439 1.3520001 4284901995
-0.018610038 0.048038945 1.353 4284309858
-0.016273657 0.048074447 1.3540001 4281546552
-0.013933803 0.048109952 1.355 4283257170
-0.011581932 0.048109952 1.355 4282862412
-0.0092300605 0.048109952 1.355 4281480759
-0.0068832659 0.048145458 1.3560001 4283783514
-0.0045329994 0.048180968 1.3570001 4282204995
-0.0021792615 0.04821647 1.358 4284309858
0.00017781671 0.04821647 1.358 4284375651
0.0025330284 0.048180968 1.3570001 4280889135
0.0048883711 0.048180968 1.3570001 4283191891
0.0072437134 0.048180968 1.3570001 4284968047
0.0096061304 0.04821647 1.358 4282994257
0.011972019 0.048251975 1.3590001 4282007362
0.014351922 0.048322987 1.3610001 4283257429
0.016738771 0.048393998 1.363 4284310117
0.019118542 0.0484295 1.3640001 4283849566
0.021501787 0.04846501 1.365 4282204741
0.023871016 0.04846501 1.365 4284441703
0.026259469 0.048500516 1.3660001 4283520601
0.028672351 0.048571523 1.368 4281415226
0.031069482 0.048607033 1.3690001 4284244325
0.033494513 0.048678041 1.3710001 4284573290
0.036057319 0.048926581 1.378 4283717981
-0.15370841 0.050780561 1.3640001 4281744190
-0.15089712 0.050631646 1.36 4281809983
-0.14766282 0.050333813 1.3520001 4282336327
-0.14488621 0.050184894 1.348 4282467913
-0.14233501 0.050110437 1.3460001 4283060050
-0.13968672 0.049998753 1.3430001 4283125843
-0.1372534 0.049961522 1.342 4282994257
-0.13472302 0.049887065 1.34 4283126099
-0.13219957 0.049812604 1.3380001 4282731085
-0.12978014 0.049775377 1.337 4281678397
-0.12726885 0.049700916 1.335 4281152053
-0.1248581 0.049663689 1.3340001 4283125843
-0.12245081 0.049626458 1.3330001 4283125843
-0.120047 0.049589228 1.332 4282402120
-0.11773505 0.049589228 1.332 4283389015
-0.11550975 0.049626458 1.3330001 4283652187
-0.11319606 0.049626458 1.3330001 4283520601
-0.11088238 0.049626458 1.3330001 4283520601
-0.10865014 0.049663689 1.3340001 4282402375
-0.10633472 0.049663689 1.3340001 4282863438
-0.1040193 0.049663689 1.3340001 4283587161
-0.10178012 0.049700916 1.335 4283060304
-0.099462956 0.049700916 1.335 4282862925
-0.097145803 0.049700916 1.335 4282139202
-0.094757609 0.049663689 1.3340001 4282468169
-0.092442185 0.049663689 1.3340001 4284836461
