# .PCD v0.7 - Point Cloud Data file format
VERSION 0.7
FIELDS x y z rgba
SIZE 4 4 4 4
TYPE F F F U
COUNT 1 1 1 1
WIDTH 1069
HEIGHT 1
VIEWPOINT 0 0 0 1 0 0 0
POINTS 1069
DATA ascii
-0.017347842 -0.1494637 1.687 4280496693
-0.014385529 -0.14910932 1.6830001 4280562486
-0.011457537 -0.14902072 1.682 4280430900
0.17601256 -0.14664279 1.6880001 4280692786
0.17873038 -0.14646903 1.6860001 4280758579
0.21826875 -0.140753 1.6530001 4281022008
0.22113787 -0.140753 1.6530001 4281022008
0.22495557 -0.13848779 1.6600001 4280759606
0.22549765 -0.13595335 1.664 4280693813
-0.36557767 -0.13484474 1.6860001 4279706142
0.333839 -0.12966925 1.6570001 4294179068
0.10957304 -0.12688969 1.6580001 4280495407
0.19484325 -0.12620091 1.649 4280231724
0.19758552 -0.12612438 1.6480001 4280692786
0.33323461 -0.12658356 1.654 4289113264
0.10944086 -0.12388226 1.6560001 4280495407
0.19531588 -0.12365784 1.6530001 4280297261
0.19806509 -0.12358303 1.6520001 4280889398
0.20788571 -0.12261053 1.6390001 4280429871
0.21073052 -0.12261053 1.6390001 4280561457
0.21513902 -0.12350823 1.651 4280693043
0.32876587 -0.12313418 1.646 4280362538
0.3465381 -0.12335861 1.649 4288258724
0.34855267 -0.12305938 1.6450001 4290955981
0.35119429 -0.12298457 1.6440001 4292929771
0.097766168 -0.12080865 1.6530001 4280430641
0.10039175 -0.12051631 1.649 4280299055
0.1031913 -0.12044323 1.6480001 4280364848
0.10611608 -0.12051631 1.649 4280627506
0.20788571 -0.11978547 1.6390001 4280495664
0.21085909 -0.11985855 1.6400001 4280627250
0.32736769 -0.11978547 1.6390001 4280889652
0.32920516 -0.11942004 1.6340001 4280758066
0.34569746 -0.12022398 1.6450001 4280100649
0.34706947 -0.11971238 1.6380001 4280824116
0.34948534 -0.11956622 1.636 4281152824
0.185692 -0.1173172 1.6440001 4289573560
0.18854548 -0.1173172 1.6440001 4279836710
0.20801254 -0.11703176 1.6400001 4280495664
0.21124481 -0.11724585 1.6430001 4280495664
0.32756746 -0.11703176 1.6400001 4280692273
0.32940662 -0.11667495 1.6350001 4280823859
0.33265093 -0.11681768 1.6370001 4280495407
0.34359598 -0.11667495 1.6350001 4281087543
0.34601006 -0.11653224 1.6330001 4281942852
0.34948534 -0.11674632 1.636 4281350715
0.36062318 -0.11667495 1.6350001 4279837477
0.36279416 -0.11646087 1.6320001 4280232235
0.36629891 -0.11667495 1.6350001 4281350972
0.39303797 -0.11703176 1.6400001 4293587187
0.39588454 -0.11703176 1.6400001 4293521395
-0.29512316 -0.11504062 1.6520001 4293719799
0.32920516 -0.11378715 1.6340001 4280626993
0.33183807 -0.11371752 1.6330001 4280692785
0.33426261 -0.11357824 1.631 4280561199
0.33730021 -0.11364787 1.6320001 4280495150
0.34034127 -0.11371752 1.6330001 4280692529
0.34296554 -0.11364787 1.6320001 4280824114
-0.29994732 -0.11185358 1.6470001 4294180607
0.18128149 -0.11069905 1.6300001 4282995028
0.18467543 -0.11103862 1.6350001 4280363565
0.1873986 -0.11097071 1.6340001 4280758066
0.20404008 -0.11076696 1.631 4280561200
0.31893039 -0.11035948 1.6250001 4280758066
0.32214689 -0.11049531 1.6270001 4280626480
0.32537034 -0.11063114 1.6290001 4280561200
0.32779485 -0.11049531 1.6270001 4280561199
0.33021244 -0.11035948 1.6250001 4280626992
0.33344281 -0.11049531 1.6270001 4280692785
0.33688685 -0.11069905 1.6300001 4280626479
0.33992445 -0.11076696 1.631 4280626479
0.42354974 -0.1104274 1.626 4293456115
0.4253231 -0.11015574 1.6220001 4293324529
0.42787442 -0.11008783 1.6210001 4293455345
0.43350157 -0.11008783 1.6210001 4293389552
0.43712264 -0.11029157 1.6240001 4293323246
0.1756231 -0.1078895 1.6300001 4294376957
0.17812386 -0.10769093 1.6270001 4286811535
0.18050297 -0.10742617 1.623 4280166442
0.1835459 -0.10755855 1.6250001 4280824372
0.18636642 -0.10755855 1.6250001 4280692786
0.20378989 -0.10782331 1.6290001 4280561200
0.31630442 -0.10762474 1.626 4280954675
0.3181453 -0.10729379 1.6210001 4280626480
0.32115689 -0.10735998 1.6220001 4280626480
0.32257402 -0.10689665 1.6150001 4280626992
0.32578012 -0.10702904 1.6170001 4280495406
0.32858676 -0.10702904 1.6170001 4280495406
0.33282799 -0.10749236 1.6240001 4280626992
0.42224729 -0.10729379 1.6210001 4293654007
0.42322534 -0.10683046 1.6140001 4294180351
0.42602676 -0.10683046 1.6140001 4294114045
0.4312194 -0.10742617 1.623 4293982459
0.43243185 -0.10702904 1.6170001 4294113787
0.43577683 -0.10716141 1.6190001 4293389552
0.17801437 -0.10482208 1.626 4280100649
0.18061419 -0.10469315 1.6240001 4280824372
0.1835459 -0.10475762 1.6250001 4280692786
0.18636642 -0.10475762 1.6250001 4280824372
0.31494272 -0.10437082 1.6190001 4280888882
0.31618267 -0.1038551 1.6110001 4280560687
0.31779087 -0.10346829 1.605 4280561199
0.3201772 -0.10333937 1.603 4280626992
0.32376543 -0.10359722 1.6070001 4280495406
0.32757074 -0.10391956 1.6120001 4280363820
0.33180329 -0.10437082 1.6190001 4280495406
0.42146584 -0.10430636 1.618 4280364333
0.42270088 -0.10391956 1.6120001 4281350716
0.42523485 -0.1038551 1.6110001 4283916643
0.42829677 -0.10391956 1.6120001 4287864223
0.43136215 -0.10398402 1.613 4290692809
0.43389267 -0.10391956 1.6120001 4292929771
0.43560702 -0.10366169 1.608 4293982459
0.43703482 -0.10333937 1.603 4293851129
0.43899405 -0.10314596 1.6 4293587958
0.31455365 -0.10145475 1.6170001 4280560687
0.31598639 -0.10101555 1.6100001 4280429100
0.31798887 -0.10076458 1.6060001 4280429613
0.32037693 -0.10063909 1.6040001 4280363820
0.32376543 -0.10082732 1.6070001 4280495406
0.32675791 -0.10089006 1.608 4280561199
0.42296311 -0.10120378 1.613 4281021750
0.42444301 -0.10089006 1.608 4280429613
0.42670262 -0.10076458 1.6060001 4280298028
0.42975757 -0.10082732 1.6070001 4280495407
0.43227768 -0.10076458 1.6060001 4281021751
0.43371072 -0.10045087 1.6010001 4281811267
0.43512639 -0.10013715 1.5960001 4283258713
0.4373478 -0.10001167 1.5940001 4285430139
0.44066674 -0.10013715 1.5960001 4288456360
0.31637895 -0.098362513 1.6120001 4280626479
0.31838489 -0.098118432 1.608 4280363820
0.32057667 -0.097935379 1.605 4280363820
0.32376543 -0.098057412 1.6070001 4280561199
0.3269611 -0.098179452 1.6090001 4280495406
0.4249709 -0.098240472 1.6100001 4280693298
0.42643693 -0.097935379 1.605 4280890677
0.42895529 -0.097874358 1.6040001 4281088056
0.43173933 -0.097874358 1.6040001 4281022263
0.43316892 -0.097569264 1.5990001 4281614400
0.43349057 -0.09702009 1.59 4281350973
0.44011453 -0.097264171 1.5940001 4280166442
0.30405122 -0.095228218 1.6060001 4281086263
0.30702981 -0.095287509 1.6070001 4280888882
0.32097617 -0.095287509 1.6070001 4280363820
0.32356393 -0.095228218 1.6060001 4280363820
0.42537415 -0.094931737 1.6010001 4280890162
0.4273507 -0.094753847 1.598 4280824369
0.4298552 -0.094694555 1.5970001 4280890675
0.4318144 -0.094516672 1.5940001 4281219640
0.43349057 -0.09427949 1.59 4281153849
0.42404568 -0.091884315 1.5960001 4280890162
0.42574614 -0.091654032 1.5920001 4281021748
0.42770189 -0.091481313 1.5890001 4281021748
0.43045992 -0.091481313 1.5890001 4281022261
0.4345811 -0.091769174 1.5940001 4281219641
0.43789658 -0.091884315 1.5960001 4281350716
0.42074761 -0.089021675 1.5940001 4280824371
0.4229829 -0.088909976 1.5920001 4280890164
0.42467642 -0.088686585 1.5880001 4280890164
0.42662525 -0.088519037 1.585 4281021750
0.43018901 -0.088686585 1.5880001 4280890164
0.30454606 -0.086274177 1.5940001 4280494894
0.30673441 -0.086111799 1.5910001 4280363821
0.30969042 -0.086165927 1.5920001 4280429614
0.42218584 -0.086003557 1.5890001 4280824371
0.424409 -0.0858953 1.5870001 4280758578
0.42716354 -0.0858953 1.5870001 4280955957
0.30359077 -0.083264671 1.5890001 4280494894
0.30596322 -0.083159864 1.5870001 4280495407
0.30871776 -0.083159864 1.5870001 4280363821
0.42414156 -0.083107471 1.5860001 4281087543
0.30282655 -0.080323085 1.585 4280494893
0.30499923 -0.080171049 1.582 4280494894
0.30735606 -0.080069698 1.58 4280494894
-0.11845082 -0.072744712 1.4860001 4293653753
-0.11587157 -0.072744712 1.4860001 4292074720
-0.11283489 -0.072450988 1.48 4290693066
-0.11004253 -0.072304137 1.4770001 4289377207
-0.10718784 -0.072108321 1.473 4287863966
-0.10427599 -0.071863554 1.4680001 4286482057
-0.10165869 -0.071814597 1.4670001 4287995296
-0.098909736 -0.071667738 1.4640001 4289640121
-0.096171193 -0.07152088 1.4610001 4290692809
-0.093571253 -0.071471922 1.46 4290232258
-0.091099486 -0.07152088 1.4610001 4289442228
-0.0888061 -0.071716696 1.465 4289770937
0.41899753 -0.077199474 1.577 4280627505
0.42173472 -0.077199474 1.577 4281021751
-0.12686792 -0.070561208 1.4940001 4293719547
-0.12394204 -0.070372283 1.4900001 4291943135
-0.12070427 -0.06999445 1.4820001 4288587692
-0.11805226 -0.06994722 1.4810001 4286218887
-0.11532573 -0.069852762 1.4790001 4283652958
-0.11245368 -0.069663838 1.475 4282863442
-0.10967002 -0.06952215 1.4720001 4283652701
-0.106824 -0.069333233 1.4680001 4283718237
-0.10392083 -0.069097079 1.4630001 4283520859
-0.10117361 -0.068955392 1.46 4283981410
-0.098301679 -0.068719245 1.455 4283915873
-0.095447116 -0.068483099 1.45 4284112996
-0.092545815 -0.068199717 1.4440001 4284639339
-0.089977108 -0.068152487 1.4430001 4284375911
-0.087351263 -0.068058029 1.4410001 4284244325
-0.084732354 -0.06796357 1.439 4283981153
-0.082234681 -0.06796357 1.439 4283981153
-0.079681605 -0.067916341 1.4380001 4284507497
-0.077185668 -0.067916341 1.4380001 4285362806
-0.074637793 -0.067869104 1.437 4289113007
-0.072193801 -0.067916341 1.4380001 4292468708
-0.035287328 -0.074292354 1.5730001 4293652472
-0.032515679 -0.074197896 1.5710001 4293586935
-0.029788896 -0.074197896 1.5710001 4293520886
-0.02707934 -0.074245118 1.572 4293521656
-0.024366314 -0.074292354 1.5730001 4293652728
-0.02160855 -0.074197896 1.5710001 4293455606
0.41766906 -0.074245118 1.572 4280627505
0.42039758 -0.074245118 1.572 4281022007
-0.12652823 -0.067804046 1.4900001 4287600540
-0.12377568 -0.067713037 1.488 4283916132
-0.12070427 -0.067440003 1.4820001 4282534478
-0.11813197 -0.067440003 1.4820001 4283652958
-0.11532573 -0.067303479 1.4790001 4283587165
-0.11245368 -0.067121454 1.475 4283521116
-0.10974453 -0.067030445 1.473 4284244582
-0.106824 -0.066802919 1.4680001 4284375911
-0.10384979 -0.066529877 1.462 4283586395
-0.10117361 -0.066438861 1.46 4284441704
-0.098166563 -0.066120327 1.4530001 4284244324
-0.095249638 -0.065847285 1.447 4284244324
-0.092417628 -0.065619759 1.442 4284441703
-0.089790046 -0.065528743 1.4400001 4284770668
-0.087169409 -0.065437734 1.4380001 4283981153
-0.0845557 -0.065346718 1.4360001 4285165427
-0.082006097 -0.06530121 1.4350001 4284704876
-0.079404548 -0.065210201 1.4330001 4284573290
-0.076863609 -0.065164693 1.432 4284441704
-0.074326158 -0.065119192 1.4310001 4284770669
-0.071892574 -0.065164693 1.432 4285297015
-0.03515273 -0.071308009 1.567 4294178301
-0.032329403 -0.071080483 1.562 4294244094
-0.029637201 -0.071125992 1.5630001 4294178558
-0.026958758 -0.071217 1.5650001 4294310142
-0.024273369 -0.071308009 1.567 4294113022
-0.021553531 -0.071308009 1.567 4293257716
-0.12920108 -0.065279596 1.4910001 4284573805
-0.12618856 -0.065060675 1.4860001 4282928979
-0.12352613 -0.065016896 1.485 4283587165
-0.12078573 -0.064929329 1.483 4283060821
-0.11805226 -0.064841762 1.4810001 4283258200
-0.11532573 -0.064754203 1.4790001 4283389529
-0.11260616 -0.064666636 1.4770001 4282994771
-0.10989353 -0.06457907 1.475 4283849567
-0.10696954 -0.064360157 1.47 4283981152
-0.10384979 -0.064009905 1.462 4282665293
-0.10110431 -0.063878551 1.4590001 4283520601
-0.098031439 -0.063528299 1.4510001 4283981152
-0.09485469 -0.063090466 1.4410001 4283652187
-0.092097186 -0.06291534 1.437 4284704875
-0.089478277 -0.062827773 1.4350001 4284507496
-0.086866312 -0.062740214 1.4330001 4284244324
-0.084143519 -0.062565081 1.429 4284639082
-0.081606068 -0.062521301 1.4280001 4285099378
-0.079016663 -0.062433731 1.4260001 4284441447
-0.07643421 -0.062346168 1.424 4285362550
-0.073910631 -0.062302385 1.4230001 4285691259
-0.071390532 -0.062258605 1.4220001 4284704365
-0.068970837 -0.062302385 1.4230001 4285230965
-0.066547669 -0.062346168 1.424 4286020738
-0.064031035 -0.062302385 1.4230001 4287862942
-0.061820708 -0.062565081 1.429 4291744729
-0.059174296 -0.062389955 1.4250001 4292928748
-0.010721857 -0.068913534 1.5740001 4293586933
-0.0079695629 -0.068738401 1.5700001 4293718519
-0.13788347 -0.063130215 1.501 4293718521
-0.13491769 -0.062961981 1.4970001 4288323752
-0.13196579 -0.062793747 1.493 4283849826
-0.12894112 -0.062583454 1.488 4283257688
-0.12618856 -0.062499329 1.4860001 4283126358
-0.12360932 -0.062499329 1.4860001 4282600270
-0.12086717 -0.062415216 1.4840001 4282862928
-0.11813197 -0.062331099 1.4820001 4282468169
-0.11540372 -0.062246978 1.48 4282994512
-0.1126824 -0.062162861 1.478 4282862926
-0.11004253 -0.062120806 1.4770001 4282731084
-0.1070423 -0.061868455 1.4710001 4283191891
-0.10399186 -0.061574042 1.4640001 4283126099
-0.10110431 -0.061363749 1.4590001 4283323222
-0.097355828 -0.060606688 1.4410001 4283849565
-0.094723031 -0.060522575 1.439 4283060304
-0.091969006 -0.060354337 1.4350001 4284310372
-0.089291207 -0.060228158 1.432 4284244323
-0.086623833 -0.060101982 1.429 4284112481
-0.083966874 -0.059975807 1.4260001 4285099633
-0.08143463 -0.059933752 1.4250001 4285428341
-0.078795023 -0.059807576 1.4220001 4284112226
-0.076219507 -0.059723452 1.4200001 4285954173
-0.073702879 -0.059681397 1.419 4284901742
-0.071189716 -0.059639338 1.4180001 4285230709
-0.068728492 -0.059639338 1.4180001 4285362295
-0.066220537 -0.059597276 1.4170001 4285428344
-0.063761055 -0.059597276 1.4170001 4285099636
-0.06130157 -0.059597276 1.4170001 4285230965
-0.058883615 -0.059639338 1.4180001 4286151813
-0.056581553 -0.059807576 1.4220001 4285296504
-0.054189499 -0.05989169 1.424 4284967541
-0.13797532 -0.060583353 1.5020001 4288257446
-0.13473743 -0.060301002 1.4950001 4283388763
-0.13187739 -0.060179997 1.4920001 4284244326
-0.12902777 -0.060058992 1.4890001 4283783774
-0.1263584 -0.060018662 1.488 4283125843
-0.12360932 -0.059937987 1.4860001 4281612860
-0.12094861 -0.059897654 1.485 4281941567
-0.11829139 -0.059857316 1.4840001 4282270787
-0.11548169 -0.059736311 1.4810001 4282270787
-0.1126824 -0.059615307 1.478 4282270786
-0.11004253 -0.059574977 1.4770001 4282468165
-0.1070423 -0.059332963 1.4710001 4282533959
-0.10392083 -0.059010278 1.4630001 4283126096
-0.10110431 -0.058848944 1.4590001 4282994511
-0.097355828 -0.058122907 1.4410001 4283915613
-0.094657212 -0.058001902 1.4380001 4283126097
-0.091840826 -0.05780023 1.4330001 4283849820
-0.089228861 -0.057719562 1.4310001 4284375652
-0.086623833 -0.057638887 1.429 4283849309
-0.083966874 -0.057517879 1.4260001 4285494134
-0.08143463 -0.057477549 1.4250001 4285361778
-0.078795023 -0.057356544 1.4220001 4285295986
-0.076219507 -0.057275869 1.4200001 4285953916
-0.073702879 -0.057235539 1.419 4285624951
-0.071189716 -0.057195202 1.4180001 4285229938
-0.068680026 -0.057154864 1.4170001 4285230196
-0.066220537 -0.057154864 1.4170001 4285822846
-0.063626066 -0.057033859 1.414 4285164916
-0.061128523 -0.056993525 1.4130001 4285822846
-0.058717508 -0.057033859 1.414 4285888639
-0.056303024 -0.057074197 1.4150001 4285493883
-0.053923115 -0.057154864 1.4170001 4285888386
-0.13751604 -0.057801373 1.4970001 4283980900
-0.13437694 -0.057569705 1.4910001 4284046948
-0.13170062 -0.057531089 1.4900001 4283257431
-0.12894112 -0.057453871 1.488 4282599500
-0.1263584 -0.057453871 1.488 4282270533
-0.1236925 -0.057415254 1.4870001 4282336581
-0.12103007 -0.057376642 1.4860001 4281415478
-0.1183711 -0.057338033 1.485 4281876028
-0.11548169 -0.057183586 1.4810001 4281547063
-0.11275864 -0.057106365 1.4790001 4281810235
-0.11004253 -0.057029143 1.4770001 4282204993
-0.10711507 -0.056836084 1.4720001 4281876028
-0.10399186 -0.05652719 1.4640001 4282862923
-0.10117361 -0.056372747 1.46 4283126095
-0.097220704 -0.055561904 1.439 4283718233
-0.094591379 -0.055484682 1.437 4283323476
-0.091776729 -0.055291623 1.432 4283323221
-0.089166507 -0.055214401 1.4300001 4284704618
-0.086502604 -0.055098567 1.427 4283915102
-0.08384911 -0.054982733 1.424 4284770411
-0.081320331 -0.054944124 1.4230001 4284967534
-0.078684196 -0.05482829 1.4200001 4285295986
-0.076112159 -0.054751065 1.4180001 4285361779
-0.073598996 -0.054712452 1.4170001 4285624952
-0.071039103 -0.05463523 1.4150001 4284769388
-0.068486147 -0.054558009 1.4130001 4285624697
-0.065893404 -0.054442175 1.4100001 4285098867
-0.063311085 -0.054326341 1.4070001 4285296502
-0.060782433 -0.054249115 1.4050001 4285625467
-0.058343776 -0.054249115 1.4050001 4285691260
-0.055984702 -0.054326341 1.4070001 4285428089
-0.053618681 -0.054403558 1.409 4285427836
-0.051282041 -0.054519396 1.4120001 4285954180
-0.049004149 -0.054712452 1.4170001 4285888131
-0.046577513 -0.054751065 1.4180001 4285822081
-0.044240735 -0.054905508 1.4220001 4286216838
-0.041890081 -0.055059955 1.4260001 4285887874
-0.039470255 -0.05513718 1.4280001 4286348424
-0.03701758 -0.055175789 1.429 4286414217
-0.13687299 -0.054962851 1.4900001 4283717983
-0.13401642 -0.054852188 1.4870001 4283783774
-0.13143544 -0.054852188 1.4870001 4282138949
-0.12885445 -0.054852188 1.4870001 4282007362
-0.1263584 -0.054889075 1.488 4282073409
-0.1236925 -0.054852188 1.4870001 4282204993
-0.12094861 -0.054778412 1.485 4282073407
-0.11821169 -0.054704636 1.483 4281152305
-0.11548169 -0.054630861 1.4810001 4281481270
-0.11275864 -0.054557085 1.4790001 4281678649
-0.11004253 -0.054483309 1.4770001 4281415477
-0.10718784 -0.054335758 1.473 4281941821
-0.10420496 -0.054114431 1.4670001 4282336579
-0.10124291 -0.053893104 1.4610001 4282665545
-0.097288266 -0.05311846 1.4400001 4282994511
-0.094591379 -0.053007796 1.437 4283586648
-0.091712646 -0.052786469 1.4310001 4283389270
-0.089104146 -0.052712694 1.429 4285165425
-0.086381368 -0.052565143 1.4250001 4284309860
-0.083672464 -0.052417591 1.4210001 4284572776
-0.081148885 -0.052380703 1.4200001 4284770412
-0.078517959 -0.05227004 1.4170001 4284309604
-0.075897448 -0.052159376 1.414 4285296500
-0.073391229 -0.052122489 1.4130001 4284901229
-0.070687674 -0.051938049 1.4080001 4285295732
-0.068195336 -0.051901162 1.4070001 4285493111
-0.065566279 -0.05175361 1.4030001 4285559674
-0.0630861 -0.051716723 1.4020001 4285099123
-0.060609385 -0.051679835 1.401 4285691260
-0.058219202 -0.051716723 1.4020001 4285625467
-0.055865329 -0.051790498 1.404 4285362295
-0.053542573 -0.051901162 1.4070001 4286086019
-0.051209401 -0.052011825 1.4100001 4285888383
-0.048865817 -0.052122489 1.4130001 4285625468
-0.046478972 -0.052196264 1.4150001 4286086019
-0.044085179 -0.05227004 1.4170001 4285888126
-0.041684445 -0.052343816 1.419 4285757052
-0.03924913 -0.052380703 1.4200001 4286217089
-0.036862154 -0.052491367 1.4230001 4286019454
-0.034488928 -0.052638918 1.427 4286085503
-0.032034524 -0.052675806 1.4280001 4286479749
-0.029618038 -0.052786469 1.4310001 4286150528
-0.027229061 -0.052970909 1.4360001 4285755772
-0.024753824 -0.053007796 1.437 4284703084
-0.022290606 -0.053081572 1.439 4283979874
-0.14233138 -0.052500106 1.493 4283520861
-0.13945918 -0.05239461 1.4900001 4284375913
-0.13668928 -0.052324284 1.488 4282796880
-0.13401642 -0.052289117 1.4870001 4282665293
-0.13143544 -0.052289117 1.4870001 4282796879
-0.12894112 -0.052324284 1.488 4282862670
-0.1263584 -0.052324284 1.488 4282270532
-0.1236925 -0.052289117 1.4870001 4281415478
-0.12094861 -0.052218791 1.485 4281941821
-0.11821169 -0.052148461 1.483 4281415477
-0.11548169 -0.052078132 1.4810001 4281349684
-0.11275864 -0.052007806 1.4790001 4281481270
-0.11011704 -0.051972639 1.478 4281218098
-0.10726061 -0.051831983 1.4740001 4281876029
-0.10427599 -0.051620997 1.4680001 4282402372
-0.10131221 -0.051410012 1.462 4282665546
-0.097355828 -0.050671566 1.4410001 4282731339
-0.094657212 -0.050566074 1.4380001 4283586648
-0.091712646 -0.050319925 1.4310001 4283126097
-0.089104146 -0.050249595 1.429 4283980893
-0.086320743 -0.050073776 1.424 4283915101
-0.083672464 -0.049968284 1.4210001 4284243811
-0.081091747 -0.049897954 1.419 4284704618
-0.078517959 -0.049827628 1.4170001 4283915102
-0.075843774 -0.049686972 1.4130001 4284770156
-0.073339298 -0.049651805 1.4120001 4284638313
-0.070587263 -0.04944082 1.406 4284638570
-0.068098404 -0.049405657 1.4050001 4285164915
-0.065566279 -0.049335327 1.4030001 4284967536
-0.063041098 -0.049265001 1.401 4285296502
-0.060652651 -0.049300164 1.4020001 4285757052
-0.058219202 -0.049300164 1.4020001 4285559929
-0.055905122 -0.049405657 1.4050001 4285428600
-0.053542573 -0.049475987 1.4070001 4285757564
-0.051209401 -0.049581479 1.4100001 4285691772
-0.048865817 -0.049686972 1.4130001 4285494393
-0.046446122 -0.049722135 1.414 4285625722
-0.044085179 -0.049827628 1.4170001 4285757565
-0.041684445 -0.049897954 1.419 4285888637
-0.03924913 -0.049933121 1.4200001 4285691258
-0.036862154 -0.050038613 1.4230001 4286086016
-0.034464762 -0.050144102 1.4260001 4286217088
-0.032012086 -0.050179269 1.427 4286282627
-0.029576642 -0.050249595 1.429 4286019455
-0.027134251 -0.050319925 1.4310001 4285953405
-0.024667693 -0.050355088 1.432 4286413957
-0.022197664 -0.050390255 1.4330001 4286348420
-0.14195004 -0.049792934 1.4890001 4284046947
-0.1391784 -0.04972605 1.4870001 4283454810
-0.13641368 -0.049659166 1.485 4283323223
-0.1339263 -0.049692612 1.4860001 4282402120
-0.13134706 -0.049692612 1.4860001 4282796878
-0.12894112 -0.049759489 1.488 4281941825
-0.1263584 -0.049759489 1.488 4282270788
-0.12352613 -0.049659166 1.485 4282139200
-0.12078573 -0.04959229 1.483 4281152305
-0.11813197 -0.049558848 1.4820001 4281349685
-0.11548169 -0.049525406 1.4810001 4281349685
-0.11283489 -0.049491968 1.48 4281086513
-0.11019155 -0.04945853 1.4790001 4281086514
-0.10740615 -0.049358208 1.4760001 4281415479
-0.10434703 -0.049124122 1.4690001 4281941822
-0.10152009 -0.048990358 1.465 4282797132
-0.097490951 -0.048254669 1.4430001 4282797132
-0.094788857 -0.048154347 1.4400001 4283586648
-0.091776729 -0.047886822 1.432 4283389269
-0.089041799 -0.047753058 1.4280001 4284047199
-0.086199515 -0.047552418 1.4220001 4283783772
-0.083495818 -0.047418654 1.4180001 4283980895
-0.080977447 -0.047385216 1.4170001 4284309860
-0.078296311 -0.047251455 1.4130001 4284046688
-0.075629078 -0.047117688 1.409 4284638825
-0.072871834 -0.046917047 1.4030001 4284836204
-0.070386447 -0.046883605 1.4020001 4284704618
-0.067952998 -0.046883605 1.4020001 4285296756
-0.065472811 -0.046850167 1.401 4285099633
-0.063041098 -0.046850167 1.401 4284836461
-0.060609385 -0.046850167 1.401 4285494392
-0.058260728 -0.046917047 1.4030001 4284704876
-0.055905122 -0.046983927 1.4050001 4284704876
-0.053542573 -0.047050811 1.4070001 4285954943
-0.051209401 -0.047151133 1.4100001 4284244325
-0.048831236 -0.04721801 1.4120001 4284704876
-0.046413276 -0.047251455 1.4130001 4286547080
-0.044022959 -0.047318332 1.4150001 4284573290
-0.041625693 -0.047385216 1.4170001 4285297013
-0.03919385 -0.047418654 1.4180001 4286547080
-0.036810346 -0.047518976 1.4210001 4284967535
-0.034392256 -0.04758586 1.4230001 4286020223
-0.031899922 -0.047552418 1.4220001 4287006604
-0.029452458 -0.04758586 1.4230001 4285098351
-0.027001521 -0.047619298 1.424 4286348674
-0.024529886 -0.047619298 1.424 4286348674
-0.022089232 -0.047686178 1.4260001 4285493111
-0.019669143 -0.047819942 1.4300001 4287006604
-0.017199114 -0.04785338 1.4310001 4286480774
-0.014756463 -0.047987144 1.4350001 4286414981
-0.012282832 -0.048054025 1.437 4286810252
-0.0097818216 -0.048020586 1.4360001 4285362806
-0.14175938 -0.047162984 1.4870001 4283915360
-0.1388976 -0.047067832 1.4840001 4282402120
-0.13632183 -0.047067832 1.4840001 4283060049
-0.13383618 -0.047099546 1.485 4282599753
-0.13134706 -0.047131266 1.4860001 4282007616
-0.12885445 -0.047162984 1.4870001 4282468167
-0.12627348 -0.047162984 1.4870001 4282204994
-0.12344295 -0.047067832 1.4840001 4282731337
-0.12070427 -0.047004402 1.4820001 4281547063
-0.11805226 -0.046972681 1.4810001 4281283892
-0.11540372 -0.046940964 1.48 4281152307
-0.11283489 -0.046940964 1.48 4281415479
-0.11011704 -0.046877529 1.478 4281283893
-0.10740615 -0.046814099 1.4760001 4280823342
-0.10456012 -0.046687227 1.4720001 4281481273
-0.10172798 -0.046560362 1.4680001 4282402119
-0.098504364 -0.046243194 1.4580001 4282731341
-0.094920509 -0.045735721 1.442 4283389269
-0.091840826 -0.045450274 1.4330001 4283191890
-0.089041799 -0.045291688 1.4280001 4283323476
-0.086138889 -0.045069668 1.4210001 4283586393
-0.083378054 -0.044911083 1.416 4283849309
-0.080748856 -0.044815935 1.4130001 4284507751
-0.078019261 -0.04465735 1.4080001 4284178785
-0.075253345 -0.044467047 1.4020001 4284902252
-0.072716013 -0.044403616 1.4000001 4284573287
-0.070235834 -0.044371899 1.399 4284770668
-0.067807592 -0.044371899 1.399 4284573289
-0.065379351 -0.044371899 1.399 4284310117
-0.062996097 -0.044403616 1.4000001 4284441703
-0.060566124 -0.044403616 1.4000001 4286020735
-0.058219202 -0.044467047 1.4020001 4282270534
-0.055865329 -0.044530485 1.404 4282665293
-0.053466465 -0.044562198 1.4050001 4282533451
-0.051136766 -0.04465735 1.4080001 4281217334
-0.048762068 -0.044720784 1.4100001 4281414713
-0.046347581 -0.044752501 1.411 4281612092
-0.043960735 -0.044815935 1.4130001 4281217334
-0.041566946 -0.044879369 1.4150001 4282270277
-0.03913857 -0.044911083 1.416 4282599242
-0.036706723 -0.044942804 1.4170001 4281546299
-0.034295578 -0.045006234 1.419 4283322710
-0.031855054 -0.045037955 1.4200001 4283322196
-0.029390363 -0.045037955 1.4200001 4281874750
-0.026925674 -0.045037955 1.4200001 4282466887
-0.024460981 -0.045037955 1.4200001 4282072129
-0.022011781 -0.045069668 1.4210001 4282401094
-0.019572861 -0.045133103 1.4230001 4284045919
-0.017114982 -0.04516482 1.424 4283256403
-0.014663915 -0.04522825 1.4260001 4283454296
-0.012197356 -0.045259971 1.427 4286414981
-0.0097341388 -0.045323402 1.429 4285033328
-0.0072690537 -0.045418553 1.432 4286480774
-0.0047868742 -0.045450274 1.4330001 4285954430
-0.0023092472 -0.045640573 1.439 4285362293
0.00018881567 -0.045735721 1.442 4284967535
0.0026898261 -0.045704007 1.4410001 4282467914
-0.14472865 -0.044719886 1.4910001 4283323223
-0.14156871 -0.044539925 1.485 4283586395
-0.1388976 -0.044509932 1.4840001 4283060049
-0.13632183 -0.044509932 1.4840001 4281876029
-0.13383618 -0.044539925 1.485 4282533959
-0.13134706 -0.044569921 1.4860001 4282994509
-0.12885445 -0.044599913 1.4870001 4282928716
-0.12627348 -0.044599913 1.4870001 4282007614
-0.12344295 -0.044509932 1.4840001 4281547063
-0.12070427 -0.044449951 1.4820001 4282073408
-0.11805226 -0.044419955 1.4810001 4281020721
-0.11532573 -0.044359971 1.4790001 4281283893
-0.1126824 -0.044329975 1.478 4281086514
-0.11011704 -0.044329975 1.478 4281218100
-0.10747891 -0.044299982 1.4770001 4280757549
-0.10463116 -0.04418001 1.473 4281612859
-0.10186658 -0.044090029 1.47 4282204996
-0.098639496 -0.043790098 1.46 4282204996
-0.09505216 -0.043310206 1.4440001 4282928718
-0.091904916 -0.043010276 1.434 4283060304
-0.089166507 -0.042890303 1.4300001 4283652184
-0.086199515 -0.042650353 1.4220001 4283520342
-0.083378054 -0.042470396 1.416 4283980894
-0.080748856 -0.042380419 1.4130001 4284376164
-0.077963844 -0.042200457 1.4070001 4283455062
-0.075199664 -0.0420205 1.401 4284507750
-0.072664075 -0.041960511 1.399 4284310371
-0.070235834 -0.041960511 1.399 4284178784
-0.067807592 -0.041960511 1.399 4284836457
-0.065379351 -0.041960511 1.399 4283455063
-0.062996097 -0.041990507 1.4000001 4284244579
-0.060566124 -0.041990507 1.4000001 4282599498
-0.058177672 -0.0420205 1.401 4280954674
-0.055825539 -0.042080484 1.4030001 4280362025
-0.053428408 -0.042110477 1.404 4280230439
-0.051064126 -0.042170461 1.406 4281217334
-0.048727483 -0.042260442 1.409 4280625197
-0.046314735 -0.042290438 1.4100001 4280033060
-0.043929622 -0.042350423 1.4120001 4281151541
-0.04150819 -0.042380419 1.4130001 4280691245
-0.039083287 -0.042410411 1.414 4280099108
-0.036706723 -0.042500392 1.4170001 4280954417
-0.034295578 -0.042560376 1.419 4280625197
-0.031832624 -0.042560376 1.419 4280690476
-0.029369667 -0.042560376 1.419 4281282613
-0.02690671 -0.042560376 1.419 4280822062
-0.024443755 -0.042560376 1.419 4281479992
-0.022011781 -0.042620361 1.4210001 4281348406
-0.019572861 -0.042680349 1.4230001 4280624683
-0.017102962 -0.042680349 1.4230001 4281151027
-0.014653631 -0.042740334 1.4250001 4281019441
-0.012188808 -0.042770326 1.4260001 4280953648
-0.0097273262 -0.042830314 1.4280001 4281216820
-0.0072589014 -0.042890303 1.4300001 4281611578
-0.0047801933 -0.042920295 1.4310001 4281808957
-0.002302828 -0.043040268 1.4350001 4283980126
0.00018816096 -0.043100253 1.437 4285888123
0.0026804928 -0.04307026 1.4360001 4284901742
-0.15030664 -0.042263005 1.4950001 4283125844
-0.14741537 -0.042178195 1.4920001 4283257429
-0.14443743 -0.042065114 1.488 4283520601
-0.14147338 -0.041952036 1.4840001 4282665548
-0.1388976 -0.041952036 1.4840001 4283586649
-0.13632183 -0.041952036 1.4840001 4282599752
-0.13374606 -0.041952036 1.4840001 4282862923
-0.13117027 -0.041952036 1.4840001 4282402372
-0.12868115 -0.041980304 1.485 4282139200
-0.12610364 -0.041980304 1.485 4282994509
-0.12335977 -0.041923769 1.483 4281547063
-0.12054139 -0.041838959 1.48 4281218099
-0.11789283 -0.041810691 1.4790001 4281481271
-0.11524776 -0.04178242 1.478 4281152307
-0.11260616 -0.041754149 1.4770001 4281086514
-0.11004253 -0.041754149 1.4770001 4280625963
-0.10747891 -0.041754149 1.4770001 4280889135
-0.10470218 -0.041669343 1.4740001 4281415481
-0.10200518 -0.0416128 1.4720001 4281612604
-0.098909736 -0.041386645 1.4640001 4282402375
-0.095644593 -0.04107568 1.4530001 4282928718
-0.092097186 -0.040623367 1.437 4283191890
-0.088917084 -0.040312402 1.4260001 4283060048
-0.086199515 -0.040199324 1.4220001 4283257683
-0.083319165 -0.040001437 1.4150001 4283389269
-0.08069171 -0.039916627 1.4120001 4284310371
-0.077963844 -0.039775282 1.4070001 4283586648
-0.07514599 -0.039577395 1.4000001 4284441957
-0.072612137 -0.039520856 1.3980001 4284441957
-0.070135422 -0.039492585 1.3970001 4283981406
-0.067759119 -0.039520856 1.3980001 4285560436
-0.065332614 -0.039520856 1.3980001 4281876030
-0.062861107 -0.039492585 1.3970001 4280954928
-0.060436338 -0.039492585 1.3970001 4281218100
-0.058011569 -0.039492585 1.3970001 4282731084
-0.05562659 -0.039520856 1.3980001 4284178275
-0.053238139 -0.039549123 1.399 4283980639
-0.050918855 -0.039633933 1.4020001 4283651675
-0.048554566 -0.039690472 1.404 4284243812
-0.046150498 -0.03971874 1.4050001 4284112226
-0.043836284 -0.039831817 1.409 4283388503
-0.041478816 -0.039916627 1.4120001 4283454551
-0.039055649 -0.039944898 1.4130001 4283651674
-0.036654919 -0.040001437 1.4150001 4283520089
-0.034223072 -0.040029705 1.416 4283848540
-0.031765323 -0.040029705 1.416 4283980126
-0.029307574 -0.040029705 1.416 4284638056
-0.026849827 -0.040029705 1.416 4284243298
-0.024392078 -0.040029705 1.416 4285427572
-0.02196531 -0.040086247 1.4180001 4286019709
-0.019531598 -0.040142786 1.4200001 4285230193
-0.017078925 -0.040171053 1.4210001 4285822330
-0.01462278 -0.040199324 1.4220001 4285295986
-0.012163165 -0.040227596 1.4230001 4285361779
-0.0097000785 -0.040255863 1.424 4285690744
-0.007233521 -0.040284131 1.4250001 4283979872
-0.0047601503 -0.040284131 1.4250001 4283650906
-0.0022883853 -0.040312402 1.4260001 4282466887
0.00018711344 -0.040397208 1.429 4282203715
0.002669293 -0.040425483 1.4300001 4282532680
-0.15030664 -0.039686147 1.4950001 4282994258
-0.14731658 -0.039579961 1.4910001 4283060051
-0.1442433 -0.039447233 1.4860001 4283389014
-0.14137806 -0.039367594 1.483 4282862925
-0.13880402 -0.039367594 1.483 4282270788
-0.13622998 -0.039367594 1.483 4282862924
-0.1335658 -0.039341051 1.4820001 4282007614
-0.13099349 -0.039341051 1.4820001 4282336579
-0.12850785 -0.039367594 1.483 4282533958
-0.12601872 -0.03939414 1.4840001 4282533958
-0.12327658 -0.039341051 1.4820001 4282994509
-0.12054139 -0.039287958 1.48 4281481270
-0.11789283 -0.039261412 1.4790001 4281349685
-0.11516979 -0.039208319 1.4770001 4281086514
-0.11260616 -0.039208319 1.4770001 4281349686
-0.11004253 -0.039208319 1.4770001 4280954928
-0.10740615 -0.039181773 1.4760001 4280954928
-0.10477322 -0.039155226 1.475 4280823343
-0.10207447 -0.039102137 1.473 4281349686
-0.099112421 -0.038942859 1.4670001 4282007616
-0.095973715 -0.038703945 1.4580001 4282928718
-0.092289455 -0.03822612 1.4400001 4282862925
-0.089041799 -0.037907567 1.4280001 4282928718
-0.086320743 -0.037801385 1.424 4283718235
-0.083378054 -0.037589017 1.416 4282796877
-0.080748856 -0.037509382 1.4130001 4283981407
-0.077963844 -0.037350107 1.4070001 4283323221
-0.07514599 -0.037164286 1.4000001 4283849566
-0.072560191 -0.037084647 1.3970001 4284112738
-0.07008522 -0.0370581 1.396 4283586649
-0.067662187 -0.0370581 1.396 4283586648
-0.065192416 -0.037031554 1.3950001 4281415479
-0.062681124 -0.036978461 1.393 4283849820
-0.060263298 -0.036978461 1.393 4283849820
-0.05784547 -0.036978461 1.393 4284178786
-0.055467431 -0.037005007 1.3940001 4285757306
-0.053009812 -0.036978461 1.393 4284309604
-0.05070094 -0.0370581 1.396 4285625208
-0.04845082 -0.037190828 1.401 4285559158
-0.046084803 -0.037243918 1.4030001 4283717211
-0.043774065 -0.037350107 1.4070001 4285493622
-0.041420065 -0.037429743 1.4100001 4285888380
-0.03900037 -0.037456289 1.411 4284374884
-0.036603108 -0.037509382 1.4130001 4284835435
-0.034150567 -0.037509382 1.4130001 4285821817
-0.031720456 -0.037535928 1.414 4284900715
-0.029245483 -0.037509382 1.4130001 4284769129
-0.026792942 -0.037509382 1.4130001 4285361779
-0.024357624 -0.037535928 1.414 4285164400
-0.021934329 -0.037589017 1.416 4285295986
-0.019504089 -0.03764211 1.4180001 4285822330
-0.017054887 -0.037668653 1.419 4285230193
-0.014602215 -0.037695203 1.4200001 4285756537
-0.012137523 -0.037695203 1.4200001 4285624697
-0.0096728317 -0.037695203 1.4200001 4285164146
-0.0072132163 -0.037721746 1.4210001 4285690490
-0.0047467886 -0.037721746 1.4210001 4285953662
-0.0022835708 -0.037774842 1.4230001 4285690490
0.00018645875 -0.037801385 1.424 4286085248
0.0026636932 -0.037881024 1.427 4285361524
0.0051585464 -0.038013753 1.432 4284374884
0.0076547423 -0.038066845 1.434 4282993231
0.010150808 -0.038093388 1.4350001 4283849054
-0.14980395 -0.036985178 1.4900001 4283191636
-0.14692135 -0.036910709 1.4870001 4283125843
-0.14404915 -0.03683624 1.4840001 4282994257
-0.14137806 -0.036811423 1.483 4283191891
-0.13880402 -0.036811423 1.483 4282402374
-0.1361381 -0.036786601 1.4820001 4282270787
-0.13347568 -0.036761776 1.4810001 4282533958
-0.13090511 -0.036761776 1.4810001 4282862923
-0.12833454 -0.036761776 1.4810001 4282599751
-0.12584889 -0.036786601 1.4820001 4281744443
-0.12327658 -0.036786601 1.4820001 4282599752
-0.12054139 -0.036736954 1.48 4282270787
-0.11789283 -0.036712132 1.4790001 4281349685
-0.11524776 -0.036687307 1.478 4281876028
-0.11260616 -0.036662485 1.4770001 4281218099
-0.11004253 -0.036662485 1.4770001 4281349685
-0.10747891 -0.036662485 1.4770001 4281086513
-0.10477322 -0.036612842 1.475 4280823341
-0.10214376 -0.036588021 1.4740001 4281547064
-0.099247545 -0.036463909 1.4690001 4281612856
-0.096105374 -0.036240511 1.46 4281941821
-0.092353545 -0.035768885 1.4410001 4282928718
-0.089104146 -0.035471018 1.429 4283191890
-0.086441979 -0.03539655 1.4260001 4283652186
-0.083495818 -0.035197973 1.4180001 4282007362
-0.080863155 -0.035123505 1.4150001 4283060051
-0.078019261 -0.03494975 1.4080001 4283454809
-0.075199664 -0.034775995 1.401 4283652187
-0.072612137 -0.03470153 1.3980001 4284244324
-0.070135422 -0.034676708 1.3970001 4281217845
-0.067662187 -0.034651883 1.396 4281283893
-0.065145679 -0.03460224 1.3940001 4283586391
-0.062636122 -0.034552593 1.3920001 4284638823
-0.060220033 -0.034552593 1.3920001 4284112735
-0.057720892 -0.03450295 1.3900001 4285691513
-0.055387851 -0.034552593 1.3920001 4284309347
-0.053009812 -0.034577414 1.393 4284901227
-0.05070094 -0.034651883 1.396 4285888123
-0.04845082 -0.034775995 1.401 4284440422
-0.046084803 -0.034825638 1.4030001 4284703850
-0.043774065 -0.034924928 1.4070001 4286217088
-0.041420065 -0.034999397 1.4100001 4284111712
-0.03900037 -0.035024218 1.411 4284571750
-0.036603108 -0.035073865 1.4130001 4286282370
-0.034174733 -0.035098683 1.414 4284374373
-0.031720456 -0.035098683 1.414 4284571752
-0.029266179 -0.035098683 1.414 4285427061
-0.026811901 -0.035098683 1.414 4284637802
-0.02437485 -0.035123505 1.4150001 4284966767
-0.021949818 -0.035173152 1.4170001 4285493111
-0.019517843 -0.035222795 1.419 4284243043
-0.017054887 -0.035222795 1.419 4285098353
-0.014591931 -0.035222795 1.419 4285822076
-0.012128975 -0.035222795 1.419 4284374630
-0.0096728317 -0.03524762 1.4200001 4284703595
-0.0072132163 -0.035272442 1.4210001 4285163889
-0.0047467886 -0.035272442 1.4210001 4284571752
-0.0022819662 -0.03529726 1.4220001 4285427318
0.00018632782 -0.035322085 1.4230001 4285361525
0.0026618266 -0.03539655 1.4260001 4284703595
0.0051477393 -0.035471018 1.429 4285295986
0.0076333904 -0.03549584 1.4300001 4285361779
0.010136659 -0.035570309 1.4330001 4284967021
-0.15239014 -0.034416936 1.4900001 4283060050
-0.14920071 -0.034278344 1.4840001 4283652187
-0.14652613 -0.034255248 1.483 4284507495
-0.14375795 -0.03420905 1.4810001 4283125843
-0.14128271 -0.034232151 1.4820001 4282138947
-0.13871041 -0.034232151 1.4820001 4282928462
-0.13604625 -0.03420905 1.4810001 4282599753
-0.13329542 -0.034162853 1.4790001 4282994511
-0.13072832 -0.034162853 1.4790001 4282402372
-0.12824789 -0.03418595 1.48 4282797130
-0.12576397 -0.03420905 1.4810001 4282336580
-0.1231934 -0.03420905 1.4810001 4281547064
-0.12054139 -0.03418595 1.48 4282073407
-0.11789283 -0.034162853 1.4790001 4282402373
-0.11524776 -0.034139752 1.478 4281744442
-0.11260616 -0.034116656 1.4770001 4281612856
-0.11011704 -0.034139752 1.478 4280889132
-0.10747891 -0.034116656 1.4770001 4280823339
-0.10477322 -0.034070458 1.475 4281349682
-0.10214376 -0.034047358 1.4740001 4281152303
-0.099382661 -0.033978064 1.4710001 4281086511
-0.09636867 -0.033816371 1.4640001 4281876029
-0.092673995 -0.033400599 1.4460001 4282402374
-0.089415923 -0.033123415 1.434 4282533705
-0.086684458 -0.03303102 1.4300001 4282928464
-0.083672464 -0.032823134 1.4210001 4282599499
-0.080977447 -0.03273074 1.4170001 4283257173
-0.078130081 -0.032569051 1.4100001 4283257430
-0.075253345 -0.032384258 1.4020001 4283323223
-0.072664075 -0.032314964 1.399 4283652187
-0.070135422 -0.032268766 1.3970001 4282336327
-0.067662187 -0.032245666 1.396 4283520599
-0.065098956 -0.032176372 1.393 4284573288
-0.062546134 -0.032107078 1.3900001 4283520344
-0.060133513 -0.032107078 1.3900001 4284638823
-0.057762414 -0.032130174 1.391 4284638825
-0.055427637 -0.032176372 1.393 4284901228
-0.053123977 -0.032245666 1.396 4285822330
-0.050846215 -0.032338064 1.4000001 4285164145
-0.048554566 -0.032430455 1.404 4284769388
-0.046183344 -0.032476652 1.406 4285887869
-0.043836284 -0.032545947 1.409 4285032816
-0.041449439 -0.032592148 1.411 4284440423
-0.039028011 -0.032615244 1.4120001 4285361268
-0.036603108 -0.032638345 1.4130001 4285229682
-0.034150567 -0.032638345 1.4130001 4283782236
-0.031698026 -0.032638345 1.4130001 4285821819
-0.029245483 -0.032638345 1.4130001 4285098096
-0.026811901 -0.032661442 1.414 4283716189
-0.02437485 -0.032684542 1.4150001 4285822078
-0.021934329 -0.032707639 1.416 4284111460
-0.019490335 -0.03273074 1.4170001 4283782494
-0.01703085 -0.03273074 1.4170001 4286348420
-0.01458165 -0.032753836 1.4180001 4284243044
-0.012120428 -0.032753836 1.4180001 4283716700
-0.0096660191 -0.032776933 1.419 4285756283
-0.0072030635 -0.032776933 1.419 4283321685
-0.0047434485 -0.032800034 1.4200001 4284440166
-0.0022803615 -0.032823134 1.4210001 4285756285
0.00018619686 -0.032846231 1.4220001 4283321944
0.0026562265 -0.032869332 1.4230001 4285032303
0.0051333299 -0.032915525 1.4250001 4285558647
0.0076120379 -0.032938626 1.4260001 4284308578
0.010115439 -0.03303102 1.4300001 4286282881
0.012650345 -0.033169612 1.4360001 4286217088
0.015174443 -0.033238906 1.439 4286480774
0.017721236 -0.033331305 1.4430001 4284638572
-0.15198104 -0.0317632 1.4860001 4282731342
-0.14899963 -0.031677701 1.4820001 4282204741
-0.14632852 -0.031656321 1.4810001 4282928464
-0.14366089 -0.031634949 1.48 4283060051
-0.14109206 -0.031634949 1.48 4282138949
-0.13842961 -0.031613573 1.4790001 4282073155
-0.13577066 -0.031592198 1.478 4282467912
-0.13311519 -0.031570822 1.4770001 4282468168
-0.13063994 -0.031592198 1.478 4283126097
-0.12816122 -0.031613573 1.4790001 4282533959
-0.12567906 -0.031634949 1.48 4282533958
-0.12311022 -0.031634949 1.48 4282007614
-0.12045993 -0.031613573 1.4790001 4282139200
-0.11789283 -0.031613573 1.4790001 4281744442
-0.11524776 -0.031592198 1.478 4281086512
-0.1126824 -0.031592198 1.478 4281612855
-0.11004253 -0.031570822 1.4770001 4282007612
-0.10740615 -0.03154945 1.4760001 4281152303
-0.10477322 -0.031528071 1.475 4280823338
-0.10214376 -0.031506699 1.4740001 4280757545
-0.099315107 -0.031421199 1.47 4280757547
-0.09636867 -0.031292949 1.4640001 4281218098
-0.092802174 -0.030950949 1.4480001 4281678651
-0.089540631 -0.030694451 1.4360001 4282073409
-0.086745076 -0.030587574 1.4310001 4282533706
-0.083731346 -0.030395199 1.4220001 4282994257
-0.081034593 -0.030309699 1.4180001 4282665293
-0.078240909 -0.030181451 1.4120001 4282928465
-0.075521722 -0.030074576 1.4070001 4282665293
-0.072767951 -0.029946327 1.401 4282270535
-0.070135422 -0.029860828 1.3970001 4282796878
-0.067613713 -0.029818077 1.3950001 4283191636
-0.065098956 -0.029775325 1.393 4284704618
-0.062636122 -0.029753951 1.3920001 4284638570
-0.060263298 -0.029775325 1.393 4285625721
-0.057886992 -0.029796703 1.3940001 4286086016
-0.051209401 -0.030138701 1.4100001 4285493111
-0.048865817 -0.030202826 1.4130001 4285690490
-0.046446122 -0.0302242 1.414 4284835181
-0.044022959 -0.030245574 1.4150001 4285427318
-0.041566946 -0.030245574 1.4150001 4284769388
-0.039083287 -0.0302242 1.414 4284834924
-0.036603108 -0.030202826 1.4130001 4284440166
-0.034126397 -0.030181451 1.4120001 4284966510
-0.031675592 -0.030181451 1.4120001 4285032303
-0.029245483 -0.030202826 1.4130001 4284111201
-0.026792942 -0.030202826 1.4130001 4284637291
-0.024340399 -0.030202826 1.4130001 4285295734
-0.021903347 -0.0302242 1.414 4283585116
-0.019462824 -0.030245574 1.4150001 4285361525
-0.017006811 -0.030245574 1.4150001 4285558904
-0.014561082 -0.03026695 1.416 4283914079
-0.012103333 -0.03026695 1.416 4284966767
-0.0096592074 -0.030309699 1.4180001 4284835181
-0.0072030635 -0.030331073 1.419 4283519064
-0.0047467886 -0.030373825 1.4210001 4285624440
-0.0022819662 -0.030395199 1.4220001 4284835181
0.00018632782 -0.030416576 1.4230001 4284966767
0.0026599597 -0.030459324 1.4250001 4285624440
0.0051405346 -0.030502075 1.427 4285492854
0.0076280516 -0.030544823 1.429 4285953403
0.010136659 -0.030630326 1.4330001 4286348674
0.012659153 -0.030715825 1.437 4285822330
0.015184987 -0.03077995 1.4400001 4286020223
0.017733516 -0.030865449 1.4440001 4286480774
0.020295931 -0.030950949 1.4480001 4286086018
0.022824973 -0.030972322 1.4490001 4286809741
0.025392465 -0.031036448 1.452 4293060335
0.027951147 -0.031079199 1.4540001 4293191921
0.030432934 -0.031036448 1.452 4292468711
-0.16025621 -0.029300109 1.4910001 4282994514
-0.15724528 -0.029221505 1.4870001 4283389785
-0.15445627 -0.029182201 1.485 4282337097
-0.15157193 -0.02912325 1.4820001 4282863441
-0.14879856 -0.029083945 1.48 4282995027
-0.14622973 -0.029083945 1.48 4283323479
-0.14346676 -0.029044641 1.478 4282533707
-0.14090139 -0.029044641 1.478 4282994258
-0.13833602 -0.029044641 1.478 4282204742
-0.13577066 -0.029044641 1.478 4282599500
-0.13320529 -0.029044641 1.478 4282862671
-0.13063994 -0.029044641 1.478 4282928463
-0.12816122 -0.029064296 1.4790001 4282402375
-0.12567906 -0.029083945 1.48 4281744444
-0.12311022 -0.029083945 1.48 4282797132
-0.12054139 -0.029083945 1.48 4281876029
-0.11797255 -0.029083945 1.48 4281876028
-0.11532573 -0.029064296 1.4790001 4282139200
-0.1126824 -0.029044641 1.478 4280954925
-0.11011704 -0.029044641 1.478 4281547061
-0.10747891 -0.029024992 1.4770001 4281810233
-0.10477322 -0.028985688 1.475 4280691752
-0.10207447 -0.028946387 1.473 4281283889
-0.099315107 -0.028887432 1.47 4280823338
-0.096500322 -0.028808828 1.4660001 4280889132
-0.093763523 -0.028749874 1.4630001 4281152306
-0.089602984 -0.028238939 1.437 4281941823
-0.08692693 -0.028179985 1.434 4281941824
-0.084084645 -0.028062077 1.4280001 4282402120
-0.081320331 -0.027963821 1.4230001 4282533707
-0.078407139 -0.02780661 1.4150001 4282994258
-0.075629078 -0.027688703 1.409 4281678398
-0.072819896 -0.027551142 1.4020001 4281612605
-0.070235834 -0.02749219 1.399 4283191636
-0.067710653 -0.027452886 1.3970001 4282401863
-0.065192416 -0.027413584 1.3950001 4283849054
-0.062816113 -0.027433235 1.396 4284375398
-0.060436338 -0.027452886 1.3970001 4284967535
-0.058011569 -0.027452886 1.3970001 4285691258
-0.05146363 -0.027845912 1.4170001 4285756283
-0.049073312 -0.027885215 1.419 4284045920
-0.046643205 -0.027904866 1.4200001 4284703849
-0.044178512 -0.027904866 1.4200001 4285032815
-0.041655071 -0.027865564 1.4180001 4284637802
-0.039166208 -0.027845912 1.4170001 4284571752
-0.036654919 -0.02780661 1.4150001 4284571752
-0.034150567 -0.027767308 1.4130001 4285163889
-0.031698026 -0.027767308 1.4130001 4284374373
-0.029224787 -0.027747655 1.4120001 4284834924
-0.026792942 -0.027767308 1.4130001 4285163889
-0.024357624 -0.027786959 1.414 4284111458
-0.021918837 -0.02780661 1.4150001 4285229939
-0.019462824 -0.02780661 1.4150001 4284769388
-0.01701883 -0.027826261 1.416 4284572009
-0.014571366 -0.027845912 1.4170001 4285558904
-0.012111881 -0.027845912 1.4170001 4284966767
-0.0096660191 -0.027885215 1.419 4284637545
-0.0072081401 -0.027904866 1.4200001 4286282370
-0.0047501293 -0.02794417 1.4220001 4285427061
-0.0022851757 -0.027983472 1.424 4285361525
0.00018658969 -0.028003123 1.4250001 4286085248
0.0026636932 -0.028042426 1.427 4286217088
0.0051513417 -0.028101379 1.4300001 4285559158
0.0076440661 -0.028140683 1.432 4285624951
0.010164955 -0.028238939 1.437 4286282881
0.01269439 -0.028317545 1.4410001 4285559672
0.015216623 -0.028356848 1.4430001 4286020223
0.017758079 -0.028415803 1.4460001 4285889150
0.020309947 -0.028474754 1.4490001 4285757564
0.022824973 -0.028474754 1.4490001 4286020736
0.025357489 -0.028494406 1.45 4284375913
0.02787425 -0.028494406 1.45 4288126114
0.030391013 -0.028494406 1.45 4291218899
-0.16487728 -0.02664051 1.4860001 4283520602
-0.16240725 -0.026658436 1.4870001 4283520601
-0.15950382 -0.026604652 1.4840001 4283257429
-0.15650506 -0.026532942 1.48 4282994257
-0.1538322 -0.026515014 1.4790001 4282271047
-0.15116283 -0.026497088 1.478 4282271304
-0.14849694 -0.02647916 1.4770001 4282797649
-0.14593332 -0.02647916 1.4770001 4282797136
-0.14336969 -0.02647916 1.4770001 4282270535
-0.14080606 -0.02647916 1.4770001 4282270535
-0.13824244 -0.02647916 1.4770001 4282994258
-0.13567881 -0.02647916 1.4770001 4282402121
-0.13320529 -0.026497088 1.478 4282204741
-0.13063994 -0.026497088 1.478 4282402120
-0.12807457 -0.026497088 1.478 4283125843
-0.12550922 -0.026497088 1.478 4282402120
-0.12302703 -0.026515014 1.4790001 4282007361
-0.12045993 -0.026515014 1.4790001 4282731340
-0.11797255 -0.026532942 1.48 4282533960
-0.11532573 -0.026515014 1.4790001 4281744956
-0.1126824 -0.026497088 1.478 4282205507
-0.11011704 -0.026497088 1.478 4280692267
-0.10733338 -0.026443304 1.475 4281284404
-0.10470218 -0.026425377 1.4740001 4281744954
-0.10207447 -0.02640745 1.473 4281087023
-0.099382661 -0.026371593 1.4710001 4281020717
-0.096631974 -0.026317813 1.4680001 4281283889
-0.093955792 -0.026281955 1.4660001 4280889133
-0.090538293 -0.026030969 1.452 4281415477
-0.087775595 -0.025959257 1.4480001 4281678651
-0.084261291 -0.025654487 1.4310001 4282139202
-0.081606068 -0.025600703 1.4280001 4283060050
-0.078684196 -0.025457282 1.4200001 4282994257
-0.075897448 -0.025349718 1.414 4282402121
-0.073287353 -0.025295934 1.411 4282336328
-0.070436649 -0.025152512 1.4030001 4283388503
-0.067952998 -0.025134584 1.4020001 4283059538
