# .PCD v0.7 - Point Cloud Data file format
VERSION 0.7
FIELDS x y z rgba
SIZE 4 4 4 4
TYPE F F F U
COUNT 1 1 1 1
WIDTH 1094
HEIGHT 1
VIEWPOINT 0 0 0 1 0 0 0
POINTS 1094
DATA ascii
-0.04845082 0.04008387 1.401 4288192158
-0.047234964 0.04008387 1.401 4289705397
-0.046019107 0.04008387 1.401 4289112747
-0.044739291 0.04002665 1.399 4287928986
-0.043525171 0.04002665 1.399 4288981931
-0.042250562 0.039969426 1.3970001 4289442995
-0.041038178 0.039969426 1.3970001 4288981674
-0.039854299 0.039998036 1.3980001 4287468691
-0.038696326 0.040055256 1.4000001 4288719529
-0.037508108 0.04008387 1.401 4289771960
-0.036292251 0.04008387 1.401 4288784041
-0.035176545 0.040198315 1.4050001 4287665560
-0.033981383 0.040226925 1.406 4288718248
-0.03280779 0.040284146 1.4080001 4290034109
-0.030428622 0.04036998 1.411 4287731354
-0.029224787 0.04039859 1.4120001 4288586150
-0.17267664 0.042234413 1.4330001 4290954704
-0.17107412 0.042145994 1.4300001 4288783277
-0.16959555 0.042087052 1.4280001 4288256932
-0.1676489 0.041910216 1.4220001 4288585128
-0.16618074 0.041851267 1.4200001 4288847789
-0.1649484 0.041851267 1.4200001 4288978607
-0.16348547 0.041792322 1.4180001 4289372853
-0.16202602 0.04173338 1.416 4289372854
-0.16057003 0.041674431 1.414 4288584363
-0.15934289 0.041674431 1.414 4288388261
-0.15811574 0.041674431 1.414 4289310899
-0.1568886 0.041674431 1.414 4289377970
-0.15566146 0.041674431 1.414 4288588454
-0.15443432 0.041674431 1.414 4288718248
-0.15320718 0.041674431 1.414 4289111981
-0.15198006 0.041674431 1.414 4288849065
-0.15075292 0.041674431 1.414 4288849064
-0.14952578 0.041674431 1.414 4289900982
-0.14829864 0.041674431 1.414 4290031798
-0.1470715 0.041674431 1.414 4288978853
-0.14574122 0.041644957 1.4130001 4289307817
-0.14451495 0.041644957 1.4130001 4290163637
-0.14328867 0.041644957 1.4130001 4289571502
-0.14206241 0.041644957 1.4130001 4288320670
-0.14073646 0.041615486 1.4120001 4288715430
-0.13951105 0.041615486 1.4120001 4289571505
-0.13818772 0.041586015 1.411 4289309610
-0.13696319 0.041586015 1.411 4288981158
-0.13573864 0.041586015 1.411 4289704881
-0.13441879 0.041556541 1.4100001 4289506991
-0.13319512 0.041556541 1.4100001 4288256157
-0.13197145 0.041556541 1.4100001 4288387746
-0.13074778 0.041556541 1.4100001 4289243054
-0.12952411 0.041556541 1.4100001 4289440944
-0.12830044 0.041556541 1.4100001 4288914854
-0.12725702 0.041615486 1.4120001 4289440944
-0.12603162 0.041615486 1.4120001 4289572529
-0.12480622 0.041615486 1.4120001 4288586403
-0.12366834 0.041644957 1.4130001 4288454815
-0.12244207 0.041644957 1.4130001 4289573554
-0.12121581 0.041644957 1.4130001 4289639604
-0.11998953 0.041644957 1.4130001 4288127907
-0.1186792 0.041615486 1.4120001 4287602077
-0.1174538 0.041615486 1.4120001 4289509559
-0.11614609 0.041586015 1.411 4289443766
-0.11484011 0.041556541 1.4100001 4287929502
-0.11353586 0.04152707 1.409 4288390053
-0.11223335 0.041497596 1.4080001 4288982190
-0.11101142 0.041497596 1.4080001 4288258980
-0.10971151 0.041468121 1.4070001 4287734175
-0.10849044 0.041468121 1.4070001 4289116341
-0.10719314 0.04143865 1.406 4289248183
-0.1058222 0.041379705 1.404 4287931296
-0.10452924 0.041350234 1.4030001 4287864220
-0.10331164 0.041350234 1.4030001 4289705140
-0.10194851 0.041291285 1.401 4289837238
-0.10073265 0.041291285 1.401 4288587171
-0.099516802 0.041291285 1.401 4288587684
-0.098300941 0.041291285 1.401 4289442993
-0.097085088 0.041291285 1.401 4289113260
-0.095869228 0.041291285 1.401 4287534228
-0.094720937 0.04132076 1.4020001 4288652709
-0.093504213 0.04132076 1.4020001 4290034362
-0.092287488 0.04132076 1.4020001 4289047467
-0.091070764 0.04132076 1.4020001 4288389537
-0.089854039 0.04132076 1.4020001 4289047210
-0.088637315 0.04132076 1.4020001 4289310382
-0.08742059 0.04132076 1.4020001 4288191645
-0.086142376 0.041291285 1.401 4288323231
-0.084926516 0.041291285 1.401 4289770677
-0.083710663 0.041291285 1.401 4289573298
-0.082494803 0.041291285 1.401 4287664531
-0.081336968 0.04132076 1.4020001 4288520096
-0.080120243 0.04132076 1.4020001 4289968056
-0.078903519 0.04132076 1.4020001 4289507505
-0.077742204 0.041350234 1.4030001 4288322204
-0.076579154 0.041379705 1.404 4288848805
-0.075360693 0.041379705 1.404 4290427839
-0.074195042 0.04140918 1.4050001 4289244335
-0.072923772 0.041379705 1.404 4288389026
-0.071705312 0.041379705 1.404 4289573300
-0.070436649 0.041350234 1.4030001 4289900983
-0.069169722 0.04132076 1.4020001 4287861913
-0.067952998 0.04132076 1.4020001 4287532948
-0.066688672 0.041291285 1.401 4289968316
-0.065426074 0.041261811 1.4000001 4290034109
-0.064211085 0.041261811 1.4000001 4287863710
-0.062996097 0.041261811 1.4000001 4287599768
-0.061781112 0.041261811 1.4000001 4289244593
-0.060566124 0.041261811 1.4000001 4288981420
-0.059351135 0.041261811 1.4000001 4288191904
-0.058136143 0.041261811 1.4000001 4288981420
-0.056921154 0.041261811 1.4000001 4290099901
-0.055745959 0.041291285 1.401 4289442225
-0.054530103 0.041291285 1.401 4288257951
-0.053314246 0.041291285 1.401 4288981674
-0.05209839 0.041291285 1.401 4289968569
-0.050882533 0.041291285 1.401 4288389281
-0.049666677 0.041291285 1.401 4287600021
-0.048416238 0.041261811 1.4000001 4289310639
-0.04720125 0.041261811 1.4000001 4289508788
-0.045986261 0.041261811 1.4000001 4287929499
-0.044707309 0.041202869 1.3980001 4287798170
-0.043462947 0.041173395 1.3970001 4289507505
-0.042220321 0.041143924 1.396 4289310383
-0.041038178 0.041173395 1.3970001 4287993753
-0.039825793 0.041173395 1.3970001 4287862680
-0.038668688 0.041232344 1.399 4290033849
-0.037454568 0.041232344 1.399 4289376432
-0.036266349 0.041261811 1.4000001 4287731094
-0.035151504 0.041379705 1.404 4288652196
-0.033957217 0.04140918 1.4050001 4289705143
-0.032761186 0.04143865 1.406 4289178799
-0.031630725 0.041556541 1.4100001 4287468182
-0.030407058 0.041556541 1.4100001 4288389284
-0.029204087 0.041586015 1.411 4290296254
-0.17107412 0.043378405 1.4300001 4288059557
-0.16959555 0.043317735 1.4280001 4288322215
-0.1674131 0.043075059 1.4200001 4288782253
-0.16618074 0.043075059 1.4200001 4288781229
-0.1649484 0.043075059 1.4200001 4289043376
-0.16348547 0.043014392 1.4180001 4289635001
-0.16202602 0.042953722 1.416 4289240498
-0.16057003 0.042893052 1.414 4288254627
-0.15934289 0.042893052 1.414 4288848042
-0.15811574 0.042893052 1.414 4289573557
-0.1568886 0.042893052 1.414 4289114796
-0.15566146 0.042893052 1.414 4288785830
-0.15443432 0.042893052 1.414 4289179054
-0.15320718 0.042893052 1.414 4289374897
-0.15198006 0.042893052 1.414 4288847785
-0.15075292 0.042893052 1.414 4289176492
-0.14963152 0.042923387 1.4150001 4289768630
-0.14829864 0.042893052 1.414 4288782248
-0.1470715 0.042893052 1.414 4288058267
-0.14574122 0.042862717 1.4130001 4289374894
-0.14451495 0.042862717 1.4130001 4289902517
-0.14328867 0.042862717 1.4130001 4289113258
-0.14206241 0.042862717 1.4130001 4288913832
-0.14073646 0.042832386 1.4120001 4289439154
-0.13951105 0.042832386 1.4120001 4289307823
-0.13818772 0.042802051 1.411 4288848038
-0.13696319 0.042802051 1.411 4289506738
-0.13573864 0.042802051 1.411 4290033593
-0.13441879 0.042771712 1.4100001 4288914599
-0.13319512 0.042771712 1.4100001 4288190619
-0.13187784 0.042741381 1.409 4289111466
-0.13065505 0.042741381 1.409 4289309102
-0.12952411 0.042771712 1.4100001 4288717219
-0.12820944 0.042741381 1.409 4288586146
-0.1271669 0.042802051 1.411 4289638836
-0.12594236 0.042802051 1.411 4289441455
-0.12480622 0.042832386 1.4120001 4288389279
-0.12366834 0.042862717 1.4130001 4289178795
-0.12244207 0.042862717 1.4130001 4289968313
-0.12121581 0.042862717 1.4130001 4289310385
-0.1199046 0.042832386 1.4120001 4287994782
-0.1186792 0.042832386 1.4120001 4289048496
-0.1174538 0.042832386 1.4120001 4289838010
-0.11606377 0.042771712 1.4100001 4288587943
-0.11475865 0.042741381 1.409 4288126367
-0.11345528 0.042711046 1.4080001 4288915883
-0.11223335 0.042711046 1.4080001 4288981164
-0.11101142 0.042711046 1.4080001 4287731610
-0.10971151 0.042680711 1.4070001 4288457128
-0.10841334 0.042650379 1.406 4289445049
-0.1071169 0.04262004 1.4050001 4288984497
-0.10574683 0.042559374 1.4030001 4287536795
-0.10452924 0.042559374 1.4030001 4288522152
-0.10323801 0.042529039 1.4020001 4289376945
-0.10194851 0.042498704 1.401 4288785064
-0.10073265 0.042498704 1.401 4288324512
-0.099516802 0.042498704 1.401 4289444021
-0.098230779 0.042468369 1.4000001 4289576121
-0.097085088 0.042498704 1.401 4287864988
-0.095869228 0.042498704 1.401 4287602073
-0.094653375 0.042498704 1.401 4289246128
-0.093437515 0.042498704 1.401 4289048748
-0.092221662 0.042498704 1.401 4287798170
-0.091005802 0.042498704 1.401 4288784809
-0.089789949 0.042498704 1.401 4289705911
-0.088510863 0.042468369 1.4000001 4289311409
-0.087295875 0.042468369 1.4000001 4288126365
-0.086080886 0.042468369 1.4000001 4289179053
-0.084865898 0.042468369 1.4000001 4289639347
-0.083710663 0.042498704 1.401 4287665814
-0.082494803 0.042498704 1.401 4287205776
-0.081336968 0.042529039 1.4020001 4289113773
-0.080120243 0.042529039 1.4020001 4290165948
-0.078903519 0.042529039 1.4020001 4288586916
-0.077742204 0.042559374 1.4030001 4288519840
-0.076579154 0.042589705 1.404 4289836213
-0.075360693 0.042589705 1.404 4289967801
-0.074195042 0.04262004 1.4050001 4288586405
-0.072923772 0.042589705 1.404 4289177772
-0.071705312 0.042589705 1.404 4290230204
-0.070436649 0.042559374 1.4030001 4289110954
-0.069169722 0.042529039 1.4020001 4287532179
-0.067952998 0.042529039 1.4020001 4287796634
-0.066688672 0.042498704 1.401 4290231488
-0.065426074 0.042468369 1.4000001 4289245106
-0.064211085 0.042468369 1.4000001 4288258468
-0.062996097 0.042468369 1.4000001 4289178287
-0.061781112 0.042468369 1.4000001 4289244080
-0.060566124 0.042468369 1.4000001 4288059291
-0.059351135 0.042468369 1.4000001 4288388000
-0.058136143 0.042468369 1.4000001 4290426556
-0.056921154 0.042468369 1.4000001 4290361019
-0.055706169 0.042468369 1.4000001 4288322207
-0.054491181 0.042468369 1.4000001 4288586405
-0.053314246 0.042498704 1.401 4290034105
-0.05209839 0.042498704 1.401 4288981417
-0.050846215 0.042468369 1.4000001 4287598738
-0.049631227 0.042468369 1.4000001 4288059545
-0.048381656 0.042438034 1.399 4289835956
-0.047133818 0.042407699 1.3980001 4289179053
-0.045920566 0.042407699 1.3980001 4288257951
-0.044675332 0.042377364 1.3970001 4289375919
-0.043431837 0.042347033 1.396 4290163382
-0.042220321 0.042347033 1.396 4288781471
-0.0410088 0.042347033 1.396 4288123542
-0.039797284 0.042347033 1.396 4289901236
-0.038641047 0.042407699 1.3980001 4290033079
-0.03742779 0.042407699 1.3980001 4287862680
-0.036240447 0.042438034 1.399 4287731094
-0.035101432 0.042529039 1.4020001 4289441712
-0.033908878 0.042559374 1.4030001 4289178799
-0.032714583 0.042589705 1.404 4287665560
-0.031585857 0.042711046 1.4080001 4287994268
-0.030385491 0.042741381 1.409 4290428609
-0.029183391 0.042771712 1.4100001 4290822598
-0.17095448 0.044579621 1.429 4287335580
-0.16935803 0.044486031 1.4260001 4288256169
-0.1674131 0.04429885 1.4200001 4288716207
-0.16618074 0.04429885 1.4200001 4288583340
-0.16483225 0.044267658 1.419 4289042609
-0.16337018 0.044205263 1.4170001 4289502648
-0.16202602 0.044174068 1.416 4289042607
-0.16057003 0.044111673 1.414 4288254625
-0.15934289 0.044111673 1.414 4289111469
-0.15811574 0.044111673 1.414 4289376431
-0.1568886 0.044111673 1.414 4288917672
-0.15566146 0.044111673 1.414 4288983722
-0.15443432 0.044111673 1.414 4289442225
-0.15320718 0.044111673 1.414 4289374641
-0.15198006 0.044111673 1.414 4289176239
-0.15085952 0.044142872 1.4150001 4289570484
-0.14963152 0.044142872 1.4150001 4289570228
-0.14829864 0.044111673 1.414 4288188831
-0.1470715 0.044111673 1.414 4288519074
-0.14574122 0.044080477 1.4130001 4289836214
-0.14451495 0.044080477 1.4130001 4289508529
-0.14328867 0.044080477 1.4130001 4288785063
-0.14206241 0.044080477 1.4130001 4289309358
-0.14073646 0.044049282 1.4120001 4289571251
-0.13951105 0.044049282 1.4120001 4288780969
-0.13818772 0.044018086 1.411 4288781481
-0.13696319 0.044018086 1.411 4289835193
-0.13573864 0.044018086 1.411 4289572787
-0.13441879 0.043986887 1.4100001 4288453791
-0.13319512 0.043986887 1.4100001 4289045672
-0.13187784 0.043955695 1.409 4289637810
-0.13056232 0.043924496 1.4080001 4289374895
-0.1293404 0.043924496 1.4080001 4288454048
-0.12811846 0.043924496 1.4080001 4289112491
-0.12707677 0.043986887 1.4100001 4289441714
-0.12594236 0.044018086 1.411 4288718247
-0.12471783 0.044018086 1.411 4288192671
-0.12358081 0.044049282 1.4120001 4289705909
-0.12235541 0.044049282 1.4120001 4289639603
-0.12113 0.044049282 1.4120001 4288126365
-0.1199046 0.044049282 1.4120001 4288586662
-0.1186792 0.044049282 1.4120001 4289771447
-0.1174538 0.044049282 1.4120001 4289574067
-0.11606377 0.043986887 1.4100001 4288192413
-0.11475865 0.043955695 1.409 4288981420
-0.11345528 0.043924496 1.4080001 4289705143
-0.11223335 0.043924496 1.4080001 4288388771
-0.11093257 0.0438933 1.4070001 4287599767
-0.10963354 0.043862104 1.406 4289179825
-0.10833623 0.043830905 1.4050001 4289772730
-0.1071169 0.043830905 1.4050001 4288655019
-0.10574683 0.043768514 1.4030001 4288128932
-0.10445473 0.043737318 1.4020001 4289049009
-0.10323801 0.043737318 1.4020001 4288719529
-0.10194851 0.043706119 1.401 4287534998
-0.10073265 0.043706119 1.401 4288983212
-0.099445768 0.043674923 1.4000001 4289707707
-0.098230779 0.043674923 1.4000001 4288655789
-0.097015791 0.043674923 1.4000001 4287339670
-0.095800795 0.043674923 1.4000001 4288655017
-0.094585806 0.043674923 1.4000001 4289772728
-0.093370818 0.043674923 1.4000001 4288061853
-0.092155829 0.043674923 1.4000001 4287731607
-0.090875886 0.043643728 1.399 4288981930
-0.08966177 0.043643728 1.399 4289639348
-0.088447645 0.043643728 1.399 4288981417
-0.087233528 0.043643728 1.399 4289112745
-0.086019404 0.043643728 1.399 4289836725
-0.084865898 0.043674923 1.4000001 4289376430
-0.083650909 0.043674923 1.4000001 4287139468
-0.082435921 0.043674923 1.4000001 4288390309
-0.08127895 0.043706119 1.401 4290166464
-0.080120243 0.043737318 1.4020001 4289179567
-0.078903519 0.043737318 1.4020001 4288192671
-0.077742204 0.043768514 1.4030001 4289112747
-0.076579154 0.04379971 1.404 4290034362
-0.075360693 0.04379971 1.404 4288323490
-0.074195042 0.043830905 1.4050001 4287862939
-0.072923772 0.04379971 1.404 4289967288
-0.071705312 0.04379971 1.404 4290229690
-0.070436649 0.043768514 1.4030001 4288123544
-0.069169722 0.043737318 1.4020001 4287597970
-0.067952998 0.043737318 1.4020001 4289506738
-0.066688672 0.043706119 1.401 4289836730
-0.065426074 0.043674923 1.4000001 4288653226
-0.064211085 0.043674923 1.4000001 4288915885
-0.06295111 0.043643728 1.399 4290362047
-0.061736986 0.043643728 1.399 4288914601
-0.060522866 0.043643728 1.399 4287928218
-0.059308745 0.043643728 1.399 4288849321
-0.058094624 0.043643728 1.399 4290624192
-0.056880504 0.043643728 1.399 4288387486
-0.05566638 0.043643728 1.399 4287334798
-0.054491181 0.043674923 1.4000001 4289638323
-0.053276192 0.043674923 1.4000001 4290099129
-0.052061204 0.043674923 1.4000001 4288586403
-0.050846215 0.043674923 1.4000001 4287730324
-0.049560323 0.043612532 1.3980001 4289178284
-0.048347071 0.043612532 1.3980001 4289639091
-0.047133818 0.043612532 1.3980001 4288718502
-0.045920566 0.043612532 1.3980001 4288784295
-0.044579394 0.043487746 1.3940001 4290362557
-0.043369614 0.043487746 1.3940001 4290031539
-0.042129584 0.043456551 1.393 4288320664
-0.040920671 0.043456551 1.393 4288979106
-0.039740268 0.043487746 1.3940001 4290295479
-0.038530488 0.043487746 1.3940001 4288980134
-0.037320703 0.043487746 1.3940001 4287335823
-0.036136825 0.043518942 1.3950001 4288783782
-0.034976251 0.043581333 1.3970001 4289507762
-0.033788033 0.043612532 1.3980001 4288652455
-0.032621384 0.043674923 1.4000001 4287928732
-0.03151856 0.043830905 1.4050001 4290231230
-0.030342363 0.0438933 1.4070001 4291218125
-0.029162692 0.043955695 1.409 4288717222
-0.02803904 0.044111673 1.414 4286743946
-0.025620952 0.044174068 1.416 4289441972
-0.024426529 0.044236459 1.4180001 4289244082
-0.17095448 0.045811169 1.429 4287860127
-0.16935803 0.045714993 1.4260001 4288714411
-0.1674131 0.045522641 1.4200001 4289042606
-0.16606373 0.045490585 1.419 4288910764
-0.16483225 0.045490585 1.419 4289174193
-0.16313958 0.045362353 1.4150001 4289437365
-0.16191158 0.045362353 1.4150001 4289239983
-0.16045646 0.045298234 1.4130001 4289109419
-0.1592302 0.045298234 1.4130001 4289440176
-0.15800393 0.045298234 1.4130001 4289113515
-0.15677765 0.045298234 1.4130001 4288918185
-0.15555139 0.045298234 1.4130001 4289115821
-0.15432511 0.045298234 1.4130001 4289048749
-0.15320718 0.045330293 1.414 4288718251
-0.15198006 0.045330293 1.414 4288914094
-0.15075292 0.045330293 1.414 4289307572
-0.14952578 0.045330293 1.414 4288780458
-0.14819376 0.045298234 1.4130001 4288254368
-0.14696749 0.045298234 1.4130001 4289506227
-0.14563806 0.045266178 1.4120001 4290034362
-0.1443104 0.045234121 1.411 4289246382
-0.14308585 0.045234121 1.411 4289048745
-0.14176078 0.045202062 1.4100001 4289703859
-0.14053713 0.045202062 1.4100001 4289702068
-0.13931346 0.045202062 1.4100001 4288517286
-0.13808979 0.045202062 1.4100001 4288846763
-0.13686612 0.045202062 1.4100001 4289703351
-0.13564245 0.045202062 1.4100001 4288849066
-0.13432345 0.045170005 1.409 4288388515
-0.13300619 0.045137946 1.4080001 4289638582
-0.13169067 0.045105886 1.4070001 4289572275
-0.13037686 0.04507383 1.406 4288848551
-0.12915666 0.04507383 1.406 4289046185
-0.12793647 0.04507383 1.406 4289901494
-0.12680641 0.045105886 1.4070001 4289506479
-0.12558535 0.045105886 1.4070001 4288322460
-0.12445267 0.045137946 1.4080001 4289244843
-0.12331825 0.045170005 1.409 4290034615
-0.12209545 0.045170005 1.409 4288651939
-0.12087265 0.045170005 1.409 4287796632
-0.11964985 0.045170005 1.409 4288980393
-0.11842705 0.045170005 1.409 4289441200
-0.11720425 0.045170005 1.409 4288783269
-0.11581683 0.045105886 1.4070001 4288849574
-0.11459576 0.045105886 1.4070001 4289968315
-0.11321354 0.04504177 1.4050001 4290099901
-0.11199421 0.04504177 1.4050001 4288190880
-0.11069604 0.045009714 1.404 4288586406
-0.10932163 0.044945598 1.4020001 4289507761
-0.10810491 0.044945598 1.4020001 4289442479
-0.10688818 0.044945598 1.4020001 4288981927
-0.10552071 0.044881478 1.4000001 4289508272
-0.10423122 0.044849422 1.399 4289508530
-0.1030171 0.044849422 1.399 4287863963
-0.10173021 0.044817362 1.3980001 4287337365
-0.10051695 0.044817362 1.3980001 4289575099
-0.0993037 0.044817362 1.3980001 4289444540
-0.098090447 0.044817362 1.3980001 4287536797
-0.096877195 0.044817362 1.3980001 4288127393
-0.095663942 0.044817362 1.3980001 4290034362
-0.09445069 0.044817362 1.3980001 4290165946
-0.09317074 0.044785306 1.3970001 4288126107
-0.091958359 0.044785306 1.3970001 4288586403
-0.090745971 0.044785306 1.3970001 4289441712
-0.0894695 0.04475325 1.396 4288521122
-0.088321202 0.044785306 1.3970001 4288257949
-0.087108813 0.044785306 1.3970001 4289441971
-0.085896432 0.044785306 1.3970001 4289705910
-0.084744662 0.044817362 1.3980001 4287732375
-0.08353141 0.044817362 1.3980001 4287271824
-0.082377046 0.044849422 1.399 4290165436
-0.081162922 0.044849422 1.399 4290625475
-0.080005944 0.044881478 1.4000001 4288981417
-0.078790955 0.044881478 1.4000001 4288718246
-0.077631377 0.044913538 1.401 4289639349
-0.076415524 0.044913538 1.401 4289442225
-0.075199664 0.044913538 1.401 4287534229
-0.074036621 0.044945598 1.4020001 4287863191
-0.072767951 0.044913538 1.401 4290099645
-0.071552098 0.044913538 1.401 4288981933
-0.070336238 0.044913538 1.401 4287468697
-0.069021709 0.044849422 1.399 4288521639
-0.067807592 0.044849422 1.399 4289574071
-0.066545866 0.044817362 1.3980001 4288455844
-0.065285876 0.044785306 1.3970001 4288127135
-0.064073496 0.044785306 1.3970001 4290034876
-0.062816113 0.04475325 1.396 4290230461
-0.0616046 0.04475325 1.396 4288651429
-0.06039308 0.04475325 1.396 4288651684
-0.059181564 0.04475325 1.396 4290165437
-0.057970047 0.04475325 1.396 4289769396
-0.05675853 0.04475325 1.396 4287203982
-0.05554701 0.04475325 1.396 4287467152
-0.054335494 0.04475325 1.396 4290230972
-0.053123977 0.04475325 1.396 4289704884
-0.051875271 0.04472119 1.3950001 4288519840
-0.050664622 0.04472119 1.3950001 4289308845
-0.04941852 0.04468913 1.3940001 4289835700
-0.04820874 0.04468913 1.3940001 4289243820
-0.046998959 0.04468913 1.3940001 4288718244
-0.045756325 0.044657074 1.393 4289639601
-0.044547413 0.044657074 1.393 4290230712
-0.0433385 0.044657074 1.393 4288780191
-0.042099342 0.044625014 1.3920001 4288517275
-0.040891297 0.044625014 1.3920001 4289769907
-0.039711758 0.044657074 1.393 4289836724
-0.038502842 0.044657074 1.393 4287732118
-0.037320703 0.04468913 1.3940001 4287403152
-0.036110923 0.04468913 1.3940001 4289639601
-0.034951214 0.04475325 1.396 4289113510
-0.033788033 0.044817362 1.3980001 4287797651
-0.032598082 0.044849422 1.399 4289507501
-0.03151856 0.04504177 1.4050001 4291413703
-0.030342363 0.045105886 1.4070001 4291018691
-0.029162692 0.045170005 1.409 4287203212
-0.026830863 0.045362353 1.4150001 4289441971
-0.025639046 0.045426469 1.4170001 4289968315
-0.024443755 0.045490585 1.419 4287730843
-0.16935803 0.046943959 1.4260001 4288581284
-0.1672952 0.046713516 1.419 4288909223
-0.16606373 0.046713516 1.419 4288909479
-0.16471608 0.046680596 1.4180001 4289173419
-0.16313958 0.046581835 1.4150001 4289173932
-0.16179717 0.046548914 1.414 4289306030
-0.16045646 0.046515994 1.4130001 4289570225
-0.1592302 0.046515994 1.4130001 4289440688
-0.15800393 0.046515994 1.4130001 4289047978
-0.15677765 0.046515994 1.4130001 4289181100
-0.15555139 0.046515994 1.4130001 4289247663
-0.15432511 0.046515994 1.4130001 4288786348
-0.15309885 0.046515994 1.4130001 4288456106
-0.15187258 0.046515994 1.4130001 4289046194
-0.15075292 0.046548914 1.414 4289045169
-0.14942004 0.046515994 1.4130001 4288254885
-0.14819376 0.046515994 1.4130001 4288255397
-0.14686348 0.046483077 1.4120001 4289309364
-0.14553493 0.046450157 1.411 4289311153
-0.14420812 0.046417233 1.4100001 4288917417
-0.14298445 0.046417233 1.4100001 4289443247
-0.14166024 0.046384316 1.409 4290033080
-0.14043744 0.046384316 1.409 4289044651
-0.13921463 0.046384316 1.409 4288320163
-0.13799185 0.046384316 1.409 4288978862
-0.13676904 0.046384316 1.409 4289374642
-0.13554624 0.046384316 1.409 4288652200
-0.13422811 0.046351396 1.4080001 4289375667
-0.13291173 0.046318475 1.4070001 4290033597
-0.13169067 0.046318475 1.4070001 4289309103
-0.13037686 0.046285558 1.406 4288716966
-0.12915666 0.046285558 1.406 4289704630
-0.12793647 0.046285558 1.406 4290033336
-0.12671627 0.046285558 1.406 4288716706
-0.12558535 0.046318475 1.4070001 4288059030
-0.12436428 0.046318475 1.4070001 4289770929
-0.12323073 0.046351396 1.4080001 4289968822
-0.1220088 0.046351396 1.4080001 4288520864
-0.12078687 0.046351396 1.4080001 4288520609
-0.11956494 0.046351396 1.4080001 4288980391
-0.118343 0.046351396 1.4080001 4288585635
-0.11703789 0.046318475 1.4070001 4288257181
-0.11581683 0.046318475 1.4070001 4289639604
-0.11451431 0.046285558 1.406 4290298048
-0.11313296 0.046219714 1.404 4288982188
-0.1119145 0.046219714 1.404 4288388771
-0.1106172 0.046186797 1.4030001 4289244336
-0.10924365 0.046120957 1.401 4289244589
-0.10802779 0.046120957 1.401 4288258718
-0.1067357 0.046088032 1.4000001 4288981670
-0.10544534 0.046055116 1.399 4289639600
-0.10415672 0.046022195 1.3980001 4289311152
-0.10294346 0.046022195 1.3980001 4287600791
-0.10165744 0.045989275 1.3970001 4288785325
-0.10044505 0.045989275 1.3970001 4290101442
-0.099232666 0.045989275 1.3970001 4288786351
-0.098020285 0.045989275 1.3970001 4287273112
-0.096807897 0.045989275 1.3970001 4289244849
-0.09552709 0.045956355 1.396 4290560195
-0.094315566 0.045956355 1.396 4289046954
-0.09310405 0.045956355 1.396 4288520608
-0.091892533 0.045956355 1.396 4289244844
-0.090681016 0.045956355 1.396 4289113002
-0.0894695 0.045956355 1.396 4287534224
-0.088257983 0.045956355 1.396 4288718500
-0.087108813 0.045989275 1.3970001 4289770678
-0.085896432 0.045989275 1.3970001 4288915883
-0.084744662 0.046022195 1.3980001 4287468435
-0.08353141 0.046022195 1.3980001 4288061342
-0.082318157 0.046022195 1.3980001 4290166460
-0.081162922 0.046055116 1.399 4289705909
-0.079948798 0.046055116 1.399 4289113004
-0.078734681 0.046055116 1.399 4289771703
-0.077575967 0.046088032 1.4000001 4290034878
-0.076360978 0.046088032 1.4000001 4287929758
-0.07514599 0.046088032 1.4000001 4287534228
-0.073931001 0.046088032 1.4000001 4289244846
-0.072716013 0.046088032 1.4000001 4289705143
-0.071501024 0.046088032 1.4000001 4287995295
-0.070185624 0.046022195 1.3980001 4288653483
-0.068972372 0.046022195 1.3980001 4289838012
-0.067759119 0.046022195 1.3980001 4289573557
-0.06645067 0.045956355 1.396 4288388510
-0.065239154 0.045956355 1.396 4288389282
-0.06402763 0.045956355 1.396 4290034107
-0.062771119 0.045923434 1.3950001 4288915627
-0.061560467 0.045923434 1.3950001 4288323233
-0.060349818 0.045923434 1.3950001 4289901753
-0.059139166 0.045923434 1.3950001 4290296768
-0.057928517 0.045923434 1.3950001 4288652198
-0.056717869 0.045923434 1.3950001 4287204494
-0.05550722 0.045923434 1.3950001 4289244076
-0.05425765 0.045890514 1.3940001 4289968054
-0.053047866 0.045890514 1.3940001 4289112232
-0.051838085 0.045890514 1.3940001 4288914598
-0.050591983 0.045857597 1.393 4290361533
-0.04938307 0.045857597 1.393 4289704116
-0.048174154 0.045857597 1.393 4288651429
-0.046965241 0.045857597 1.393 4288849576
-0.045723479 0.045824677 1.3920001 4290231227
-0.044515435 0.045824677 1.3920001 4289243817
-0.04330739 0.045824677 1.3920001 4288058262
-0.0420691 0.045791753 1.391 4288979878
-0.040891297 0.045824677 1.3920001 4289902261
-0.039683249 0.045824677 1.3920001 4288850599
-0.038502842 0.045857597 1.393 4287994777
-0.03729393 0.045857597 1.393 4289573807
-0.036085017 0.045857597 1.393 4290034358
-0.034951214 0.045956355 1.396 4288455580
-0.033763867 0.045989275 1.3970001 4287929750
-0.03257478 0.046022195 1.3980001 4290100151
-0.031496122 0.046219714 1.404 4291217094
-0.030320795 0.046285558 1.406 4288584863
-0.029141996 0.046351396 1.4080001 4286874504
-0.026849827 0.046614759 1.416 4289704886
-0.02565714 0.046680596 1.4180001 4288191904
-0.024478208 0.046779357 1.4210001 4286217604
-0.1672952 0.047936447 1.419 4287990684
-0.16606373 0.047936447 1.419 4288582051
-0.1643676 0.04780132 1.4150001 4288779172
-0.16302431 0.047767535 1.414 4288582304
-0.16179717 0.047767535 1.414 4288846503
-0.1603429 0.047699973 1.4120001 4289243054
-0.1591175 0.047699973 1.4120001 4289112492
-0.15789209 0.047699973 1.4120001 4288784805
-0.15677765 0.047733754 1.4130001 4289246122
-0.15555139 0.047733754 1.4130001 4289312426
-0.15432511 0.047733754 1.4130001 4288916645
-0.15309885 0.047733754 1.4130001 4289046441
-0.15187258 0.047733754 1.4130001 4289702327
-0.1506463 0.047733754 1.4130001 4289306547
-0.14942004 0.047733754 1.4130001 4288977328
-0.14808887 0.047699973 1.4120001 4289241780
-0.14686348 0.047699973 1.4120001 4289243059
-0.14543179 0.047632407 1.4100001 4288586918
-0.14420812 0.047632407 1.4100001 4288916389
-0.14288303 0.04759863 1.409 4289443502
-0.14155971 0.047564846 1.4080001 4289114033
-0.14033778 0.047564846 1.4080001 4288126375
-0.13911584 0.047564846 1.4080001 4288322474
-0.13779598 0.047531061 1.4070001 4288848561
-0.13667198 0.047564846 1.4080001 4288585647
-0.13545005 0.047564846 1.4080001 4288520364
-0.13413279 0.047531061 1.4070001 4289967293
-0.13291173 0.047531061 1.4070001 4290099132
-0.13159706 0.047497284 1.406 4289243563
-0.13028413 0.047463499 1.4050001 4289375148
-0.12906481 0.047463499 1.4050001 4290164667
-0.12784548 0.047463499 1.4050001 4289572275
-0.12662615 0.047463499 1.4050001 4287926938
-0.12549607 0.047497284 1.406 4288453537
-0.12427588 0.047497284 1.406 4289770423
-0.12305568 0.047497284 1.406 4289441714
-0.12192215 0.047531061 1.4070001 4289177514
-0.12070109 0.047531061 1.4070001 4289769138
-0.11948002 0.047531061 1.4070001 4289242538
-0.118343 0.047564846 1.4080001 4288190364
-0.11695471 0.047497284 1.406 4288914600
-0.11573451 0.047497284 1.406 4289836470
-0.11443287 0.047463499 1.4050001 4289441968
-0.11305238 0.047395937 1.4030001 4288191900
-0.11183479 0.047395937 1.4030001 4289111979
-0.11053836 0.047362156 1.4020001 4289704373
-0.10916568 0.047294591 1.4000001 4289046441
-0.10795069 0.047294591 1.4000001 4288323485
-0.10665946 0.04726081 1.399 4289113001
-0.10536997 0.047227025 1.3980001 4289441966
-0.10408221 0.047193244 1.3970001 4288586917
-0.10279619 0.047159463 1.396 4288586918
-0.10158467 0.047159463 1.396 4290231998
-0.10037316 0.047159463 1.396 4290100412
-0.09916164 0.047159463 1.396 4288191647
-0.097879954 0.047125682 1.3950001 4288455332
-0.096669301 0.047125682 1.3950001 4289968313
-0.095458657 0.047125682 1.3950001 4289705653
-0.094248004 0.047125682 1.3950001 4288390047
-0.093037359 0.047125682 1.3950001 4288784805
-0.091892533 0.047159463 1.396 4289706165
-0.090681016 0.047159463 1.396 4287995292
-0.0894695 0.047159463 1.396 4287533969
-0.088257983 0.047159463 1.396 4289705395
-0.087046467 0.047159463 1.396 4290165944
-0.085896432 0.047193244 1.3970001 4288587427
-0.084684044 0.047193244 1.3970001 4288126877
-0.08353141 0.047227025 1.3980001 4289245615
-0.082318157 0.047227025 1.3980001 4289573554
-0.081104904 0.047227025 1.3980001 4288586659
-0.079891652 0.047227025 1.3980001 4289178798
-0.078734681 0.04726081 1.399 4290100670
-0.077520557 0.04726081 1.399 4288654508
-0.07630644 0.04726081 1.399 4287075989
-0.075092316 0.04726081 1.399 4288325027
-0.073878199 0.04726081 1.399 4289969339
-0.072664075 0.04726081 1.399 4288718248
-0.071398877 0.047227025 1.3980001 4288192160
-0.070135422 0.047193244 1.3970001 4289968826
-0.068923034 0.047193244 1.3970001 4290363327
-0.067662187 0.047159463 1.396 4289310126
-0.066403069 0.047125682 1.3950001 4288980392
-0.065192416 0.047125682 1.3950001 4289244079
-0.063935898 0.047091898 1.3940001 4289112494
-0.062726118 0.047091898 1.3940001 4287994525
-0.061516337 0.047091898 1.3940001 4288718248
-0.060306553 0.047091898 1.3940001 4290297793
-0.059096772 0.047091898 1.3940001 4289047727
-0.057886992 0.047091898 1.3940001 4287796634
-0.056595895 0.047024336 1.3920001 4288455076
-0.055427637 0.04705812 1.393 4289902522
-0.054218724 0.04705812 1.393 4288982187
-0.053009812 0.04705812 1.393 4288586659
-0.05176371 0.047024336 1.3920001 4289441969
-0.050555665 0.047024336 1.3920001 4290033082
-0.04934762 0.047024336 1.3920001 4289046187
-0.048139572 0.047024336 1.3920001 4288322978
-0.046931528 0.047024336 1.3920001 4289507508
-0.045690633 0.046990555 1.391 4289573557
-0.044483457 0.046990555 1.391 4287797659
-0.04327628 0.046990555 1.391 4288059802
-0.042038854 0.04695677 1.3900001 4289968312
-0.040861923 0.046990555 1.391 4289114285
-0.039654743 0.046990555 1.391 4288127389
-0.038475204 0.047024336 1.3920001 4288521634
-0.03726716 0.047024336 1.3920001 4289771188
-0.036059111 0.047024336 1.3920001 4289047976
-0.034926176 0.047125682 1.3950001 4287732886
-0.033739697 0.047159463 1.396 4289443502
-0.03257478 0.047227025 1.3980001 4290495935
-0.031473693 0.047395937 1.4030001 4289639089
-0.030320795 0.047497284 1.406 4287335566
-0.029141996 0.047564846 1.4080001 4287599253
-0.026849827 0.0478351 1.416 4289639093
-0.025675233 0.047936447 1.419 4286415493
-0.16753098 0.049228664 1.4210001 4288650409
-0.16618074 0.049194019 1.4200001 4289175468
-0.1649484 0.049194019 1.4200001 4289043111
-0.16325489 0.049055446 1.416 4288780193
-0.16191158 0.049020801 1.4150001 4289176490
-0.16045646 0.04895151 1.4130001 4289375150
-0.1592302 0.04895151 1.4130001 4288981160
-0.15800393 0.04895151 1.4130001 4288915877
-0.15677765 0.04895151 1.4130001 4289442728
-0.15555139 0.04895151 1.4130001 4289376933
-0.15432511 0.04895151 1.4130001 4289112479
-0.15309885 0.04895151 1.4130001 4289439911
-0.15187258 0.04895151 1.4130001 4289503406
-0.1506463 0.04895151 1.4130001 4289107884
-0.14931427 0.048916873 1.4120001 4289239473
-0.14808887 0.048916873 1.4120001 4289636025
-0.14675947 0.048882227 1.411 4288979374
-0.14532864 0.048812941 1.409 4288125854
-0.14410584 0.048812941 1.409 4289047975
-0.14278163 0.048778296 1.4080001 4289378478
-0.14135863 0.048709009 1.406 4288588717
-0.14003876 0.048674364 1.4050001 4288259502
-0.13881943 0.048674364 1.4050001 4288586930
-0.13760011 0.048674364 1.4050001 4288717234
-0.13647784 0.048709009 1.406 4288453549
-0.13525765 0.048709009 1.406 4288914352
-0.13403745 0.048709009 1.406 4289506227
-0.1327228 0.048674364 1.4050001 4288980647
-0.13150346 0.048674364 1.4050001 4288651679
-0.13019142 0.048639718 1.404 4289704881
-0.12897295 0.048639718 1.404 4289901495
-0.12775449 0.048639718 1.404 4288256415
-0.12653603 0.048639718 1.404 4287926940
-0.1252283 0.048605077 1.4030001 4289242799
-0.12401071 0.048605077 1.4030001 4289639095
-0.12279312 0.048605077 1.4030001 4289244336
-0.12166218 0.048639718 1.404 4289769909
-0.12044373 0.048639718 1.404 4290164154
-0.11922527 0.048639718 1.404 4289242795
-0.11800681 0.048639718 1.404 4288387999
-0.11670516 0.048605077 1.4030001 4289375152
-0.11548756 0.048605077 1.4030001 4289639093
-0.11426997 0.048605077 1.4030001 4288389278
-0.11281064 0.048501145 1.4000001 4287994520
-0.11151595 0.048466504 1.399 4289638834
-0.11030182 0.048466504 1.399 4289638835
-0.10893175 0.048397213 1.3970001 4288389024
-0.10764226 0.048362572 1.396 4288915879
-0.10643075 0.048362572 1.396 4289441968
-0.10514385 0.048327927 1.3950001 4289178796
-0.1039332 0.048327927 1.3950001 4288126367
-0.10264891 0.048293281 1.3940001 4289771191
-0.10143913 0.048293281 1.3940001 4290429119
-0.10015745 0.04825864 1.393 4288520863
-0.099019572 0.048293281 1.3940001 4287927960
-0.097739629 0.04825864 1.393 4289046441
-0.096530713 0.04825864 1.393 4289639091
-0.095390223 0.048293281 1.3940001 4288850086
-0.094180442 0.048293281 1.3940001 4288850341
-0.092970662 0.048293281 1.3940001 4289771443
-0.091826707 0.048327927 1.3950001 4289640372
-0.090616055 0.048327927 1.3950001 4287534998
-0.08940541 0.048327927 1.3950001 4288586401
-0.088194758 0.048327927 1.3950001 4289968567
-0.086984105 0.048327927 1.3950001 4289836981
-0.08583495 0.048362572 1.396 4288653476
-0.084684044 0.048397213 1.3970001 4289705393
-0.083471656 0.048397213 1.3970001 4289836979
-0.082259275 0.048397213 1.3970001 4287928984
-0.081046887 0.048397213 1.3970001 4287863191
-0.079834506 0.048397213 1.3970001 4289113776
-0.078622118 0.048397213 1.3970001 4289114289
-0.077409729 0.048397213 1.3970001 4287009426
-0.076197349 0.048397213 1.3970001 4287470748
-0.07498496 0.048397213 1.3970001 4290166975
-0.073772579 0.048397213 1.3970001 4290298304
-0.072508253 0.048362572 1.396 4288257697
-0.071296737 0.048362572 1.396 4288784039
-0.069984809 0.048293281 1.3940001 4290560706
-0.068775028 0.048293281 1.3940001 4289771189
-0.067516781 0.04825864 1.393 4288718502
-0.066260263 0.048223998 1.3920001 4289375921
-0.065005481 0.048189353 1.391 4289770424
-0.063798301 0.048189353 1.391 4287928220
-0.062546134 0.048154708 1.3900001 4287270802
-0.061339822 0.048154708 1.3900001 4289705398
-0.060133513 0.048154708 1.3900001 4289969339
-0.058927201 0.048154708 1.3900001 4288323744
-0.057720892 0.048154708 1.3900001 4288190878
-0.05651458 0.048154708 1.3900001 4289770167
-0.055308267 0.048154708 1.3900001 4289507507
-0.054101959 0.048154708 1.3900001 4288389539
-0.052895647 0.048154708 1.3900001 4288653225
-0.051689338 0.048154708 1.3900001 4289969085
-0.050483026 0.048154708 1.3900001 4289112237
-0.049276717 0.048154708 1.3900001 4288191392
-0.048070405 0.048154708 1.3900001 4288849322
-0.046864096 0.048154708 1.3900001 4289638838
-0.045657784 0.048154708 1.3900001 4287994528
-0.044451475 0.048154708 1.3900001 4287534231
-0.043214053 0.048120067 1.3890001 4289770680
-0.042008612 0.048120067 1.3890001 4290297534
-0.040803168 0.048120067 1.3890001 4288588453
-0.039597727 0.048120067 1.3890001 4287864729
-0.038419925 0.048154708 1.3900001 4288390305
-0.037213612 0.048154708 1.3900001 4288719013
-0.036033209 0.048189353 1.391 4287337872
-0.034901142 0.048293281 1.3940001 4287667606
-0.033715528 0.048327927 1.3950001 4290299069
-0.032528181 0.048362572 1.396 4290036154
-0.031473693 0.048605077 1.4030001 4287994779
-0.030299231 0.048674364 1.4050001 4288060059
-0.029121298 0.04874365 1.4070001 4289442226
-0.026849827 0.049055446 1.416 4287994779
-0.025675233 0.049159378 1.419 4286481540
-0.16629778 0.050453316 1.4210001 4289440177
-0.16506456 0.050453316 1.4210001 4289110955
-0.16337018 0.050311293 1.4170001 4288651428
-0.16202602 0.050275791 1.416 4289244334
-0.16057003 0.050204776 1.414 4289442479
-0.15934289 0.050204776 1.414 4289047463
-0.15811574 0.050204776 1.414 4289310887
-0.1568886 0.050204776 1.414 4289640363
-0.15566146 0.050204776 1.414 4289376678
-0.15443432 0.050204776 1.414 4289506728
-0.15309885 0.05016927 1.4130001 4289833903
-0.15187258 0.05016927 1.4130001 4289437613
-0.1506463 0.05016927 1.4130001 4288976554
-0.14931427 0.050133768 1.4120001 4289370543
-0.14808887 0.050133768 1.4120001 4289371825
-0.14675947 0.050098263 1.411 4288649382
-0.14532864 0.050027251 1.409 4288059293
-0.14400357 0.049991746 1.4080001 4289180074
-0.14268023 0.04995624 1.4070001 4289247402
-0.14125809 0.049885228 1.4050001 4288588963
-0.14003876 0.049885228 1.4050001 4288785322
-0.13872063 0.049849723 1.404 4289046452
-0.13760011 0.049885228 1.4050001 4288519085
-0.13638078 0.049885228 1.4050001 4288848562
-0.13516144 0.049885228 1.4050001 4289244087
-0.13394211 0.049885228 1.4050001 4289046961
-0.1327228 0.049885228 1.4050001 4287797403
-0.13150346 0.049885228 1.4050001 4288784549
-0.13019142 0.049849723 1.404 4289771445
-0.12897295 0.049849723 1.404 4288521638
-0.12775449 0.049849723 1.404 4287467926
-0.12644589 0.049814221 1.4030001 4288255906
-0.1252283 0.049814221 1.4030001 4289242800
-0.12401071 0.049814221 1.4030001 4288783783
-0.12279312 0.049814221 1.4030001 4288916391
-0.12157553 0.049814221 1.4030001 4289706163
-0.12035793 0.049814221 1.4030001 4289640627
-0.11922527 0.049849723 1.404 4288322975
-0.11792275 0.049814221 1.4030001 4288717479
-0.11670516 0.049814221 1.4030001 4289375410
-0.11540525 0.049778711 1.4020001 4289113007
-0.11418853 0.049778711 1.4020001 4288126366
-0.11281064 0.0497077 1.4000001 4289113260
-0.11151595 0.049672198 1.399 4290230716
-0.11022298 0.049636692 1.3980001 4288849575
-0.10885378 0.04956568 1.396 4288323231
-0.10764226 0.04956568 1.396 4289573809
-0.10643075 0.04956568 1.396 4289507763
-0.10514385 0.049530175 1.3950001 4287862939
-0.10385869 0.049494669 1.3940001 4288520869
-0.10264891 0.049494669 1.3940001 4290231741
-0.1012936 0.049423657 1.3920001 4290034613
-0.10015745 0.049459163 1.393 4287929237
-0.098948538 0.049459163 1.393 4287994523
-0.097739629 0.049459163 1.393 4289113003
-0.096530713 0.049459163 1.393 4288719013
-0.095321797 0.049459163 1.393 4288323997
-0.094180442 0.049494669 1.3940001 4289968307
-0.092970662 0.049494669 1.3940001 4290625724
-0.091760881 0.049494669 1.3940001 4288651937
-0.090551101 0.049494669 1.3940001 4287928216
-0.089341313 0.049494669 1.3940001 4289769648
-0.088194758 0.049530175 1.3950001 4289704112
-0.086984105 0.049530175 1.3950001 4288783780
-0.08583495 0.04956568 1.396 4289113256
-0.084623426 0.04956568 1.396 4290034612
-0.08341191 0.04956568 1.396 4289705391
-0.082200393 0.04956568 1.396 4287468946
-0.080988877 0.04956568 1.396 4288455843
-0.07977736 0.04956568 1.396 4289574583
-0.078565843 0.04956568 1.396 4287929502
-0.077354327 0.04956568 1.396 4287139727
-0.07614281 0.04956568 1.396 4289047468
-0.074931294 0.04956568 1.396 4290889414
-0.07371977 0.04956568 1.396 4288718759
-0.072508253 0.04956568 1.396 4288060318
-0.071245663 0.049530175 1.3950001 4289771703
-0.069984809 0.049494669 1.3940001 4290034875
-0.068725698 0.049459163 1.393 4288258719
-0.067516781 0.049459163 1.393 4288652708
-0.066212662 0.049388152 1.391 4289705397
-0.065005481 0.049388152 1.391 4289243565
-0.063752443 0.049352646 1.3900001 4287402131
-0.062546134 0.049352646 1.3900001 4287665303
-0.061295692 0.04931714 1.3890001 4290035132
-0.060090248 0.04931714 1.3890001 4289179568
-0.058884807 0.04931714 1.3890001 4288324516
-0.057679363 0.04931714 1.3890001 4289244593
-0.056473922 0.04931714 1.3890001 4289639350
-0.055268478 0.04931714 1.3890001 4288191904
-0.054101959 0.049352646 1.3900001 4288060573
-0.052895647 0.049352646 1.3900001 4289508534
-0.051689338 0.049352646 1.3900001 4289574840
-0.050483026 0.049352646 1.3900001 4287469979
-0.049276717 0.049352646 1.3900001 4287931043
-0.048070405 0.049352646 1.3900001 4289377978
-0.046864096 0.049352646 1.3900001 4288719534
-0.045657784 0.049352646 1.3900001 4287205014
-0.044451475 0.049352646 1.3900001 4287599770
-0.043214053 0.04931714 1.3890001 4290099901
-0.042008612 0.04931714 1.3890001 4289575092
-0.040803168 0.04931714 1.3890001 4288522404
-0.039597727 0.04931714 1.3890001 4288588452
-0.038419925 0.049352646 1.3900001 4288785063
-0.037213612 0.049352646 1.3900001 4287403410
-0.036007304 0.049352646 1.3900001 4286680198
-0.034876101 0.049459163 1.393 4290036154
-0.033715528 0.049530175 1.3950001 4290628805
-0.032528181 0.04956568 1.396 4287733399
-0.031473693 0.049814221 1.4030001 4287074189
-0.030299231 0.049885228 1.4050001 4288784806
-0.029121298 0.04995624 1.4070001 4290232511
-0.026849827 0.050275791 1.416 4286942091
-0.16348547 0.05156887 1.4180001 4287139728
-0.16214043 0.051532499 1.4170001 4288061086
-0.16068357 0.051459767 1.4150001 4288521634
-0.15945557 0.051459767 1.4150001 4288258456
-0.15822756 0.051459767 1.4150001 4288521626
-0.15699956 0.051459767 1.4150001 4288850848
-0.15566146 0.051423397 1.414 4288850335
-0.15443432 0.051423397 1.414 4289572265
-0.15320718 0.051423397 1.414 4290031025
-0.15198006 0.051423397 1.414 4289437614
-0.1506463 0.051387031 1.4130001 4289370798
-0.14931427 0.051350664 1.4120001 4289567407
-0.14808887 0.051350664 1.4120001 4289370796
-0.14675947 0.051314298 1.411 4288648612
-0.14532864 0.051241562 1.409 4289111466
-0.1439013 0.051168825 1.4070001 4289706418
-0.14268023 0.051168825 1.4070001 4289181608
-0.14125809 0.051096093 1.4050001 4288851617
-0.14003876 0.051096093 1.4050001 4289310379
-0.13872063 0.051059727 1.404 4288979118
-0.13750218 0.051059727 1.404 4288321194
-0.13638078 0.051096093 1.4050001 4288848304
-0.13516144 0.051096093 1.4050001 4289310649
-0.13394211 0.051096093 1.4050001 4288258470
-0.1327228 0.051096093 1.4050001 4287403414
-0.13140987 0.051059727 1.404 4289114797
-0.13019142 0.051059727 1.404 4289706933
-0.12897295 0.051059727 1.404 4288456359
-0.12775449 0.051059727 1.404 4288257701
-0.12644589 0.05102336 1.4030001 4289111217
-0.1252283 0.05102336 1.4030001 4288913066
-0.12392233 0.05098699 1.4020001 4288322718
-0.1227056 0.05098699 1.4020001 4288785061
-0.12157553 0.05102336 1.4030001 4289641142
-0.12035793 0.05102336 1.4030001 4288457127
-0.11914034 0.05102336 1.4030001 4288257697
-0.1178387 0.05098699 1.4020001 4288980910
-0.11662198 0.05098699 1.4020001 4289046703
-0.11540525 0.05098699 1.4020001 4287994015
-0.11410709 0.050950624 1.401 4288520357
-0.11273007 0.050877891 1.399 4290099645
-0.11143623 0.050841521 1.3980001 4290427839
-0.11014414 0.050805155 1.3970001 4288849575
-0.1087758 0.050732419 1.3950001 4289178539
-0.10756515 0.050732419 1.3950001 4290363325
-0.1063545 0.050732419 1.3950001 4288849577
-0.10506848 0.050696053 1.3940001 4287402131
-0.1037842 0.050659686 1.393 4288783784
-0.10250165 0.05062332 1.3920001 4290231227
-0.1012936 0.05062332 1.3920001 4289179047
-0.10015745 0.050659686 1.393 4288323996
-0.098948538 0.050659686 1.393 4288981162
-0.097739629 0.050659686 1.393 4288981419
-0.096530713 0.050659686 1.393 4287929240
-0.095321797 0.050659686 1.393 4288981925
-0.094112888 0.050659686 1.393 4290428858
-0.092970662 0.050696053 1.3940001 4290165176
-0.091760881 0.050696053 1.3940001 4288387998
-0.090551101 0.050696053 1.3940001 4289111465
-0.089341313 0.050696053 1.3940001 4290360505
-0.088194758 0.050732419 1.3950001 4289176998
-0.086984105 0.050732419 1.3950001 4288388508
-0.08583495 0.050768789 1.396 4289112998
-0.084623426 0.050768789 1.396 4289771439
-0.08341191 0.050768789 1.396 4288718751
-0.082200393 0.050768789 1.396 4288323485
-0.080988877 0.050768789 1.396 4289902520
-0.07977736 0.050768789 1.396 4289837240
-0.078565843 0.050768789 1.396 4287797657
-0.077354327 0.050768789 1.396 4288454558
-0.07614281 0.050768789 1.396 4290757057
-0.074931294 0.050768789 1.396 4290165175
-0.07371977 0.050768789 1.396 4288060314
-0.072456315 0.050732419 1.3950001 4288060059
-0.071245663 0.050732419 1.3950001 4289178799
-0.069934607 0.050659686 1.393 4288191902
-0.068725698 0.050659686 1.393 4287402640
-0.067468308 0.05062332 1.3920001 4289047465
-0.066212662 0.05058695 1.391 4289903286
-0.064958751 0.05055058 1.3900001 4288520610
-0.063706577 0.050514217 1.3890001 4287467923
-0.062456135 0.050477847 1.388 4289046952
-0.061251558 0.050477847 1.388 4289705395
-0.060046986 0.050477847 1.388 4288916652
-0.058842409 0.050477847 1.388 4288916908
-0.057637837 0.050477847 1.388 4289968316
-0.05643326 0.050477847 1.388 4288849835
-0.055268478 0.050514217 1.3890001 4287468694
-0.054063037 0.050514217 1.3890001 4287995295
-0.052857593 0.050514217 1.3890001 4289837502
-0.051689338 0.05055058 1.3900001 4287930016
-0.050483026 0.05055058 1.3900001 4286680976
-0.049276717 0.05055058 1.3900001 4289115829
-0.048070405 0.05055058 1.3900001 4289839552
-0.046897814 0.05058695 1.391 4288719789
-0.045657784 0.05055058 1.3900001 4287797149
-0.044451475 0.05055058 1.3900001 4288849581
-0.043214053 0.050514217 1.3890001 4289310388
-0.042008612 0.050514217 1.3890001 4288522151
-0.040803168 0.050514217 1.3890001 4288324771
-0.039597727 0.050514217 1.3890001 4289180333
-0.038419925 0.05055058 1.3900001 4288456100
-0.037213612 0.05055058 1.3900001 4286811275
-0.036007304 0.05055058 1.3900001 4287469203
-0.034876101 0.050659686 1.393 4290759623
-0.033715528 0.050732419 1.3950001 4290431428
-0.032551479 0.050805155 1.3970001 4287536279
-0.031473693 0.05102336 1.4030001 4287403412
-0.030299231 0.051096093 1.4050001 4289574580
-0.029121298 0.051168825 1.4070001 4290166718
-0.026830863 0.051459767 1.4150001 4286811018
-0.1609107 0.052753706 1.4170001 4287533970
-0.15968095 0.052753706 1.4170001 4287336333
-0.15845121 0.052753706 1.4170001 4287336332
-0.15711051 0.052716479 1.416 4287402125
-0.15588164 0.052716479 1.416 4287533455
-0.15465277 0.052716479 1.416 4288716962
-0.15342389 0.052716479 1.416 4289176745
-0.15208752 0.052679248 1.4150001 4288715429
-0.15085952 0.052679248 1.4150001 4288845990
-0.14942004 0.052604791 1.4130001 4289108649
-0.14808887 0.052567564 1.4120001 4288977574
-0.14675947 0.052530333 1.411 4288781475
-0.14532864 0.052455876 1.409 4289573550
-0.14410584 0.052455876 1.409 4289707183
-0.14268023 0.052381415 1.4070001 4289116325
-0.14125809 0.052306958 1.4050001 4289509288
-0.13993908 0.052269727 1.404 4289902256
-0.13872063 0.052269727 1.404 4289372588
-0.13750218 0.052269727 1.404 4288779945
-0.13628371 0.052269727 1.404 4289438384
-0.13506526 0.052269727 1.404 4289439920
-0.13384679 0.052269727 1.404 4288059546
-0.13262834 0.052269727 1.404 4287666066
-0.13140987 0.052269727 1.404 4289443756
-0.13009867 0.0522325 1.4030001 4289247402
-0.12888108 0.0522325 1.4030001 4288719778
-0.12766349 0.0522325 1.4030001 4288981672
-0.12635577 0.05219527 1.4020001 4289572019
-0.1250498 0.052158039 1.401 4288453028
-0.12374554 0.052120812 1.4000001 4288322981
-0.12253055 0.052120812 1.4000001 4289114291
-0.12131556 0.052120812 1.4000001 4289049523
-0.12010057 0.052120812 1.4000001 4287733919
-0.11880067 0.052083585 1.399 4288456361
-0.11758655 0.052083585 1.399 4288982448
-0.11628925 0.052046355 1.3980001 4288192164
-0.115076 0.052046355 1.3980001 4287468441
-0.11386275 0.052046355 1.3980001 4288652202
-0.11248833 0.051971897 1.396 4289639353
-0.1111971 0.051934667 1.3950001 4289244336
