# .PCD v0.7 - Point Cloud Data file format
VERSION 0.7
FIELDS x y z rgba
SIZE 4 4 4 4
TYPE F F F U
COUNT 1 1 1 1
WIDTH 1073
HEIGHT 1
VIEWPOINT 0 0 0 1 0 0 0
POINTS 1073
DATA ascii
-0.082683638 -0.015049096 1.3640001 4288714630
-0.081499889 -0.015049096 1.3640001 4288977802
-0.080316149 -0.015049096 1.3640001 4289043852
-0.079190411 -0.015060131 1.365 4288583557
-0.078005798 -0.015060131 1.365 4287859836
-0.076821178 -0.015060131 1.365 4287728250
-0.075747393 -0.015082196 1.3670001 4288057472
-0.074561045 -0.015082196 1.3670001 4288715402
-0.073428363 -0.01509323 1.368 4288781195
-0.072505191 -0.015148395 1.373 4288189058
-0.071365573 -0.015159427 1.3740001 4287466107
-0.070275292 -0.015181493 1.376 4287400314
-0.069281951 -0.015225626 1.3800001 4287794818
-0.068084322 -0.015225626 1.3800001 4288057990
-0.066935152 -0.01523666 1.381 4288124043
-0.30093357 -0.01389391 1.3660001 4289835176
-0.29952866 -0.013883739 1.365 4289703076
-0.29834405 -0.013883739 1.365 4290097830
-0.29672399 -0.013863396 1.363 4290163365
-0.29554114 -0.013863396 1.363 4290163361
-0.29435825 -0.013863396 1.363 4290294433
-0.29317537 -0.013863396 1.363 4290360481
-0.29199249 -0.013863396 1.363 4290359967
-0.29102296 -0.013873567 1.3640001 4290294429
-0.28983921 -0.013873567 1.3640001 4290294428
-0.28865546 -0.013873567 1.3640001 4290294428
-0.2876825 -0.013883739 1.365 4290294428
-0.28649789 -0.013883739 1.365 4290360220
-0.28531328 -0.013883739 1.365 4290294427
-0.28433681 -0.01389391 1.3660001 4290228634
-0.28315133 -0.01389391 1.3660001 4290294426
-0.28196585 -0.01389391 1.3660001 4290360219
-0.28078038 -0.01389391 1.3660001 4290360219
-0.2795949 -0.01389391 1.3660001 4290294426
-0.27840939 -0.01389391 1.3660001 4290228633
-0.27722391 -0.01389391 1.3660001 4290228633
-0.27603844 -0.01389391 1.3660001 4290294426
-0.27485296 -0.01389391 1.3660001 4290360219
-0.27386782 -0.013904081 1.3670001 4290360219
-0.27268147 -0.013904081 1.3670001 4290294426
-0.27169371 -0.013914252 1.368 4290162840
-0.2705065 -0.013914252 1.368 4290097047
-0.26951614 -0.013924423 1.3690001 4290162840
-0.26832807 -0.013924423 1.3690001 4290228633
-0.26694486 -0.013914252 1.368 4290162840
-0.26575762 -0.013914252 1.368 4290228633
-0.26437703 -0.013904081 1.3670001 4290228633
-0.26299813 -0.01389391 1.3660001 4290228633
-0.261621 -0.013883739 1.365 4290228633
-0.26043639 -0.013883739 1.365 4290162840
-0.25906181 -0.013873567 1.3640001 4290228633
-0.25787807 -0.013873567 1.3640001 4290162840
-0.25669432 -0.013873567 1.3640001 4290162840
-0.25532326 -0.013863396 1.363 4290294426
-0.25414038 -0.013863396 1.363 4290360219
-0.25277191 -0.013853225 1.3620001 4290294426
-0.25158989 -0.013853225 1.3620001 4290294426
-0.25022405 -0.013843054 1.3610001 4290294426
-0.2490429 -0.013843054 1.3610001 4290162840
-0.24786176 -0.013843054 1.3610001 4290162840
-0.24668062 -0.013843054 1.3610001 4290294427
-0.24549948 -0.013843054 1.3610001 4290294428
-0.24449785 -0.013853225 1.3620001 4290162842
-0.24331583 -0.013853225 1.3620001 4290096536
-0.24213383 -0.013853225 1.3620001 4290031000
-0.24095181 -0.013853225 1.3620001 4290162329
-0.23994584 -0.013863396 1.363 4290228122
-0.23893814 -0.013873567 1.3640001 4290162329
-0.23775439 -0.013873567 1.3640001 4290096536
-0.23674411 -0.013883739 1.365 4290096536
-0.23555948 -0.013883739 1.365 4290030743
-0.23437487 -0.013883739 1.365 4290096536
-0.23319025 -0.013883739 1.365 4290162328
-0.23200564 -0.013883739 1.365 4290162327
-0.23082103 -0.013883739 1.365 4290162327
-0.22963642 -0.013883739 1.365 4290228120
-0.2284518 -0.013883739 1.365 4290228120
-0.22743368 -0.01389391 1.3660001 4290162327
-0.22641382 -0.013904081 1.3670001 4290162582
-0.22522748 -0.013904081 1.3670001 4290228374
-0.22436891 -0.013924423 1.3690001 4290294167
-0.2230178 -0.013914252 1.368 4290294167
-0.22183058 -0.013914252 1.368 4290359960
-0.22064336 -0.013914252 1.368 4290359960
-0.21945614 -0.013914252 1.368 4290359960
-0.21826892 -0.013914252 1.368 4290359960
-0.21692303 -0.013904081 1.3670001 4290425498
-0.21573667 -0.013904081 1.3670001 4290425499
-0.21455032 -0.013904081 1.3670001 4290359706
-0.21336398 -0.013904081 1.3670001 4290228120
-0.21217762 -0.013904081 1.3670001 4290293914
-0.21099128 -0.013904081 1.3670001 4290425501
-0.21011189 -0.013924423 1.3690001 4290228635
-0.2090764 -0.013934595 1.3700001 4290162842
-0.20788746 -0.013934595 1.3700001 4290228635
-0.20730199 -0.013975279 1.3740001 4290097049
-0.20640959 -0.013995622 1.376 4289965463
-0.20536456 -0.014005793 1.3770001 4289636498
-0.20491089 -0.014056649 1.3820001 4289109900
-0.20400633 -0.014076992 1.3840001 4288386177
-0.20295176 -0.014087163 1.3850001 4287793783
-0.20247814 -0.01413802 1.3900001 4287596661
-0.20141661 -0.014148192 1.391 4288056953
-0.20020944 -0.014148192 1.391 4288714883
-0.1992884 -0.014168533 1.393 4289108871
-0.19807948 -0.014168533 1.393 4289108871
-0.19687057 -0.014168533 1.393 4289240457
-0.19552118 -0.014158362 1.3920001 4289503629
-0.19417354 -0.014148192 1.391 4289635215
-0.19241148 -0.014107505 1.3870001 4289503629
-0.1910699 -0.014097334 1.386 4289437836
-0.18959309 -0.014076992 1.3840001 4289372043
-0.1878475 -0.014036307 1.3800001 4289372043
-0.18637937 -0.014015964 1.378 4289372300
-0.18504907 -0.014005793 1.3770001 4289109641
-0.18331999 -0.013965108 1.373 4288715140
-0.18173048 -0.013934595 1.3700001 4288715396
-0.18027796 -0.013914252 1.368 4289307533
-0.17895983 -0.013904081 1.3670001 4289768084
-0.17777348 -0.013904081 1.3670001 4289965463
-0.17645796 -0.01389391 1.3660001 4290162842
-0.17527246 -0.01389391 1.3660001 4290162585
-0.17408699 -0.01389391 1.3660001 4290293915
-0.17290151 -0.01389391 1.3660001 4290228379
-0.17171602 -0.01389391 1.3660001 4290031256
-0.17053054 -0.01389391 1.3660001 4289899670
-0.16934507 -0.01389391 1.3660001 4289833877
-0.16815957 -0.01389391 1.3660001 4289899670
-0.1669741 -0.01389391 1.3660001 4290031256
-0.16566724 -0.013883739 1.365 4290031256
-0.16436213 -0.013873567 1.3640001 4290096793
-0.16293912 -0.013853225 1.3620001 4290162586
-0.16163835 -0.013843054 1.3610001 4290162585
-0.16045721 -0.013843054 1.3610001 4290162586
-0.15915903 -0.013832883 1.36 4290097049
-0.15786259 -0.013822711 1.3590001 4290031256
-0.1565679 -0.01381254 1.358 4290031256
-0.15538935 -0.01381254 1.358 4290162842
-0.15421082 -0.01381254 1.358 4290228635
-0.15303227 -0.01381254 1.358 4290294172
-0.15185374 -0.01381254 1.358 4290293917
-0.15067519 -0.01381254 1.358 4290228124
-0.14949666 -0.01381254 1.358 4290162331
-0.14831813 -0.01381254 1.358 4290096537
-0.14713958 -0.01381254 1.358 4290030743
-0.14596105 -0.01381254 1.358 4289964950
-0.1447825 -0.01381254 1.358 4289964950
-0.14339247 -0.013792197 1.3560001 4290096536
-0.14221567 -0.013792197 1.3560001 4290228122
-0.14103886 -0.013792197 1.3560001 4290228122
-0.13996519 -0.013802368 1.3570001 4290162329
-0.13878752 -0.013802368 1.3570001 4290162329
-0.13781267 -0.013822711 1.3590001 4290228122
-0.13673382 -0.013832883 1.36 4290162329
-0.13555354 -0.013832883 1.36 4290096536
-0.13466968 -0.013863396 1.363 4290096536
-0.13358472 -0.013873567 1.3640001 4290096536
-0.13240097 -0.013873567 1.3640001 4290096536
-0.13140965 -0.01389391 1.3660001 4290096536
-0.13022415 -0.01389391 1.3660001 4290030743
-0.12903868 -0.01389391 1.3660001 4289899157
-0.12794678 -0.013904081 1.3670001 4289833365
-0.12685315 -0.013914252 1.368 4289833366
-0.12566595 -0.013914252 1.368 4289833366
-0.12456973 -0.013924423 1.3690001 4289701780
-0.12347176 -0.013934595 1.3700001 4289570194
-0.12228281 -0.013934595 1.3700001 4289438865
-0.12118224 -0.013944766 1.3710001 4289307279
-0.11999242 -0.013944766 1.3710001 4289175693
-0.11888926 -0.013954937 1.3720001 4289110157
-0.11769857 -0.013954937 1.3720001 4289044620
-0.11650788 -0.013954937 1.3720001 4288846984
-0.1153172 -0.013954937 1.3720001 4288649349
-0.1141265 -0.013954937 1.3720001 4288780935
-0.11293581 -0.013954937 1.3720001 4288912521
-0.11166368 -0.013944766 1.3710001 4288780935
-0.11047386 -0.013944766 1.3710001 4288583556
-0.10928404 -0.013944766 1.3710001 4288846728
-0.10809422 -0.013944766 1.3710001 4289241486
-0.10698237 -0.013954937 1.3720001 4289373072
-0.10579167 -0.013954937 1.3720001 4289241486
-0.10460099 -0.013954937 1.3720001 4289044107
-0.1034103 -0.013954937 1.3720001 4289044107
-0.1022196 -0.013954937 1.3720001 4288912521
-0.10095529 -0.013944766 1.3710001 4288780935
-0.099765465 -0.013944766 1.3710001 4288780935
-0.098575644 -0.013944766 1.3710001 4289043850
-0.097385824 -0.013944766 1.3710001 4289044107
-0.096125834 -0.013934595 1.3700001 4288780935
-0.094936885 -0.013934595 1.3700001 4288320384
-0.093747929 -0.013934595 1.3700001 4287728247
-0.092558973 -0.013934595 1.3700001 4287530612
-0.091303326 -0.013924423 1.3690001 4287398770
-0.090049416 -0.013914252 1.368 4287793528
-0.088797241 -0.013904081 1.3670001 4288188286
-0.087546803 -0.01389391 1.3660001 4288188286
-0.086361319 -0.01389391 1.3660001 4287859321
-0.085113481 -0.013883739 1.365 4287530356
-0.083867386 -0.013873567 1.3640001 4287530356
-0.082683638 -0.013873567 1.3640001 4287398770
-0.081499889 -0.013873567 1.3640001 4287398770
-0.080316149 -0.013873567 1.3640001 4287530612
-0.0791324 -0.013873567 1.3640001 4287399025
-0.077948652 -0.013873567 1.3640001 4287004270
-0.076821178 -0.013883739 1.365 4287004527
-0.075691983 -0.01389391 1.3660001 4287465078
-0.074506499 -0.01389391 1.3660001 4287859836
-0.073374696 -0.013904081 1.3670001 4287662714
-0.072399579 -0.013944766 1.3710001 4287070577
-0.071313635 -0.013965108 1.373 4286676591
-0.070173152 -0.013975279 1.3740001 4287005556
-0.069181539 -0.014015964 1.378 4287597439
-0.068034984 -0.014026136 1.3790001 4288123783
-0.066886686 -0.014036307 1.3800001 4287992457
-0.30071327 -0.012707347 1.365 4289703588
-0.29930919 -0.012698038 1.3640001 4289703074
-0.29812545 -0.012698038 1.3640001 4290097829
-0.29672399 -0.012688728 1.363 4290163364
-0.29554114 -0.012688728 1.363 4290097568
-0.29435825 -0.012688728 1.363 4290228896
-0.29317537 -0.012688728 1.363 4290360224
-0.29199249 -0.012688728 1.363 4290359967
-0.2908096 -0.012688728 1.363 4290294173
-0.28962675 -0.012688728 1.363 4290294428
-0.28865546 -0.012698038 1.3640001 4290360221
-0.28747174 -0.012698038 1.3640001 4290426014
-0.28628799 -0.012698038 1.3640001 4290426012
-0.28531328 -0.012707347 1.365 4290360219
-0.28412867 -0.012707347 1.365 4290294426
-0.28294405 -0.012707347 1.365 4290294426
-0.28196585 -0.012716657 1.3660001 4290360219
-0.28057483 -0.012707347 1.365 4290360219
-0.27939022 -0.012707347 1.365 4290294426
-0.2782056 -0.012707347 1.365 4290162840
-0.27702099 -0.012707347 1.365 4290162840
-0.27583638 -0.012707347 1.365 4290294426
-0.27465177 -0.012707347 1.365 4290360219
-0.27366748 -0.012716657 1.3660001 4290360219
-0.27248201 -0.012716657 1.3660001 4290294426
-0.2714951 -0.012725966 1.3670001 4290162840
-0.2705065 -0.012735275 1.368 4290162840
-0.26931927 -0.012735275 1.368 4290228633
-0.26813206 -0.012735275 1.368 4290294426
-0.26694486 -0.012735275 1.368 4290228633
-0.26536909 -0.012716657 1.3660001 4290228633
-0.26399022 -0.012707347 1.365 4290294426
-0.26280561 -0.012707347 1.365 4290162840
-0.26142931 -0.012698038 1.3640001 4290097047
-0.26005477 -0.012688728 1.363 4290228633
-0.25887188 -0.012688728 1.363 4290294426
-0.25768903 -0.012688728 1.363 4290162840
-0.25650615 -0.012688728 1.363 4290162840
-0.25513595 -0.012679419 1.3620001 4290294426
-0.25376749 -0.012670109 1.3610001 4290360219
-0.25258633 -0.012670109 1.3610001 4290360219
-0.25140518 -0.012670109 1.3610001 4290294426
-0.2500402 -0.0126608 1.36 4290294426
-0.24885993 -0.0126608 1.36 4290228633
-0.24767965 -0.0126608 1.36 4290294426
-0.24649937 -0.0126608 1.36 4290426012
-0.24549948 -0.012670109 1.3610001 4290360221
-0.24431834 -0.012670109 1.3610001 4290294428
-0.2431372 -0.012670109 1.3610001 4290228122
-0.24195606 -0.012670109 1.3610001 4290096536
-0.24095181 -0.012679419 1.3620001 4290096536
-0.2397698 -0.012679419 1.3620001 4290162329
-0.23876296 -0.012688728 1.363 4290228122
-0.23758008 -0.012688728 1.363 4290162329
-0.23657064 -0.012698038 1.3640001 4290162329
-0.23538689 -0.012698038 1.3640001 4290228122
-0.23420314 -0.012698038 1.3640001 4290228122
-0.2330194 -0.012698038 1.3640001 4290162328
-0.23183565 -0.012698038 1.3640001 4290096534
-0.2306519 -0.012698038 1.3640001 4290096790
-0.22963642 -0.012707347 1.365 4290031254
-0.2284518 -0.012707347 1.365 4290096791
-0.22743368 -0.012716657 1.3660001 4290096534
-0.22624819 -0.012716657 1.3660001 4290162325
-0.22506271 -0.012716657 1.3660001 4290228374
-0.224205 -0.012735275 1.368 4290294167
-0.2230178 -0.012735275 1.368 4290294167
-0.22183058 -0.012735275 1.368 4290294424
-0.22064336 -0.012735275 1.368 4290294424
-0.21945614 -0.012735275 1.368 4290360217
-0.21826892 -0.012735275 1.368 4290425753
-0.21692303 -0.012725966 1.3670001 4290425498
-0.21573667 -0.012725966 1.3670001 4290359706
-0.21455032 -0.012725966 1.3670001 4290293913
-0.21336398 -0.012725966 1.3670001 4290228121
-0.21217762 -0.012725966 1.3670001 4290228378
-0.21099128 -0.012725966 1.3670001 4290294172
-0.21011189 -0.012744584 1.3690001 4290162588
-0.2090764 -0.012753895 1.3700001 4290031002
-0.20803919 -0.012763203 1.3710001 4290162586
-0.20745288 -0.012800441 1.3750001 4290097049
-0.20640959 -0.012809751 1.376 4289965207
-0.20536456 -0.012819059 1.3770001 4289702291
-0.20491089 -0.012865607 1.3820001 4289438865
-0.20385893 -0.012874917 1.383 4289044107
-0.20295176 -0.012893535 1.3850001 4288320127
-0.20233245 -0.012930773 1.3890001 4287859576
-0.20112701 -0.012930773 1.3890001 4288056954
-0.20006551 -0.012940082 1.3900001 4288714883
-0.19900227 -0.012949391 1.391 4289174662
-0.19779508 -0.012949391 1.391 4289372042
-0.19658791 -0.012949391 1.391 4289569422
-0.19524027 -0.012940082 1.3900001 4289832594
-0.19389436 -0.012930773 1.3890001 4289832594
-0.19227274 -0.012902845 1.386 4289635215
-0.19093205 -0.012893535 1.3850001 4289635215
-0.18959309 -0.012884226 1.3840001 4289635215
-0.1878475 -0.012846989 1.3800001 4289635471
-0.18637937 -0.012828369 1.378 4289569679
-0.18504907 -0.012819059 1.3770001 4289241227
-0.18318647 -0.012772513 1.3720001 4288715139
-0.18173048 -0.012753895 1.3700001 4288715396
-0.18027796 -0.012735275 1.368 4289439119
-0.17895983 -0.012725966 1.3670001 4290031256
-0.17777348 -0.012725966 1.3670001 4290031256
-0.17658713 -0.012725966 1.3670001 4290162842
-0.17540078 -0.012725966 1.3670001 4290228378
-0.17408699 -0.012716657 1.3660001 4290228378
-0.17290151 -0.012716657 1.3660001 4290294171
-0.17171602 -0.012716657 1.3660001 4290097049
-0.17065538 -0.012725966 1.3670001 4290031256
-0.16934507 -0.012716657 1.3660001 4289899670
-0.16815957 -0.012716657 1.3660001 4289833877
-0.1669741 -0.012716657 1.3660001 4289899670
-0.16566724 -0.012707347 1.365 4289899670
-0.16436213 -0.012698038 1.3640001 4290031256
-0.16281949 -0.012670109 1.3610001 4290097049
-0.16163835 -0.012670109 1.3610001 4290031256
-0.16033931 -0.0126608 1.36 4290097049
-0.159042 -0.01265149 1.3590001 4290097049
-0.15774643 -0.012642181 1.358 4290031256
-0.1564526 -0.012632872 1.3570001 4290031256
-0.15527493 -0.012632872 1.3570001 4290162586
-0.15409724 -0.012632872 1.3570001 4290228378
-0.15291958 -0.012632872 1.3570001 4290293915
-0.15174191 -0.012632872 1.3570001 4290293916
-0.15056424 -0.012632872 1.3570001 4290162330
-0.14938657 -0.012632872 1.3570001 4290162330
-0.14809968 -0.012623562 1.3560001 4290162329
-0.14703122 -0.012632872 1.3570001 4290030743
-0.14585355 -0.012632872 1.3570001 4289964950
-0.14456926 -0.012623562 1.3560001 4290030743
-0.14328672 -0.012614252 1.355 4290228122
-0.14211079 -0.012614252 1.355 4290293915
-0.14093485 -0.012614252 1.355 4290228122
-0.13986206 -0.012623562 1.3560001 4290162329
-0.13868526 -0.012623562 1.3560001 4290162329
-0.13771127 -0.012642181 1.358 4290162329
-0.13663326 -0.01265149 1.3590001 4290228122
-0.13555354 -0.0126608 1.36 4290228122
-0.13466968 -0.012688728 1.363 4290096793
-0.13358472 -0.012698038 1.3640001 4290031000
-0.13240097 -0.012698038 1.3640001 4290031256
-0.13140965 -0.012716657 1.3660001 4289965207
-0.13022415 -0.012716657 1.3660001 4289702291
-0.12913314 -0.012725966 1.3670001 4289636498
-0.12804037 -0.012735275 1.368 4289767828
-0.12685315 -0.012735275 1.368 4289965207
-0.12575781 -0.012744584 1.3690001 4289899415
-0.12466072 -0.012753895 1.3700001 4289702037
-0.12347176 -0.012753895 1.3700001 4289504658
-0.12237206 -0.012763203 1.3710001 4289241486
-0.12127064 -0.012772513 1.3720001 4289044107
-0.12007995 -0.012772513 1.3720001 4289044108
-0.11888926 -0.012772513 1.3720001 4289109900
-0.11769857 -0.012772513 1.3720001 4289044108
-0.11650788 -0.012772513 1.3720001 4288715143
-0.1153172 -0.012772513 1.3720001 4288320385
-0.1141265 -0.012772513 1.3720001 4288189054
-0.11293581 -0.012772513 1.3720001 4288320897
-0.11174512 -0.012772513 1.3720001 4288386434
-0.11055443 -0.012772513 1.3720001 4288189311
-0.10936374 -0.012772513 1.3720001 4288123518
-0.10817305 -0.012772513 1.3720001 4288255104
-0.10698237 -0.012772513 1.3720001 4288715655
-0.10586879 -0.012781822 1.373 4288978827
-0.10467723 -0.012781822 1.373 4288978314
-0.1034103 -0.012772513 1.3720001 4288583556
-0.1022196 -0.012772513 1.3720001 4288188798
-0.10102892 -0.012772513 1.3720001 4287859833
-0.099838227 -0.012772513 1.3720001 4287925626
-0.098647542 -0.012772513 1.3720001 4288056955
-0.097385824 -0.012763203 1.3710001 4287728247
-0.096196003 -0.012763203 1.3710001 4287465075
-0.095006183 -0.012763203 1.3710001 4287399282
-0.093816362 -0.012763203 1.3710001 4287333489
-0.092558973 -0.012753895 1.3700001 4287333490
-0.091370024 -0.012753895 1.3700001 4287399027
-0.090115242 -0.012744584 1.3690001 4287464820
-0.088862196 -0.012735275 1.368 4287596149
-0.087610893 -0.012725966 1.3670001 4287464563
-0.086361319 -0.012716657 1.3660001 4287464563
-0.085175835 -0.012716657 1.3660001 4287464563
-0.083867386 -0.012698038 1.3640001 4287530356
-0.082683638 -0.012698038 1.3640001 4287398770
-0.081499889 -0.012698038 1.3640001 4287201391
-0.080316149 -0.012698038 1.3640001 4287135598
-0.0791324 -0.012698038 1.3640001 4287201391
-0.077948652 -0.012698038 1.3640001 4286938732
-0.076764904 -0.012698038 1.3640001 4286807146
-0.075636566 -0.012707347 1.365 4287004526
-0.074506499 -0.012716657 1.3660001 4287070320
-0.073321015 -0.012716657 1.3660001 4286938734
-0.072346769 -0.012753895 1.3700001 4286610026
-0.071209759 -0.012763203 1.3710001 4286215525
-0.070122078 -0.012781822 1.373 4286478440
-0.069131337 -0.012819059 1.3770001 4287334521
-0.068034984 -0.012837679 1.3790001 4287860866
-0.066886686 -0.012846989 1.3800001 4287795332
-0.30049294 -0.011522507 1.3640001 4289506465
-0.29908976 -0.01151406 1.363 4289900451
-0.29790688 -0.01151406 1.363 4290032291
-0.29650632 -0.011505613 1.3620001 4290163619
-0.2953243 -0.011505613 1.3620001 4290229410
-0.29414228 -0.011505613 1.3620001 4290294945
-0.29296029 -0.011505613 1.3620001 4290360481
-0.29177827 -0.011505613 1.3620001 4290359967
-0.2908096 -0.01151406 1.363 4290228636
-0.28962675 -0.01151406 1.363 4290294427
-0.28844386 -0.01151406 1.363 4290360219
-0.28747174 -0.011522507 1.3640001 4290426012
-0.28628799 -0.011522507 1.3640001 4290426013
-0.28510424 -0.011522507 1.3640001 4290425756
-0.2839205 -0.011522507 1.3640001 4290360220
-0.28294405 -0.011530956 1.365 4290360220
-0.28175944 -0.011530956 1.365 4290360219
-0.28057483 -0.011530956 1.365 4290426012
-0.2791855 -0.011522507 1.3640001 4290294426
-0.27800176 -0.011522507 1.3640001 4290228633
-0.27681801 -0.011522507 1.3640001 4290162840
-0.27563426 -0.011522507 1.3640001 4290228633
-0.27465177 -0.011530956 1.365 4290294426
-0.27346712 -0.011530956 1.365 4290228633
-0.27248201 -0.011539403 1.3660001 4290162840
-0.2712965 -0.011539403 1.3660001 4290162840
-0.27030876 -0.01154785 1.3670001 4290228633
-0.26912242 -0.01154785 1.3670001 4290294426
-0.26774007 -0.011539403 1.3660001 4290294426
-0.26655459 -0.011539403 1.3660001 4290294426
-0.26517484 -0.011530956 1.365 4290294426
-0.26379681 -0.011522507 1.3640001 4290294426
-0.26261306 -0.011522507 1.3640001 4290228633
-0.26123765 -0.01151406 1.363 4290031254
-0.25986397 -0.011505613 1.3620001 4290097047
-0.25887188 -0.01151406 1.363 4290097047
-0.25749996 -0.011505613 1.3620001 4290228633
-0.25631794 -0.011505613 1.3620001 4290228633
-0.25494862 -0.011497165 1.3610001 4290360219
-0.25358102 -0.011488718 1.36 4290360220
-0.25240076 -0.011488718 1.36 4290228635
-0.25122046 -0.011488718 1.36 4290228634
-0.2500402 -0.011488718 1.36 4290162840
-0.24885993 -0.011488718 1.36 4290162840
-0.24749754 -0.01148027 1.3590001 4290228633
-0.24649937 -0.011488718 1.36 4290359963
-0.2453191 -0.011488718 1.36 4290359964
-0.24413882 -0.011488718 1.36 4290425501
-0.2431372 -0.011497165 1.3610001 4290293915
-0.24195606 -0.011497165 1.3610001 4290228122
-0.2407749 -0.011497165 1.3610001 4290162329
-0.2397698 -0.011505613 1.3620001 4290227866
-0.2385878 -0.011505613 1.3620001 4290293145
-0.23705718 -0.011488718 1.36 4290293145
-0.23605034 -0.011497165 1.3610001 4290424731
-0.2348692 -0.011497165 1.3610001 4290556317
-0.23368806 -0.011497165 1.3610001 4290490524
-0.2325069 -0.011497165 1.3610001 4290293658
-0.23149572 -0.011505613 1.3620001 4290162329
-0.23031372 -0.011505613 1.3620001 4290096536
-0.22929993 -0.01151406 1.363 4290162329
-0.22794969 -0.011505613 1.3620001 4290228121
-0.22710069 -0.011522507 1.3640001 4290293913
-0.22591694 -0.011522507 1.3640001 4290228633
-0.22489795 -0.011530956 1.365 4290162840
-0.22404112 -0.01154785 1.3670001 4290228633
-0.2230178 -0.011556298 1.368 4290294426
-0.22183058 -0.011556298 1.368 4290294683
-0.22064336 -0.011556298 1.368 4290229146
-0.21945614 -0.011556298 1.368 4290163353
-0.21826892 -0.011556298 1.368 4290229146
-0.21692303 -0.01154785 1.3670001 4290360219
-0.21589449 -0.011556298 1.368 4290228633
-0.21470727 -0.011556298 1.368 4290162841
-0.21352005 -0.011556298 1.368 4290228635
-0.21233283 -0.011556298 1.368 4290097049
-0.21114561 -0.011556298 1.368 4290162842
-0.21026535 -0.011573194 1.3700001 4289965465
-0.20922901 -0.011581641 1.3710001 4289965209
-0.20819093 -0.011590089 1.3720001 4290031002
-0.20760375 -0.011623879 1.376 4289965209
-0.20640959 -0.011623879 1.376 4289767830
-0.20536456 -0.011632326 1.3770001 4289702037
-0.20461434 -0.011657669 1.3800001 4289636244
-0.20371152 -0.011674564 1.3820001 4289241486
-0.20265868 -0.011683012 1.383 4288385920
-0.20174979 -0.011699907 1.3850001 4287859576
-0.20054781 -0.011699907 1.3850001 4287859576
-0.19948977 -0.011708355 1.386 4288385920
-0.19828694 -0.011708355 1.386 4289043079
-0.1970841 -0.011708355 1.386 4289437837
-0.19588126 -0.011708355 1.386 4289701008
-0.19467843 -0.011708355 1.386 4289898387
-0.193336 -0.011699907 1.3850001 4289898387
-0.19199531 -0.011691459 1.3840001 4289766801
-0.19065633 -0.011683012 1.383 4289701008
-0.18931912 -0.011674564 1.3820001 4289832594
-0.18771139 -0.011649222 1.3790001 4289767571
-0.18637937 -0.011640774 1.378 4289701778
-0.18491469 -0.011623879 1.376 4289372813
-0.18318647 -0.011590089 1.3720001 4288912262
-0.18173048 -0.011573194 1.3700001 4288846982
-0.18027796 -0.011556298 1.368 4289504912
-0.17909074 -0.011556298 1.368 4290031256
-0.17790352 -0.011556298 1.368 4290097049
-0.17658713 -0.01154785 1.3670001 4290294428
-0.17540078 -0.01154785 1.3670001 4290360221
-0.17421442 -0.01154785 1.3670001 4290162842
-0.17302808 -0.01154785 1.3670001 4290097049
-0.17196743 -0.011556298 1.368 4289965463
-0.17078021 -0.011556298 1.368 4289899670
-0.16959299 -0.011556298 1.368 4289636498
-0.16828267 -0.01154785 1.3670001 4289439119
-0.16709633 -0.01154785 1.3670001 4289439119
-0.16566724 -0.011530956 1.365 4289636498
-0.16436213 -0.011522507 1.3640001 4289899670
-0.16269986 -0.011488718 1.36 4290031256
-0.16140081 -0.01148027 1.3590001 4289965463
-0.16010351 -0.011471822 1.358 4289833877
-0.15880793 -0.011463375 1.3570001 4289899670
-0.15728179 -0.011438032 1.3540001 4290096793
-0.15610671 -0.011438032 1.3540001 4290162585
-0.15481722 -0.011429585 1.353 4290162329
-0.15364303 -0.011429585 1.353 4290162329
-0.15246883 -0.011429585 1.353 4290228122
-0.15129463 -0.011429585 1.353 4290293915
-0.15000948 -0.011421137 1.3520001 4290228122
-0.14883615 -0.011421137 1.3520001 4290162329
-0.14755359 -0.011412689 1.3510001 4290162329
-0.14638112 -0.011412689 1.3510001 4290096536
-0.14531615 -0.011421137 1.3520001 4290030743
-0.14403619 -0.011412689 1.3510001 4290162329
-0.14286374 -0.011412689 1.3510001 4290228122
-0.14169127 -0.011412689 1.3510001 4290228122
-0.14062282 -0.011421137 1.3520001 4290162329
-0.13955262 -0.011429585 1.353 4290162329
-0.13837843 -0.011429585 1.353 4290162329
-0.13750845 -0.011454928 1.3560001 4290162329
-0.13643219 -0.011463375 1.3570001 4290162329
-0.13535419 -0.011471822 1.358 4290162329
-0.13457087 -0.011505613 1.3620001 4290030743
-0.13348679 -0.01151406 1.363 4289965207
-0.13240097 -0.011522507 1.3640001 4290030743
-0.13140965 -0.011539403 1.3660001 4289833620
-0.13031949 -0.01154785 1.3670001 4289636241
-0.12913314 -0.01154785 1.3670001 4289636498
-0.12813398 -0.011564746 1.3690001 4289768084
-0.1269459 -0.011564746 1.3690001 4289702291
-0.12584966 -0.011573194 1.3700001 4289307278
-0.1247517 -0.011581641 1.3710001 4288846728
-0.12356188 -0.011581641 1.3710001 4288583556
-0.12246133 -0.011590089 1.3720001 4288517763
-0.12135902 -0.011598536 1.373 4288649349
-0.12016746 -0.011598536 1.373 4288780936
-0.11897591 -0.011598536 1.373 4288846729
-0.11787014 -0.011606984 1.3740001 4288846729
-0.11667771 -0.011606984 1.3740001 4288649350
-0.11540124 -0.011598536 1.373 4288386178
-0.11420968 -0.011598536 1.373 4288254848
-0.11301813 -0.011598536 1.373 4288320897
-0.11182657 -0.011598536 1.373 4288452483
-0.11063501 -0.011598536 1.373 4288255104
-0.10944346 -0.011598536 1.373 4287728760
-0.1082519 -0.011598536 1.373 4287268209
-0.10706034 -0.011598536 1.373 4287465588
-0.10586879 -0.011598536 1.373 4288057725
-0.10467723 -0.011598536 1.373 4288254591
-0.10348567 -0.011598536 1.373 4287859833
-0.10229412 -0.011598536 1.373 4287465075
-0.10110255 -0.011598536 1.373 4287333489
-0.099910997 -0.011598536 1.373 4287465075
-0.09871944 -0.011598536 1.373 4287596661
-0.09745685 -0.011590089 1.3720001 4287267696
-0.096266165 -0.011590089 1.3720001 4287004524
-0.095075473 -0.011590089 1.3720001 4287070317
-0.093884781 -0.011590089 1.3720001 4287267696
-0.092626542 -0.011581641 1.3710001 4287465076
-0.091436714 -0.011581641 1.3710001 4287530869
-0.090181068 -0.011573194 1.3700001 4287398770
-0.088927157 -0.011564746 1.3690001 4287201391
-0.087610893 -0.01154785 1.3670001 4287332977
-0.086361319 -0.011539403 1.3660001 4287464563
-0.085113481 -0.011530956 1.365 4287398770
-0.083805896 -0.01151406 1.363 4287332977
-0.082562394 -0.011505613 1.3620001 4287332977
-0.081320643 -0.011497165 1.3610001 4287332977
-0.080139495 -0.011497165 1.3610001 4287135598
-0.078900337 -0.011488718 1.36 4286938219
-0.077720061 -0.011488718 1.36 4286872939
-0.076539785 -0.011488718 1.36 4286741353
-0.075359516 -0.011488718 1.36 4286609767
-0.07417924 -0.011488718 1.36 4286543974
-0.072998963 -0.011488718 1.36 4286346597
-0.071713075 -0.011471822 1.358 4286017632
-0.070482597 -0.011463375 1.3570001 4285886303
-0.30605033 -0.01041525 1.373 4293586152
-0.30397063 -0.010384907 1.3690001 4292270545
-0.30211905 -0.01036215 1.3660001 4290230188
-0.29983205 -0.010324221 1.3610001 4289440669
-0.29843146 -0.010316635 1.36 4289834653
-0.29725119 -0.010316635 1.36 4290097824
-0.29607093 -0.010316635 1.36 4290229411
-0.29489064 -0.010316635 1.36 4290295204
-0.29371038 -0.010316635 1.36 4290229410
-0.29253009 -0.010316635 1.36 4290229153
-0.29156405 -0.010324221 1.3610001 4290294174
-0.29038289 -0.010324221 1.3610001 4290228379
-0.28941426 -0.010331807 1.3620001 4290294426
-0.28823224 -0.010331807 1.3620001 4290294425
-0.28705022 -0.010331807 1.3620001 4290360217
-0.28586823 -0.010331807 1.3620001 4290425755
-0.28489521 -0.010339392 1.363 4290359708
-0.28371233 -0.010339392 1.363 4290359963
-0.28252947 -0.010339392 1.363 4290360219
-0.28134659 -0.010339392 1.363 4290360219
-0.28016371 -0.010339392 1.363 4290426012
-0.27898082 -0.010339392 1.363 4290360219
-0.27759415 -0.010331807 1.3620001 4290294426
-0.27641213 -0.010331807 1.3620001 4290162840
-0.27523011 -0.010331807 1.3620001 4290228633
-0.27424932 -0.010339392 1.363 4290228633
-0.27326676 -0.010346978 1.3640001 4290162840
-0.27208301 -0.010346978 1.3640001 4290097047
-0.27089927 -0.010346978 1.3640001 4290097047
-0.26971555 -0.010346978 1.3640001 4290162840
-0.2685318 -0.010346978 1.3640001 4290294426
-0.26734805 -0.010346978 1.3640001 4290294426
-0.2661643 -0.010346978 1.3640001 4290228633
-0.26498055 -0.010346978 1.3640001 4290294426
-0.26341 -0.010331807 1.3620001 4290228633
-0.26222801 -0.010331807 1.3620001 4290228633
-0.26085433 -0.010324221 1.3610001 4290162840
-0.25948241 -0.010316635 1.36 4290097047
-0.25830212 -0.010316635 1.36 4290031254
-0.25712186 -0.010316635 1.36 4290228633
-0.25556517 -0.010301463 1.358 4290360220
-0.25438663 -0.010301463 1.358 4290360221
-0.25302163 -0.010293878 1.3570001 4290360220
-0.25184396 -0.010293878 1.3570001 4290228635
-0.25066629 -0.010293878 1.3570001 4290162842
-0.24930479 -0.010286292 1.3560001 4290097049
-0.24812798 -0.010286292 1.3560001 4290097048
-0.24695118 -0.010286292 1.3560001 4290097047
-0.24577437 -0.010286292 1.3560001 4290096791
-0.24459757 -0.010286292 1.3560001 4290293915
-0.24360026 -0.010293878 1.3570001 4290359708
-0.2424226 -0.010293878 1.3570001 4290359708
-0.24124493 -0.010293878 1.3570001 4290228122
-0.24006726 -0.010293878 1.3570001 4290162329
-0.23906562 -0.010301463 1.358 4290162072
-0.23806228 -0.010309049 1.3590001 4290227352
-0.23688288 -0.010309049 1.3590001 4290293145
-0.2358769 -0.010316635 1.36 4290424731
-0.23469663 -0.010316635 1.36 4290556317
-0.23351635 -0.010316635 1.36 4290490524
-0.23233607 -0.010316635 1.36 4290359451
-0.23132576 -0.010324221 1.3610001 4290228122
-0.23014462 -0.010324221 1.3610001 4290096536
-0.22896348 -0.010324221 1.3610001 4290096536
-0.22778234 -0.010324221 1.3610001 4290228121
-0.22693419 -0.010339392 1.363 4290359706
-0.22591694 -0.010346978 1.3640001 4290228377
-0.22489795 -0.010354565 1.365 4290162840
-0.22404112 -0.010369736 1.3670001 4290162840
-0.22285476 -0.010369736 1.3670001 4290228633
-0.22183058 -0.010377321 1.368 4290229146
-0.22064336 -0.010377321 1.368 4290163353
-0.21945614 -0.010377321 1.368 4290163353
-0.21826892 -0.010377321 1.368 4290294939
-0.21692303 -0.010369736 1.3670001 4290228891
-0.21589449 -0.010377321 1.368 4290097306
-0.21470727 -0.010377321 1.368 4290031513
-0.21367614 -0.010384907 1.3690001 4290097049
-0.21248806 -0.010384907 1.3690001 4290097049
-0.21129997 -0.010384907 1.3690001 4290031256
-0.21041884 -0.010400078 1.3710001 4289965209
-0.20938163 -0.010407664 1.3720001 4289767830
-0.20834267 -0.01041525 1.373 4289833623
-0.20760375 -0.010438007 1.376 4289899416
-0.20640959 -0.010438007 1.376 4289702037
-0.20536456 -0.010445593 1.3770001 4289504658
-0.20461434 -0.010468351 1.3800001 4289044107
-0.20356412 -0.010475936 1.381 4288320384
-0.20251216 -0.010483522 1.3820001 4287859576
-0.20174979 -0.010506279 1.3850001 4287662197
-0.20054781 -0.010506279 1.3850001 4287859576
-0.19934584 -0.010506279 1.3850001 4288451713
-0.19814388 -0.010506279 1.3850001 4289108873
-0.1970841 -0.010513864 1.386 4289438095
-0.19573994 -0.010506279 1.3850001 4289832595
-0.19453797 -0.010506279 1.3850001 4289964180
-0.193336 -0.010506279 1.3850001 4290029973
-0.19185656 -0.010491109 1.383 4289964180
-0.19051848 -0.010483522 1.3820001 4289898643
-0.18918213 -0.010475936 1.381 4289964437
-0.18743913 -0.010445593 1.3770001 4289899157
-0.18610886 -0.010438007 1.376 4289899157
-0.18478031 -0.010430422 1.3750001 4289504400
-0.18318647 -0.010407664 1.3720001 4288846727
-0.18173048 -0.010392493 1.3700001 4288517762
-0.18027796 -0.010377321 1.368 4288912776
-0.17909074 -0.010377321 1.368 4289307534
-0.17790352 -0.010377321 1.368 4289833878
-0.17658713 -0.010369736 1.3670001 4289965464
-0.17540078 -0.010369736 1.3670001 4289965464
-0.17421442 -0.010369736 1.3670001 4289636243
-0.17315465 -0.010377321 1.368 4289044362
-0.17196743 -0.010377321 1.368 4288846982
-0.17078021 -0.010377321 1.368 4288978568
-0.16959299 -0.010377321 1.368 4288847239
-0.16828267 -0.010369736 1.3670001 4288846982
-0.16709633 -0.010369736 1.3670001 4288978568
-0.16566724 -0.010354565 1.365 4289241997
-0.16436213 -0.010346978 1.3640001 4289702291
-0.16269986 -0.010316635 1.36 4289899670
-0.16140081 -0.010309049 1.3590001 4289768084
-0.1599856 -0.010293878 1.3570001 4289570705
-0.15869091 -0.010286292 1.3560001 4289702291
-0.15716563 -0.010263535 1.353 4290030999
-0.15599142 -0.010263535 1.353 4290096536
-0.15470281 -0.01025595 1.3520001 4290030743
-0.15352948 -0.01025595 1.3520001 4290162329
-0.15235615 -0.01025595 1.3520001 4290293915
-0.15118282 -0.01025595 1.3520001 4290293915
-0.14978756 -0.010240777 1.35 4290228122
-0.14861597 -0.010240777 1.35 4290228122
-0.14744437 -0.010240777 1.35 4290162329
-0.14627278 -0.010240777 1.35 4290096536
-0.14510117 -0.010240777 1.35 4290162329
-0.14392959 -0.010240777 1.35 4290228122
-0.14275798 -0.010240777 1.35 4290162329
-0.14158639 -0.010240777 1.35 4290162329
-0.1405188 -0.010248364 1.3510001 4290162329
-0.13944949 -0.01025595 1.3520001 4290162329
-0.13827616 -0.01025595 1.3520001 4290228122
-0.13750845 -0.010286292 1.3560001 4290228122
-0.13633165 -0.010286292 1.3560001 4290162329
-0.1352545 -0.010293878 1.3570001 4290096536
-0.13447206 -0.010324221 1.3610001 4290030743
-0.13338885 -0.010331807 1.3620001 4290096536
-0.13240097 -0.010346978 1.3640001 4289964950
-0.13140965 -0.01036215 1.3660001 4289701778
-0.13031949 -0.010369736 1.3670001 4289373070
-0.12913314 -0.010369736 1.3670001 4289241740
-0.12813398 -0.010384907 1.3690001 4289044361
-0.1269459 -0.010384907 1.3690001 4288452224
-0.12584966 -0.010392493 1.3700001 4287794039
-0.1247517 -0.010400078 1.3710001 4287399282
-0.12365202 -0.010407664 1.3720001 4287399282
-0.12246133 -0.010407664 1.3720001 4287530868
-0.12135902 -0.01041525 1.373 4287728248
-0.12016746 -0.01041525 1.373 4287794041
-0.11906256 -0.010422836 1.3740001 4287794297
-0.11787014 -0.010422836 1.3740001 4287794554
-0.11667771 -0.010422836 1.3740001 4287860090
-0.11548529 -0.010422836 1.3740001 4287859834
-0.11420968 -0.01041525 1.373 4287794297
-0.11301813 -0.01041525 1.373 4287794554
-0.11182657 -0.01041525 1.373 4287728760
-0.11063501 -0.01041525 1.373 4287465588
-0.10944346 -0.01041525 1.373 4287005037
-0.10817305 -0.010407664 1.3720001 4286478693
-0.10698237 -0.010407664 1.3720001 4286544486
-0.10586879 -0.01041525 1.373 4287136623
-0.10467723 -0.01041525 1.373 4287399282
-0.10348567 -0.01041525 1.373 4287267696
-0.10229412 -0.01041525 1.373 4287070317
-0.10110255 -0.01041525 1.373 4287201903
-0.099910997 -0.01041525 1.373 4287399282
-0.09871944 -0.01041525 1.373 4287399282
-0.09745685 -0.010407664 1.3720001 4287136110
-0.096266165 -0.010407664 1.3720001 4286938731
-0.095075473 -0.010407664 1.3720001 4286872938
-0.093884781 -0.010407664 1.3720001 4287004524
-0.092626542 -0.010400078 1.3710001 4287070061
-0.091436714 -0.010400078 1.3710001 4287070061
-0.090181068 -0.010392493 1.3700001 4287069805
-0.088927157 -0.010384907 1.3690001 4287069805
-0.087546803 -0.01036215 1.3660001 4287267184
-0.086298093 -0.010354565 1.365 4287464563
-0.085113481 -0.010354565 1.365 4287201391
-0.083744407 -0.010331807 1.3620001 4287135598
-0.082501784 -0.010324221 1.3610001 4287004012
-0.08126089 -0.010316635 1.36 4287004012
-0.080080613 -0.010316635 1.36 4286872426
-0.078784309 -0.010301463 1.358 4286872426
-0.077605769 -0.010301463 1.358 4286741353
-0.076427229 -0.010301463 1.358 4286412388
-0.075248696 -0.010301463 1.358 4286346595
-0.074070156 -0.010301463 1.358 4286280802
-0.072837934 -0.010293878 1.3570001 4286346595
-0.071607456 -0.010286292 1.3560001 4286478182
-0.070378713 -0.010278706 1.355 4286478694
-0.30560455 -0.0092185158 1.3710001 4293191394
-0.30374858 -0.0091983443 1.368 4291349442
-0.30211905 -0.0091848969 1.3660001 4289769636
-0.29961175 -0.009144553 1.36 4289572253
-0.29843146 -0.009144553 1.36 4289834654
-0.29703262 -0.0091378288 1.3590001 4290032031
-0.29585323 -0.0091378288 1.3590001 4290229410
-0.29467383 -0.0091378288 1.3590001 4290163617
-0.29371038 -0.009144553 1.36 4290098079
-0.29253009 -0.009144553 1.36 4290163357
-0.29134983 -0.009144553 1.36 4290228379
-0.29038289 -0.0091512771 1.3610001 4290228635
-0.28920177 -0.0091512771 1.3610001 4290294427
-0.28802061 -0.0091512771 1.3610001 4290294425
-0.28705022 -0.0091580003 1.3620001 4290294424
-0.28586823 -0.0091580003 1.3620001 4290359963
-0.28468621 -0.0091580003 1.3620001 4290293915
-0.28371233 -0.0091647245 1.363 4290228378
-0.28252947 -0.0091647245 1.363 4290228634
-0.28134659 -0.0091647245 1.363 4290228633
-0.28016371 -0.0091647245 1.363 4290294426
-0.27877614 -0.0091580003 1.3620001 4290360219
-0.27759415 -0.0091580003 1.3620001 4290228633
-0.27641213 -0.0091580003 1.3620001 4290228633
-0.27523011 -0.0091580003 1.3620001 4290228377
-0.27424932 -0.0091647245 1.363 4290228376
-0.2728661 -0.0091580003 1.3620001 4290228120
-0.27168408 -0.0091580003 1.3620001 4290162584
-0.27070069 -0.0091647245 1.363 4290162327
-0.26951781 -0.0091647245 1.363 4290162840
-0.26833493 -0.0091647245 1.363 4290228633
-0.26734805 -0.0091714486 1.3640001 4290294426
-0.26596916 -0.0091647245 1.363 4290162840
-0.26478627 -0.0091647245 1.363 4290228633
-0.26341 -0.0091580003 1.3620001 4290294426
-0.26222801 -0.0091580003 1.3620001 4290228633
-0.26085433 -0.0091512771 1.3610001 4290228633
-0.25948241 -0.009144553 1.36 4290031254
-0.25830212 -0.009144553 1.36 4290031254
-0.2569328 -0.0091378288 1.3590001 4290162840
-0.25537699 -0.0091243815 1.3570001 4290294427
-0.25419933 -0.0091243815 1.3570001 4290228635
-0.25283518 -0.0091176573 1.3560001 4290294428
-0.25165838 -0.0091176573 1.3560001 4290294428
-0.25029686 -0.0091109332 1.355 4290228635
-0.24912094 -0.0091109332 1.355 4290031256
-0.247945 -0.0091109332 1.355 4289965463
-0.24676906 -0.0091109332 1.355 4290097047
-0.24559313 -0.0091109332 1.355 4290162584
-0.24441719 -0.0091109332 1.355 4290228122
-0.24324125 -0.0091109332 1.355 4290293915
-0.24224396 -0.0091176573 1.3560001 4290293915
-0.24106716 -0.0091176573 1.3560001 4290228121
-0.23989035 -0.0091176573 1.3560001 4290162327
-0.23888959 -0.0091243815 1.3570001 4290162071
-0.23771192 -0.0091243815 1.3570001 4290293143
-0.23670855 -0.0091311047 1.358 4290358936
-0.23553 -0.0091311047 1.358 4290358937
-0.23435147 -0.0091311047 1.358 4290490522
-0.23334466 -0.0091378288 1.3590001 4290556315
-0.23199439 -0.0091311047 1.358 4290424986
-0.23081584 -0.0091311047 1.358 4290228121
-0.22997552 -0.009144553 1.36 4290162327
-0.22879525 -0.009144553 1.36 4290030741
-0.22778234 -0.0091512771 1.3610001 4290030741
-0.22693419 -0.0091647245 1.363 4290228120
-0.22591694 -0.0091714486 1.3640001 4290294170
-0.22473319 -0.0091714486 1.3640001 4290294426
-0.22404112 -0.0091916202 1.3670001 4290228633
-0.22285476 -0.0091916202 1.3670001 4290228633
-0.22183058 -0.0091983443 1.368 4290163353
-0.22064336 -0.0091983443 1.368 4290294939
-0.21945614 -0.0091983443 1.368 4290294939
-0.21810937 -0.0091916202 1.3670001 4290360732
-0.2170817 -0.0091983443 1.368 4290294685
-0.21589449 -0.0091983443 1.368 4290228892
-0.21470727 -0.0091983443 1.368 4290163099
-0.21367614 -0.0092050675 1.3690001 4290031513
-0.21248806 -0.0092050675 1.3690001 4289899927
-0.21129997 -0.0092050675 1.3690001 4289702548
-0.21041884 -0.0092185158 1.3710001 4289768343
-0.20938163 -0.00922524 1.3720001 4289636757
-0.20834267 -0.0092319641 1.373 4289702037
-0.20760375 -0.0092521356 1.376 4289570451
-0.20640959 -0.0092521356 1.376 4289438865
-0.20536456 -0.0092588598 1.3770001 4289241486
-0.20461434 -0.0092790313 1.3800001 4288583556
-0.20356412 -0.0092857555 1.381 4287662197
-0.20251216 -0.0092924796 1.3820001 4287267439
-0.20160413 -0.0093059279 1.3840001 4287596404
-0.20040302 -0.0093059279 1.3840001 4288122748
-0.19920193 -0.0093059279 1.3840001 4288649092
-0.19814388 -0.0093126511 1.3850001 4288978057
-0.19694191 -0.0093126511 1.3850001 4289241229
-0.19559862 -0.0093059279 1.3840001 4289832853
-0.19439751 -0.0093059279 1.3840001 4289964438
-0.1931964 -0.0093059279 1.3840001 4289964180
-0.19171785 -0.0092924796 1.3820001 4290029973
-0.19024277 -0.0092790313 1.3800001 4289964950
-0.18904513 -0.0092790313 1.3800001 4289964950
-0.18743913 -0.0092588598 1.3770001 4289899158
-0.18610886 -0.0092521356 1.376 4289833365
-0.18478031 -0.0092454124 1.3750001 4289373072
-0.18305294 -0.0092185158 1.3710001 4288517763
-0.18173048 -0.0092117926 1.3700001 4287728247
-0.18027796 -0.0091983443 1.368 4287662710
-0.17909074 -0.0091983443 1.368 4288057212
-0.17790352 -0.0091983443 1.368 4288452226
-0.1767163 -0.0091983443 1.368 4288518020
-0.17552908 -0.0091983443 1.368 4288517763
-0.17434187 -0.0091983443 1.368 4288189055
-0.17315465 -0.0091983443 1.368 4287794296
-0.17196743 -0.0091983443 1.368 4287794551
-0.17078021 -0.0091983443 1.368 4288189053
-0.16959299 -0.0091983443 1.368 4288386688
-0.16828267 -0.0091916202 1.3670001 4288452481
-0.16709633 -0.0091916202 1.3670001 4288584067
-0.16566724 -0.0091781728 1.365 4288649860
-0.16424164 -0.0091647245 1.363 4288781189
-0.16258022 -0.0091378288 1.3590001 4288978825
-0.16128205 -0.0091311047 1.358 4289175947
-0.1599856 -0.0091243815 1.3570001 4289241740
-0.15857388 -0.0091109332 1.355 4289504912
-0.15704948 -0.0090907617 1.3520001 4289833877
-0.15587614 -0.0090907617 1.3520001 4290030743
-0.15458837 -0.0090840375 1.3510001 4290030743
-0.1534159 -0.0090840375 1.3510001 4290162329
-0.15224345 -0.0090840375 1.3510001 4290293915
-0.15095916 -0.0090773134 1.35 4290293915
-0.14967662 -0.0090705892 1.3490001 4290228122
-0.14850588 -0.0090705892 1.3490001 4290228122
-0.14733516 -0.0090705892 1.3490001 4290162329
-0.14616443 -0.0090705892 1.3490001 4290096536
-0.14499371 -0.0090705892 1.3490001 4290162329
-0.14382297 -0.0090705892 1.3490001 4290162329
-0.14265224 -0.0090705892 1.3490001 4290162330
-0.14137663 -0.009063866 1.348 4290228123
-0.14041479 -0.0090773134 1.35 4290228123
-0.13934633 -0.0090840375 1.3510001 4290228124
-0.13817388 -0.0090840375 1.3510001 4290228123
-0.13740705 -0.0091109332 1.355 4290228123
-0.13633165 -0.0091176573 1.3560001 4290162330
-0.1352545 -0.0091243815 1.3570001 4290162329
-0.13447206 -0.0091512771 1.3610001 4290162329
-0.13338885 -0.0091580003 1.3620001 4290228122
-0.13230392 -0.0091647245 1.363 4289964950
-0.13140965 -0.0091848969 1.3660001 4289570192
-0.13031949 -0.0091916202 1.3670001 4289109899
-0.12913314 -0.0091916202 1.3670001 4288649348
-0.12813398 -0.0092050675 1.3690001 4287991675
-0.1269459 -0.0092050675 1.3690001 4287202159
-0.12584966 -0.0092117926 1.3700001 4286543973
-0.1247517 -0.0092185158 1.3710001 4286412387
-0.12365202 -0.00922524 1.3720001 4286675815
-0.12246133 -0.00922524 1.3720001 4286873451
-0.12135902 -0.0092319641 1.373 4286807659
-0.12025499 -0.0092386883 1.3740001 4286478694
-0.11906256 -0.0092386883 1.3740001 4286544231
-0.11787014 -0.0092386883 1.3740001 4286873452
-0.11667771 -0.0092386883 1.3740001 4287267954
-0.11548529 -0.0092386883 1.3740001 4287333490
-0.11420968 -0.0092319641 1.373 4287136111
-0.11301813 -0.0092319641 1.373 4287004525
-0.11182657 -0.0092319641 1.373 4286938731
-0.11055443 -0.00922524 1.3720001 4286807401
-0.10936374 -0.00922524 1.3720001 4286610022
-0.10817305 -0.00922524 1.3720001 4286478693
-0.10698237 -0.00922524 1.3720001 4286478437
-0.10586879 -0.0092319641 1.373 4286675816
-0.10467723 -0.0092319641 1.373 4286807401
-0.10348567 -0.0092319641 1.373 4287004524
-0.10229412 -0.0092319641 1.373 4287070317
-0.10110255 -0.0092319641 1.373 4287070317
-0.099910997 -0.0092319641 1.373 4287070318
-0.09871944 -0.0092319641 1.373 4287136110
-0.09745685 -0.00922524 1.3720001 4286872938
-0.096266165 -0.00922524 1.3720001 4286741352
-0.095075473 -0.00922524 1.3720001 4286741352
-0.093884781 -0.00922524 1.3720001 4286741352
-0.092626542 -0.0092185158 1.3710001 4286609510
-0.091436714 -0.0092185158 1.3710001 4286609254
-0.090181068 -0.0092117926 1.3700001 4286872426
-0.088862196 -0.0091983443 1.368 4287135598
-0.087546803 -0.0091848969 1.3660001 4287332977
-0.086298093 -0.0091781728 1.365 4287267184
-0.085051127 -0.0091714486 1.3640001 4287069805
-0.083682925 -0.0091512771 1.3610001 4286740840
-0.082441159 -0.009144553 1.36 4286675047
-0.081201136 -0.0091378288 1.3590001 4286740840
-0.07996285 -0.0091311047 1.358 4286872426
-0.078726292 -0.0091243815 1.3570001 4286872426
-0.07749147 -0.0091176573 1.3560001 4286872426
-0.076314665 -0.0091176573 1.3560001 4287004012
-0.075137869 -0.0091176573 1.3560001 4287267184
-0.073906526 -0.0091109332 1.355 4287333233
-0.072730586 -0.0091109332 1.355 4287662198
-0.071501844 -0.009104209 1.3540001 4288123006
-0.07027483 -0.0090974849 1.353 4288386178
-0.30538163 -0.0080310917 1.3700001 4292862428
-0.30374858 -0.0080193672 1.368 4290625460
-0.30189788 -0.0080017811 1.365 4289506717
-0.29939145 -0.0079666078 1.3590001 4289704092
-0.29821205 -0.0079666078 1.3590001 4289900700
-0.29703262 -0.0079666078 1.3590001 4290032029
-0.29585323 -0.0079666078 1.3590001 4290032029
-0.29467383 -0.0079666078 1.3590001 4289966492
-0.2934944 -0.0079666078 1.3590001 4290032284
-0.29231501 -0.0079666078 1.3590001 4290097819
-0.29134983 -0.0079724705 1.36 4290228635
-0.29016954 -0.0079724705 1.36 4290294428
-0.28920177 -0.0079783332 1.3610001 4290294429
-0.28802061 -0.0079783332 1.3610001 4290294171
-0.28705022 -0.0079841949 1.3620001 4290228634
-0.28586823 -0.0079841949 1.3620001 4290228380
-0.28468621 -0.0079841949 1.3620001 4290162331
-0.28371233 -0.0079900566 1.363 4290097050
-0.28252947 -0.0079900566 1.363 4290097049
-0.28134659 -0.0079900566 1.363 4290031256
-0.28016371 -0.0079900566 1.363 4290162841
-0.27877614 -0.0079841949 1.3620001 4290294170
-0.27759415 -0.0079841949 1.3620001 4290228376
-0.27641213 -0.0079841949 1.3620001 4290228120
-0.27502805 -0.0079783332 1.3610001 4290228120
-0.27404812 -0.0079841949 1.3620001 4290228120
-0.2728661 -0.0079841949 1.3620001 4290228120
-0.27168408 -0.0079841949 1.3620001 4290228120
-0.27050209 -0.0079841949 1.3620001 4290162327
-0.26951781 -0.0079900566 1.363 4290162583
-0.26833493 -0.0079900566 1.363 4290228376
-0.26715204 -0.0079900566 1.363 4290294169
-0.26596916 -0.0079900566 1.363 4290294169
-0.26478627 -0.0079900566 1.363 4290294170
-0.26341 -0.0079841949 1.3620001 4290425755
-0.26203549 -0.0079783332 1.3610001 4290294426
-0.26085433 -0.0079783332 1.3610001 4290162840
-0.25948241 -0.0079724705 1.36 4290031254
-0.25811219 -0.0079666078 1.3590001 4290097047
-0.25655466 -0.0079548843 1.3570001 4290031256
-0.25537699 -0.0079548843 1.3570001 4290097048
-0.25401199 -0.0079490226 1.3560001 4290162842
-0.25264874 -0.0079431599 1.355 4290360221
-0.2514728 -0.0079431599 1.355 4290491807
-0.25011215 -0.0079372982 1.3540001 4290360221
-0.24893709 -0.0079372982 1.3540001 4290031256
-0.24776201 -0.0079372982 1.3540001 4290031256
-0.24640483 -0.0079314355 1.353 4290162842
-0.24541187 -0.0079372982 1.3540001 4290294171
-0.24423681 -0.0079372982 1.3540001 4290293915
-0.24306174 -0.0079372982 1.3540001 4290228122
-0.24206531 -0.0079431599 1.355 4290162329
-0.24088939 -0.0079431599 1.355 4290162328
-0.23971345 -0.0079431599 1.355 4290162327
-0.23871355 -0.0079490226 1.3560001 4290293656
-0.23753674 -0.0079490226 1.3560001 4290424729
-0.23635994 -0.0079490226 1.3560001 4290358936
-0.23518313 -0.0079490226 1.3560001 4290358936
-0.23400633 -0.0079490226 1.3560001 4290359193
-0.23248613 -0.0079372982 1.3540001 4290359706
-0.23148189 -0.0079431599 1.355 4290359449
-0.23047592 -0.0079490226 1.3560001 4290228120
-0.22963731 -0.0079607461 1.358 4290162327
-0.22862703 -0.0079666078 1.3590001 4290096534
-0.22761498 -0.0079724705 1.36 4290096534
-0.22693419 -0.0079900566 1.363 4290162327
-0.22591694 -0.0079959184 1.3640001 4290030998
-0.22473319 -0.0079959184 1.3640001 4290031254
-0.22404112 -0.0080135055 1.3670001 4290162840
