# .PCD v0.7 - Point Cloud Data file format
VERSION 0.7
FIELDS x y z rgba
SIZE 4 4 4 4
TYPE F F F U
COUNT 1 1 1 1
WIDTH 1097
HEIGHT 1
VIEWPOINT 0 0 0 1 0 0 0
POINTS 1097
DATA ascii
-0.28698543 0.027449904 1.373 4286677117
-0.28433681 0.027309956 1.3660001 4287400324
-0.28315133 0.027309956 1.3660001 4287400063
-0.281553 0.027269971 1.3640001 4287005305
-0.28036925 0.027269971 1.3640001 4286610544
-0.2791855 0.027269971 1.3640001 4286675823
-0.27779794 0.027249977 1.363 4286873200
-0.27661508 0.027249977 1.363 4287202163
-0.2754322 0.027249977 1.363 4287465335
-0.27404812 0.027229985 1.3620001 4287530871
-0.2728661 0.027229985 1.3620001 4287530871
-0.27168408 0.027229985 1.3620001 4287530871
-0.27070069 0.027249977 1.363 4287596664
-0.26951781 0.027249977 1.363 4287530871
-0.2685318 0.027269971 1.3640001 4287333492
-0.26774007 0.027309956 1.3660001 4287136113
-0.26674971 0.027329948 1.3670001 4287070063
-0.26575762 0.02734994 1.368 4287069805
-0.26495719 0.027389925 1.3700001 4286938218
-0.26376826 0.027389925 1.3700001 4286806888
-0.26257929 0.027389925 1.3700001 4286609509
-0.26158115 0.027409919 1.3710001 4286412130
-0.26058125 0.02742991 1.3720001 4286477922
-0.25939056 0.02742991 1.3720001 4286609507
-0.25838807 0.027449904 1.373 4286741093
-0.25719652 0.027449904 1.373 4286741093
-0.2561914 0.027469898 1.3740001 4286741093
-0.25537014 0.027509883 1.376 4286609250
-0.25436074 0.027529875 1.3770001 4286280542
-0.25334954 0.027549867 1.378 4285885784
-0.25251961 0.027589852 1.3800001 4285622612
-0.25132197 0.027589852 1.3800001 4285425233
-0.24994311 0.02756986 1.3790001 4285227855
-0.24856597 0.027549867 1.378 4285162063
-0.24737008 0.027549867 1.378 4285688151
-0.2451023 0.02742991 1.3720001 4286543461
-0.24355604 0.027389925 1.3700001 4287332977
-0.24201328 0.02734994 1.368 4287530356
-0.23906562 0.027150013 1.358 4287332977
-0.23753674 0.027110029 1.3560001 4287332977
-0.2353141 0.026990073 1.35 4287398771
-0.23396908 0.026970081 1.3490001 4287332979
-0.23262578 0.026950089 1.348 4287332979
-0.23094079 0.026890108 1.345 4287398772
-0.22977354 0.026890108 1.345 4287464822
-0.22843632 0.026870117 1.3440001 4287662457
-0.22710083 0.026850125 1.3430001 4287596664
-0.22576708 0.026830131 1.342 4287399285
-0.22410032 0.026770154 1.3390001 4287267699
-0.22293827 0.026770154 1.3390001 4287267699
-0.22161061 0.026750162 1.3380001 4287267956
-0.22011989 0.026710177 1.3360001 4287399542
-0.21896045 0.026710177 1.3360001 4287333749
-0.217801 0.026710177 1.3360001 4287267956
-0.21647941 0.026690183 1.335 4287136370
-0.21532083 0.026690183 1.335 4287004784
-0.21416225 0.026690183 1.335 4286938991
-0.21316321 0.026710177 1.3360001 4286873198
-0.21216246 0.026730169 1.337 4286938734
-0.21100214 0.026730169 1.337 4286872941
-0.21015573 0.026770154 1.3390001 4287004525
-0.20914976 0.026790146 1.34 4287201904
-0.20814206 0.026810139 1.3410001 4287332977
-0.20759565 0.026890108 1.345 4287069805
-0.20658188 0.026910102 1.3460001 4286806632
-0.20556636 0.026930094 1.3470001 4286806632
-0.20515609 0.027030058 1.3520001 4286741095
-0.20413363 0.027050052 1.353 4286806888
-0.20310943 0.027070044 1.3540001 4286871911
-0.20238177 0.027130021 1.3570001 4286608739
-0.20135239 0.027150013 1.358 4286411358
-0.20032124 0.027170006 1.3590001 4286345565
-0.19958144 0.027229985 1.3620001 4286477151
-0.19854511 0.027249977 1.363 4286542944
-0.19736223 0.027249977 1.363 4286542944
-0.19646721 0.027289962 1.365 4286477152
-0.19542566 0.027309956 1.3660001 4286411359
-0.19424018 0.027309956 1.3660001 4286345567
-0.19305471 0.027309956 1.3660001 4286345567
-0.19200967 0.027329948 1.3670001 4286213980
-0.19082333 0.027329948 1.3670001 4285950807
-0.18963698 0.027329948 1.3670001 4285556049
-0.18845062 0.027329948 1.3670001 4285556049
-0.18726428 0.027329948 1.3670001 4285885014
-0.18621404 0.02734994 1.368 4286016599
-0.18502682 0.02734994 1.368 4285950806
-0.1838396 0.02734994 1.368 4285885013
-0.18251887 0.027329948 1.3670001 4285885013
-0.18133253 0.027329948 1.3670001 4285885012
-0.18014617 0.027329948 1.3670001 4285687633
-0.17895983 0.027329948 1.3670001 4285687633
-0.17777348 0.027329948 1.3670001 4285753426
-0.17658713 0.027329948 1.3670001 4285950805
-0.17540078 0.027329948 1.3670001 4286016598
-0.17421442 0.027329948 1.3670001 4286213978
-0.17315465 0.02734994 1.368 4286280028
-0.17196743 0.02734994 1.368 4286148956
-0.17090507 0.027369933 1.3690001 4285951578
-0.16971697 0.027369933 1.3690001 4285688407
-0.16852888 0.027369933 1.3690001 4285556821
-0.1673408 0.027369933 1.3690001 4285556821
-0.16615272 0.027369933 1.3690001 4285688406
-0.16496463 0.027369933 1.3690001 4285819992
-0.16365691 0.02734994 1.368 4285819992
-0.16223218 0.027309956 1.3660001 4285754198
-0.16092879 0.027289962 1.365 4285688149
-0.15927605 0.027209993 1.3610001 4285819734
-0.15786259 0.027170006 1.3590001 4286017113
-0.1564526 0.027130021 1.3570001 4286148700
-0.14479466 0.026090404 1.3050001 4290030745
-0.14355202 0.02607041 1.304 4290425503
-0.14231113 0.026050419 1.3030001 4290491296
-0.14053021 0.025930462 1.2970001 4290293917
-0.13929714 0.025910469 1.296 4290228124
-0.13806579 0.025890477 1.2950001 4290293917
-0.13683617 0.025870483 1.294 4290359708
-0.1356083 0.025850492 1.2930001 4290293915
-0.13448617 0.025850492 1.2930001 4290359708
-0.13326089 0.0258305 1.2920001 4290359708
-0.13213964 0.0258305 1.2920001 4290293915
-0.13101837 0.0258305 1.2920001 4290228122
-0.12999766 0.025850492 1.2930001 4290228122
-0.1289752 0.025870483 1.294 4290293915
-0.1278522 0.025870483 1.294 4290293915
-0.12692508 0.025910469 1.296 4290228122
-0.12580036 0.025910469 1.296 4290293915
-0.12467562 0.025910469 1.296 4290359708
-0.12383688 0.025970448 1.299 4290228635
-0.12280401 0.025990441 1.3000001 4290360221
-0.12176939 0.026010433 1.3010001 4290360221
-0.12091851 0.02607041 1.304 4290228635
-0.1198787 0.026090404 1.3050001 4290097049
-0.11883715 0.026110396 1.3060001 4289702291
-0.11797412 0.026170373 1.309 4289175947
-0.11692736 0.026190367 1.3100001 4288715396
-0.11587887 0.02621036 1.3110001 4288518017
-0.11500368 0.026270337 1.314 4288518017
-0.11394998 0.026290331 1.3150001 4287794294
-0.11289454 0.026310323 1.3160001 4287070571
-0.11209213 0.026390294 1.3200001 4286807399
-0.11103062 0.026410285 1.3210001 4286675813
-0.10996737 0.026430279 1.322 4286741606
-0.10906702 0.026490258 1.325 4286610020
-0.10791712 0.026490258 1.325 4286412641
-0.1068478 0.02651025 1.3260001 4285952090
-0.10577673 0.026530242 1.327 4285754454
-0.10462511 0.026530242 1.327 4285622612
-0.10347347 0.026530242 1.327 4285754198
-0.10239894 0.026550235 1.3280001 4285951578
-0.10124644 0.026550235 1.3280001 4286017371
-0.10001856 0.026530242 1.327 4286148957
-0.098792426 0.02651025 1.3260001 4286214749
-0.097641654 0.02651025 1.3260001 4286346335
-0.09649089 0.02651025 1.3260001 4286609509
-0.09526822 0.026490258 1.325 4286741095
-0.094118319 0.026490258 1.325 4286610020
-0.09289825 0.026470264 1.3240001 4286478434
-0.091749214 0.026470264 1.3240001 4286346850
-0.090600185 0.026470264 1.3240001 4286412387
-0.089316033 0.026430279 1.322 4286543973
-0.088168733 0.026430279 1.322 4286675815
-0.08702144 0.026430279 1.322 4286675816
-0.085809186 0.026410285 1.3210001 4286478694
-0.084662758 0.026410285 1.3210001 4286412901
-0.083516322 0.026410285 1.3210001 4286478694
-0.082307547 0.026390294 1.3200001 4286478438
-0.081161983 0.026390294 1.3200001 4286675560
-0.079895183 0.026350308 1.3180001 4286807148
-0.078751355 0.026350308 1.3180001 4287004527
-0.077607535 0.026350308 1.3180001 4287201906
-0.076347679 0.026310323 1.3160001 4286938734
-0.075205594 0.026310323 1.3160001 4286872426
-0.074007221 0.026290331 1.3150001 4286872426
-0.072866 0.026290331 1.3150001 4287004012
-0.071615696 0.026250346 1.3130001 4287135598
-0.07042253 0.026230352 1.312 4287464818
-0.0692311 0.02621036 1.3110001 4287464818
-0.067989476 0.026170373 1.309 4287333231
-0.066853456 0.026170373 1.309 4287070060
-0.06556683 0.026110396 1.3060001 4287332460
-0.06438408 0.026090404 1.3050001 4287398510
-0.06325154 0.026090404 1.3050001 4287529839
-0.062023796 0.026050419 1.3030001 4287398253
-0.060892988 0.026050419 1.3030001 4287661427
-0.059762184 0.026050419 1.3030001 4287924599
-0.058631375 0.026050419 1.3030001 4287924599
-0.057500567 0.026050419 1.3030001 4287530097
-0.056369759 0.026050419 1.3030001 4287464818
-0.055238951 0.026050419 1.3030001 4287991162
-0.054149669 0.02607041 1.304 4288912264
-0.053017993 0.02607041 1.304 4289307022
-0.051926106 0.026090404 1.3050001 4289109388
-0.050832488 0.026110396 1.3060001 4288912009
-0.049737129 0.026130389 1.307 4288583557
-0.0487516 0.02621036 1.3110001 4288386178
-0.047686484 0.026250346 1.3130001 4288123006
-0.046617903 0.026290331 1.3150001 4288254592
-0.045753345 0.026450273 1.3230001 4288189312
-0.044672612 0.026490258 1.325 4288057726
-0.043588407 0.026530242 1.327 4287860347
-0.042692605 0.026690183 1.335 4287728761
-0.040435933 0.026730169 1.337 4287794554
-0.039334372 0.026770154 1.3390001 4287662968
-0.038286354 0.026850125 1.3430001 4287728761
-0.037120834 0.026850125 1.3430001 4287728761
-0.035955314 0.026850125 1.3430001 4287399796
-0.034815695 0.026870117 1.3440001 4287005038
-0.033674341 0.026890108 1.345 4286807659
-0.031409733 0.026950089 1.348 4287004525
-0.030262304 0.026970081 1.3490001 4287070318
-0.028065728 0.027110029 1.3560001 4287465078
-0.026928583 0.027150013 1.358 4287596664
-0.02580693 0.027209993 1.3610001 4287596664
-0.024752446 0.02734994 1.368 4287596664
-0.023599681 0.027389925 1.3700001 4287596664
-0.022443442 0.02742991 1.3720001 4287662457
-0.021330206 0.027529875 1.3770001 4287662457
-0.020149799 0.027549867 1.378 4287530871
-0.018953905 0.027549867 1.378 4287530871
-0.017822441 0.027649829 1.383 4287596664
-0.016634224 0.027669823 1.3840001 4287662714
-0.015444272 0.027689815 1.3850001 4287794300
-0.014252585 0.027709808 1.386 4287860093
-0.013087407 0.027789779 1.3900001 4287860093
-0.011889644 0.027809771 1.391 4287728507
-0.010682466 0.027809771 1.391 4287728507
-0.0095093474 0.027909733 1.396 4287662714
-0.0083097173 0.027949721 1.3980001 4287728507
-0.0071066166 0.027989706 1.4000001 4287991681
-0.0059168776 0.02810966 1.406 4288057474
-0.0047000223 0.028129654 1.4070001 4288189060
-0.0034814312 0.028149646 1.4080001 4288452232
-0.0022611043 0.028169638 1.409 4288583816
-0.0010434632 0.028309589 1.416 4288583816
0.00018567311 0.028349573 1.4180001 4288189058
0.0014182808 0.028389556 1.4200001 4287662714
0.0026636932 0.028529506 1.427 4287596921
0.0039048484 0.0285495 1.4280001 4287728507
0.0051513417 0.028589483 1.4300001 4287728507
0.0064102467 0.028669454 1.434 4287728507
0.0076600807 0.028689448 1.4350001 4287596921
0.0089116497 0.02870944 1.4360001 4287267956
0.010186176 0.02878941 1.4400001 4287202165
0.01144382 0.028809404 1.4410001 4287465337
0.012703201 0.028829398 1.442 4287662716
0.013993348 0.028909365 1.4460001 4287860095
0.015258804 0.028929358 1.447 4287991683
0.016537407 0.028969347 1.4490001 4287991428
0.017868606 0.029089302 1.455 4287794821
-0.29084384 0.028779173 1.3800001 4293191911
-0.28880665 0.028695755 1.376 4289111716
-0.28698543 0.02863319 1.373 4286677373
-0.28454497 0.028508062 1.3670001 4287334531
-0.28315133 0.028487209 1.3660001 4287268477
-0.281553 0.028445499 1.3640001 4286873719
-0.28036925 0.028445499 1.3640001 4286544751
-0.2791855 0.028445499 1.3640001 4286544750
-0.27779794 0.028424647 1.363 4286676335
-0.27661508 0.028424647 1.363 4287202163
-0.2754322 0.028424647 1.363 4287531128
-0.27424932 0.028424647 1.363 4287531128
-0.27306643 0.028424647 1.363 4287465335
-0.27188355 0.028424647 1.363 4287399285
-0.27070069 0.028424647 1.363 4287399542
-0.26951781 0.028424647 1.363 4287399285
-0.2685318 0.028445499 1.3640001 4287202163
-0.26774007 0.028487209 1.3660001 4287004784
-0.26674971 0.028508062 1.3670001 4287004527
-0.26556337 0.028508062 1.3670001 4287136111
-0.2647638 0.028549772 1.3690001 4286938475
-0.26376826 0.028570628 1.3700001 4286740840
-0.26257929 0.028570628 1.3700001 4286543717
-0.26158115 0.02859148 1.3710001 4286477923
-0.26058125 0.028612336 1.3720001 4286609508
-0.25939056 0.028612336 1.3720001 4286806886
-0.25838807 0.02863319 1.373 4286806886
-0.25719652 0.02863319 1.373 4286741093
-0.2561914 0.028654043 1.3740001 4286543714
-0.25537014 0.028695755 1.376 4286280542
-0.25436074 0.028716607 1.3770001 4286017113
-0.25334954 0.028737461 1.378 4285819221
-0.25251961 0.028779173 1.3800001 4285622099
-0.25132197 0.028779173 1.3800001 4285491026
-0.24994311 0.028758317 1.3790001 4285819992
-0.24856597 0.028737461 1.378 4286543716
-0.24719056 0.028716607 1.3770001 4287398770
-0.2451023 0.028612336 1.3720001 4288056700
-0.24355604 0.028570628 1.3700001 4288188286
-0.24183637 0.028508062 1.3670001 4287925114
-0.23906562 0.028320372 1.358 4287596149
-0.23753674 0.028278664 1.3560001 4287596149
-0.2354884 0.028174391 1.3510001 4287530358
-0.23414251 0.028153537 1.35 4287464565
-0.23279834 0.028132683 1.3490001 4287399029
-0.2311125 0.02807012 1.3460001 4287333492
-0.22977354 0.028049264 1.345 4287465078
-0.22860628 0.028049264 1.345 4287662457
-0.22710083 0.028007556 1.3430001 4287596664
-0.22576708 0.027986702 1.342 4287399285
-0.22426769 0.027944991 1.34 4287399285
-0.22293827 0.027924137 1.3390001 4287399285
-0.22177622 0.027924137 1.3390001 4287530871
-0.22028466 0.027882429 1.337 4287465078
-0.21912435 0.027882429 1.337 4287202163
-0.21796404 0.027882429 1.337 4287136370
-0.21680371 0.027882429 1.337 4287004784
-0.21564341 0.027882429 1.337 4286873198
-0.2144831 0.027882429 1.337 4286938734
-0.21348232 0.027903283 1.3380001 4286938734
-0.21232115 0.027903283 1.3380001 4286938734
-0.21131778 0.027924137 1.3390001 4287004527
-0.21046963 0.027965847 1.3410001 4287135854
-0.20946191 0.027986702 1.342 4287135855
-0.20845249 0.028007556 1.3430001 4287004012
-0.20775001 0.02807012 1.3460001 4286740840
-0.20673536 0.028090972 1.3470001 4286543461
-0.20571896 0.028111828 1.348 4286543461
-0.20515609 0.028195245 1.3520001 4286543716
-0.20413363 0.028216101 1.353 4286609509
-0.20310943 0.028236955 1.3540001 4286674532
-0.20253092 0.028320372 1.358 4286542946
-0.20135239 0.028320372 1.358 4286477151
-0.20032124 0.028341228 1.3590001 4286477151
-0.19958144 0.028403791 1.3620001 4286608224
-0.19854511 0.028424647 1.363 4286674017
-0.19750702 0.028445499 1.3640001 4286542687
-0.19661115 0.028487209 1.3660001 4286411358
-0.19542566 0.028487209 1.3660001 4286345565
-0.19424018 0.028487209 1.3660001 4286345565
-0.19319603 0.028508062 1.3670001 4286477152
-0.19200967 0.028508062 1.3670001 4286345566
-0.19082333 0.028508062 1.3670001 4286082392
-0.18963698 0.028508062 1.3670001 4285819220
-0.18845062 0.028508062 1.3670001 4285819219
-0.18740126 0.028528918 1.368 4285950805
-0.18621404 0.028528918 1.368 4286016598
-0.18489158 0.028508062 1.3670001 4285950805
-0.18370523 0.028508062 1.3670001 4285885012
-0.18251887 0.028508062 1.3670001 4285885012
-0.18133253 0.028508062 1.3670001 4285819219
-0.18014617 0.028508062 1.3670001 4285687633
-0.17895983 0.028508062 1.3670001 4285621840
-0.17777348 0.028508062 1.3670001 4285687889
-0.17658713 0.028508062 1.3670001 4285753939
-0.17540078 0.028508062 1.3670001 4285885269
-0.17421442 0.028508062 1.3670001 4286016856
-0.17315465 0.028528918 1.368 4286083162
-0.17209315 0.028549772 1.3690001 4286083163
-0.17090507 0.028549772 1.3690001 4285885785
-0.16984095 0.028570628 1.3700001 4285688406
-0.16865198 0.028570628 1.3700001 4285556820
-0.16746303 0.028570628 1.3700001 4285491027
-0.16615272 0.028549772 1.3690001 4285622612
-0.16496463 0.028549772 1.3690001 4285688405
-0.16365691 0.028528918 1.368 4285622612
-0.16223218 0.028487209 1.3660001 4285622612
-0.16092879 0.028466353 1.365 4285556819
-0.15927605 0.028382935 1.3610001 4285622612
-0.15797876 0.028362082 1.36 4285754198
-0.1565679 0.028320372 1.358 4285951578
-0.14468369 0.02719423 1.304 4290557089
-0.14333186 0.027152523 1.302 4290557089
-0.14209269 0.027131667 1.3010001 4290491296
-0.14042187 0.027027395 1.296 4290359710
-0.13929714 0.027027395 1.296 4290359710
-0.13806579 0.02700654 1.2950001 4290293917
-0.13673042 0.026964832 1.2930001 4290293916
-0.1356083 0.026964832 1.2930001 4290293916
-0.13448617 0.026964832 1.2930001 4290293917
-0.13326089 0.026943978 1.2920001 4290293917
-0.13213964 0.026943978 1.2920001 4290293915
-0.13101837 0.026943978 1.2920001 4290228122
-0.12999766 0.026964832 1.2930001 4290162329
-0.12887552 0.026964832 1.2930001 4290096536
-0.1278522 0.026985686 1.294 4290162329
-0.12682714 0.02700654 1.2950001 4290293915
-0.12580036 0.027027395 1.296 4290228378
-0.12467562 0.027027395 1.296 4290359964
-0.12383688 0.027089959 1.299 4290426014
-0.12280401 0.027110813 1.3000001 4290426014
-0.12176939 0.027131667 1.3010001 4290294428
-0.12101125 0.027215086 1.3050001 4290162842
-0.11997056 0.02723594 1.3060001 4290031256
-0.11892813 0.027256796 1.307 4289307533
-0.11806423 0.027319359 1.3100001 4288518017
-0.11701662 0.027340213 1.3110001 4288386431
-0.11596725 0.027361067 1.312 4288254845
-0.1150912 0.027423631 1.3150001 4287925880
-0.11403663 0.027444486 1.3160001 4286873192
-0.11298033 0.027465338 1.317 4286544227
-0.11209213 0.027527904 1.3200001 4286478434
-0.11103062 0.027548756 1.3210001 4286281055
-0.11005056 0.027590467 1.3230001 4286281055
-0.10906702 0.027632175 1.325 4286281055
-0.10799856 0.027653029 1.3260001 4286215005
-0.1068478 0.027653029 1.3260001 4285754198
-0.10585645 0.027694739 1.3280001 4285491026
-0.10470395 0.027694739 1.3280001 4285491026
-0.10355145 0.027694739 1.3280001 4285754198
-0.10232183 0.027673883 1.327 4285951577
-0.1011702 0.027673883 1.327 4286017370
-0.10001856 0.027673883 1.327 4286148956
-0.098866925 0.027673883 1.327 4286214749
-0.097715288 0.027673883 1.327 4286346335
-0.09649089 0.027653029 1.3260001 4286477921
-0.095340118 0.027653029 1.3260001 4286477921
-0.094189353 0.027653029 1.3260001 4286478434
-0.092968419 0.027632175 1.325 4286478434
-0.091749214 0.027611321 1.3240001 4286478434
-0.090600185 0.027611321 1.3240001 4286544228
-0.089383595 0.027590467 1.3230001 4286675559
-0.08823543 0.027590467 1.3230001 4286675559
-0.08702144 0.027569611 1.322 4286544230
-0.08587414 0.027569611 1.322 4286412644
-0.084726848 0.027569611 1.322 4286543974
-0.083579548 0.027569611 1.322 4286543974
-0.082369894 0.027548756 1.3210001 4286412388
-0.081223466 0.027548756 1.3210001 4286478181
-0.079955801 0.027507048 1.319 4286609768
-0.078811109 0.027507048 1.319 4286675560
-0.077607535 0.027486194 1.3180001 4286807146
-0.076405689 0.027465338 1.317 4286741353
-0.075205594 0.027444486 1.3160001 4286675047
-0.074007221 0.027423631 1.3150001 4286740840
-0.072866 0.027423631 1.3150001 4286806633
-0.071615696 0.027381921 1.3130001 4286872426
-0.07042253 0.027361067 1.312 4287070060
-0.0692311 0.027340213 1.3110001 4287004267
-0.067989476 0.027298503 1.309 4287069546
-0.066802382 0.027277648 1.3080001 4287003497
-0.06556683 0.02723594 1.3060001 4287266669
-0.06438408 0.027215086 1.3050001 4287200876
-0.063203067 0.02719423 1.304 4287332462
-0.062023796 0.027173378 1.3030001 4287464048
-0.060892988 0.027173378 1.3030001 4287529841
-0.059762184 0.027173378 1.3030001 4287398255
-0.058631375 0.027173378 1.3030001 4287135083
-0.057500567 0.027173378 1.3030001 4286871911
-0.056369759 0.027173378 1.3030001 4287004267
-0.055238951 0.027173378 1.3030001 4287399025
-0.054149669 0.02719423 1.304 4288056955
-0.053017993 0.02719423 1.304 4288385920
-0.051926106 0.027215086 1.3050001 4288122493
-0.050832488 0.02723594 1.3060001 4287661942
-0.049737129 0.027256796 1.307 4287333490
-0.0487516 0.027340213 1.3110001 4287201904
-0.047686484 0.027381921 1.3130001 4287136624
-0.046617903 0.027423631 1.3150001 4287531382
-0.045753345 0.027590467 1.3230001 4287662968
-0.044672612 0.027632175 1.325 4287597175
-0.043621253 0.027694739 1.3280001 4287531382
-0.041565139 0.027861575 1.3360001 4287597175
-0.040435933 0.027882429 1.337 4287531382
-0.039334372 0.027924137 1.3390001 4287597175
-0.038286354 0.028007556 1.3430001 4287662968
-0.037148472 0.02802841 1.3440001 4287597175
-0.035982084 0.02802841 1.3440001 4287268210
-0.034841597 0.028049264 1.345 4286807659
-0.033674341 0.028049264 1.345 4286676073
-0.031409733 0.028111828 1.348 4287070831
-0.030262304 0.028132683 1.3490001 4287070318
-0.028086426 0.02829952 1.3570001 4287267699
-0.026948413 0.028341228 1.3590001 4287530871
-0.02580693 0.028382935 1.3610001 4287596664
-0.024770539 0.028549772 1.3690001 4287530871
-0.023599681 0.028570628 1.3700001 4287530871
-0.022443442 0.028612336 1.3720001 4287530871
-0.021330206 0.028716607 1.3770001 4287662714
-0.020149799 0.028737461 1.378 4287531128
-0.018967656 0.028758317 1.3790001 4287531128
-0.017822441 0.028841736 1.383 4287596921
-0.016634224 0.028862588 1.3840001 4287662714
-0.015444272 0.028883444 1.3850001 4287794300
-0.014262867 0.028925151 1.3870001 4287991679
-0.013087407 0.028987715 1.3900001 4287925886
-0.011889644 0.029008569 1.391 4287596921
-0.010690146 0.029029425 1.3920001 4287399542
-0.0095161591 0.029133696 1.3970001 4287333749
-0.0083097173 0.029154552 1.3980001 4287465335
-0.0071116933 0.029217115 1.401 4287728509
-0.0047000223 0.029342242 1.4070001 4288057474
-0.0034839038 0.029383952 1.409 4288518025
-0.0022643139 0.02942566 1.411 4288978574
-0.0010449371 0.029571641 1.4180001 4288912781
0.00018593499 0.02961335 1.4200001 4288452230
0.0014212772 0.029675912 1.4230001 4287860093
0.0026674264 0.029801041 1.429 4287728507
0.0039103171 0.029821893 1.4300001 4287860093
0.0051585464 0.029863605 1.432 4287860093
0.0064147171 0.029926168 1.4350001 4287728507
0.0076654186 0.02994702 1.4360001 4287662716
0.0089178551 0.029967876 1.437 4287333751
0.010186176 0.030030439 1.4400001 4287267958
0.01144382 0.030051295 1.4410001 4287465337
0.012703201 0.030072149 1.442 4287794304
0.013993348 0.030155566 1.4460001 4288057476
0.015269348 0.030197276 1.4480001 4288123269
0.016537407 0.030218132 1.4490001 4287991683
0.017856326 0.030322403 1.4540001 4287794821
-0.29126537 0.030011922 1.3820001 4293126118
-0.28943631 0.029946774 1.3790001 4289572269
-0.28740346 0.029859908 1.3750001 4286677629
-0.28516939 0.029751329 1.3700001 4287334531
-0.28377318 0.02972961 1.3690001 4287202941
-0.28196585 0.029664462 1.3660001 4286742133
-0.28078038 0.029664462 1.3660001 4286413165
-0.2795949 0.029664462 1.3660001 4286413165
-0.2782056 0.029642746 1.365 4286610798
-0.27681801 0.029621027 1.3640001 4287202163
-0.27563426 0.029621027 1.3640001 4287596921
-0.27424932 0.029599315 1.363 4287531128
-0.27306643 0.029599315 1.363 4287399542
-0.27188355 0.029599315 1.363 4287202163
-0.27089927 0.029621027 1.3640001 4287202163
-0.26971555 0.029621027 1.3640001 4287202163
-0.2685318 0.029621027 1.3640001 4287070577
-0.26754406 0.029642746 1.365 4286873198
-0.26635945 0.029642746 1.365 4286938990
-0.26536909 0.029664462 1.3660001 4287136111
-0.26457042 0.029707894 1.368 4286938732
-0.26357573 0.02972961 1.3690001 4286807146
-0.26238763 0.02972961 1.3690001 4286675559
-0.26139033 0.029751329 1.3700001 4286609509
-0.26039132 0.029773042 1.3710001 4286609509
-0.25920153 0.029773042 1.3710001 4286675302
-0.25819987 0.02979476 1.3720001 4286675301
-0.25700918 0.02979476 1.3720001 4286609507
-0.25600496 0.029816477 1.373 4286346335
-0.25518456 0.029859908 1.3750001 4286083163
-0.25417599 0.029881626 1.376 4286082650
-0.25334954 0.029925058 1.378 4286016600
-0.25215366 0.029925058 1.378 4285885014
-0.25095776 0.029925058 1.378 4286279772
-0.24958062 0.029903339 1.3770001 4287332974
-0.24820518 0.029881626 1.376 4288122748
-0.24701102 0.029881626 1.376 4288451457
-0.24474499 0.029751329 1.3700001 4288451458
-0.2432005 0.029707894 1.368 4288188286
-0.2404211 0.029512448 1.3590001 4288056700
-0.23888959 0.029469017 1.3570001 4287859321
-0.23736158 0.029425582 1.355 4287727735
-0.2354884 0.029338716 1.3510001 4287661944
-0.23414251 0.029317003 1.35 4287661944
-0.23279834 0.029295284 1.3490001 4287530871
-0.23128422 0.029251853 1.3470001 4287399285
-0.22994436 0.029230136 1.3460001 4287465078
-0.22877625 0.029230136 1.3460001 4287662457
-0.22726993 0.029186701 1.3440001 4287662457
-0.22593531 0.029164989 1.3430001 4287530871
-0.22460242 0.02914327 1.342 4287596664
-0.22327127 0.029121554 1.3410001 4287596664
-0.22194186 0.029099839 1.34 4287596664
-0.22061418 0.029078122 1.3390001 4287399285
-0.21928823 0.029056404 1.3380001 4287136113
-0.21812706 0.029056404 1.3380001 4287136113
-0.21696587 0.029056404 1.3380001 4287136113
-0.2158047 0.029056404 1.3380001 4286938734
-0.21464351 0.029056404 1.3380001 4286872941
-0.21364187 0.029078122 1.3390001 4286872941
-0.21247983 0.029078122 1.3390001 4287004527
-0.2114756 0.029099839 1.34 4287136113
-0.21078353 0.029164989 1.3430001 4287201391
-0.20961802 0.029164989 1.3430001 4286938219
-0.2086077 0.029186701 1.3440001 4286675047
-0.20805869 0.029273568 1.348 4286609254
-0.20704232 0.029295284 1.3490001 4286740840
-0.20602418 0.029317003 1.35 4286740840
-0.20530783 0.029382151 1.353 4286609509
-0.20428449 0.029403865 1.3540001 4286609509
-0.20325944 0.029425582 1.355 4286740325
-0.20253092 0.02949073 1.358 4286608739
-0.20150065 0.029512448 1.3590001 4286542944
-0.20032124 0.029512448 1.3590001 4286608481
-0.19958144 0.029577596 1.3620001 4286608224
-0.19854511 0.029599315 1.363 4286608224
-0.19750702 0.029621027 1.3640001 4286542687
-0.19661115 0.029664462 1.3660001 4286411100
-0.19542566 0.029664462 1.3660001 4286213978
-0.19424018 0.029664462 1.3660001 4286279771
-0.19319603 0.029686177 1.3670001 4286411357
-0.19200967 0.029686177 1.3670001 4286345564
-0.19096291 0.029707894 1.368 4286148184
-0.18977569 0.029707894 1.368 4285950805
-0.18858849 0.029707894 1.368 4285819219
-0.18740126 0.029707894 1.368 4285753426
-0.18621404 0.029707894 1.368 4285753426
-0.18502682 0.029707894 1.368 4285885012
-0.1838396 0.029707894 1.368 4285819219
-0.18265238 0.029707894 1.368 4285819219
-0.18146518 0.029707894 1.368 4285819219
-0.18027796 0.029707894 1.368 4285753426
-0.17909074 0.029707894 1.368 4285622097
-0.17790352 0.029707894 1.368 4285622354
-0.1767163 0.029707894 1.368 4285688404
-0.17552908 0.029707894 1.368 4285754197
-0.17434187 0.029707894 1.368 4285819991
-0.17328124 0.02972961 1.3690001 4285885784
-0.17209315 0.02972961 1.3690001 4285951577
-0.17090507 0.02972961 1.3690001 4285885785
-0.16984095 0.029751329 1.3700001 4285885785
-0.16852888 0.02972961 1.3690001 4285754199
-0.1673408 0.02972961 1.3690001 4285688406
-0.16615272 0.02972961 1.3690001 4285622612
-0.16496463 0.02972961 1.3690001 4285491283
-0.16341765 0.029664462 1.3660001 4285491283
-0.1621134 0.029642746 1.365 4285491283
-0.160693 0.029599315 1.363 4285557075
-0.14898717 0.02849178 1.312 4289175693
-0.1475105 0.028426632 1.309 4290096538
-0.1444618 0.028274618 1.302 4290491553
-0.1430016 0.028209468 1.299 4290425503
-0.14154661 0.02814432 1.296 4290359710
-0.14031352 0.028122606 1.2950001 4290425503
-0.13918965 0.028122606 1.2950001 4290491296
-0.13795918 0.028100887 1.294 4290359710
-0.13673042 0.028079173 1.2930001 4290293917
-0.1356083 0.028079173 1.2930001 4290359710
-0.13448617 0.028079173 1.2930001 4290425503
-0.13326089 0.028057456 1.2920001 4290359710
-0.13213964 0.028057456 1.2920001 4290228124
-0.13091697 0.028035739 1.291 4290162330
-0.12989712 0.028057456 1.2920001 4290096538
-0.12887552 0.028079173 1.2930001 4290096537
-0.12775339 0.028079173 1.2930001 4290162586
-0.12682714 0.028122606 1.2950001 4290360221
-0.12570328 0.028122606 1.2950001 4290360221
-0.12467562 0.02814432 1.296 4290360221
-0.12383688 0.028209468 1.299 4290491807
-0.12280401 0.028231187 1.3000001 4290294428
-0.121863 0.028274618 1.302 4290162587
-0.12110397 0.028361484 1.3060001 4290096794
-0.12015428 0.028404916 1.3080001 4289504912
-0.11911013 0.028426632 1.309 4288649603
-0.11824449 0.02849178 1.312 4288189052
-0.11719512 0.028513499 1.3130001 4287925880
-0.11614404 0.028535215 1.314 4287794294
-0.11526625 0.028600365 1.317 4287399536
-0.11420994 0.028622078 1.3180001 4286675813
-0.1131519 0.028643796 1.319 4286478434
-0.11226197 0.028708944 1.322 4286478434
-0.11119872 0.028730661 1.3230001 4286281055
-0.11013374 0.028752379 1.3240001 4286017883
-0.10923164 0.028817527 1.327 4285754711
-0.10808001 0.028817527 1.327 4285754198
-0.1068478 0.02879581 1.3260001 4285622612
-0.10577673 0.028817527 1.327 4285425233
-0.10470395 0.028839242 1.3280001 4285359440
-0.10355145 0.028839242 1.3280001 4285491026
-0.10239894 0.028839242 1.3280001 4285622612
-0.10124644 0.028839242 1.3280001 4285819991
-0.10009393 0.028839242 1.3280001 4285951577
-0.09894143 0.028839242 1.3280001 4286148956
-0.097788922 0.028839242 1.3280001 4286346335
-0.096563652 0.028817527 1.327 4286346335
-0.095412016 0.028817527 1.327 4286280542
-0.09426038 0.028817527 1.327 4286281055
-0.092968419 0.028774092 1.325 4286412641
-0.091818519 0.028774092 1.325 4286610020
-0.090668619 0.028774092 1.325 4286741606
-0.089451149 0.028752379 1.3240001 4286741606
-0.08823543 0.028730661 1.3230001 4286610021
-0.087087266 0.028730661 1.3230001 4286478180
-0.085939102 0.028730661 1.3230001 4286478180
-0.084790938 0.028730661 1.3230001 4286543973
-0.083642773 0.028730661 1.3230001 4286346594
-0.082432255 0.028708944 1.322 4286280801
-0.081284955 0.028708944 1.322 4286346595
-0.080016427 0.028665513 1.3200001 4286609254
-0.078870863 0.028665513 1.3200001 4286609254
-0.077666417 0.028643796 1.319 4286477668
-0.076405689 0.028600365 1.317 4286477668
-0.075205594 0.028578646 1.3160001 4286609254
-0.074007221 0.02855693 1.3150001 4286675047
-0.072810583 0.028535215 1.314 4286740840
-0.071506605 0.028470067 1.3110001 4286740840
-0.070315182 0.028448349 1.3100001 4286806375
-0.069125488 0.028426632 1.309 4286806375
-0.067781709 0.028339766 1.3050001 4287003497
-0.066649169 0.028339766 1.3050001 4287200876
-0.065366015 0.028274618 1.302 4287398255
-0.064236075 0.028274618 1.302 4287266669
-0.063057661 0.028252903 1.3010001 4287266669
-0.061928593 0.028252903 1.3010001 4287398255
-0.06079952 0.028252903 1.3010001 4287266669
-0.059670448 0.028252903 1.3010001 4287266669
-0.058541376 0.028252903 1.3010001 4287135083
-0.057412304 0.028252903 1.3010001 4286937704
-0.056283236 0.028252903 1.3010001 4286806888
-0.055196557 0.028274618 1.302 4287004267
-0.054066617 0.028274618 1.302 4287267439
-0.052936677 0.028274618 1.302 4287333232
-0.05188632 0.028318053 1.304 4287004012
-0.050793566 0.028339766 1.3050001 4286543461
-0.049699079 0.028361484 1.3060001 4286478181
-0.0487516 0.028470067 1.3110001 4286872939
-0.047686484 0.028513499 1.3130001 4287070831
-0.046617903 0.02855693 1.3150001 4287202417
-0.045753345 0.028730661 1.3230001 4287399796
-0.044672612 0.028774092 1.325 4287597175
-0.043621253 0.028839242 1.3280001 4287531382
-0.041565139 0.029012972 1.3360001 4287268724
-0.040466178 0.029056404 1.3380001 4287268724
-0.039363746 0.029099839 1.34 4287597175
-0.038314864 0.029186701 1.3440001 4287531382
-0.037148472 0.029186701 1.3440001 4287465589
-0.035982084 0.029186701 1.3440001 4287136624
-0.034841597 0.029208418 1.345 4286741866
-0.033674341 0.029208418 1.345 4286676073
-0.031409733 0.029273568 1.348 4287136624
-0.030262304 0.029295284 1.3490001 4287136370
-0.029134708 0.029338716 1.3510001 4287070577
-0.028086426 0.029469017 1.3570001 4287202163
-0.026948413 0.029512448 1.3590001 4287465335
-0.025787968 0.029534165 1.36 4287596664
-0.024770539 0.02972961 1.3690001 4287596664
-0.023599681 0.029751329 1.3700001 4287596664
-0.022443442 0.02979476 1.3720001 4287596664
-0.021345695 0.029925058 1.378 4287662714
-0.020164421 0.029946774 1.3790001 4287662714
-0.018981412 0.029968491 1.3800001 4287728507
-0.017835328 0.030055353 1.3840001 4287662714
-0.016646244 0.030077072 1.3850001 4287596921
-0.015455424 0.030098788 1.386 4287860093
-0.014262867 0.030120503 1.3870001 4287860863
-0.013096821 0.030207369 1.391 4287795070
-0.011889644 0.030207369 1.391 4287466105
-0.010690146 0.030229086 1.3920001 4287268726
-0.0095161591 0.030337665 1.3970001 4287465335
-0.008315661 0.0303811 1.399 4287465335
-0.0071116933 0.030424532 1.401 4287531130
-0.0047000223 0.030554829 1.4070001 4287925888
-0.0034839038 0.030598264 1.409 4288452232
-0.0022643139 0.030641695 1.411 4288978574
-0.0010449371 0.03079371 1.4180001 4288781195
0.00018593499 0.030837141 1.4200001 4288386437
0.0014202783 0.030880576 1.4220001 4287991679
0.0026674264 0.03103259 1.429 4287925886
0.0039103171 0.031054303 1.4300001 4287991679
0.005154944 0.031076021 1.4310001 4287860095
0.0064147171 0.031162888 1.4350001 4287662716
0.0076654186 0.031184601 1.4360001 4287728509
0.0089178551 0.031206319 1.437 4287399544
0.010186176 0.031271465 1.4400001 4287136372
0.01144382 0.031293184 1.4410001 4287333751
0.012703201 0.031314902 1.442 4287925890
0.013993348 0.031401765 1.4460001 4288189062
0.015258804 0.031423483 1.447 4288123269
0.016525993 0.031445198 1.4480001 4287991683
-0.29126537 0.031202964 1.3820001 4293191911
-0.28943631 0.031135231 1.3790001 4289967027
-0.28761247 0.031067498 1.376 4286809215
-0.28516939 0.03093203 1.3700001 4287400324
-0.28377318 0.030909451 1.3690001 4287202943
-0.28196585 0.030841716 1.3660001 4286742390
-0.28078038 0.030841716 1.3660001 4286413422
-0.2795949 0.030841716 1.3660001 4286347372
-0.2782056 0.030819137 1.365 4286545005
-0.27681801 0.030796558 1.3640001 4287136370
-0.27563426 0.030796558 1.3640001 4287596921
-0.27424932 0.030773982 1.363 4287596921
-0.27306643 0.030773982 1.363 4287399542
-0.27188355 0.030773982 1.363 4287136370
-0.27089927 0.030796558 1.3640001 4287070577
-0.26951781 0.030773982 1.363 4287136370
-0.26833493 0.030773982 1.363 4287004784
-0.26734805 0.030796558 1.3640001 4286938991
-0.26635945 0.030819137 1.365 4286938991
-0.26536909 0.030841716 1.3660001 4287004527
-0.26457042 0.03088687 1.368 4287004526
-0.26338318 0.03088687 1.368 4287004525
-0.26219597 0.03088687 1.368 4286938476
-0.26139033 0.03093203 1.3700001 4286872426
-0.26020139 0.03093203 1.3700001 4286740839
-0.25901243 0.03093203 1.3700001 4286675302
-0.2580117 0.030954605 1.3710001 4286675301
-0.25682187 0.030954605 1.3710001 4286609509
-0.2561914 0.031022338 1.3740001 4286477409
-0.25499898 0.031022338 1.3740001 4286279772
-0.25399128 0.031044917 1.3750001 4286148186
-0.25316569 0.031090073 1.3770001 4286082393
-0.25197068 0.031090073 1.3770001 4286477151
-0.25077564 0.031090073 1.3770001 4287464046
-0.24939935 0.031067498 1.376 4288385662
-0.24820518 0.031067498 1.376 4288583299
-0.24683152 0.031044917 1.3750001 4288517250
-0.24474499 0.03093203 1.3700001 4288385665
-0.2432005 0.03088687 1.368 4288319872
-0.2404211 0.030683668 1.3590001 4288254079
-0.23888959 0.030638514 1.3570001 4288056700
-0.23736158 0.030593356 1.355 4287859321
-0.2354884 0.030503042 1.3510001 4287727737
-0.23414251 0.030480467 1.35 4287661944
-0.23279834 0.030457888 1.3490001 4287530615
-0.23128422 0.030412732 1.3470001 4287399285
-0.22977354 0.030367574 1.345 4287399285
-0.22860628 0.030367574 1.345 4287596664
-0.22726993 0.030344995 1.3440001 4287728250
-0.22593531 0.030322419 1.3430001 4287662457
-0.22460242 0.03029984 1.342 4287794043
-0.22327127 0.030277262 1.3410001 4287662457
-0.22194186 0.030254684 1.34 4287465078
-0.22061418 0.030232105 1.3390001 4287333492
-0.21928823 0.030209526 1.3380001 4287267699
-0.21812706 0.030209526 1.3380001 4287333492
-0.21696587 0.030209526 1.3380001 4287267699
-0.2158047 0.030209526 1.3380001 4287136113
-0.21464351 0.030209526 1.3380001 4286938734
-0.21364187 0.030232105 1.3390001 4286938734
-0.21247983 0.030232105 1.3390001 4287004527
-0.2114756 0.030254684 1.34 4287136113
-0.21078353 0.030322419 1.3430001 4287135598
-0.20977409 0.030344995 1.3440001 4286938219
-0.20876291 0.030367574 1.345 4286872426
-0.20805869 0.030435309 1.348 4286938219
-0.20704232 0.030457888 1.3490001 4287201391
-0.20602418 0.030480467 1.35 4287135597
-0.20530783 0.0305482 1.353 4286872681
-0.20428449 0.030570775 1.3540001 4286675302
-0.20325944 0.030593356 1.355 4286740325
-0.20253092 0.030661089 1.358 4286674532
-0.20150065 0.030683668 1.3590001 4286608737
-0.20032124 0.030683668 1.3590001 4286608481
-0.19958144 0.030751403 1.3620001 4286542431
-0.19854511 0.030773982 1.363 4286608223
-0.19736223 0.030773982 1.363 4286608478
-0.19661115 0.030841716 1.3660001 4286345306
-0.19542566 0.030841716 1.3660001 4286082391
-0.19424018 0.030841716 1.3660001 4286148184
-0.19319603 0.030864291 1.3670001 4286279770
-0.19215013 0.03088687 1.368 4286279769
-0.19096291 0.03088687 1.368 4286082390
-0.18963698 0.030864291 1.3670001 4285819218
-0.18845062 0.030864291 1.3670001 4285556046
-0.18740126 0.03088687 1.368 4285358668
-0.18621404 0.03088687 1.368 4285424461
-0.18502682 0.03088687 1.368 4285621840
-0.183974 0.030909451 1.3690001 4285753426
-0.18278591 0.030909451 1.3690001 4285753426
-0.18159783 0.030909451 1.3690001 4285819219
-0.18040974 0.030909451 1.3690001 4285819219
-0.17922166 0.030909451 1.3690001 4285622354
-0.17803358 0.030909451 1.3690001 4285622611
-0.1767163 0.03088687 1.368 4285754198
-0.17552908 0.03088687 1.368 4285819991
-0.17434187 0.03088687 1.368 4285819991
-0.17315465 0.03088687 1.368 4285885784
-0.17209315 0.030909451 1.3690001 4285885785
-0.17090507 0.030909451 1.3690001 4285885785
-0.16971697 0.030909451 1.3690001 4285885786
-0.16852888 0.030909451 1.3690001 4285885786
-0.1673408 0.030909451 1.3690001 4285754200
-0.16603135 0.03088687 1.368 4285557077
-0.16484413 0.03088687 1.368 4285359953
-0.16341765 0.030841716 1.3660001 4285359953
-0.16199464 0.030796558 1.3640001 4285359953
-0.16057509 0.030751403 1.3620001 4285491539
-0.14887363 0.02959992 1.3110001 4289373072
-0.1475105 0.029554762 1.309 4289899416
-0.14603901 0.029487027 1.3060001 4290031002
-0.14423989 0.029351559 1.3000001 4290294174
-0.1430016 0.02932898 1.299 4290425760
-0.14154661 0.029261246 1.296 4290294174
-0.14042187 0.029261246 1.296 4290293918
-0.13918965 0.029238667 1.2950001 4290359711
-0.13806579 0.029238667 1.2950001 4290359967
-0.13683617 0.029216092 1.294 4290425248
-0.13571317 0.029216092 1.294 4290425504
-0.13459018 0.029216092 1.294 4290425504
-0.13326089 0.029170932 1.2920001 4290293917
-0.13213964 0.029170932 1.2920001 4290096538
-0.13101837 0.029170932 1.2920001 4290030745
-0.12989712 0.029170932 1.2920001 4290031002
-0.12887552 0.029193511 1.2930001 4290096795
-0.12775339 0.029193511 1.2930001 4290294174
-0.12682714 0.029238667 1.2950001 4290491552
-0.12570328 0.029238667 1.2950001 4290557345
-0.12457941 0.029238667 1.2950001 4290557345
-0.12383688 0.02932898 1.299 4290425759
-0.12280401 0.029351559 1.3000001 4290096794
-0.121863 0.029396715 1.302 4289899672
-0.12119669 0.029509606 1.307 4289570707
-0.12015428 0.029532183 1.3080001 4288846727
-0.11911013 0.029554762 1.309 4288254847
-0.11833461 0.029645074 1.3130001 4288189053
-0.11728439 0.029667653 1.314 4287794294
-0.11623242 0.02969023 1.3150001 4287202157
-0.11535376 0.029757963 1.3180001 4286807399
-0.11429659 0.029780542 1.319 4286741606
-0.1131519 0.029780542 1.319 4286610020
-0.11234689 0.029870857 1.3230001 4286609764
-0.11119872 0.029870857 1.3230001 4286477921
-0.11013374 0.029893436 1.3240001 4286017370
-0.10914934 0.02993859 1.3260001 4285622612
-0.10799856 0.02993859 1.3260001 4285688405
-0.1068478 0.02993859 1.3260001 4285819991
-0.10577673 0.029961169 1.327 4285688405
-0.10462511 0.029961169 1.327 4285293647
-0.10347347 0.029961169 1.327 4285293647
-0.10239894 0.029983746 1.3280001 4285359440
-0.10124644 0.029983746 1.3280001 4285556819
-0.10009393 0.029983746 1.3280001 4285688405
-0.09894143 0.029983746 1.3280001 4285885784
-0.097788922 0.029983746 1.3280001 4286214749
-0.096563652 0.029961169 1.327 4286148956
-0.095412016 0.029961169 1.327 4286148956
-0.094189353 0.02993859 1.3260001 4286149213
-0.092968419 0.029916011 1.325 4286215262
-0.091818519 0.029916011 1.325 4286412641
-0.090600185 0.029893436 1.3240001 4286610020
-0.089383595 0.029870857 1.3230001 4286543972
-0.08823543 0.029870857 1.3230001 4286280801
-0.087087266 0.029870857 1.3230001 4286280801
-0.085939102 0.029870857 1.3230001 4286478180
-0.084790938 0.029870857 1.3230001 4286346594
-0.083642773 0.029870857 1.3230001 4286149215
-0.082432255 0.029848278 1.322 4286280544
-0.081284955 0.029848278 1.322 4286477923
-0.080016427 0.029803121 1.3200001 4286675302
-0.078811109 0.029780542 1.319 4286609509
-0.077666417 0.029780542 1.319 4286280288
-0.076347679 0.029712809 1.3160001 4286280544
-0.075148441 0.02969023 1.3150001 4286674532
-0.073950939 0.029667653 1.314 4286740325
-0.07275518 0.029645074 1.3130001 4286740325
-0.071397521 0.029554762 1.309 4286740325
-0.070261501 0.029554762 1.309 4286608739
-0.069072679 0.029532183 1.3080001 4286740325
-0.067677833 0.029419294 1.3030001 4287003497
-0.066495955 0.029396715 1.302 4287266669
-0.065265603 0.029351559 1.3000001 4287200876
-0.064137399 0.029351559 1.3000001 4287069290
-0.063009202 0.029351559 1.3000001 4286937704
-0.061833393 0.02932898 1.299 4287069290
-0.060706057 0.02932898 1.299 4286937704
-0.05957872 0.02932898 1.299 4287003497
-0.058451384 0.02932898 1.299 4286937704
-0.057324048 0.02932898 1.299 4287003497
-0.056239974 0.029351559 1.3000001 4286741095
-0.055154163 0.029374139 1.3010001 4286675302
-0.054025091 0.029374139 1.3010001 4286412130
-0.052896019 0.029374139 1.3010001 4286412130
-0.05188632 0.029441873 1.304 4286412130
-0.050754644 0.029441873 1.304 4286148958
-0.049661022 0.029464448 1.3050001 4286346594
-0.0487516 0.02959992 1.3110001 4286807145
-0.047686484 0.029645074 1.3130001 4287070831
-0.046582453 0.029667653 1.314 4287070831
-0.045753345 0.029870857 1.3230001 4287334003
-0.044672612 0.029916011 1.325 4287597175
-0.043621253 0.029983746 1.3280001 4287466103
-0.041565139 0.030164372 1.3360001 4287400310
-0.040466178 0.030209526 1.3380001 4287531896
-0.039363746 0.030254684 1.34 4287597175
-0.038314864 0.030344995 1.3440001 4287531382
-0.037148472 0.030344995 1.3440001 4287465589
-0.035982084 0.030344995 1.3440001 4287202417
-0.034841597 0.030367574 1.345 4286873452
-0.033674341 0.030367574 1.345 4286741866
-0.031409733 0.030435309 1.348 4287268210
-0.030262304 0.030457888 1.3490001 4287267956
-0.028065728 0.030615935 1.3560001 4287333749
-0.026928583 0.030661089 1.358 4287596921
-0.025787968 0.030706247 1.36 4287596921
-0.024752446 0.03088687 1.368 4287531128
-0.023599681 0.03093203 1.3700001 4287662714
-0.022443442 0.030977184 1.3720001 4287728507
-0.021345695 0.031112652 1.378 4287728507
-0.020164421 0.031135231 1.3790001 4287794300
-0.018981412 0.03115781 1.3800001 4287860093
-0.017835328 0.031248121 1.3840001 4287794300
-0.016646244 0.031270698 1.3850001 4287794300
-0.015455424 0.031293277 1.386 4287925886
-0.014262867 0.031315856 1.3870001 4287860863
-0.013087407 0.031383589 1.3900001 4287795070
-0.011889644 0.031406168 1.391 4287597691
-0.010690146 0.031428747 1.3920001 4287466105
-0.0095229708 0.031564213 1.3980001 4287728507
-0.008315661 0.031586792 1.399 4287662714
-0.0071116933 0.03163195 1.401 4287531130
-0.0047000223 0.031767417 1.4070001 4287925888
-0.0034839038 0.031812575 1.409 4288320646
-0.0022643139 0.031857729 1.411 4288715402
-0.0010449371 0.032015778 1.4180001 4288518023
0.00018593499 0.032060932 1.4200001 4288189058
0.0014202783 0.03210609 1.4220001 4288057472
0.0026674264 0.03226414 1.429 4288057474
0.0039103171 0.032286715 1.4300001 4287991681
0.005154944 0.032309294 1.4310001 4287860095
0.0064147171 0.032399606 1.4350001 4287728509
0.0076654186 0.032422181 1.4360001 4287728509
0.0089116497 0.032422181 1.4360001 4287333751
0.010186176 0.032512493 1.4400001 4286938995
0.01144382 0.032535076 1.4410001 4287202167
0.012703201 0.032557655 1.442 4287860097
0.013983671 0.032625388 1.4450001 4288189062
0.015248259 0.032647964 1.4460001 4287992197
0.016514581 0.032670543 1.447 4287992197
-0.29147613 0.03241745 1.383 4293191911
-0.28964621 0.032347128 1.3800001 4290032820
-0.28782153 0.032276805 1.3770001 4286809215
-0.28516939 0.032112729 1.3700001 4287334532
-0.28377318 0.032089289 1.3690001 4287268736
-0.28258508 0.032089289 1.3690001 4287005563
-0.28078038 0.032018971 1.3660001 4286611058
-0.2795949 0.032018971 1.3660001 4286478958
-0.2782056 0.031995527 1.365 4286545005
-0.27681801 0.031972088 1.3640001 4287136371
-0.27563426 0.031972088 1.3640001 4287531128
-0.27445051 0.031972088 1.3640001 4287465335
-0.27326676 0.031972088 1.3640001 4287399542
-0.27188355 0.031948648 1.363 4287202163
-0.27070069 0.031948648 1.363 4287202163
-0.26951781 0.031948648 1.363 4287202163
-0.26833493 0.031948648 1.363 4287070577
-0.26734805 0.031972088 1.3640001 4287070577
-0.26635945 0.031995527 1.365 4287070320
-0.26517484 0.031995527 1.365 4286938732
-0.26437703 0.032042406 1.3670001 4287004269
-0.26319066 0.032042406 1.3670001 4287070061
-0.26219597 0.032065846 1.368 4287069805
-0.26119953 0.032089289 1.3690001 4287004012
-0.26001146 0.032089289 1.3690001 4286872682
-0.25882336 0.032089289 1.3690001 4286806888
-0.25782347 0.032112729 1.3700001 4286806375
-0.25682187 0.032136168 1.3710001 4286740325
-0.25600496 0.032183047 1.373 4286542945
-0.2548134 0.032183047 1.373 4286148186
-0.25380656 0.032206487 1.3740001 4285950807
-0.25298184 0.03225337 1.376 4286477151
-0.25178766 0.03225337 1.376 4287529839
-0.25059351 0.03225337 1.376 4288385148
-0.24921811 0.032229926 1.3750001 4288582529
-0.24802481 0.032229926 1.3750001 4288582529
-0.24665201 0.032206487 1.3740001 4288516994
-0.24456635 0.032089289 1.3690001 4288451458
-0.24302271 0.032042406 1.3670001 4288385665
-0.24024417 0.031831447 1.358 4288254079
-0.23888959 0.031808011 1.3570001 4288056700
-0.23736158 0.031761128 1.355 4287859321
-0.2354884 0.031667367 1.3510001 4287727736
-0.23414251 0.031643931 1.35 4287596151
-0.23279834 0.031620488 1.3490001 4287596664
-0.2311125 0.031550169 1.3460001 4287530871
-0.22977354 0.031526729 1.345 4287465078
-0.22860628 0.031526729 1.345 4287530871
-0.22726993 0.031503286 1.3440001 4287728250
-0.22593531 0.03147985 1.3430001 4287794043
-0.22460242 0.031456411 1.342 4287859836
-0.22327127 0.031432968 1.3410001 4287662457
-0.22194186 0.031409532 1.34 4287399285
-0.22061418 0.031386089 1.3390001 4287333492
-0.21928823 0.031362649 1.3380001 4287399285
-0.21812706 0.031362649 1.3380001 4287465078
-0.21696587 0.031362649 1.3380001 4287399285
-0.2158047 0.031362649 1.3380001 4287267699
-0.2144831 0.03133921 1.337 4287070320
-0.21364187 0.031386089 1.3390001 4287004527
-0.21247983 0.031386089 1.3390001 4287004525
-0.2114756 0.031409532 1.34 4287004525
-0.21078353 0.03147985 1.3430001 4287069805
-0.20977409 0.031503286 1.3440001 4287070061
-0.20876291 0.031526729 1.345 4287201391
-0.20805869 0.031597048 1.348 4287267184
-0.20704232 0.031620488 1.3490001 4287398769
-0.20602418 0.031643931 1.35 4287201647
-0.20530783 0.031714249 1.353 4286938474
-0.20428449 0.031737689 1.3540001 4286740838
-0.20325944 0.031761128 1.355 4286806117
-0.20253092 0.031831447 1.358 4286740324
-0.20135239 0.031831447 1.358 4286740323
-0.20032124 0.03185489 1.3590001 4286674530
-0.19958144 0.031925209 1.3620001 4286674016
-0.19839942 0.031925209 1.3620001 4286674273
-0.19736223 0.031948648 1.363 4286608735
-0.19646721 0.031995527 1.365 4286279770
-0.19542566 0.032018971 1.3660001 4286082391
-0.19424018 0.032018971 1.3660001 4286279769
-0.19319603 0.032042406 1.3670001 4286345562
-0.19215013 0.032065846 1.368 4286279768
-0.19082333 0.032042406 1.3670001 4285951059
-0.18963698 0.032042406 1.3670001 4285556301
-0.18845062 0.032042406 1.3670001 4285227336
-0.18740126 0.032065846 1.368 4285029958
-0.18621404 0.032065846 1.368 4285161288
-0.18502682 0.032065846 1.368 4285358924
-0.183974 0.032089289 1.3690001 4285556047
-0.18278591 0.032089289 1.3690001 4285687633
-0.18159783 0.032089289 1.3690001 4285753426
-0.18040974 0.032089289 1.3690001 4285753427
-0.17922166 0.032089289 1.3690001 4285687634
-0.17803358 0.032089289 1.3690001 4285622355
-0.17684549 0.032089289 1.3690001 4285754198
-0.17552908 0.032065846 1.368 4285885784
-0.17434187 0.032065846 1.368 4285885784
-0.17315465 0.032065846 1.368 4285819992
-0.17196743 0.032065846 1.368 4285754200
-0.17090507 0.032089289 1.3690001 4285688407
