# .PCD v0.7 - Point Cloud Data file format
VERSION 0.7
FIELDS x y z rgba
SIZE 4 4 4 4
TYPE F F F U
COUNT 1 1 1 1
WIDTH 468
HEIGHT 1
VIEWPOINT 0 0 0 1 0 0 0
POINTS 468
DATA ascii
-0.24817167 -0.20058201 1.3740001 4292205026
-0.24299136 -0.19941415 1.3660001 4293191921
-0.24380995 -0.20320973 1.3920001 4278190080
-0.26473036 -0.20083579 1.4020001 4292337634
-0.25475565 -0.19610855 1.3690001 4292139485
-0.2493619 -0.19481932 1.36 4285231220
-0.24383679 -0.19338681 1.35 4292600038
-0.2403231 -0.19353005 1.3510001 4293126382
-0.23697907 -0.19381656 1.353 4278190080
-0.27583766 -0.19672097 1.4000001 4292600036
-0.26579198 -0.1922245 1.368 4292468449
-0.26013559 -0.19081934 1.358 4292336863
-0.25585565 -0.1903978 1.355 4292206047
-0.25159213 -0.18997626 1.3520001 4292600036
-0.24752837 -0.18969522 1.35 4290955211
-0.24347556 -0.18941419 1.348 4291810520
-0.2399673 -0.18955469 1.3490001 4293060589
-0.23662877 -0.18983573 1.3510001 4278190080
-0.29442146 -0.18765698 1.3620001 4291218383
-0.28941646 -0.18683031 1.3560001 4292534243
-0.28444427 -0.18600364 1.35 4292534243
-0.28075266 -0.18600364 1.35 4292534242
-0.27665064 -0.18572807 1.348 4292402656
-0.27316698 -0.18586585 1.3490001 4292402910
-0.2702772 -0.18641698 1.353 4292337117
-0.26657739 -0.18641698 1.353 4292337117
-0.26287761 -0.18641698 1.353 4292468703
-0.25860316 -0.18600364 1.35 4292534496
-0.25491154 -0.18600364 1.35 4292534496
-0.2506617 -0.1855903 1.3470001 4292468703
-0.24752837 -0.18600364 1.35 4292205277
-0.24437866 -0.18641698 1.353 4292271071
-0.24174617 -0.18724366 1.3590001 4292797415
-0.23820511 -0.18738145 1.36 4278190080
-0.30785447 -0.18757884 1.3890001 4293323761
-0.2948623 -0.18190691 1.3470001 4292534245
-0.28923342 -0.1806915 1.3380001 4292468450
-0.28557464 -0.1806915 1.3380001 4292271070
-0.28191587 -0.1806915 1.3380001 4292336863
-0.27804911 -0.18055645 1.337 4292468703
-0.27480355 -0.18082654 1.3390001 4292666080
-0.27154702 -0.18109663 1.3410001 4292731873
-0.26847935 -0.18150176 1.3440001 4292666080
-0.26460713 -0.18136673 1.3430001 4292534494
-0.26112896 -0.18150176 1.3440001 4292468703
-0.25783691 -0.18177186 1.3460001 4292205531
-0.2552892 -0.18258214 1.3520001 4292139738
-0.25177824 -0.18271719 1.353 4292205531
-0.2486285 -0.18312232 1.3560001 4292073945
-0.24582361 -0.18379755 1.3610001 4292139485
-0.2424577 -0.18406765 1.363 4292731622
-0.23890571 -0.18420269 1.3640001 4293258482
-0.2944245 -0.17795891 1.345 4292863207
-0.28901723 -0.17690042 1.337 4292863207
-0.28514779 -0.17676809 1.3360001 4292797668
-0.28107306 -0.17650346 1.3340001 4292797666
-0.27784115 -0.17676809 1.3360001 4292600287
-0.27500877 -0.17729734 1.34 4292534494
-0.27215451 -0.17782658 1.3440001 4292271322
-0.26907861 -0.17822352 1.3470001 4291744978
-0.26500118 -0.17795891 1.345 4291087050
-0.26190615 -0.17835583 1.348 4291547601
-0.25898626 -0.17888507 1.3520001 4292205277
-0.25623333 -0.17954662 1.3570001 4292205277
-0.2523365 -0.17941432 1.3560001 4291744726
-0.2486285 -0.17941432 1.3560001 4291152589
-0.24582361 -0.18007588 1.3610001 4292073692
-0.2424577 -0.18034051 1.363 4292600036
-0.23925601 -0.18073744 1.3660001 4293324275
-0.2429346 -0.18642682 1.409 4293258999
-0.29617572 -0.1753176 1.353 4292073691
-0.2900981 -0.17389224 1.342 4292205531
-0.28557464 -0.17337394 1.3380001 4292139738
-0.28191587 -0.17337394 1.3380001 4292073943
-0.27846506 -0.17350352 1.3390001 4291284427
-0.2758297 -0.17415141 1.3440001 4289639089
-0.27255949 -0.17441057 1.3460001 4291152841
-0.26907861 -0.17454013 1.3470001 4291810773
-0.26480415 -0.17415141 1.3440001 4292007898
-0.26151755 -0.17441057 1.3460001 4291349969
-0.2591778 -0.1753176 1.353 4290955211
-0.25679979 -0.17622463 1.36 4290626246
-0.25326693 -0.17635421 1.3610001 4290428866
-0.24917857 -0.17609505 1.3590001 4290560452
-0.24600422 -0.1764838 1.3620001 4292007899
-0.24227983 -0.1764838 1.3620001 4292402657
-0.23908088 -0.17687252 1.365 4293389554
-0.24345185 -0.18296266 1.4120001 4293258486
-0.29945928 -0.17352045 1.368 4291942106
-0.29182744 -0.17123729 1.35 4291942106
-0.28706869 -0.17060307 1.345 4292007898
-0.28339076 -0.17060307 1.345 4291942359
-0.28012878 -0.17085674 1.3470001 4291942359
-0.27685586 -0.17111044 1.3490001 4291547090
-0.27417949 -0.17174466 1.3540001 4290297023
-0.27007741 -0.17149097 1.3520001 4290099644
-0.26618335 -0.17136411 1.3510001 4290296768
-0.26248902 -0.17136411 1.3510001 4290362561
-0.25975248 -0.17199834 1.3560001 4290494660
-0.25623333 -0.17212518 1.3570001 4290692039
-0.25270867 -0.17225203 1.358 4290626246
-0.24881187 -0.17212518 1.3570001 4291481554
-0.24654609 -0.17313991 1.365 4292139484
-0.2424577 -0.17288624 1.363 4292271071
-0.23943117 -0.17339361 1.3670001 4293455347
-0.24000351 -0.17656466 1.3920001 4293324279
-0.30296171 -0.17176537 1.3840001 4292007899
-0.29269212 -0.16804212 1.3540001 4292007899
-0.28792241 -0.16742159 1.3490001 4291547347
-0.28423354 -0.16742159 1.3490001 4290823624
-0.28116858 -0.16779391 1.3520001 4290099901
-0.27747154 -0.16779391 1.3520001 4290625733
-0.27417949 -0.16804212 1.3540001 4290625733
-0.26967791 -0.16754569 1.35 4290494147
-0.26539522 -0.16717337 1.3470001 4290625733
-0.26132327 -0.16692516 1.345 4290296768
-0.2587947 -0.1676698 1.3510001 4290626246
-0.25547802 -0.16791801 1.353 4290560453
-0.25308084 -0.16878676 1.36 4290428866
-0.24991198 -0.1691591 1.363 4290823624
-0.24708796 -0.16977963 1.368 4291942105
-0.24263559 -0.1692832 1.3640001 4292271071
-0.23908088 -0.16940731 1.365 4293455347
-0.23914142 -0.17213769 1.3870001 4278190080
-0.29442146 -0.16531059 1.3620001 4291942106
-0.28920302 -0.16446097 1.355 4290692039
-0.28486565 -0.16409685 1.3520001 4290297281
-0.28158453 -0.1643396 1.3540001 4290757832
-0.27767676 -0.16421823 1.353 4290560453
-0.27458447 -0.16458234 1.3560001 4290363074
-0.2702772 -0.16421823 1.353 4290559940
-0.26697144 -0.16446097 1.355 4290494147
-0.26287761 -0.16421823 1.353 4290494147
-0.25975248 -0.16458234 1.3560001 4290034109
-0.25642213 -0.1648251 1.358 4290560453
-0.25326693 -0.16518921 1.3610001 4290692039
-0.25046203 -0.16579609 1.3660001 4290560452
-0.24762981 -0.16640295 1.3710001 4292073692
-0.24334714 -0.16603883 1.368 4292139485
-0.23978147 -0.1661602 1.3690001 4293324275
-0.23758967 -0.16725256 1.378 4278190080
-0.31872275 -0.17273824 1.4560001 4292007899
-0.29506996 -0.16194209 1.365 4292271071
-0.28920302 -0.16075571 1.355 4291810520
-0.28507635 -0.16051844 1.353 4290560453
-0.28116858 -0.16039979 1.3520001 4290560453
-0.27726632 -0.16028115 1.3510001 4290231488
-0.27417949 -0.16063708 1.3540001 4290954698
-0.27087647 -0.16087435 1.3560001 4290428354
-0.26736552 -0.16099299 1.3570001 4290757319
-0.2636548 -0.16099299 1.3570001 4290955211
-0.26071027 -0.16146754 1.3610001 4291942106
-0.25736624 -0.16170482 1.363 4292073692
-0.2540113 -0.16194209 1.365 4292007899
-0.25046203 -0.16206074 1.3660001 4291349969
-0.24690732 -0.16217938 1.3670001 4291415762
-0.24281348 -0.16194209 1.365 4292205278
-0.23925601 -0.16206074 1.3660001 4293192689
-0.23827934 -0.16395897 1.3820001 4278190080
-0.29571846 -0.15855721 1.368 4292139485
-0.29005677 -0.15751407 1.3590001 4292073692
-0.28612986 -0.15739816 1.358 4290494660
-0.28179249 -0.15705045 1.355 4290559940
-0.27808723 -0.15705045 1.355 4290427840
-0.27498946 -0.15739816 1.358 4291086284
-0.27227479 -0.15797769 1.363 4291876313
-0.26874468 -0.15809359 1.3640001 4291547348
-0.2655977 -0.15844131 1.3670001 4291284176
-0.26224273 -0.15867311 1.3690001 4290099902
-0.258688 -0.15878902 1.3700001 4290297281
-0.25419739 -0.1583254 1.3660001 4290099902
-0.2506454 -0.15844131 1.3670001 4290757832
-0.24636546 -0.15809359 1.3640001 4290626248
-0.24263559 -0.15809359 1.3640001 4292402659
-0.23908088 -0.15820949 1.365 4293324277
-0.23793451 -0.15994807 1.3800001 4278190080
-0.29636699 -0.15515591 1.3710001 4292205278
-0.29027018 -0.15391104 1.36 4292073692
-0.28655124 -0.15391104 1.36 4291218383
-0.28179249 -0.15334518 1.355 4290165182
-0.27788201 -0.15323202 1.3540001 4290428354
-0.27458447 -0.15345836 1.3560001 4290559940
-0.2716755 -0.15391104 1.36 4290363074
-0.26815361 -0.15402421 1.3610001 4290428867
-0.26443195 -0.15402421 1.3610001 4290692039
-0.26166806 -0.15459006 1.3660001 4290626246
-0.25812155 -0.15470323 1.3670001 4290626246
-0.25419739 -0.15459006 1.3660001 4290889420
-0.25046203 -0.15459006 1.3660001 4290823627
-0.24654609 -0.15447688 1.365 4290428869
-0.24281348 -0.15447688 1.365 4292073694
-0.23908088 -0.15447688 1.365 4293390070
-0.23793451 -0.15617444 1.3800001 4293390585
-0.29852864 -0.15251124 1.381 4292139485
-0.29197767 -0.15107559 1.368 4292139485
-0.28739405 -0.15063384 1.3640001 4291021004
-0.28262436 -0.15008166 1.3590001 4290297281
-0.27829248 -0.14975037 1.3560001 4290494149
-0.27519196 -0.15008166 1.3590001 4290559942
-0.27187526 -0.15030254 1.3610001 4290494662
-0.26854765 -0.15052342 1.363 4290757834
-0.26482052 -0.15052342 1.363 4290560455
-0.26147652 -0.15074429 1.365 4290889420
-0.25849918 -0.15118602 1.3690001 4290560455
-0.25438347 -0.15096515 1.3670001 4290363076
-0.2506454 -0.15096515 1.3670001 4290494662
-0.24636546 -0.15063384 1.3640001 4290428869
-0.24316925 -0.15096515 1.3670001 4291876315
-0.23978147 -0.15118602 1.3690001 4293520886
-0.23931384 -0.1532843 1.388 4293258999
-0.30177119 -0.15035041 1.396 4292139485
-0.29283139 -0.14776558 1.3720001 4292205278
-0.28760475 -0.14701168 1.365 4290626246
-0.28200045 -0.14604236 1.3560001 4290757832
-0.27726632 -0.14550386 1.3510001 4290560453
-0.27336949 -0.14539617 1.35 4290626246
-0.27047697 -0.14582697 1.3540001 4290231490
-0.26716849 -0.14604236 1.3560001 4290231490
-0.2636548 -0.14615007 1.3570001 4290428869
-0.26071027 -0.14658087 1.3610001 4290363076
-0.25793272 -0.14711937 1.3660001 4290363076
-0.25438347 -0.14722708 1.3670001 4290363076
-0.2506454 -0.14722708 1.3670001 4290757834
-0.24654609 -0.14701168 1.365 4290560455
-0.24316925 -0.14722708 1.3670001 4291678682
-0.24013178 -0.14765789 1.3710001 4293390070
-0.24121042 -0.15067351 1.399 4293390072
-0.30479753 -0.14800256 1.4100001 4292205280
-0.29325828 -0.14422376 1.3740001 4292139487
-0.28760475 -0.14327908 1.365 4290823625
-0.28283229 -0.14275424 1.36 4290165695
-0.27808723 -0.14222941 1.355 4290428869
-0.27417949 -0.14212444 1.3540001 4290823625
-0.2706767 -0.14222941 1.355 4290428867
-0.26716849 -0.14233437 1.3560001 4290560455
-0.26423764 -0.14275424 1.36 4290757834
-0.26071027 -0.14285921 1.3610001 4290692041
-0.25793272 -0.14338404 1.3660001 4290034111
-0.2540113 -0.14327908 1.365 4290231490
-0.25046203 -0.14338404 1.3660001 4290363076
-0.24618484 -0.14306915 1.363 4290231236
-0.24263559 -0.1431741 1.3640001 4291218133
-0.24048208 -0.1441188 1.373 4293586679
-0.24362424 -0.14831746 1.4130001 4293390072
-0.31236345 -0.14772502 1.4450001 4292205796
-0.29389858 -0.14077325 1.3770001 4292139487
-0.28781545 -0.13964871 1.3660001 4291547350
-0.28304029 -0.13913754 1.3610001 4290165697
-0.27890816 -0.13893306 1.3590001 4291021006
-0.27458447 -0.13862638 1.3560001 4290757834
-0.27047697 -0.13842192 1.3540001 4290428869
-0.26598632 -0.13801299 1.35 4290494662
-0.26287761 -0.13831969 1.353 4290099904
-0.25936937 -0.13842192 1.3540001 4290099904
-0.25661096 -0.13893306 1.3590001 4290363076
-0.25382522 -0.13944423 1.3640001 4290099650
-0.25119546 -0.14005762 1.3700001 4290560201
-0.24708796 -0.13985315 1.368 4290625994
-0.24334714 -0.13985315 1.368 4290757580
-0.24100754 -0.14067101 1.376 4293390070
-0.24603806 -0.14588484 1.427 4293390072
-0.31603828 -0.14546509 1.462 4278190080
-0.29710007 -0.13850029 1.3920001 4291941854
-0.28929034 -0.13660984 1.373 4291810522
-0.28491196 -0.13631135 1.3700001 4290297283
-0.28096044 -0.13621184 1.3690001 4289770939
-0.27660942 -0.13591336 1.3660001 4290560455
-0.27247456 -0.13571435 1.3640001 4290231490
-0.26775956 -0.13521688 1.3590001 4290428869
-0.26404336 -0.13521688 1.3590001 4290231490
-0.26013559 -0.13511738 1.358 4290099650
-0.25679979 -0.13531637 1.36 4290494408
-0.2540113 -0.13581386 1.365 4289902525
-0.25027868 -0.13581386 1.365 4290165443
-0.24672669 -0.13591336 1.3660001 4290625994
-0.24334714 -0.13611235 1.368 4291152338
-0.24170814 -0.13730632 1.3800001 4293455863
-0.24690017 -0.14248018 1.432 4293390072
-0.30094188 -0.13643558 1.4100001 4292007647
-0.29118663 -0.13372622 1.3820001 4291349717
-0.28574383 -0.13295212 1.3740001 4290099650
-0.28137094 -0.13266183 1.3710001 4290297283
-0.27640694 -0.13208126 1.365 4290428869
-0.27187526 -0.1316942 1.3610001 4290560455
-0.26677445 -0.13101687 1.3540001 4290297283
-0.26307189 -0.13101687 1.3540001 4290363076
-0.2605187 -0.13159744 1.36 4290034111
-0.25812155 -0.13227478 1.3670001 4290625735
-0.25456956 -0.13237154 1.368 4290231490
-0.2506454 -0.13227478 1.3670001 4290494662
-0.24672669 -0.13217802 1.3660001 4291218385
-0.24388079 -0.13266183 1.3710001 4291942108
-0.24170814 -0.1335327 1.3800001 4293521654
-0.24655531 -0.13837084 1.4300001 4293455863
-0.30457026 -0.13417841 1.427 4291876831
-0.29245085 -0.1305113 1.388 4292073440
-0.28678367 -0.12966505 1.3790001 4290428615
-0.28219184 -0.12928893 1.3750001 4290099904
-0.27802691 -0.12910087 1.373 4290625735
-0.27287409 -0.12844267 1.3660001 4290428869
-0.26835063 -0.12806657 1.3620001 4290363076
-0.26443195 -0.12797253 1.3610001 4290494662
-0.26205119 -0.12863073 1.368 4290231490
-0.25887686 -0.12891282 1.3710001 4290296770
-0.2553139 -0.12900685 1.3720001 4291612630
-0.25119546 -0.1288188 1.3700001 4292007901
-0.24726856 -0.12872475 1.3690001 4291876315
-0.24441445 -0.1291949 1.3740001 4291218385
-0.24240874 -0.13013519 1.3840001 4293390070
-0.24672773 -0.13455452 1.4310001 4293455863
-0.30713147 -0.13137178 1.439 4291876831
-0.29245085 -0.12671581 1.388 4292073440
-0.28678367 -0.12589416 1.3790001 4290560455
-0.28260231 -0.12571156 1.3770001 4290231490
-0.27822942 -0.12543769 1.3740001 4290363076
-0.27347335 -0.12498122 1.3690001 4290428869
-0.26874468 -0.12452474 1.3640001 4291284178
-0.26482052 -0.12443346 1.363 4291744475
-0.26185963 -0.12479863 1.3670001 4291876061
-0.25887686 -0.12516381 1.3710001 4291612632
-0.2556861 -0.12543769 1.3740001 4290889166
-0.2526623 -0.12580286 1.378 4290625994
-0.24835227 -0.12552898 1.3750001 4290757580
-0.2449481 -0.12571156 1.3770001 4291876831
-0.24240874 -0.12635063 1.3840001 4293521656
-0.24741742 -0.13100661 1.4350001 4293258484
-0.29371503 -0.12345165 1.3940001 4291745245
-0.28740755 -0.12238894 1.3820001 4291415510
-0.28342322 -0.12230038 1.381 4290494151
-0.27944437 -0.12221183 1.3800001 4291086547
-0.27487171 -0.12185759 1.376 4290954959
-0.27110901 -0.12185759 1.376 4291349717
-0.26715204 -0.12176903 1.3750001 4290954961
-0.26320052 -0.12168047 1.3740001 4289639101
-0.25906566 -0.12150335 1.3720001 4290362825
-0.25550002 -0.12159191 1.373 4291020755
-0.25247896 -0.12194615 1.3770001 4291415513
-0.24853291 -0.12185759 1.376 4291810785
-0.2449481 -0.12194615 1.3770001 4291087830
-0.24328451 -0.12300885 1.3890001 4293258999
-0.24845192 -0.12761395 1.4410001 4293390070
-0.29603273 -0.12058382 1.4050001 4291482588
-0.28782347 -0.11878151 1.3840001 4291284441
-0.283218 -0.11843821 1.3800001 4290231753
-0.27903938 -0.11826655 1.378 4290362825
-0.27487171 -0.11809491 1.376 4289968066
-0.27091199 -0.11800908 1.3750001 4290494410
-0.26695776 -0.11792325 1.3740001 4289704895
-0.26281741 -0.1177516 1.3720001 4289639618
-0.25906566 -0.1177516 1.3720001 4289771206
-0.25587219 -0.11800908 1.3750001 4289771206
-0.25211224 -0.11800908 1.3750001 4289376448
-0.24781041 -0.1177516 1.3720001 4289771717
-0.24441445 -0.11792325 1.3740001 4290627024
-0.24345964 -0.11929645 1.3900001 4293455863
-0.24776225 -0.12333021 1.437 4293390070
-0.29792902 -0.11748965 1.414 4290955991
-0.28844738 -0.11524621 1.3870001 4291087064
-0.28362846 -0.11483076 1.3820001 4289705411
-0.28025433 -0.11499695 1.3840001 4289046711
-0.27567077 -0.11466458 1.3800001 4289704895
-0.27170008 -0.11458149 1.3790001 4289770688
-0.26715204 -0.11424913 1.3750001 4291547615
-0.26339209 -0.11424913 1.3750001 4291679201
-0.25982097 -0.11433222 1.376 4289244862
-0.25624436 -0.1144153 1.3770001 4288981947
-0.25174552 -0.11408295 1.373 4289310914
-0.24726856 -0.11375058 1.3690001 4289179328
-0.24441445 -0.11416604 1.3740001 4290824405
-0.24380995 -0.11566167 1.3920001 4293258231
-0.30003601 -0.11442661 1.424 4290166988
-0.28844738 -0.11145344 1.3870001 4290758358
-0.28383368 -0.11113203 1.383 4291876582
-0.28025433 -0.11121238 1.3840001 4292204777
-0.27567077 -0.11089096 1.3800001 4292138984
-0.27110901 -0.11056954 1.376 4291415259
-0.26618057 -0.1100874 1.3700001 4289178297
-0.26320052 -0.11040882 1.3740001 4291020503
-0.2600098 -0.11064988 1.3770001 4289573827
-0.2569887 -0.11097131 1.381 4289047740
-0.25247896 -0.11064988 1.3770001 4290034637
-0.24799104 -0.11032847 1.373 4290363602
-0.24477021 -0.11056954 1.376 4289705924
-0.24363481 -0.11177487 1.391 4293389817
-0.29073498 -0.10851451 1.3980001 4290758358
-0.28465459 -0.10766068 1.3870001 4290429393
-0.28167182 -0.10797117 1.391 4286284177
-0.27666956 -0.10750543 1.3850001 4287138716
-0.27189714 -0.10711734 1.3800001 4286875544
-0.26715204 -0.10672923 1.3750001 4285888390
-0.26415831 -0.10703971 1.3790001 4290362573
-0.26076508 -0.10719495 1.381 4290954710
-0.25773308 -0.10750543 1.3850001 4290428366
-0.25339571 -0.10727257 1.3820001 4290100171
-0.24889414 -0.10696209 1.378 4290429393
-0.2449481 -0.10688446 1.3770001 4288915895
-0.24328451 -0.10781592 1.3890001 4293258233
-0.29135886 -0.10491633 1.401 4290692565
-0.28465459 -0.10386792 1.3870001 4291087066
-0.27984935 -0.10349348 1.3820001 4286481302
-0.27567077 -0.10334371 1.3800001 4287467170
-0.27110901 -0.10304417 1.376 4288256686
-0.26695776 -0.10289439 1.3740001 4289704130
-0.26396674 -0.10319393 1.378 4290427853
-0.2609539 -0.10349348 1.3820001 4290888917
-0.25791916 -0.10379303 1.386 4291019990
-0.25376242 -0.10364326 1.3840001 4290758101
-0.24871352 -0.10311905 1.3770001 4289969355
-0.24477021 -0.10304417 1.376 4289771206
-0.24293418 -0.10386792 1.3870001 4293061367
-0.2852703 -0.1002916 1.3900001 4290955480
-0.27924186 -0.099497937 1.3790001 4288651957
-0.27487171 -0.099281482 1.376 4287730342
-0.2701239 -0.098920718 1.3710001 4287663779
-0.26676345 -0.099065021 1.373 4286611859
-0.26358363 -0.099281482 1.376 4288980407
-0.2609539 -0.099714391 1.3820001 4290888917
-0.2569887 -0.099642232 1.381 4290165964
-0.25247896 -0.099353626 1.3770001 4289310655
-0.24799104 -0.099065021 1.373 4289113533
-0.24459232 -0.099209324 1.3750001 4290692565
-0.24328451 -0.10021945 1.3890001 4292995574
-0.2852703 -0.096490636 1.3900001 4290888917
-0.27843189 -0.095449373 1.3750001 4288585649
-0.27327362 -0.094963446 1.368 4287071642
-0.26835063 -0.094546944 1.3620001 4286808213
-0.26520911 -0.094755195 1.365 4286939797
-0.26185963 -0.094894037 1.3670001 4287730340
-0.25982097 -0.095518798 1.376 4290823124
-0.25605828 -0.095518798 1.376 4288389553
-0.25247896 -0.095588207 1.3770001 4289245119
-0.24799104 -0.095310539 1.373 4289639877
-0.2449481 -0.095588207 1.3770001 4290955480
-0.24293418 -0.096282385 1.3870001 4292863475
-0.27984935 -0.092156202 1.3820001 4290559952
-0.27367312 -0.091356009 1.3700001 4287597986
-0.26854765 -0.09088923 1.363 4287268764
-0.26520911 -0.091022588 1.365 4287269021
-0.26166806 -0.091089278 1.3660001 4287861926
-0.25944331 -0.09162274 1.3740001 4290429136
-0.2556861 -0.09162274 1.3740001 4289442498
-0.25284564 -0.091956161 1.3790001 4289376707
-0.24835227 -0.091689423 1.3750001 4289179328
-0.24565963 -0.092089519 1.381 4289508291
-0.24328451 -0.09262298 1.3890001 4292863475
-0.28065935 -0.088632904 1.386 4291152087
-0.27427241 -0.087801576 1.373 4289835202
-0.26933578 -0.087417878 1.3670001 4290163656
-0.26520911 -0.087289982 1.365 4289900995
-0.26185963 -0.087417878 1.3670001 4289769923
-0.25963214 -0.087929472 1.3750001 4290363089
-0.25661653 -0.088185266 1.3790001 4288455605
-0.25339571 -0.088377111 1.3820001 4288390325
-0.24871352 -0.088057369 1.3770001 4289377220
-0.24530387 -0.088185266 1.3790001 4290100430
-0.24258389 -0.088568963 1.3850001 4292600305
-0.2764698 -0.084720448 1.3840001 4286940824
-0.27130604 -0.08429195 1.3770001 4287006871
-0.26695776 -0.084108308 1.3740001 4286743699
-0.26358363 -0.084230736 1.376 4287006871
-0.26114273 -0.084659234 1.383 4289573827
-0.25791916 -0.084842876 1.386 4289771465
-0.25394577 -0.084781662 1.3850001 4289245634
-0.24889414 -0.084353164 1.378 4289114563
-0.2449481 -0.08429195 1.3770001 4289311427
-0.27150306 -0.08058501 1.378 4291349209
-0.2679292 -0.08064349 1.3790001 4291283162
-0.24477021 -0.080468051 1.376 4290956767
