# .PCD v0.7 - Point Cloud Data file format
VERSION 0.7
FIELDS x y z rgba
SIZE 4 4 4 4
TYPE F F F U
COUNT 1 1 1 1
WIDTH 515
HEIGHT 1
VIEWPOINT 0 0 0 1 0 0 0
POINTS 515
DATA ascii
-0.18888082 -0.15380512 1.327 4292271071
-0.18246007 -0.15148704 1.307 4291876313
-0.17751738 -0.150328 1.2970001 4292007899
-0.17370246 -0.15009618 1.2950001 4284902255
-0.16989848 -0.14986438 1.2930001 4291876313
-0.16662009 -0.15009618 1.2950001 4292468452
-0.16408633 -0.15102343 1.3030001 4293389300
-0.22734578 -0.14689451 1.2980001 4292402657
-0.21948595 -0.14406526 1.273 4291876313
-0.21464747 -0.14315991 1.2650001 4291942105
-0.21152221 -0.14338624 1.2670001 4291876312
-0.2093713 -0.14429159 1.2750001 4291744726
-0.20701514 -0.1450838 1.2820001 4291876312
-0.20335077 -0.14497063 1.281 4291810519
-0.19984786 -0.14497063 1.281 4291678933
-0.19634496 -0.14497063 1.281 4291810519
-0.19329368 -0.14531013 1.284 4291876312
-0.19007817 -0.14553647 1.286 4291810519
-0.18641651 -0.14542329 1.2850001 4291810519
-0.18261799 -0.14519696 1.2830001 4291678933
-0.17883042 -0.14497063 1.281 4291744726
-0.17532751 -0.14497063 1.281 4292205277
-0.17182459 -0.14497063 1.281 4284836461
-0.1681903 -0.14485745 1.2800001 4291613141
-0.16481878 -0.14497063 1.281 4293323761
-0.16169366 -0.14531013 1.284 4278190080
-0.16311036 -0.14983693 1.3240001 4293324277
-0.22594456 -0.14246163 1.2900001 4292271070
-0.21793424 -0.13959031 1.2640001 4292468449
-0.21278098 -0.13848595 1.2540001 4292468703
-0.20985276 -0.13881727 1.2570001 4292139738
-0.20789339 -0.13981117 1.266 4292073945
-0.20556183 -0.14058423 1.273 4291942359
-0.20176332 -0.14036335 1.271 4292073945
-0.19813174 -0.14025292 1.2700001 4291942359
-0.19465892 -0.14025292 1.2700001 4292073945
-0.19163771 -0.14058423 1.273 4292008152
-0.1883045 -0.14069466 1.274 4292008152
-0.18482073 -0.14069466 1.274 4291876566
-0.18133697 -0.14069466 1.274 4291942359
-0.17799279 -0.1408051 1.2750001 4291810519
-0.17478004 -0.14102598 1.2770001 4291678933
-0.17169046 -0.14135727 1.2800001 4291481554
-0.1684531 -0.14157815 1.2820001 4291613141
-0.16533345 -0.14190945 1.2850001 4293192173
-0.16219738 -0.14224076 1.2880001 4293389554
-0.22944759 -0.14108813 1.3100001 4291810520
-0.2189687 -0.1367801 1.2700001 4291876312
-0.21362938 -0.13559538 1.2590001 4291942359
-0.2103536 -0.13570309 1.2600001 4291876566
-0.20822181 -0.1365647 1.268 4291876566
-0.20556183 -0.1371032 1.273 4291942359
-0.20192207 -0.13699549 1.2720001 4291810773
-0.19797575 -0.13667239 1.2690001 4291876566
-0.19450566 -0.13667239 1.2690001 4291744467
-0.19133663 -0.13688779 1.271 4291416015
-0.18815668 -0.1371032 1.273 4291744980
-0.18467565 -0.1371032 1.273 4291678933
-0.18133697 -0.13721089 1.274 4291810519
-0.1781324 -0.1374263 1.276 4291876312
-0.17505378 -0.1377494 1.279 4291876312
-0.17209287 -0.1381802 1.2830001 4292007898
-0.16871588 -0.1382879 1.284 4291810520
-0.16546211 -0.13850331 1.286 4292994794
-0.16219738 -0.13871871 1.2880001 4293258482
-0.16372633 -0.14313444 1.3290001 4293324790
-0.22189981 -0.13509169 1.2870001 4291613140
-0.21617462 -0.13372713 1.274 4291744726
-0.21235697 -0.13351721 1.2720001 4291744726
-0.2093713 -0.1338321 1.2750001 4291613140
-0.20604627 -0.13393706 1.276 4288915627
-0.20271578 -0.13404204 1.2770001 4289442225
-0.19922382 -0.13404204 1.2770001 4291152843
-0.19573185 -0.13404204 1.2770001 4291020744
-0.19223988 -0.13404204 1.2770001 4291021003
-0.18889572 -0.13414699 1.2780001 4291744726
-0.18554607 -0.13425197 1.279 4292007899
-0.18247566 -0.13456687 1.2820001 4292073179
-0.17924923 -0.1347768 1.284 4291876313
-0.17601185 -0.13498673 1.286 4291942106
-0.17289767 -0.13530163 1.289 4291942106
-0.16937289 -0.13530163 1.289 4292007899
-0.16571943 -0.13519666 1.2880001 4292863208
-0.16244924 -0.1354066 1.2900001 4293390068
-0.162248 -0.13824068 1.317 4293258999
-0.22379638 -0.13269694 1.2980001 4291810520
-0.21804111 -0.13136792 1.2850001 4291613140
-0.21369253 -0.13085675 1.2800001 4291415762
-0.21019237 -0.13085675 1.2800001 4291481555
-0.20669219 -0.13085675 1.2800001 4291284176
-0.20366825 -0.13116345 1.2830001 4291086797
-0.20062791 -0.13147016 1.286 4291152590
-0.19711132 -0.13147016 1.286 4290494660
-0.19329368 -0.13126568 1.284 4291086797
-0.18978256 -0.13126568 1.284 4289836730
-0.18627144 -0.13126568 1.284 4290823625
-0.183045 -0.13147016 1.286 4290691526
-0.17966804 -0.13157238 1.2870001 4290363074
-0.17655931 -0.13187908 1.2900001 4290231488
-0.17316593 -0.1319813 1.291 4291218383
-0.16950428 -0.13187908 1.2900001 4291810520
-0.16571943 -0.13167462 1.2880001 4292731622
-0.16232331 -0.13177684 1.289 4293324275
-0.16187842 -0.13433264 1.314 4293390072
-0.22483088 -0.12974451 1.304 4291942106
-0.21871984 -0.12825206 1.289 4290494660
-0.21436033 -0.12775457 1.284 4289441972
-0.210685 -0.12765507 1.2830001 4290428867
-0.20733811 -0.12775457 1.284 4290165695
-0.20430323 -0.12805307 1.2870001 4290428867
-0.20140794 -0.12845105 1.291 4290231490
-0.19772443 -0.12835157 1.2900001 4290428869
-0.19404636 -0.12825206 1.289 4290494662
-0.19037376 -0.12815256 1.2880001 4290363076
-0.1869968 -0.12825206 1.289 4290494149
-0.18389903 -0.12855056 1.2920001 4290296768
-0.18050565 -0.12865005 1.2930001 4290362561
-0.17724366 -0.12884904 1.2950001 4290099902
-0.1734342 -0.12865005 1.2930001 4290889418
-0.16963567 -0.12845105 1.291 4291678934
-0.16597676 -0.12835157 1.2900001 4292468450
-0.16295296 -0.12874955 1.294 4293389554
-0.162248 -0.13103798 1.317 4293390072
-0.22586538 -0.12675931 1.3100001 4292073692
-0.2190592 -0.1249208 1.291 4291613141
-0.21436033 -0.12424347 1.284 4290494660
-0.210685 -0.1241467 1.2830001 4290494660
-0.20749958 -0.12434023 1.2850001 4290363076
-0.20430323 -0.12453375 1.2870001 4290428869
-0.20109594 -0.12472728 1.289 4290297029
-0.19757114 -0.12472728 1.289 4290231490
-0.19389582 -0.12463052 1.2880001 4290297283
-0.19052158 -0.12472728 1.289 4289836732
-0.18714188 -0.12482405 1.2900001 4290099904
-0.18375668 -0.1249208 1.291 4290230975
-0.18008684 -0.12482405 1.2900001 4290296254
-0.17669618 -0.1249208 1.291 4290625988
-0.17289767 -0.12472728 1.289 4290823367
-0.16924147 -0.12463052 1.2880001 4291744727
-0.16584811 -0.12472728 1.289 4292336864
-0.1630789 -0.12530786 1.2950001 4293521140
-0.162248 -0.12743664 1.317 4293390072
-0.22776195 -0.1242114 1.3210001 4292073692
-0.21990761 -0.12186069 1.296 4291678934
-0.21502811 -0.12110846 1.2880001 4289902523
-0.21117765 -0.12092041 1.286 4290231488
-0.20782255 -0.12101444 1.2870001 4289836730
-0.20430323 -0.12101444 1.2870001 4290428867
-0.20109594 -0.1212025 1.289 4290165695
-0.19711132 -0.12092041 1.286 4289836730
-0.19359474 -0.12092041 1.286 4290099902
-0.19022597 -0.12101444 1.2870001 4289639351
-0.1869968 -0.1212025 1.289 4289573558
-0.18361436 -0.12129653 1.2900001 4289902523
-0.18022643 -0.12139055 1.291 4289836730
-0.17669618 -0.12139055 1.291 4289573558
-0.17303179 -0.12129653 1.2900001 4290757831
-0.16950428 -0.12129653 1.2900001 4291613141
-0.16623409 -0.12148458 1.2920001 4292139485
-0.16358261 -0.12214278 1.299 4293521140
-0.16249439 -0.12402335 1.319 4278190080
-0.22896887 -0.12123817 1.3280001 4278190080
-0.22024699 -0.11849936 1.2980001 4291810520
-0.21452726 -0.11731254 1.2850001 4290165695
-0.21101342 -0.11731254 1.2850001 4289836730
-0.20749958 -0.11731254 1.2850001 4289705144
-0.20430323 -0.11749512 1.2870001 4290231488
-0.20093991 -0.11758642 1.2880001 4290626246
-0.19726461 -0.11749512 1.2870001 4290823625
-0.19374529 -0.11749512 1.2870001 4290889418
-0.19037376 -0.11758642 1.2880001 4291546835
-0.18685172 -0.11758642 1.2880001 4291152077
-0.18347202 -0.11767771 1.289 4291283663
-0.18008684 -0.11776901 1.2900001 4290560453
-0.17683305 -0.11795159 1.2920001 4290823625
-0.17316593 -0.11786029 1.291 4290955211
-0.16976708 -0.11795159 1.2920001 4291678934
-0.16649142 -0.11813419 1.294 4292073692
-0.16370854 -0.11868194 1.3000001 4293586931
-0.162248 -0.12023394 1.317 4293258997
-0.68237227 -0.1277025 1.442 4280298025
-0.23069303 -0.11849233 1.3380001 4278190080
-0.22126508 -0.11548132 1.304 4291810520
-0.21536201 -0.1142415 1.2900001 4290494660
-0.21150605 -0.11406437 1.2880001 4289507765
-0.20798402 -0.11406437 1.2880001 4289507765
-0.20462072 -0.11415293 1.289 4289639351
-0.20125195 -0.1142415 1.2900001 4290231488
-0.19757114 -0.11415293 1.289 4290231488
-0.19434744 -0.11433005 1.291 4290033596
-0.19081719 -0.11433005 1.291 4290164668
-0.18728693 -0.11433005 1.291 4289835703
-0.18361436 -0.1142415 1.2900001 4289836217
-0.18036604 -0.1144186 1.2920001 4289573558
-0.17710678 -0.11459573 1.294 4290100672
-0.17356832 -0.11459573 1.294 4289705144
-0.17029268 -0.11477284 1.296 4291613911
-0.1668774 -0.11486141 1.2970001 4292074462
-0.16408633 -0.11539277 1.3030001 4293586931
-0.16237119 -0.11672115 1.3180001 4293258997
-0.23276202 -0.11586346 1.35 4278190080
-0.22177412 -0.112173 1.307 4292007386
-0.21552895 -0.11079979 1.291 4290362561
-0.21183451 -0.11071397 1.2900001 4289902010
-0.20830698 -0.11071397 1.2900001 4289705144
-0.20477946 -0.11071397 1.2900001 4289705144
-0.20109594 -0.11062815 1.289 4289770937
-0.19787769 -0.11079979 1.291 4290034109
-0.19449799 -0.11088562 1.2920001 4290033596
-0.190965 -0.11088562 1.2920001 4290362047
-0.18714188 -0.11071397 1.2900001 4290493120
-0.18361436 -0.11071397 1.2900001 4290361534
-0.18036604 -0.11088562 1.2920001 4290691012
-0.17710678 -0.11105727 1.294 4289902523
-0.17370246 -0.11114309 1.2950001 4290099389
-0.17042407 -0.11131474 1.2970001 4291613657
-0.16713475 -0.1114864 1.299 4292337380
-0.16421227 -0.11191551 1.304 4293324275
-0.16298716 -0.11354619 1.3230001 4293258997
-0.23690002 -0.11416604 1.3740001 4292139485
-0.22313157 -0.10926371 1.3150001 4291613141
-0.21686453 -0.10793427 1.299 4290296768
-0.21281976 -0.10768499 1.296 4290033596
-0.20895289 -0.10751882 1.294 4289902010
-0.2052557 -0.10743573 1.2930001 4289968316
-0.20156395 -0.10735263 1.2920001 4289573560
-0.19833751 -0.10751882 1.294 4289968318
-0.19464853 -0.10743573 1.2930001 4289705146
-0.190965 -0.10735263 1.2920001 4290033598
-0.18743202 -0.10735263 1.2920001 4290625219
-0.18404137 -0.10743573 1.2930001 4290361533
-0.18078485 -0.1076019 1.2950001 4289901496
-0.17724366 -0.1076019 1.2950001 4290165182
-0.17397073 -0.10776809 1.2970001 4289770424
-0.17055547 -0.10785118 1.2980001 4291547350
-0.16752073 -0.10818354 1.302 4292205794
-0.16459005 -0.10859899 1.307 4278190080
-0.16495828 -0.11125787 1.3390001 4293258997
-0.24138284 -0.11249807 1.4000001 4278190080
-0.22465871 -0.10639104 1.3240001 4291876315
-0.21769927 -0.10478391 1.304 4290428869
-0.21314819 -0.10430179 1.2980001 4289638840
-0.20911437 -0.10406071 1.2950001 4290034111
-0.20541443 -0.10398036 1.294 4290034111
-0.20171997 -0.10390001 1.2930001 4289507767
-0.19864406 -0.10414107 1.296 4289705146
-0.19464853 -0.10390001 1.2930001 4289902271
-0.19111282 -0.10390001 1.2930001 4289968064
-0.18743202 -0.10381965 1.2920001 4289770426
-0.18418369 -0.10398036 1.294 4290230461
-0.18064524 -0.10398036 1.294 4290098875
-0.17710678 -0.10398036 1.294 4289704631
-0.1738366 -0.10414107 1.296 4290033596
-0.17094967 -0.10454285 1.3010001 4291415764
-0.16790673 -0.10486427 1.3050001 4292468452
-0.16509376 -0.10534641 1.3110001 4293455347
-0.22737361 -0.10401248 1.34 4291745243
-0.21870096 -0.10168385 1.3100001 4290626762
-0.21364084 -0.10098525 1.3010001 4289968832
-0.20959881 -0.10075239 1.2980001 4290362822
-0.20604941 -0.10075239 1.2980001 4290231490
-0.202344 -0.10067477 1.2970001 4290165697
-0.19895062 -0.10075239 1.2980001 4290034111
-0.19510013 -0.10059714 1.296 4289770685
-0.19155622 -0.10059714 1.296 4289902271
-0.18830244 -0.10075239 1.2980001 4289836478
-0.18475305 -0.10075239 1.2980001 4289902271
-0.18092443 -0.10059714 1.296 4290165184
-0.17738052 -0.10059714 1.296 4289704633
-0.17397073 -0.10067477 1.2970001 4289639353
-0.17108107 -0.10106288 1.302 4291415764
-0.16816404 -0.10145099 1.307 4292468452
-0.16572341 -0.10214958 1.3160001 4293520886
-0.16865414 -0.1062635 1.3690001 4293192691
-0.22991884 -0.10147154 1.355 4291745758
-0.21953569 -0.098476075 1.3150001 4290495691
-0.21380503 -0.097502545 1.302 4289311417
-0.20992175 -0.097352766 1.3000001 4289574076
-0.20620814 -0.097277887 1.299 4289704892
-0.202344 -0.097128108 1.2970001 4289704633
-0.19864406 -0.097053222 1.296 4289770426
-0.19494961 -0.096978329 1.2950001 4289441461
-0.19155622 -0.097053222 1.296 4289638842
-0.18815736 -0.097128108 1.2970001 4289902271
-0.18475305 -0.097203001 1.2980001 4289573306
-0.18092443 -0.097053222 1.296 4289573306
-0.17738052 -0.097053222 1.296 4289902525
-0.1738366 -0.097053222 1.296 4289573560
-0.17108107 -0.097502545 1.302 4291218385
-0.16842139 -0.098026745 1.309 4293126382
-0.16635306 -0.098925389 1.3210001 4293455093
-0.16963971 -0.10311905 1.3770001 4293192691
-0.23348217 -0.099281482 1.376 4278190080
-0.22103822 -0.095529564 1.3240001 4290298314
-0.21462612 -0.094302975 1.307 4289706434
-0.21056767 -0.094086513 1.304 4289640641
-0.20652564 -0.093870059 1.3010001 4289574078
-0.20281203 -0.0937979 1.3000001 4289638840
-0.19879735 -0.093581453 1.2970001 4289967805
-0.19540124 -0.093653604 1.2980001 4290032828
-0.19185184 -0.093653604 1.2980001 4289967035
-0.18844751 -0.093725756 1.299 4290032830
-0.18503772 -0.0937979 1.3000001 4289244341
-0.18176205 -0.09394221 1.302 4289507513
-0.17820174 -0.09394221 1.302 4289836478
-0.1746414 -0.09394221 1.302 4289902525
-0.17147526 -0.094158664 1.3050001 4291349971
-0.16893603 -0.094735883 1.3130001 4293323761
-0.16685678 -0.095601708 1.325 4293389300
-0.17062527 -0.099930845 1.3850001 4293126900
-0.23636675 -0.096698895 1.393 4278190080
-0.22287464 -0.092672661 1.335 4290364107
-0.21544717 -0.091076054 1.312 4289509055
-0.21056767 -0.09052071 1.304 4289838020
-0.20652564 -0.090312459 1.3010001 4289574591
-0.20265602 -0.090173632 1.299 4289836478
-0.19864406 -0.089965373 1.296 4289902525
-0.19525068 -0.09003479 1.2970001 4289967289
-0.19185184 -0.090104207 1.2980001 4289769910
-0.18830244 -0.090104207 1.2980001 4290230461
-0.18503772 -0.090243042 1.3000001 4289507254
-0.18162246 -0.090312459 1.3010001 4289639353
-0.17861234 -0.090590134 1.3050001 4289902523
-0.17504379 -0.090590134 1.3050001 4290034109
-0.17186946 -0.090798378 1.3080001 4291349969
-0.16919337 -0.091284312 1.3150001 4292994796
-0.16710864 -0.092117324 1.327 4293455093
-0.17161082 -0.096698895 1.393 4292600554
-0.22504497 -0.089888975 1.348 4278190080
-0.21659668 -0.087955162 1.319 4290561486
-0.2110521 -0.087154962 1.307 4289311419
-0.20684312 -0.086888231 1.3030001 4289442492
-0.20296805 -0.086754866 1.3010001 4289836221
-0.19910388 -0.086621501 1.299 4290099650
-0.1957023 -0.086688183 1.3000001 4290691528
-0.19229525 -0.086754866 1.3010001 4290625735
-0.18873766 -0.086754866 1.3010001 4290559942
-0.18532239 -0.086821549 1.302 4290692041
-0.18190166 -0.086888231 1.3030001 4291086797
-0.1787492 -0.087088279 1.3060001 4291349969
-0.1754462 -0.087221645 1.3080001 4291218383
-0.17239505 -0.087488383 1.312 4291481557
-0.16970803 -0.087955162 1.319 4292994796
-0.16786422 -0.088888727 1.3330001 4293455347
-0.17111805 -0.09262298 1.3890001 4293258484
-0.22704831 -0.08697024 1.36 4278190080
-0.21725351 -0.084604137 1.3230001 4290560973
-0.21072914 -0.083453059 1.3050001 4290165445
-0.20684312 -0.083325163 1.3030001 4289902273
-0.20265602 -0.083069369 1.299 4290559944
-0.19925717 -0.083133318 1.3000001 4291283924
-0.1957023 -0.083133318 1.3000001 4291218131
-0.19229525 -0.083197266 1.3010001 4291349971
-0.18873766 -0.083197266 1.3010001 4291086799
-0.18518005 -0.083197266 1.3010001 4290889420
-0.18148285 -0.083133318 1.3000001 4290692039
-0.17833859 -0.083325163 1.3030001 4290757832
-0.17504379 -0.083453059 1.3050001 4290363074
-0.17239505 -0.083900705 1.312 4291613143
-0.16970803 -0.084348343 1.319 4292863210
-0.16799015 -0.085307576 1.3340001 4293192691
-0.22871779 -0.083863452 1.3700001 4291284441
-0.21856721 -0.081476092 1.3310001 4290428618
-0.21169801 -0.080251813 1.3110001 4290362311
-0.20716061 -0.079884522 1.3050001 4290033346
-0.20312405 -0.079700887 1.302 4290296004
-0.19956371 -0.079700887 1.302 4290428617
-0.19600338 -0.079700887 1.302 4289375930
-0.19259086 -0.079762094 1.3030001 4289046965
-0.18888271 -0.079700887 1.302 4289573823
-0.18532239 -0.079700887 1.302 4289771457
-0.18176205 -0.079700887 1.302 4290100422
-0.17847547 -0.079823315 1.304 4290495178
-0.17531206 -0.080006957 1.307 4291152592
-0.17265785 -0.080435455 1.314 4291481557
-0.17022267 -0.080986381 1.3230001 4292928749
-0.16849387 -0.081904598 1.3380001 4293258484
-0.2197167 -0.078245826 1.3380001 4290560204
-0.21234393 -0.076900788 1.3150001 4289639101
-0.20747811 -0.076432951 1.307 4289770174
-0.20312405 -0.076140553 1.302 4289835453
-0.19925717 -0.076023594 1.3000001 4289638588
-0.1957023 -0.076023594 1.3000001 4289178297
-0.19244304 -0.076140553 1.302 4289113276
-0.18888271 -0.076140553 1.302 4289508291
-0.18532239 -0.076140553 1.302 4289640390
-0.18176205 -0.076140553 1.302 4289311425
-0.17847547 -0.076257512 1.304 4290692819
-0.17531206 -0.076432951 1.307 4289179320
-0.17278925 -0.076900788 1.3150001 4291218903
-0.17048001 -0.077485584 1.325 4292732142
-0.16887166 -0.078421257 1.3410001 4293126898
-0.22168726 -0.07525599 1.35 4278190080
-0.21395873 -0.073862359 1.325 4291810017
-0.20843057 -0.073193423 1.3130001 4292007396
-0.20406009 -0.07291469 1.3080001 4291809760
-0.19987027 -0.072691716 1.304 4291678431
-0.19615392 -0.072635964 1.3030001 4291416031
-0.19259086 -0.072635964 1.3030001 4289442498
-0.18931793 -0.072747454 1.3050001 4288258739
-0.18589173 -0.072803199 1.3060001 4288521911
-0.18232046 -0.072803199 1.3060001 4288850876
-0.17888606 -0.072858945 1.307 4289179326
-0.17571446 -0.07302618 1.3100001 4289047479
-0.17331484 -0.073527887 1.319 4291152855
-0.171252 -0.07419683 1.3310001 4292666094
-0.16987909 -0.075200245 1.3490001 4293126898
-0.22267254 -0.071882464 1.3560001 4290363343
-0.21444316 -0.070398167 1.3280001 4286744985
-0.20874806 -0.069709033 1.3150001 4287337122
-0.20406009 -0.069337957 1.3080001 4287665830
-0.19956371 -0.069019891 1.302 4287336865
-0.1957023 -0.06891387 1.3000001 4290100941
-0.19229525 -0.06896688 1.3010001 4289508804
-0.18917286 -0.069125913 1.304 4288258739
-0.18603408 -0.069284938 1.307 4288850621
-0.18246007 -0.069284938 1.307 4288653242
-0.17902294 -0.069337957 1.3080001 4288652984
-0.1758486 -0.069496982 1.3110001 4289968585
-0.17344624 -0.06997408 1.3200001 4290889685
-0.171252 -0.070557199 1.3310001 4292600301
-0.17013095 -0.071617417 1.3510001 4292995314
-0.21573497 -0.067168951 1.3360001 4285823883
-0.20938304 -0.06631425 1.319 4285823626
-0.20468414 -0.065962322 1.312 4286086544
-0.20017682 -0.065660663 1.3060001 4285494661
-0.19600338 -0.065459557 1.302 4290232014
-0.19259086 -0.065509833 1.3030001 4290297807
-0.18960808 -0.065710939 1.307 4289903562
-0.18660341 -0.065912038 1.3110001 4290035150
-0.18301848 -0.065912038 1.3110001 4289706185
-0.17957041 -0.065962322 1.312 4289705673
-0.17625099 -0.066062868 1.314 4288192174
-0.17357764 -0.066414803 1.3210001 4290626515
-0.17138065 -0.066967845 1.332 4292929268
-0.17050874 -0.068073913 1.3540001 4293061107
-0.21654236 -0.063753352 1.3410001 4289376708
-0.20954177 -0.062754974 1.3200001 4289179329
-0.20437214 -0.06227956 1.3100001 4289573833
-0.20002353 -0.062041849 1.3050001 4289310661
-0.19600338 -0.061899226 1.302 4290297809
-0.19303428 -0.062089395 1.3060001 4290429395
-0.18975314 -0.062184475 1.3080001 4290034635
-0.18660341 -0.062327098 1.3110001 4290166734
-0.18273927 -0.062232014 1.309 4290166736
-0.17943352 -0.062327098 1.3110001 4290297810
-0.17611685 -0.062422186 1.3130001 4287731623
-0.17357764 -0.062802516 1.3210001 4290757847
-0.17112334 -0.063230395 1.33 4292929268
-0.21081173 -0.059503883 1.3280001 4286349717
-0.20515217 -0.058921389 1.3150001 4286810270
-0.20109646 -0.058786966 1.312 4286020754
-0.19750878 -0.058786966 1.312 4288981437
-0.19406892 -0.058831774 1.3130001 4290363089
-0.19047852 -0.058831774 1.3130001 4290034124
-0.1868881 -0.058831774 1.3130001 4289705672
-0.18301848 -0.058742154 1.3110001 4289442500
-0.17970727 -0.058831774 1.3130001 4290100431
-0.17651926 -0.058966193 1.3160001 4288060845
-0.17370903 -0.059235036 1.322 4290495186
-0.17138065 -0.059683111 1.332 4293127160
-0.21144669 -0.056040745 1.332 4286876061
-0.20546418 -0.055409655 1.317 4286810270
-0.20094319 -0.055157214 1.3110001 4286876063
-0.19735824 -0.055157214 1.3110001 4288322737
-0.19392112 -0.055199288 1.312 4290494161
-0.19033344 -0.055199288 1.312 4288126127
-0.18674576 -0.055199288 1.312 4288586678
-0.18301848 -0.055157214 1.3110001 4289047229
-0.17970727 -0.055241365 1.3130001 4290297296
-0.17638513 -0.055325508 1.3150001 4290363343
-0.17370903 -0.055620015 1.322 4290823892
-0.17150933 -0.056082815 1.3330001 4292995059
-0.20640025 -0.052044332 1.3230001 4287073440
-0.2015563 -0.051729627 1.3150001 4286744475
-0.19765934 -0.051650953 1.3130001 4288388785
-0.19392112 -0.051611613 1.312 4290494161
-0.19047852 -0.051650953 1.3130001 4289836231
-0.18703042 -0.051690288 1.314 4288915643
-0.18371651 -0.051768962 1.3160001 4288981436
-0.18039161 -0.05184764 1.3180001 4290297296
-0.17692167 -0.051886979 1.319 4290560722
-0.17384043 -0.052044332 1.3230001 4290955478
-0.17150933 -0.052437712 1.3330001 4292995059
-0.20686826 -0.048536383 1.3260001 4289046713
-0.20186283 -0.048206955 1.317 4289507264
-0.19765934 -0.04806054 1.3130001 4289507264
-0.1937733 -0.047987331 1.3110001 4291019990
-0.19018836 -0.047987331 1.3110001 4289113022
-0.1868881 -0.04806054 1.3130001 4289113022
-0.18371651 -0.04817035 1.3160001 4288652471
-0.18052849 -0.048280161 1.319 4288060847
-0.17692167 -0.048280161 1.319 4290495186
-0.17384043 -0.048426576 1.3230001 4291087064
-0.17150933 -0.048792612 1.3330001 4293126645
-0.20278248 -0.04480882 1.3230001 4287138968
-0.19856258 -0.044673342 1.319 4287994023
-0.19451234 -0.044571735 1.3160001 4289902020
-0.19062357 -0.044503998 1.314 4288389553
-0.18717277 -0.044537865 1.3150001 4288323506
-0.18399569 -0.044639472 1.3180001 4289705673
-0.18066534 -0.044707209 1.3200001 4289969357
-0.17732406 -0.04477495 1.322 4289705413
-0.17397183 -0.044842687 1.3240001 4290626515
-0.19886366 -0.041128796 1.3210001 4291415259
-0.19480795 -0.041035388 1.3180001 4290954708
-0.19091372 -0.040973119 1.3160001 4288784570
-0.18731511 -0.040973119 1.3160001 4288718777
-0.18371651 -0.040973119 1.3160001 4288784830
-0.18025474 -0.041004255 1.317 4289246151
-0.17705579 -0.041097656 1.3200001 4290495701
-0.19120386 -0.037431303 1.3180001 4289969872
-0.18759978 -0.037431303 1.3180001 4290101460
-0.18385608 -0.037402906 1.317 4290562522
-0.18039161 -0.037431303 1.3180001 4291022823
