# .PCD v0.7 - Point Cloud Data file format
VERSION 0.7
FIELDS x y z rgba
SIZE 4 4 4 4
TYPE F F F U
COUNT 1 1 1 1
WIDTH 1070
HEIGHT 1
VIEWPOINT 0 0 0 1 0 0 0
POINTS 1070
DATA ascii
-0.17845513 -0.025762873 1.3110001 4292929517
-0.17731738 -0.025762873 1.3110001 4292863723
-0.17617963 -0.025762873 1.3110001 4292797930
-0.17504188 -0.025762873 1.3110001 4292732137
-0.17390414 -0.025762873 1.3110001 4292666344
-0.17289816 -0.025782526 1.312 4292534758
-0.17175955 -0.025782526 1.312 4292403427
-0.17075096 -0.025802176 1.3130001 4292337634
-0.16961148 -0.025802176 1.3130001 4292271841
-0.16847199 -0.025802176 1.3130001 4292074462
-0.1673325 -0.025802176 1.3130001 4292008669
-0.16619302 -0.025802176 1.3130001 4291942876
-0.16505353 -0.025802176 1.3130001 4291942106
-0.16378921 -0.025782526 1.312 4291876313
-0.16252662 -0.025762873 1.3110001 4291810520
-0.16138887 -0.025762873 1.3110001 4291810520
-0.16037336 -0.025782526 1.312 4291744727
-0.1593561 -0.025802176 1.3130001 4289573558
-0.15833713 -0.025821827 1.314 4285362806
-0.15755567 -0.025880782 1.317 4286612873
-0.15641271 -0.025880782 1.317 4290889418
-0.15538765 -0.025900433 1.3180001 4291942106
-0.20951003 -0.024539074 1.3060001 4293455092
-0.20805751 -0.024501495 1.304 4292468452
-0.20676716 -0.024482705 1.3030001 4289310387
-0.20500508 -0.024407547 1.299 4287336596
-0.20403469 -0.024426335 1.3000001 4287402389
-0.20290649 -0.024426335 1.3000001 4287599768
-0.20208871 -0.024463914 1.302 4287994526
-0.20095877 -0.024463914 1.302 4288849834
-0.19982883 -0.024463914 1.302 4290955210
-0.1990041 -0.024501495 1.304 4292073691
-0.19802418 -0.024520284 1.3050001 4292402656
-0.19704251 -0.024539074 1.3060001 4292468449
-0.19620912 -0.024576653 1.3080001 4292534242
-0.19507396 -0.024576653 1.3080001 4292600035
-0.19393882 -0.024576653 1.3080001 4292731621
-0.19295107 -0.024595441 1.309 4292797414
-0.19196159 -0.02461423 1.3100001 4292797414
-0.1908247 -0.02461423 1.3100001 4292731621
-0.18983263 -0.02463302 1.3110001 4292731622
-0.18869488 -0.02463302 1.3110001 4292731622
-0.18741407 -0.02461423 1.3100001 4292731622
-0.18627718 -0.02461423 1.3100001 4292665829
-0.1851403 -0.02461423 1.3100001 4292665829
-0.18400341 -0.02461423 1.3100001 4292665829
-0.18286653 -0.02461423 1.3100001 4292665829
-0.18172964 -0.02461423 1.3100001 4292665829
-0.18045491 -0.024595441 1.309 4292600036
-0.1793189 -0.024595441 1.309 4292600036
-0.17818289 -0.024595441 1.309 4292403427
-0.17691162 -0.024576653 1.3080001 4292337634
-0.17591086 -0.024595441 1.309 4292271841
-0.17477484 -0.024595441 1.309 4292206048
-0.17363882 -0.024595441 1.309 4292074462
-0.17263459 -0.02461423 1.3100001 4291942876
-0.1714977 -0.02461423 1.3100001 4291811290
-0.17049088 -0.02463302 1.3110001 4291811290
-0.16948231 -0.024651811 1.312 4291811290
-0.16834369 -0.024651811 1.312 4291679704
-0.16720507 -0.024651811 1.312 4291679447
-0.16606645 -0.024651811 1.312 4291679447
-0.16480213 -0.02463302 1.3110001 4291744726
-0.16366439 -0.02463302 1.3110001 4291678934
-0.16252662 -0.02463302 1.3110001 4291744726
-0.16138887 -0.02463302 1.3110001 4291810520
-0.16049559 -0.024670599 1.3130001 4291942106
-0.15947749 -0.024689389 1.314 4289968316
-0.15845762 -0.024708178 1.3150001 4284968048
-0.15755567 -0.024745759 1.317 4286218114
-0.15653147 -0.024764547 1.3180001 4290560453
-0.15562345 -0.024802126 1.3200001 4291942106
-0.20951003 -0.02341353 1.3060001 4293652725
-0.20789796 -0.023359746 1.3030001 4293455345
-0.20644978 -0.023323892 1.3010001 4292665829
-0.20500508 -0.023288036 1.299 4292007899
-0.20387775 -0.023288036 1.299 4291810519
-0.20275041 -0.023288036 1.299 4291613140
-0.20177828 -0.023305964 1.3000001 4291284175
-0.20065008 -0.023305964 1.3000001 4291284175
-0.19967535 -0.023323892 1.3010001 4291613140
-0.19869889 -0.023341818 1.302 4291942105
-0.19772069 -0.023359746 1.3030001 4292073690
-0.19658989 -0.023359746 1.3030001 4292007898
-0.19560908 -0.023377674 1.304 4292007897
-0.19447741 -0.023377674 1.304 4292007898
-0.19349401 -0.023395602 1.3050001 4292139484
-0.19236146 -0.023395602 1.3050001 4292205277
-0.19137545 -0.02341353 1.3060001 4292139484
-0.19024204 -0.02341353 1.3060001 4292139484
-0.18925343 -0.023431456 1.307 4292139484
-0.18811914 -0.023431456 1.307 4292139484
-0.18698487 -0.023431456 1.307 4292139485
-0.1857084 -0.02341353 1.3060001 4292073692
-0.18457499 -0.02341353 1.3060001 4292073692
-0.18344158 -0.02341353 1.3060001 4292073692
-0.18230817 -0.02341353 1.3060001 4292073692
-0.18117476 -0.02341353 1.3060001 4292007899
-0.18004134 -0.02341353 1.3060001 4292007899
-0.17890793 -0.02341353 1.3060001 4292007899
-0.17777452 -0.02341353 1.3060001 4292007899
-0.17664111 -0.02341353 1.3060001 4292008155
-0.17550769 -0.02341353 1.3060001 4291942619
-0.17437428 -0.02341353 1.3060001 4291876827
-0.17337352 -0.023431456 1.307 4291877083
-0.17223924 -0.023431456 1.307 4291745497
-0.1713668 -0.023467313 1.309 4291745240
-0.17023079 -0.023467313 1.309 4291745240
-0.16922395 -0.02348524 1.3100001 4291679447
-0.16821538 -0.023503168 1.3110001 4291613654
-0.16695018 -0.02348524 1.3100001 4291678933
-0.16593988 -0.023503168 1.3110001 4291744726
-0.16492783 -0.023521096 1.312 4291744726
-0.16378921 -0.023521096 1.312 4291613140
-0.1626506 -0.023521096 1.312 4291678933
-0.16151197 -0.023521096 1.312 4291810519
-0.16074006 -0.023574878 1.3150001 4292007898
-0.15959884 -0.023574878 1.3150001 4289639350
-0.15857811 -0.023592805 1.3160001 4284902254
-0.15779492 -0.023646589 1.319 4285954942
-0.15676901 -0.023664515 1.3200001 4289968316
-0.15574133 -0.023682443 1.3210001 4291744727
-0.20951003 -0.022287985 1.3060001 4293323759
-0.20805751 -0.022253854 1.304 4292994794
-0.20676716 -0.022236789 1.3030001 4292534242
-0.20500508 -0.022168525 1.299 4292336863
-0.20387775 -0.022168525 1.299 4292139484
-0.20290649 -0.02218559 1.3000001 4292073691
-0.20177828 -0.02218559 1.3000001 4291942105
-0.20065008 -0.02218559 1.3000001 4292007898
-0.19967535 -0.022202658 1.3010001 4291942360
-0.19869889 -0.022219721 1.302 4291942359
-0.19756895 -0.022219721 1.302 4291942359
-0.19658989 -0.022236789 1.3030001 4291810773
-0.19560908 -0.022253854 1.304 4291744980
-0.19447741 -0.022253854 1.304 4291810773
-0.19349401 -0.02227092 1.3050001 4291876566
-0.19236146 -0.02227092 1.3050001 4291942359
-0.19122893 -0.02227092 1.3050001 4291876312
-0.19024204 -0.022287985 1.3060001 4291876312
-0.18910863 -0.022287985 1.3060001 4291942105
-0.18797523 -0.022287985 1.3060001 4291942105
-0.18684182 -0.022287985 1.3060001 4291876312
-0.1857084 -0.022287985 1.3060001 4291810519
-0.18457499 -0.022287985 1.3060001 4291810519
-0.18344158 -0.022287985 1.3060001 4291810519
-0.18230817 -0.022287985 1.3060001 4291810519
-0.18117476 -0.022287985 1.3060001 4291810519
-0.18004134 -0.022287985 1.3060001 4291744726
-0.17890793 -0.022287985 1.3060001 4291810519
-0.17777452 -0.022287985 1.3060001 4291876312
-0.17664111 -0.022287985 1.3060001 4291942105
-0.17550769 -0.022287985 1.3060001 4291942105
-0.1745078 -0.022305051 1.307 4291942105
-0.17350619 -0.022322116 1.3080001 4291811033
-0.17237103 -0.022322116 1.3080001 4291745240
-0.1713668 -0.022339184 1.309 4291876312
-0.17036082 -0.022356248 1.3100001 4291876312
-0.16909477 -0.022339184 1.309 4291810519
-0.16808707 -0.022356248 1.3100001 4291678933
-0.16707763 -0.022373315 1.3110001 4291678676
-0.16593988 -0.022373315 1.3110001 4291678933
-0.16492783 -0.022390381 1.312 4291744726
-0.16378921 -0.022390381 1.312 4291744726
-0.16277456 -0.022407446 1.3130001 4291613140
-0.16163507 -0.022407446 1.3130001 4291810519
-0.16074006 -0.022441577 1.3150001 4291876312
-0.15972021 -0.022458645 1.3160001 4289770936
-0.15857811 -0.022458645 1.3160001 4285494391
-0.15791456 -0.022526907 1.3200001 4286218114
-0.15676901 -0.022526907 1.3200001 4289639351
-0.15574133 -0.022543972 1.3210001 4291613141
-0.20967044 -0.021178644 1.307 4292863209
-0.20821707 -0.021146238 1.3050001 4292665829
-0.20676716 -0.02111383 1.3030001 4292534242
-0.2051629 -0.021065217 1.3000001 4292402656
-0.20403469 -0.021065217 1.3000001 4292336863
-0.20290649 -0.021065217 1.3000001 4292205277
-0.20177828 -0.021065217 1.3000001 4292139484
-0.20065008 -0.021065217 1.3000001 4292073691
-0.19967535 -0.021081422 1.3010001 4292008152
-0.19869889 -0.021097625 1.302 4291876566
-0.19756895 -0.021097625 1.302 4291810773
-0.19658989 -0.02111383 1.3030001 4291744980
-0.19560908 -0.021130035 1.304 4291744980
-0.19447741 -0.021130035 1.304 4291876565
-0.19334573 -0.021130035 1.304 4291876566
-0.19236146 -0.021146238 1.3050001 4291942359
-0.19122893 -0.021146238 1.3050001 4291876566
-0.19024204 -0.021162443 1.3060001 4291942358
-0.18910863 -0.021162443 1.3060001 4291942104
-0.18797523 -0.021162443 1.3060001 4291876312
-0.18684182 -0.021162443 1.3060001 4291810519
-0.1857084 -0.021162443 1.3060001 4291679189
-0.18457499 -0.021162443 1.3060001 4291678933
-0.18344158 -0.021162443 1.3060001 4291810519
-0.18230817 -0.021162443 1.3060001 4291876311
-0.18117476 -0.021162443 1.3060001 4291810775
-0.18004134 -0.021162443 1.3060001 4291810775
-0.17890793 -0.021162443 1.3060001 4291876312
-0.17777452 -0.021162443 1.3060001 4291876568
-0.17677636 -0.021178644 1.307 4291942104
-0.17564209 -0.021178644 1.307 4291876312
-0.1745078 -0.021178644 1.307 4291876312
-0.17350619 -0.021194849 1.3080001 4291810519
-0.17237103 -0.021194849 1.3080001 4291810519
-0.1713668 -0.021211054 1.309 4291876568
-0.17023079 -0.021211054 1.309 4291876311
-0.16909477 -0.021211054 1.309 4291810518
-0.16808707 -0.021227257 1.3100001 4291744725
-0.16707763 -0.021243462 1.3110001 4291744725
-0.16593988 -0.021243462 1.3110001 4291744725
-0.16505353 -0.021275871 1.3130001 4291744726
-0.16391405 -0.021275871 1.3130001 4291876312
-0.16277456 -0.021275871 1.3130001 4291744726
-0.16163507 -0.021275871 1.3130001 4291744469
-0.16074006 -0.021308277 1.3150001 4291613140
-0.15972021 -0.021324482 1.3160001 4290494659
-0.15869863 -0.021340687 1.317 4287994269
-0.15791456 -0.021389298 1.3200001 4288125855
-0.15688777 -0.021405501 1.3210001 4290297281
-0.15585923 -0.021421706 1.322 4291547348
-0.20999129 -0.020082925 1.309 4292797414
-0.20869572 -0.020067582 1.3080001 4292600035
-0.2072432 -0.020036899 1.3060001 4292600035
-0.20563634 -0.019990871 1.3030001 4292665828
-0.20450553 -0.019990871 1.3030001 4292665826
-0.20337473 -0.019990871 1.3030001 4292600289
-0.20208871 -0.019975528 1.302 4292468703
-0.20111312 -0.019990871 1.3030001 4292468703
-0.1999823 -0.019990871 1.3030001 4292337115
-0.1988515 -0.019990871 1.3030001 4292139736
-0.19787243 -0.020006213 1.304 4292008150
-0.19674076 -0.020006213 1.304 4291942357
-0.1957591 -0.020021556 1.3050001 4291942357
-0.19462655 -0.020021556 1.3050001 4291876564
-0.19349401 -0.020021556 1.3050001 4291810771
-0.19250886 -0.020036899 1.3060001 4291876564
-0.19137545 -0.020036899 1.3060001 4291810771
-0.19038771 -0.020052239 1.307 4291876564
-0.18925343 -0.020052239 1.307 4291876565
-0.18811914 -0.020052239 1.307 4291876566
-0.18712795 -0.020067582 1.3080001 4291876566
-0.18599279 -0.020067582 1.3080001 4291810773
-0.18485765 -0.020067582 1.3080001 4291744980
-0.1837225 -0.020067582 1.3080001 4291876566
-0.18258736 -0.020067582 1.3080001 4291876566
-0.18145221 -0.020067582 1.3080001 4291942359
-0.18045491 -0.020082925 1.309 4291876566
-0.1793189 -0.020082925 1.309 4291876566
-0.17818289 -0.020082925 1.309 4291942359
-0.17718212 -0.020098267 1.3100001 4291942359
-0.17604524 -0.020098267 1.3100001 4292007897
-0.17504188 -0.02011361 1.3110001 4291942361
-0.17390414 -0.02011361 1.3110001 4291876312
-0.17289816 -0.020128952 1.312 4291876568
-0.17162862 -0.02011361 1.3110001 4291942359
-0.17049088 -0.02011361 1.3110001 4291876566
-0.16948231 -0.020128952 1.312 4291810773
-0.16847199 -0.020144293 1.3130001 4291810773
-0.16745996 -0.020159636 1.314 4291744980
-0.16644618 -0.020174976 1.3150001 4291744724
-0.16543065 -0.020190319 1.3160001 4291744726
-0.16428857 -0.020190319 1.3160001 4291810519
-0.16314648 -0.020190319 1.3160001 4291810262
-0.16200438 -0.020190319 1.3160001 4291744469
-0.16110678 -0.020221004 1.3180001 4291678676
-0.16008431 -0.020236347 1.319 4291481041
-0.15893961 -0.020236347 1.319 4290889161
-0.15815382 -0.020282373 1.322 4290625989
-0.15712529 -0.020297715 1.3230001 4291217870
-0.15609503 -0.020313058 1.3240001 4291547092
-0.20999129 -0.018954797 1.309 4292731622
-0.20869572 -0.018940315 1.3080001 4292336863
-0.20740189 -0.018925834 1.307 4292205277
-0.20595199 -0.018896874 1.3050001 4292271070
-0.20481944 -0.018896874 1.3050001 4292402911
-0.2035308 -0.018882394 1.304 4292468703
-0.20239913 -0.018882394 1.304 4292402910
-0.20126745 -0.018882394 1.304 4292468703
-0.20013578 -0.018882394 1.304 4292402909
-0.1990041 -0.018882394 1.304 4292271322
-0.19802418 -0.018896874 1.3050001 4292205529
-0.19689164 -0.018896874 1.3050001 4292205529
-0.1959091 -0.018911354 1.3060001 4292139736
-0.19477569 -0.018911354 1.3060001 4292073943
-0.19364227 -0.018911354 1.3060001 4292008150
-0.19265626 -0.018925834 1.307 4292008150
-0.19152199 -0.018925834 1.307 4292008151
-0.19053338 -0.018940315 1.3080001 4292073943
-0.18939823 -0.018940315 1.3080001 4292073944
-0.18840702 -0.018954797 1.309 4292073945
-0.187271 -0.018954797 1.309 4292008152
-0.18613499 -0.018954797 1.309 4292008152
-0.18499897 -0.018954797 1.309 4292008152
-0.18400341 -0.018969275 1.3100001 4292073945
-0.18286653 -0.018969275 1.3100001 4292008152
-0.18172964 -0.018969275 1.3100001 4292008152
-0.18059276 -0.018969275 1.3100001 4291942359
-0.17945589 -0.018969275 1.3100001 4291942359
-0.17845513 -0.018983757 1.3110001 4291942359
-0.17731738 -0.018983757 1.3110001 4292008152
-0.17631401 -0.018998237 1.312 4292008152
-0.1751754 -0.018998237 1.312 4292008152
-0.17403677 -0.018998237 1.312 4291942104
-0.17289816 -0.018998237 1.312 4291876568
-0.17175955 -0.018998237 1.312 4291876567
-0.17075096 -0.019012716 1.3130001 4291876567
-0.16961148 -0.019012716 1.3130001 4291810517
-0.16860031 -0.019027198 1.314 4291810517
-0.1675874 -0.019041676 1.3150001 4291744725
-0.16657275 -0.019056158 1.3160001 4291679188
-0.16568208 -0.019085119 1.3180001 4291678933
-0.16453825 -0.019085119 1.3180001 4291678933
-0.16339442 -0.019085119 1.3180001 4291678933
-0.16237369 -0.019099599 1.319 4291678933
-0.16135125 -0.019114079 1.3200001 4291744469
-0.16020569 -0.019114079 1.3200001 4291744469
-0.15918063 -0.019128559 1.3210001 4291612883
-0.15827346 -0.01915752 1.3230001 4291612883
-0.15724406 -0.019172002 1.3240001 4291678677
-0.15621291 -0.01918648 1.325 4291678934
-0.21015172 -0.017840285 1.3100001 4292797671
-0.20869572 -0.017813047 1.3080001 4292205277
-0.20756058 -0.017813047 1.3080001 4291876312
-0.20610979 -0.01778581 1.3060001 4291942105
-0.20497638 -0.01778581 1.3060001 4292073946
-0.20384297 -0.01778581 1.3060001 4292139738
-0.20270957 -0.01778581 1.3060001 4292205531
-0.20142181 -0.017772192 1.3050001 4292337117
-0.20028926 -0.017772192 1.3050001 4292337115
-0.19915673 -0.017772192 1.3050001 4292337115
-0.19817592 -0.01778581 1.3060001 4292337115
-0.19704251 -0.01778581 1.3060001 4292337115
-0.19605911 -0.017799428 1.307 4292271322
-0.19492482 -0.017799428 1.307 4292205529
-0.19379054 -0.017799428 1.307 4292205529
-0.19280368 -0.017813047 1.3080001 4292205529
-0.19166853 -0.017813047 1.3080001 4292139738
-0.19067904 -0.017826667 1.309 4292205531
-0.18954304 -0.017826667 1.309 4292205531
-0.18855095 -0.017840285 1.3100001 4292205531
-0.18741407 -0.017840285 1.3100001 4292008152
-0.18627718 -0.017840285 1.3100001 4292073945
-0.1851403 -0.017840285 1.3100001 4292139738
-0.18414389 -0.017853903 1.3110001 4292139738
-0.18300614 -0.017853903 1.3110001 4292073944
-0.18186839 -0.017853903 1.3110001 4291942358
-0.18086849 -0.017867522 1.312 4291876566
-0.17972986 -0.017867522 1.312 4291942359
-0.17859125 -0.017867522 1.312 4292008152
-0.17758788 -0.01788114 1.3130001 4291942359
-0.17631401 -0.017867522 1.312 4291876566
-0.1751754 -0.017867522 1.312 4291942359
-0.17416942 -0.01788114 1.3130001 4291810773
-0.17302993 -0.01788114 1.3130001 4291810773
-0.17189045 -0.01788114 1.3130001 4291810519
-0.17088102 -0.01789476 1.314 4291744726
-0.16986984 -0.017908378 1.3150001 4291744726
-0.16872862 -0.017908378 1.3150001 4291744726
-0.16784228 -0.017935615 1.317 4291744726
-0.16669933 -0.017935615 1.317 4291678933
-0.16580778 -0.017962852 1.319 4291613140
-0.16466308 -0.017962852 1.319 4291613140
-0.16351838 -0.017962852 1.319 4291678933
-0.16249681 -0.017976468 1.3200001 4291744469
-0.16147348 -0.017990088 1.3210001 4291744469
-0.16032705 -0.017990088 1.3210001 4291744726
-0.15930112 -0.018003708 1.322 4291810519
-0.15839309 -0.018030945 1.3240001 4291810519
-0.15736282 -0.018044561 1.325 4291810519
-0.15633082 -0.018058181 1.3260001 4291744727
-0.21076992 -0.016851617 1.3210001 4292271327
-0.20867138 -0.016775077 1.3150001 4291876312
-0.20689888 -0.01672405 1.3110001 4291810519
-0.20576113 -0.01672405 1.3110001 4291876310
-0.2044673 -0.016711293 1.3100001 4291876566
-0.2031752 -0.016698537 1.309 4291942359
-0.2020392 -0.016698537 1.309 4292073945
-0.20090318 -0.016698537 1.309 4292073943
-0.19976716 -0.016698537 1.309 4292073943
-0.19863115 -0.016698537 1.309 4292139736
-0.19749513 -0.016698537 1.309 4292139737
-0.19650912 -0.016711293 1.3100001 4292139736
-0.19552138 -0.01672405 1.3110001 4292073943
-0.19438364 -0.01672405 1.3110001 4292073945
-0.19339329 -0.016736807 1.312 4292073945
-0.19225466 -0.016736807 1.312 4292073945
-0.19126171 -0.016749563 1.3130001 4292139738
-0.19026704 -0.01676232 1.314 4292073945
-0.18912669 -0.01676232 1.314 4292008152
-0.18798633 -0.01676232 1.314 4291942359
-0.18698816 -0.016775077 1.3150001 4292073945
-0.18584694 -0.016775077 1.3150001 4292008152
-0.18470572 -0.016775077 1.3150001 4292008152
-0.18370409 -0.016787834 1.3160001 4291942357
-0.18256199 -0.016787834 1.3160001 4291876564
-0.18141991 -0.016787834 1.3160001 4291942359
-0.18027782 -0.016787834 1.3160001 4291942359
-0.17913572 -0.016787834 1.3160001 4291876566
-0.17799364 -0.016787834 1.3160001 4291744980
-0.17685156 -0.016787834 1.3160001 4291679187
-0.17584299 -0.016800592 1.317 4291810773
-0.17470004 -0.016800592 1.317 4291744981
-0.17355707 -0.016800592 1.317 4291744981
-0.17254503 -0.016813347 1.3180001 4291744726
-0.1714012 -0.016813347 1.3180001 4291678933
-0.17038655 -0.016826104 1.319 4291678933
-0.16924186 -0.016826104 1.319 4291744726
-0.16835205 -0.016851617 1.3210001 4291744726
-0.16720562 -0.016851617 1.3210001 4291678933
-0.1661849 -0.016864374 1.322 4291613140
-0.16516244 -0.01687713 1.3230001 4291744726
-0.16401428 -0.01687713 1.3230001 4291810519
-0.16286612 -0.01687713 1.3230001 4291744726
-0.16184019 -0.016889887 1.3240001 4291810519
-0.16069116 -0.016889887 1.3240001 4291810519
-0.15954213 -0.016889887 1.3240001 4291876312
-0.15863235 -0.016915401 1.3260001 4291876312
-0.15760036 -0.016928159 1.327 4291876312
-0.15644872 -0.016928159 1.327 4291876312
-0.21092947 -0.015725043 1.322 4292337634
-0.20898876 -0.015665567 1.317 4291942362
-0.20689888 -0.015594197 1.3110001 4291810519
-0.20576113 -0.015594197 1.3110001 4291744726
-0.20462339 -0.015594197 1.3110001 4291744726
-0.20333041 -0.015582302 1.3100001 4291810774
-0.20219353 -0.015582302 1.3100001 4291876567
-0.20090318 -0.015570408 1.309 4291942357
-0.19976716 -0.015570408 1.309 4291942357
-0.19878289 -0.015582302 1.3100001 4292008151
-0.19764601 -0.015582302 1.3100001 4291942359
-0.19665913 -0.015594197 1.3110001 4291942359
-0.19567052 -0.015606093 1.312 4291876566
-0.1945319 -0.015606093 1.312 4291876566
-0.19354068 -0.015617987 1.3130001 4291876566
-0.19254774 -0.015629882 1.314 4291810773
-0.19140738 -0.015629882 1.314 4291876566
-0.19041184 -0.015641777 1.3150001 4291810773
-0.1892706 -0.015641777 1.3150001 4291744980
-0.18827245 -0.015653672 1.3160001 4291679187
-0.18713036 -0.015653672 1.3160001 4291679187
-0.18598826 -0.015653672 1.3160001 4291679187
-0.18484618 -0.015653672 1.3160001 4291810773
-0.18398328 -0.015677461 1.3180001 4291613393
-0.18270074 -0.015665567 1.317 4291547599
-0.18155777 -0.015665567 1.317 4291613394
-0.18041481 -0.015665567 1.317 4291744980
-0.17940798 -0.015677461 1.3180001 4291416015
-0.17826416 -0.015677461 1.3180001 4291087050
-0.17712033 -0.015677461 1.3180001 4291152843
-0.17611001 -0.015689356 1.319 4291481809
-0.17496532 -0.015689356 1.319 4291744726
-0.17382063 -0.015689356 1.319 4291744726
-0.17280686 -0.015701251 1.3200001 4291744726
-0.17179134 -0.015713146 1.3210001 4291744726
-0.17064491 -0.015713146 1.3210001 4291744727
-0.16949849 -0.015713146 1.3210001 4291810519
-0.16847949 -0.015725043 1.322 4291810519
-0.16733219 -0.015725043 1.322 4291810519
-0.16631061 -0.015736936 1.3230001 4291810520
-0.16516244 -0.015736936 1.3230001 4291942105
-0.16401428 -0.015736936 1.3230001 4291942105
-0.16298921 -0.015748831 1.3240001 4291876312
-0.16184019 -0.015748831 1.3240001 4291876312
-0.16069116 -0.015748831 1.3240001 4291942105
-0.15966262 -0.015760725 1.325 4292007898
-0.15863235 -0.01577262 1.3260001 4292007898
-0.15760036 -0.015784517 1.327 4291942105
-0.15644872 -0.015784517 1.327 4291942106
-0.21108903 -0.014596741 1.3230001 4292469220
-0.20930611 -0.014552609 1.319 4292008155
-0.20753016 -0.014508476 1.3150001 4291810519
-0.20638894 -0.014508476 1.3150001 4291744726
-0.20509164 -0.014497444 1.314 4291678933
-0.20379606 -0.014486411 1.3130001 4291744726
-0.20265657 -0.014486411 1.3130001 4291744726
-0.20151709 -0.014486411 1.3130001 4291810773
-0.2003776 -0.014486411 1.3130001 4291810773
-0.19938986 -0.014497444 1.314 4291876566
-0.19840038 -0.014508476 1.3150001 4291810773
-0.19740917 -0.01451951 1.3160001 4291810773
-0.19641621 -0.014530543 1.317 4291810773
-0.19527327 -0.014530543 1.317 4291744980
-0.19442511 -0.014552609 1.319 4291744724
-0.19328041 -0.014552609 1.319 4291481809
-0.19213572 -0.014552609 1.319 4291087051
-0.19113584 -0.014563642 1.3200001 4290889671
-0.18999027 -0.014563642 1.3200001 4290889671
-0.18884471 -0.014563642 1.3200001 4290823878
-0.18784134 -0.014574675 1.3210001 4290889671
-0.18669492 -0.014574675 1.3210001 4291152843
-0.18568894 -0.014585709 1.322 4291547601
-0.18440205 -0.014574675 1.3210001 4291218636
-0.18325563 -0.014574675 1.3210001 4290823878
-0.18210919 -0.014574675 1.3210001 4290889671
-0.18096277 -0.014574675 1.3210001 4291218636
-0.17981634 -0.014574675 1.3210001 4290889671
-0.17880516 -0.014585709 1.322 4290297534
-0.17765786 -0.014585709 1.322 4290494913
-0.17651057 -0.014585709 1.322 4291218636
-0.17549592 -0.014596741 1.3230001 4291678933
-0.17434776 -0.014596741 1.3230001 4291744726
-0.17319959 -0.014596741 1.3230001 4291744726
-0.17205143 -0.014596741 1.3230001 4291810519
-0.17103244 -0.014607775 1.3240001 4291876313
-0.16988342 -0.014607775 1.3240001 4291942106
-0.16873439 -0.014607775 1.3240001 4291942106
-0.16758534 -0.014607775 1.3240001 4291942106
-0.16643631 -0.014607775 1.3240001 4291942106
-0.16541211 -0.014618807 1.325 4292007898
-0.16413826 -0.014607775 1.3240001 4292007898
-0.16311231 -0.014618807 1.325 4291942106
-0.16196242 -0.014618807 1.325 4291942105
-0.16081251 -0.014618807 1.325 4292007898
-0.15978312 -0.01462984 1.3260001 4292007898
-0.15875198 -0.014640874 1.327 4292007898
-0.15760036 -0.014640874 1.327 4292007898
-0.1565666 -0.014651906 1.3280001 4291942105
-0.21108903 -0.013456546 1.3230001 4292666599
-0.20930611 -0.013415862 1.319 4292073949
-0.20768797 -0.013385348 1.3160001 4291876313
-0.20654587 -0.013385348 1.3160001 4291744727
-0.20524772 -0.013375177 1.3150001 4291678933
-0.20395128 -0.013365005 1.314 4291678933
-0.20281093 -0.013365005 1.314 4291678933
-0.20167057 -0.013365005 1.314 4291744980
-0.20068282 -0.013375177 1.3150001 4291744980
-0.19969334 -0.013385348 1.3160001 4291744980
-0.19855125 -0.013385348 1.3160001 4291744980
-0.19770917 -0.01340569 1.3180001 4291810773
-0.19656536 -0.01340569 1.3180001 4291810773
-0.1955698 -0.013415862 1.319 4291678933
-0.19457251 -0.013426033 1.3200001 4291613140
-0.19342695 -0.013426033 1.3200001 4291152589
-0.19242705 -0.013436204 1.3210001 4289836729
-0.19128063 -0.013436204 1.3210001 4289047467
-0.19027813 -0.013446375 1.322 4289047467
-0.18913083 -0.013446375 1.322 4289376432
-0.18798353 -0.013446375 1.322 4289705397
-0.18669492 -0.013436204 1.3210001 4290560706
-0.18568894 -0.013446375 1.322 4291087050
-0.18454164 -0.013446375 1.322 4291021257
-0.18339434 -0.013446375 1.322 4290626499
-0.18224706 -0.013446375 1.322 4290692292
-0.18109976 -0.013446375 1.322 4291087050
-0.17995246 -0.013446375 1.322 4290889671
-0.17894043 -0.013456546 1.3230001 4290494913
-0.17779225 -0.013456546 1.3230001 4290692293
-0.17664409 -0.013456546 1.3230001 4291284430
-0.17562857 -0.013466718 1.3240001 4291744726
-0.17447954 -0.013466718 1.3240001 4291810519
-0.17333052 -0.013466718 1.3240001 4291876312
-0.17218147 -0.013466718 1.3240001 4291942105
-0.17103244 -0.013466718 1.3240001 4292007899
-0.16988342 -0.013466718 1.3240001 4292007899
-0.16886182 -0.013476889 1.325 4292007899
-0.16771191 -0.013476889 1.325 4291942107
-0.16656202 -0.013476889 1.325 4291942107
-0.16541211 -0.013476889 1.325 4292007899
-0.16426222 -0.013476889 1.325 4292007899
-0.16311231 -0.013476889 1.325 4291942106
-0.16196242 -0.013476889 1.325 4291942105
-0.16081251 -0.013476889 1.325 4291942105
-0.15978312 -0.01348706 1.3260001 4291942105
-0.15875198 -0.013497232 1.327 4291942105
-0.15760036 -0.013497232 1.327 4291942105
-0.1565666 -0.013507403 1.3280001 4291942105
-0.21092947 -0.012307042 1.322 4292732138
-0.20930611 -0.012279115 1.319 4292139742
-0.20784579 -0.012260495 1.317 4291876313
-0.20654587 -0.012251186 1.3160001 4291810519
-0.20540379 -0.012251186 1.3160001 4291744726
-0.20410649 -0.012241877 1.3150001 4291744726
-0.20296527 -0.012241877 1.3150001 4291744726
-0.20182404 -0.012241877 1.3150001 4291744981
-0.20083544 -0.012251186 1.3160001 4291744980
-0.19984509 -0.012260495 1.317 4291679188
-0.198853 -0.012269804 1.3180001 4291744724
-0.19785918 -0.012279115 1.319 4291810773
-0.19686364 -0.012288423 1.3200001 4291810773
-0.19571808 -0.012288423 1.3200001 4291744725
-0.19486731 -0.012307042 1.322 4291613140
-0.19372001 -0.012307042 1.322 4290955210
-0.19257271 -0.012307042 1.322 4289573557
-0.19157024 -0.012316351 1.3230001 4289113261
-0.19042207 -0.012316351 1.3230001 4289376433
-0.18927391 -0.012316351 1.3230001 4289639605
-0.18798353 -0.012307042 1.322 4289836984
-0.18683624 -0.012307042 1.322 4290692293
-0.18582942 -0.012316351 1.3230001 4291284173
-0.18468125 -0.012316351 1.3230001 4291218636
-0.18353309 -0.012316351 1.3230001 4291087051
-0.18238492 -0.012316351 1.3230001 4291152844
-0.18123676 -0.012316351 1.3230001 4291415759
-0.1802247 -0.012325661 1.3240001 4291416016
-0.17907567 -0.012325661 1.3240001 4291350223
-0.17792664 -0.012325661 1.3240001 4291415761
-0.1767776 -0.012325661 1.3240001 4291678933
-0.17562857 -0.012325661 1.3240001 4291810520
-0.17447954 -0.012325661 1.3240001 4291876312
-0.17346142 -0.012334971 1.325 4291876312
-0.17231151 -0.012334971 1.325 4291942105
-0.17116162 -0.012334971 1.325 4292007899
-0.17001171 -0.012334971 1.325 4291942107
-0.16886182 -0.012334971 1.325 4291876314
-0.16771191 -0.012334971 1.325 4291810521
-0.16656202 -0.012334971 1.325 4291810521
-0.16541211 -0.012334971 1.325 4291876314
-0.16426222 -0.012334971 1.325 4291876313
-0.16311231 -0.012334971 1.325 4291678934
-0.16196242 -0.012334971 1.325 4291547348
-0.16081251 -0.012334971 1.325 4291481555
-0.15978312 -0.01234428 1.3260001 4291678933
-0.15875198 -0.012353589 1.327 4291876312
-0.15760036 -0.012353589 1.327 4291942105
-0.1565666 -0.012362898 1.3280001 4291942106
-0.20831925 -0.011150815 1.3200001 4292007898
-0.20701672 -0.011142367 1.319 4291876312
-0.20587203 -0.011142367 1.319 4291810519
-0.20457213 -0.011133919 1.3180001 4291744727
-0.20342831 -0.011133919 1.3180001 4291744726
-0.20228449 -0.011133919 1.3180001 4291744726
-0.20129326 -0.011142367 1.319 4291613395
-0.20030032 -0.011150815 1.3200001 4291744725
-0.19930562 -0.011159262 1.3210001 4291678933
-0.19845922 -0.011176157 1.3230001 4291876055
-0.19731106 -0.011176157 1.3230001 4291810262
-0.19616289 -0.011176157 1.3230001 4291810519
-0.19516212 -0.011184605 1.3240001 4291744726
-0.19415963 -0.011193052 1.325 4291284176
-0.19300972 -0.011193052 1.325 4290757832
-0.19185983 -0.011193052 1.325 4290757831
-0.19070992 -0.011193052 1.325 4290889417
-0.18941696 -0.011184605 1.3240001 4291086796
-0.18826793 -0.011184605 1.3240001 4291218382
-0.1871189 -0.011184605 1.3240001 4291349968
-0.18611032 -0.011193052 1.325 4291678933
-0.18496042 -0.011193052 1.325 4291678933
-0.18381052 -0.011193052 1.325 4291547347
-0.18266062 -0.011193052 1.325 4291613140
-0.18151072 -0.011193052 1.325 4291744726
-0.18049695 -0.0112015 1.3260001 4291810519
-0.17934619 -0.0112015 1.3260001 4291876312
-0.17819542 -0.0112015 1.3260001 4291810519
-0.17704464 -0.0112015 1.3260001 4291876312
-0.17589387 -0.0112015 1.3260001 4291810520
-0.17474312 -0.0112015 1.3260001 4291744727
-0.17359234 -0.0112015 1.3260001 4291678934
-0.17244157 -0.0112015 1.3260001 4291613141
-0.17116162 -0.011193052 1.325 4291613141
-0.17001171 -0.011193052 1.325 4291547349
-0.16886182 -0.011193052 1.325 4291481556
-0.16771191 -0.011193052 1.325 4291415762
-0.16656202 -0.011193052 1.325 4291284176
-0.16541211 -0.011193052 1.325 4291284176
-0.16413826 -0.011184605 1.3240001 4291284176
-0.16298921 -0.011184605 1.3240001 4291152590
-0.16184019 -0.011184605 1.3240001 4290757832
-0.16081251 -0.011193052 1.325 4290494660
-0.15978312 -0.0112015 1.3260001 4290955211
-0.15863235 -0.0112015 1.3260001 4291613141
-0.15760036 -0.011209947 1.327 4291942106
-0.1565666 -0.011218394 1.3280001 4291942106
-0.20847706 -0.010020791 1.3210001 4292073691
-0.20717369 -0.010013205 1.3200001 4291876312
-0.20587203 -0.010005619 1.319 4291810520
-0.20457213 -0.0099980328 1.3180001 4291744727
-0.20342831 -0.0099980328 1.3180001 4291744727
-0.20228449 -0.0099980328 1.3180001 4291678933
-0.20144588 -0.010013205 1.3200001 4291678933
-0.20030032 -0.010013205 1.3200001 4291744469
-0.19930562 -0.010020791 1.3210001 4291810262
-0.19845922 -0.010035962 1.3230001 4291810262
-0.19731106 -0.010035962 1.3230001 4291941848
-0.19616289 -0.010035962 1.3230001 4291876313
-0.19516212 -0.010043548 1.3240001 4291810520
-0.19415963 -0.010051134 1.325 4291678934
-0.19300972 -0.010051134 1.325 4291349969
-0.19171503 -0.010043548 1.3240001 4291349969
-0.19056599 -0.010043548 1.3240001 4291744727
-0.18941696 -0.010043548 1.3240001 4291744726
-0.18826793 -0.010043548 1.3240001 4291678933
-0.1871189 -0.010043548 1.3240001 4291613141
-0.18611032 -0.010051134 1.325 4291678933
-0.18496042 -0.010051134 1.325 4291744726
-0.18381052 -0.010051134 1.325 4291547347
-0.18266062 -0.010051134 1.325 4291349968
-0.18151072 -0.010051134 1.325 4291349968
-0.18049695 -0.01005872 1.3260001 4291613140
-0.17934619 -0.01005872 1.3260001 4291678933
-0.17819542 -0.01005872 1.3260001 4291547347
-0.17704464 -0.01005872 1.3260001 4291152589
-0.17589387 -0.01005872 1.3260001 4290955211
-0.17474312 -0.01005872 1.3260001 4291086797
-0.17359234 -0.01005872 1.3260001 4291218383
-0.17231151 -0.010051134 1.325 4291021004
-0.17116162 -0.010051134 1.325 4290626246
-0.17001171 -0.010051134 1.325 4290692039
-0.16886182 -0.010051134 1.325 4290889418
-0.16771191 -0.010051134 1.325 4290823625
-0.16656202 -0.010051134 1.325 4290626246
-0.16528729 -0.010043548 1.3240001 4290560453
-0.16413826 -0.010043548 1.3240001 4290560453
-0.16298921 -0.010043548 1.3240001 4290494660
-0.16184019 -0.010043548 1.3240001 4290165695
-0.16069116 -0.010043548 1.3240001 4289902523
-0.15966262 -0.010051134 1.325 4290494660
-0.15863235 -0.01005872 1.3260001 4291415761
-0.15760036 -0.010066305 1.327 4291876312
-0.15644872 -0.010066305 1.327 4291942105
-0.20847706 -0.0088823196 1.3210001 4292073692
-0.20717369 -0.0088755954 1.3200001 4291876313
-0.20602812 -0.0088755954 1.3200001 4291942106
-0.20457213 -0.0088621471 1.3180001 4291876313
-0.20342831 -0.0088621471 1.3180001 4291810520
-0.20228449 -0.0088621471 1.3180001 4291744726
-0.20144588 -0.0088755954 1.3200001 4291678933
-0.20045206 -0.0088823196 1.3210001 4291547090
-0.19930562 -0.0088823196 1.3210001 4291481297
-0.19845922 -0.0088957669 1.3230001 4291481041
-0.19731106 -0.0088957669 1.3230001 4291612884
-0.19631116 -0.0089024911 1.3240001 4291744214
-0.19516212 -0.0089024911 1.3240001 4291678421
-0.19401309 -0.0089024911 1.3240001 4291086797
-0.19286406 -0.0089024911 1.3240001 4290955211
-0.19171503 -0.0089024911 1.3240001 4290955211
-0.19056599 -0.0089024911 1.3240001 4291547348
-0.18941696 -0.0089024911 1.3240001 4291415762
-0.18826793 -0.0089024911 1.3240001 4290889418
-0.1871189 -0.0089024911 1.3240001 4290757832
-0.18611032 -0.0089092152 1.325 4290560453
-0.18496042 -0.0089092152 1.325 4290823624
-0.18381052 -0.0089092152 1.325 4290692039
-0.18266062 -0.0089092152 1.325 4290231488
-0.18151072 -0.0089092152 1.325 4290231487
-0.18049695 -0.0089159394 1.3260001 4290626246
-0.17934619 -0.0089159394 1.3260001 4290823624
-0.17819542 -0.0089159394 1.3260001 4290560453
-0.17704464 -0.0089159394 1.3260001 4290099902
-0.17576122 -0.0089092152 1.325 4290099902
-0.17461132 -0.0089092152 1.325 4290363074
-0.17346142 -0.0089092152 1.325 4290692039
-0.17231151 -0.0089092152 1.325 4290363074
-0.17116162 -0.0089092152 1.325 4289902523
-0.17001171 -0.0089092152 1.325 4290165695
-0.16873439 -0.0089024911 1.3240001 4290560453
-0.16758534 -0.0089024911 1.3240001 4290494660
-0.16643631 -0.0089024911 1.3240001 4290363074
-0.16528729 -0.0089024911 1.3240001 4290297281
-0.16401428 -0.0088957669 1.3230001 4290297281
-0.16286612 -0.0088957669 1.3230001 4290231488
-0.16171795 -0.0088957669 1.3230001 4290165695
-0.16069116 -0.0089024911 1.3240001 4290165695
-0.15966262 -0.0089092152 1.325 4290692038
-0.15863235 -0.0089159394 1.3260001 4291349968
-0.1574816 -0.0089159394 1.3260001 4291744726
-0.15644872 -0.0089226626 1.327 4291810520
-0.20748757 -0.0077497102 1.322 4291942106
-0.20618421 -0.007743848 1.3210001 4292007899
-0.20472734 -0.0077321245 1.319 4291942106
-0.20358264 -0.0077321245 1.319 4291876313
-0.20243795 -0.0077321245 1.319 4291744727
-0.20144588 -0.0077379863 1.3200001 4291415761
-0.20045206 -0.007743848 1.3210001 4290889160
-0.1994565 -0.0077497102 1.322 4290231230
-0.19845922 -0.007755572 1.3230001 4290230975
-0.19746019 -0.0077614347 1.3240001 4290625733
-0.19616289 -0.007755572 1.3230001 4290954698
-0.19516212 -0.0077614347 1.3240001 4290823112
-0.19415963 -0.0077672969 1.325 4290231488
-0.19300972 -0.0077672969 1.325 4290034109
-0.19185983 -0.0077672969 1.325 4290363074
-0.19070992 -0.0077672969 1.325 4290692039
-0.18956003 -0.0077672969 1.325 4290560453
-0.18841012 -0.0077672969 1.325 4290099902
-0.18726023 -0.0077672969 1.325 4289836730
-0.18611032 -0.0077672969 1.325 4289705144
-0.18496042 -0.0077672969 1.325 4290099902
-0.18381052 -0.0077672969 1.325 4290034366
-0.18279849 -0.0077731586 1.3260001 4289770937
-0.18164772 -0.0077731586 1.3260001 4289836730
-0.18049695 -0.0077731586 1.3260001 4290165695
-0.17934619 -0.0077731586 1.3260001 4290428867
-0.17819542 -0.0077731586 1.3260001 4290165695
-0.17704464 -0.0077731586 1.3260001 4289968316
-0.17576122 -0.0077672969 1.325 4290165695
-0.17461132 -0.0077672969 1.325 4290231488
-0.17346142 -0.0077672969 1.325 4290363074
-0.17231151 -0.0077672969 1.325 4290231488
-0.17103244 -0.0077614347 1.3240001 4290099902
-0.16988342 -0.0077614347 1.3240001 4290363074
-0.16860694 -0.007755572 1.3230001 4290560453
-0.16745877 -0.007755572 1.3230001 4290428867
-0.16631061 -0.007755572 1.3230001 4290297281
-0.16516244 -0.007755572 1.3230001 4290363074
-0.16401428 -0.007755572 1.3230001 4290297281
-0.16286612 -0.007755572 1.3230001 4290165695
-0.16171795 -0.007755572 1.3230001 4290231488
-0.16056979 -0.007755572 1.3230001 4290297281
-0.15966262 -0.0077672969 1.325 4290692038
-0.15851271 -0.0077672969 1.325 4291284175
-0.1574816 -0.0077731586 1.3260001 4291613140
-0.20764454 -0.0066153775 1.3230001 4292008155
-0.20634028 -0.0066103772 1.322 4292007899
-0.20472734 -0.0065953764 1.319 4291876313
-0.20358264 -0.0065953764 1.319 4291744727
-0.20243795 -0.0065953764 1.319 4291547348
-0.20159848 -0.006605377 1.3210001 4291021004
-0.20045206 -0.006605377 1.3210001 4289902267
-0.19930562 -0.006605377 1.3210001 4289112494
-0.19845922 -0.0066153775 1.3230001 4289178287
-0.19731106 -0.0066153775 1.3230001 4289770424
-0.19616289 -0.0066153775 1.3230001 4290362561
-0.19530952 -0.0066253785 1.325 4290362561
-0.19415963 -0.0066253785 1.325 4289705144
-0.19300972 -0.0066253785 1.325 4289770937
-0.19200464 -0.0066303783 1.3260001 4290034109
-0.19085386 -0.0066303783 1.3260001 4290231488
-0.18970309 -0.0066303783 1.3260001 4290297281
-0.18841012 -0.0066253785 1.325 4290231488
-0.18726023 -0.0066253785 1.325 4290099902
-0.18611032 -0.0066253785 1.325 4289968316
-0.18496042 -0.0066253785 1.325 4289903293
-0.18381052 -0.0066253785 1.325 4290034879
-0.18279849 -0.0066303783 1.3260001 4290231745
-0.18164772 -0.0066303783 1.3260001 4290231744
-0.18049695 -0.0066303783 1.3260001 4290363075
-0.17948143 -0.006635379 1.327 4290428868
-0.17819542 -0.0066303783 1.3260001 4290297282
-0.17704464 -0.0066303783 1.3260001 4290363074
-0.17589387 -0.0066303783 1.3260001 4290428868
-0.17474312 -0.0066303783 1.3260001 4290428868
-0.17359234 -0.0066303783 1.3260001 4290428867
-0.17231151 -0.0066253785 1.325 4290363074
-0.17116162 -0.0066253785 1.325 4290363074
-0.16988342 -0.0066203778 1.3240001 4290494660
-0.16860694 -0.0066153775 1.3230001 4290494660
-0.16745877 -0.0066153775 1.3230001 4290494404
-0.16631061 -0.0066153775 1.3230001 4290362818
-0.16516244 -0.0066153775 1.3230001 4290297025
-0.16401428 -0.0066153775 1.3230001 4290231488
-0.16286612 -0.0066153775 1.3230001 4290165695
-0.16171795 -0.0066153775 1.3230001 4290099902
-0.16056979 -0.0066153775 1.3230001 4290165694
-0.15966262 -0.0066253785 1.325 4290494659
-0.15851271 -0.0066253785 1.325 4291152589
-0.1574816 -0.0066303783 1.3260001 4291547347
-0.20764454 -0.005475183 1.3230001 4292073948
-0.20634028 -0.0054710442 1.322 4292007899
-0.20488256 -0.0054627676 1.3200001 4291876313
-0.20373701 -0.0054627676 1.3200001 4291744727
-0.20259145 -0.0054627676 1.3200001 4291613141
-0.20144588 -0.0054627676 1.3200001 4290823625
-0.20030032 -0.0054627676 1.3200001 4289639351
-0.19930562 -0.0054669059 1.3210001 4289310386
-0.19845922 -0.005475183 1.3230001 4289375666
-0.19731106 -0.005475183 1.3230001 4289704631
-0.19616289 -0.005475183 1.3230001 4290033596
-0.19530952 -0.0054834597 1.325 4290428354
-0.19415963 -0.0054834597 1.325 4290099902
-0.19315539 -0.005487598 1.3260001 4290034109
-0.19200464 -0.005487598 1.3260001 4290297281
-0.19085386 -0.005487598 1.3260001 4290428867
-0.18970309 -0.005487598 1.3260001 4290363074
-0.18855232 -0.005487598 1.3260001 4290494660
-0.18740156 -0.005487598 1.3260001 4290231488
-0.18625079 -0.005487598 1.3260001 4290297282
-0.18510002 -0.005487598 1.3260001 4290298052
-0.18394926 -0.005487598 1.3260001 4290298051
-0.18279849 -0.005487598 1.3260001 4290363845
-0.18164772 -0.005487598 1.3260001 4290363845
-0.18063307 -0.0054917368 1.327 4290626505
-0.17948143 -0.0054917368 1.327 4290626248
-0.1783298 -0.0054917368 1.327 4290428869
-0.17717816 -0.0054917368 1.327 4290428869
-0.17589387 -0.005487598 1.3260001 4290494662
-0.17474312 -0.005487598 1.3260001 4290428869
-0.17359234 -0.005487598 1.3260001 4290428867
-0.17231151 -0.0054834597 1.325 4290363075
-0.17116162 -0.0054834597 1.325 4290428867
-0.16988342 -0.0054793213 1.3240001 4290363075
-0.16860694 -0.005475183 1.3230001 4290297281
-0.16745877 -0.005475183 1.3230001 4290297281
-0.16631061 -0.005475183 1.3230001 4290296768
-0.16516244 -0.005475183 1.3230001 4290165182
-0.16401428 -0.005475183 1.3230001 4290231231
-0.16286612 -0.005475183 1.3230001 4290362818
-0.16171795 -0.005475183 1.3230001 4290428867
-0.16056979 -0.005475183 1.3230001 4290428867
-0.15954213 -0.0054793213 1.3240001 4290692038
-0.15851271 -0.0054834597 1.325 4291086797
-0.1574816 -0.005487598 1.3260001 4291481555
-0.20795843 -0.0043415413 1.325 4292073692
-0.20649637 -0.0043349881 1.3230001 4292073692
-0.20488256 -0.0043251584 1.3200001 4291942106
-0.20358264 -0.0043218816 1.319 4291810520
-0.20243795 -0.0043218816 1.319 4291416532
-0.20144588 -0.0043251584 1.3200001 4290758602
-0.20030032 -0.0043251584 1.3200001 4290034366
-0.19930562 -0.0043284348 1.3210001 4290165695
-0.1983092 -0.0043317112 1.322 4290165182
-0.19731106 -0.0043349881 1.3230001 4289968059
-0.19616289 -0.0043349881 1.3230001 4290165182
-0.19530952 -0.0043415413 1.325 4290559940
-0.19415963 -0.0043415413 1.325 4290560453
-0.19300972 -0.0043415413 1.325 4290560453
-0.19200464 -0.0043448177 1.3260001 4290428867
-0.19085386 -0.0043448177 1.3260001 4290626246
-0.18970309 -0.0043448177 1.3260001 4290692039
-0.18855232 -0.0043448177 1.3260001 4290494660
-0.18740156 -0.0043448177 1.3260001 4290428869
-0.18611032 -0.0043415413 1.325 4290428869
-0.18496042 -0.0043415413 1.325 4290363590
-0.18381052 -0.0043415413 1.325 4290297797
-0.18279849 -0.0043448177 1.3260001 4290166211
-0.18164772 -0.0043448177 1.3260001 4290232004
-0.18063307 -0.0043480946 1.327 4290429383
-0.17948143 -0.0043480946 1.327 4290429383
-0.1783298 -0.0043480946 1.327 4290428869
-0.17717816 -0.0043480946 1.327 4290231490
-0.17589387 -0.0043448177 1.3260001 4290165697
-0.17474312 -0.0043448177 1.3260001 4290165697
-0.17359234 -0.0043448177 1.3260001 4290231490
-0.17231151 -0.0043415413 1.325 4290231490
-0.17116162 -0.0043415413 1.325 4290231234
-0.16988342 -0.0043382645 1.3240001 4290165696
-0.16860694 -0.0043349881 1.3230001 4290165438
-0.16745877 -0.0043349881 1.3230001 4290165182
-0.16631061 -0.0043349881 1.3230001 4290164925
-0.16516244 -0.0043349881 1.3230001 4290165182
-0.16401428 -0.0043349881 1.3230001 4290428354
-0.16286612 -0.0043349881 1.3230001 4290757319
-0.16171795 -0.0043349881 1.3230001 4290954954
-0.16056979 -0.0043349881 1.3230001 4291020748
-0.15978312 -0.0043448177 1.3260001 4291021004
-0.15875198 -0.0043480946 1.327 4291218383
-0.15771911 -0.0043513714 1.3280001 4291547348
-0.20795843 -0.0031996227 1.325 4292007899
-0.20665245 -0.003197208 1.3240001 4292073692
-0.20472734 -0.0031851339 1.319 4292007899
-0.20358264 -0.0031851339 1.319 4291942106
-0.20243795 -0.0031851339 1.319 4291613654
-0.20144588 -0.0031875488 1.3200001 4291284689
-0.20030032 -0.0031875488 1.3200001 4290823625
-0.19915476 -0.0031875488 1.3200001 4290626246
-0.1983092 -0.0031923784 1.322 4290494660
-0.19716191 -0.0031923784 1.322 4290297281
-0.19616289 -0.0031947934 1.3230001 4290428354
-0.19516212 -0.003197208 1.3240001 4290494404
-0.19401309 -0.003197208 1.3240001 4290692039
-0.19300972 -0.0031996227 1.325 4290692039
-0.19185983 -0.0031996227 1.325 4290494661
-0.19070992 -0.0031996227 1.325 4290428868
-0.18956003 -0.0031996227 1.325 4290560454
-0.18841012 -0.0031996227 1.325 4290428868
-0.18726023 -0.0031996227 1.325 4290363333
-0.18611032 -0.0031996227 1.325 4290231747
-0.18496042 -0.0031996227 1.325 4290231747
-0.18381052 -0.0031996227 1.325 4290166211
-0.18279849 -0.0032020377 1.3260001 4290034368
-0.18164772 -0.0032020377 1.3260001 4290100161
-0.18049695 -0.0032020377 1.3260001 4290232004
-0.17934619 -0.0032020377 1.3260001 4290363590
-0.17819542 -0.0032020377 1.3260001 4290297283
-0.17704464 -0.0032020377 1.3260001 4290099904
-0.17589387 -0.0032020377 1.3260001 4289968318
-0.17474312 -0.0032020377 1.3260001 4289968318
-0.17359234 -0.0032020377 1.3260001 4290034110
-0.17231151 -0.0031996227 1.325 4290099903
-0.17116162 -0.0031996227 1.325 4290165184
-0.16988342 -0.003197208 1.3240001 4290165183
-0.16860694 -0.0031947934 1.3230001 4290165182
-0.16745877 -0.0031947934 1.3230001 4290099132
-0.16631061 -0.0031947934 1.3230001 4290164668
-0.1650376 -0.0031923784 1.322 4290164925
-0.1638903 -0.0031923784 1.322 4290362561
-0.16286612 -0.0031947934 1.3230001 4290691526
-0.16171795 -0.0031947934 1.3230001 4290954698
-0.16056979 -0.0031947934 1.3230001 4291020747
-0.15978312 -0.0032020377 1.3260001 4290955211
-0.15875198 -0.0032044526 1.327 4291218383
-0.15771911 -0.0032068673 1.3280001 4291481555
-0.20795843 -0.0020577044 1.325 4291876570
-0.20649637 -0.0020545984 1.3230001 4291942106
-0.20472734 -0.0020483865 1.319 4292073692
-0.20358264 -0.0020483865 1.319 4292007899
-0.20243795 -0.0020483865 1.319 4291876313
-0.20144588 -0.0020499395 1.3200001 4291613141
-0.20030032 -0.0020499395 1.3200001 4291086797
-0.19915476 -0.0020499395 1.3200001 4290560453
-0.1981592 -0.0020514925 1.3210001 4290428867
-0.19716191 -0.0020530454 1.322 4290428867
-0.19601461 -0.0020530454 1.322 4290297281
-0.19516212 -0.0020561514 1.3240001 4290363074
-0.19401309 -0.0020561514 1.3240001 4290494662
-0.19286406 -0.0020561514 1.3240001 4290560455
-0.19185983 -0.0020577044 1.325 4290297283
-0.19070992 -0.0020577044 1.325 4290231490
-0.18956003 -0.0020577044 1.325 4290363076
-0.18841012 -0.0020577044 1.325 4290494662
-0.18726023 -0.0020577044 1.325 4290363076
-0.18611032 -0.0020577044 1.325 4290231490
-0.18496042 -0.0020577044 1.325 4290099904
-0.18381052 -0.0020577044 1.325 4290099904
-0.18266062 -0.0020577044 1.325 4290165697
-0.18151072 -0.0020577044 1.325 4290165697
-0.18049695 -0.0020592574 1.3260001 4290165954
-0.17934619 -0.0020592574 1.3260001 4290166211
-0.17819542 -0.0020592574 1.3260001 4290099904
-0.17704464 -0.0020592574 1.3260001 4290034111
-0.17589387 -0.0020592574 1.3260001 4289968318
-0.17474312 -0.0020592574 1.3260001 4289902524
-0.17346142 -0.0020577044 1.325 4289836730
-0.17231151 -0.0020577044 1.325 4289968060
-0.17103244 -0.0020561514 1.3240001 4290099646
-0.16988342 -0.0020561514 1.3240001 4290165439
-0.16860694 -0.0020545984 1.3230001 4290165182
-0.16745877 -0.0020545984 1.3230001 4290099132
-0.1661849 -0.0020530454 1.322 4290164668
-0.1650376 -0.0020530454 1.322 4290099132
-0.1638903 -0.0020530454 1.322 4290033596
-0.16286612 -0.0020545984 1.3230001 4290165182
-0.16171795 -0.0020545984 1.3230001 4290428354
-0.16069116 -0.0020561514 1.3240001 4290494404
-0.15978312 -0.0020592574 1.3260001 4290626246
-0.15887162 -0.0020623633 1.3280001 4291021004
-0.15783788 -0.0020639163 1.3290001 4291415761
-0.20858623 -0.00091855065 1.3290001 4291876570
-0.20665245 -0.0009150948 1.3240001 4291942106
-0.20488256 -0.00091233017 1.3200001 4292073692
-0.20373701 -0.00091233017 1.3200001 4292007899
-0.20259145 -0.00091233017 1.3200001 4291876313
-0.20144588 -0.00091233017 1.3200001 4291613141
-0.20030032 -0.00091233017 1.3200001 4291218383
-0.19915476 -0.00091233017 1.3200001 4290560453
-0.1981592 -0.00091302139 1.3210001 4290099902
-0.19716191 -0.00091371255 1.322 4290231488
-0.19601461 -0.00091371255 1.322 4290297281
-0.19501473 -0.00091440364 1.3230001 4290165695
-0.19386657 -0.00091440364 1.3230001 4290231490
-0.1927184 -0.00091440364 1.3230001 4290297283
-0.19171503 -0.0009150948 1.3240001 4290165697
-0.19056599 -0.0009150948 1.3240001 4290034111
-0.18941696 -0.0009150948 1.3240001 4290231490
-0.18826793 -0.0009150948 1.3240001 4290428869
-0.1871189 -0.0009150948 1.3240001 4290297283
-0.18596986 -0.0009150948 1.3240001 4290165697
-0.18482083 -0.0009150948 1.3240001 4290034111
-0.1836718 -0.0009150948 1.3240001 4290034111
-0.18266062 -0.00091578602 1.325 4290165697
-0.18151072 -0.00091578602 1.325 4290165697
-0.18036082 -0.00091578602 1.325 4290099904
-0.17934619 -0.00091647706 1.3260001 4289836732
-0.17819542 -0.00091647706 1.3260001 4289705146
-0.17704464 -0.00091647706 1.3260001 4289836732
-0.17589387 -0.00091647706 1.3260001 4289968318
-0.17474312 -0.00091647706 1.3260001 4289836732
-0.17359234 -0.00091647706 1.3260001 4289705144
-0.17231151 -0.00091578602 1.325 4289705144
-0.17116162 -0.00091578602 1.325 4289836730
-0.16988342 -0.0009150948 1.3240001 4290033853
-0.16847949 -0.00091371255 1.322 4290099646
-0.16733219 -0.00091371255 1.322 4290099389
-0.1661849 -0.00091371255 1.322 4290164925
-0.1650376 -0.00091371255 1.322 4290099132
-0.1638903 -0.00091371255 1.322 4289836217
-0.16298921 -0.0009150948 1.3240001 4289836217
-0.16184019 -0.0009150948 1.3240001 4290033596
-0.16081251 -0.00091578602 1.325 4290033596
