# .PCD v0.7 - Point Cloud Data file format
VERSION 0.7
FIELDS x y z rgba
SIZE 4 4 4 4
TYPE F F F U
COUNT 1 1 1 1
WIDTH 1083
HEIGHT 1
VIEWPOINT 0 0 0 1 0 0 0
POINTS 1083
DATA ascii
-0.25555578 -0.012940082 1.3900001 4290165697
-0.25453246 -0.012949391 1.391 4290297283
-0.25332528 -0.012949391 1.391 4290494662
-0.25211811 -0.012949391 1.391 4290494663
-0.2510913 -0.012958701 1.3920001 4290625993
-0.24988325 -0.012958701 1.3920001 4290757579
-0.24867521 -0.012958701 1.3920001 4290560455
-0.24746716 -0.012958701 1.3920001 4290231490
-0.24625912 -0.012958701 1.3920001 4290165697
-0.24505107 -0.012958701 1.3920001 4290297283
-0.24384302 -0.012958701 1.3920001 4290494662
-0.24280928 -0.01296801 1.393 4290757834
-0.24160036 -0.01296801 1.393 4290889420
-0.24056405 -0.01297732 1.3940001 4290889420
-0.23935427 -0.01297732 1.3940001 4290889420
-0.23831531 -0.012986629 1.3950001 4290757834
-0.23744459 -0.013005248 1.3970001 4290692041
-0.2364013 -0.013014558 1.3980001 4290494662
-0.23586099 -0.013051796 1.4020001 4290231490
-0.23481162 -0.013061104 1.4030001 4290034111
-0.23376052 -0.013070414 1.404 4290099904
-0.23231216 -0.01312627 1.4100001 4290297283
-0.23141629 -0.013144889 1.4120001 4290231490
-0.23051693 -0.013163508 1.414 4290165697
-0.23091137 -0.013256603 1.424 4290165697
-0.22999811 -0.013275221 1.4260001 4290297283
-0.22924185 -0.013303149 1.429 4290231492
-0.26800394 -0.01175904 1.3920001 4292271841
-0.26622093 -0.011733698 1.3890001 4292074462
-0.26387072 -0.011683012 1.383 4292139998
-0.26267046 -0.011683012 1.383 4292139998
-0.26165929 -0.011691459 1.3840001 4292139485
-0.26083457 -0.011708355 1.386 4291942106
-0.25963172 -0.011708355 1.386 4291152590
-0.25861534 -0.011716802 1.3870001 4290692039
-0.25778282 -0.011733698 1.3890001 4290363074
-0.25676209 -0.011742145 1.3900001 4290231489
-0.25555578 -0.011742145 1.3900001 4290099904
-0.25453246 -0.011750593 1.391 4290231490
-0.25332528 -0.011750593 1.391 4290494662
-0.25229934 -0.01175904 1.3920001 4290626248
-0.2510913 -0.01175904 1.3920001 4290494663
-0.24988325 -0.01175904 1.3920001 4290560455
-0.24885385 -0.011767488 1.393 4290560455
-0.24764493 -0.011767488 1.393 4290494662
-0.24643603 -0.011767488 1.393 4290494662
-0.24522711 -0.011767488 1.393 4290626248
-0.2440182 -0.011767488 1.393 4290757834
-0.24280928 -0.011767488 1.393 4290757834
-0.24194726 -0.011784383 1.3950001 4290692041
-0.24090917 -0.01179283 1.396 4290560455
-0.23969766 -0.01179283 1.396 4290494662
-0.23848614 -0.01179283 1.396 4290494662
-0.23761456 -0.011809726 1.3980001 4290494662
-0.23657039 -0.011818173 1.399 4290428869
-0.23586099 -0.011843516 1.4020001 4290231490
-0.23497897 -0.011860412 1.404 4290034112
-0.23409353 -0.011877307 1.406 4290099650
-0.23247693 -0.011919545 1.411 4290099650
-0.23174407 -0.011944887 1.414 4290099650
-0.23084296 -0.011961782 1.416 4290165443
-0.23091137 -0.012029364 1.424 4290297029
-0.23032069 -0.012063153 1.4280001 4290560201
-0.22956267 -0.012088496 1.4310001 4290560201
-0.26858154 -0.010582137 1.3950001 4292403427
-0.26660424 -0.010551794 1.391 4292074462
-0.26425228 -0.010506279 1.3850001 4292074462
-0.26305032 -0.010506279 1.3850001 4292140255
-0.26184836 -0.010506279 1.3850001 4292205278
-0.26102275 -0.01052145 1.3870001 4292007899
-0.2600064 -0.010529037 1.388 4291415762
-0.25898826 -0.010536622 1.3890001 4290889418
-0.258154 -0.010551794 1.391 4290494660
-0.2569468 -0.010551794 1.391 4290297281
-0.25573963 -0.010551794 1.391 4290231488
-0.25471544 -0.010559379 1.3920001 4290494660
-0.25350741 -0.010559379 1.3920001 4290757834
-0.25229934 -0.010559379 1.3920001 4290757834
-0.25127167 -0.010566966 1.393 4290560455
-0.25006276 -0.010566966 1.393 4290692041
-0.24885385 -0.010566966 1.393 4290823627
-0.24782273 -0.010574551 1.3940001 4290823627
-0.24661295 -0.010574551 1.3940001 4290692041
-0.24557921 -0.010582137 1.3950001 4290692041
-0.24436857 -0.010582137 1.3950001 4290626248
-0.24315791 -0.010582137 1.3950001 4290428869
-0.24194726 -0.010582137 1.3950001 4290231490
-0.24090917 -0.010589723 1.396 4290099904
-0.23969766 -0.010589723 1.396 4290099904
-0.23848614 -0.010589723 1.396 4290165697
-0.23761456 -0.010604895 1.3980001 4290231490
-0.23657039 -0.010612479 1.399 4290363076
-0.23586099 -0.010635237 1.4020001 4290428869
-0.23497897 -0.010650408 1.404 4290297284
-0.23392701 -0.010657994 1.4050001 4290231236
-0.2326417 -0.010711095 1.4120001 4290033857
-0.23174407 -0.010726266 1.414 4290099650
-0.23084296 -0.010741438 1.416 4290231236
-0.23107351 -0.01080971 1.4250001 4290362822
-0.23032069 -0.010832466 1.4280001 4290560201
-0.22956267 -0.010855224 1.4310001 4290560201
-0.26838902 -0.0093731666 1.3940001 4292469222
-0.2667959 -0.0093597183 1.3920001 4292140257
-0.26425228 -0.0093126511 1.3850001 4292074462
-0.26305032 -0.0093126511 1.3850001 4292140255
-0.2620374 -0.0093193753 1.386 4292271071
-0.26102275 -0.0093260985 1.3870001 4292139485
-0.2600064 -0.0093328236 1.388 4291613141
-0.25898826 -0.0093395468 1.3890001 4290955211
-0.258154 -0.0093529951 1.391 4290494660
-0.2569468 -0.0093529951 1.391 4290363074
-0.25573963 -0.0093529951 1.391 4290428867
-0.25471544 -0.0093597183 1.3920001 4290692039
-0.25350741 -0.0093597183 1.3920001 4290889419
-0.25229934 -0.0093597183 1.3920001 4290823626
-0.25127167 -0.0093664434 1.393 4290757834
-0.25006276 -0.0093664434 1.393 4290823627
-0.24885385 -0.0093664434 1.393 4290889420
-0.24782273 -0.0093731666 1.3940001 4290757834
-0.24678986 -0.0093798907 1.3950001 4290626248
-0.24557921 -0.0093798907 1.3950001 4290560455
-0.24436857 -0.0093798907 1.3950001 4290428869
-0.24315791 -0.0093798907 1.3950001 4290297283
-0.24194726 -0.0093798907 1.3950001 4290165697
-0.24090917 -0.009386614 1.396 4290099904
-0.23969766 -0.009386614 1.396 4290099904
-0.23865697 -0.009393339 1.3970001 4290034111
-0.23761456 -0.0094000623 1.3980001 4290099904
-0.2364013 -0.0094000623 1.3980001 4290297283
-0.23586099 -0.0094269589 1.4020001 4290428869
-0.23497897 -0.0094404062 1.404 4290560200
-0.23392701 -0.0094471294 1.4050001 4290494408
-0.2326417 -0.0094941976 1.4120001 4290033857
-0.23174407 -0.0095076449 1.414 4290099650
-0.23084296 -0.0095210932 1.416 4290362822
-0.23107351 -0.0095816087 1.4250001 4290428615
-0.23032069 -0.0096017802 1.4280001 4290362822
-0.22956267 -0.0096219527 1.4310001 4290362822
-0.26858154 -0.0081776446 1.3950001 4292600552
-0.2667959 -0.0081600575 1.3920001 4292271586
-0.26425228 -0.0081190234 1.3850001 4292074462
-0.26324025 -0.0081248851 1.386 4292139998
-0.2620374 -0.0081248851 1.386 4292205278
-0.26121098 -0.0081366096 1.388 4292073692
-0.2600064 -0.0081366096 1.388 4291678934
-0.25898826 -0.0081424722 1.3890001 4291021004
-0.258154 -0.0081541957 1.391 4290626246
-0.2569468 -0.0081541957 1.391 4290494660
-0.25573963 -0.0081541957 1.391 4290560453
-0.25471544 -0.0081600575 1.3920001 4290626246
-0.25350741 -0.0081600575 1.3920001 4290692039
-0.25229934 -0.0081600575 1.3920001 4290626247
-0.2510913 -0.0081600575 1.3920001 4290560455
-0.25006276 -0.0081659202 1.393 4290494662
-0.24885385 -0.0081659202 1.393 4290494662
-0.24800052 -0.0081776446 1.3950001 4290560455
-0.24678986 -0.0081776446 1.3950001 4290560455
-0.24557921 -0.0081776446 1.3950001 4290494662
-0.24454373 -0.0081835063 1.396 4290494662
-0.24333221 -0.0081835063 1.396 4290363076
-0.2421207 -0.0081835063 1.396 4290231490
-0.24090917 -0.0081835063 1.396 4290231490
-0.23969766 -0.0081835063 1.396 4290231490
-0.23865697 -0.008189369 1.3970001 4290165697
-0.23761456 -0.0081952307 1.3980001 4290231490
-0.2364013 -0.0081952307 1.3980001 4290297284
-0.23586099 -0.0082186796 1.4020001 4290428615
-0.23497897 -0.0082304031 1.404 4290428615
-0.23409353 -0.0082421284 1.406 4290297029
-0.2326417 -0.0082773007 1.4120001 4290099650
-0.23174407 -0.0082890242 1.414 4290231236
-0.23100601 -0.0083066104 1.4170001 4290494408
-0.23123567 -0.0083593698 1.4260001 4290494408
-0.230482 -0.0083769569 1.429 4290362822
-0.22988351 -0.0084004039 1.4330001 4290231236
-0.26858154 -0.0069753979 1.3950001 4292600552
-0.26698756 -0.0069653974 1.393 4292271587
-0.26482469 -0.006940396 1.388 4292008671
-0.26362011 -0.006940396 1.388 4292008414
-0.26241553 -0.006940396 1.388 4292073692
-0.26139915 -0.0069453968 1.3890001 4292073692
-0.26019371 -0.0069453968 1.3890001 4291744727
-0.25898826 -0.0069453968 1.3890001 4291349969
-0.258154 -0.0069553973 1.391 4290889418
-0.2569468 -0.0069553973 1.391 4290560453
-0.25592348 -0.0069603971 1.3920001 4290363074
-0.25471544 -0.0069603971 1.3920001 4290165695
-0.25350741 -0.0069603971 1.3920001 4290165695
-0.25229934 -0.0069603971 1.3920001 4290428867
-0.25127167 -0.0069653974 1.393 4290494662
-0.25006276 -0.0069653974 1.393 4290297283
-0.24903251 -0.0069703981 1.3940001 4290231490
-0.24817829 -0.0069803987 1.396 4290363076
-0.24696676 -0.0069803987 1.396 4290494662
-0.24575526 -0.0069803987 1.396 4290560455
-0.24471889 -0.0069853985 1.3970001 4290494662
-0.24350652 -0.0069853985 1.3970001 4290428869
-0.24229413 -0.0069853985 1.3970001 4290297283
-0.24108174 -0.0069853985 1.3970001 4290231490
-0.23969766 -0.0069803987 1.396 4290297283
-0.23865697 -0.0069853985 1.3970001 4290297284
-0.23761456 -0.0069903992 1.3980001 4290231236
-0.2364013 -0.0069903992 1.3980001 4290231236
-0.23586099 -0.0070103998 1.4020001 4290362822
-0.23497897 -0.0070204008 1.404 4290362822
-0.23376052 -0.0070204008 1.404 4290165443
-0.23280644 -0.0070654033 1.4130001 4290099650
-0.23174407 -0.0070704035 1.414 4290231236
-0.23084296 -0.0070804046 1.416 4290362822
-0.23123567 -0.0071304073 1.4260001 4290428615
-0.230482 -0.0071454081 1.429 4290362822
-0.2297231 -0.0071604084 1.432 4290428615
-0.26858154 -0.0057731518 1.3950001 4292666345
-0.26698756 -0.0057648751 1.393 4292271587
-0.26501548 -0.0057483213 1.3890001 4291942622
-0.26381004 -0.0057483213 1.3890001 4291942622
-0.26260459 -0.0057483213 1.3890001 4292073692
-0.26139915 -0.0057483213 1.3890001 4292007899
-0.26019371 -0.0057483213 1.3890001 4291876313
-0.2591747 -0.0057524596 1.3900001 4291547348
-0.258154 -0.0057565984 1.391 4290889418
-0.2569468 -0.0057565984 1.391 4290363074
-0.25592348 -0.0057607368 1.3920001 4290034109
-0.25471544 -0.0057607368 1.3920001 4289902523
-0.25350741 -0.0057607368 1.3920001 4290034109
-0.25229934 -0.0057607368 1.3920001 4290428868
-0.25127167 -0.0057648751 1.393 4290626248
-0.25024229 -0.0057690134 1.3940001 4290363076
-0.24903251 -0.0057690134 1.3940001 4290165697
-0.24817829 -0.0057772906 1.396 4290165697
-0.24696676 -0.0057772906 1.396 4290428869
-0.24593128 -0.0057814289 1.3970001 4290560455
-0.24471889 -0.0057814289 1.3970001 4290560455
-0.24350652 -0.0057814289 1.3970001 4290494662
-0.24229413 -0.0057814289 1.3970001 4290428869
-0.24108174 -0.0057814289 1.3970001 4290362821
-0.23969766 -0.0057772906 1.396 4290428615
-0.23865697 -0.0057814289 1.3970001 4290428615
-0.23761456 -0.0057855677 1.3980001 4290231236
-0.23623221 -0.0057814289 1.3970001 4290231236
-0.23569275 -0.0057979827 1.401 4290362822
-0.23481162 -0.0058062598 1.4030001 4290428615
-0.23376052 -0.0058103981 1.404 4290231236
-0.2326417 -0.0058435057 1.4120001 4290099650
-0.23174407 -0.0058517829 1.414 4290165443
-0.23084296 -0.00586006 1.416 4290297029
-0.23123567 -0.0059014442 1.4260001 4290428615
-0.230482 -0.0059138597 1.429 4290494408
-0.2297231 -0.0059262747 1.432 4290625994
-0.26858154 -0.0045709056 1.3950001 4292732138
-0.2667959 -0.0045610759 1.3920001 4292271587
-0.26520628 -0.0045545227 1.3900001 4292008415
-0.26399997 -0.0045545227 1.3900001 4291942365
-0.26279366 -0.0045545227 1.3900001 4292073694
-0.26139915 -0.0045512463 1.3890001 4292007901
-0.26038104 -0.0045545227 1.3900001 4291744727
-0.2591747 -0.0045545227 1.3900001 4291415762
-0.258154 -0.0045577995 1.391 4290692039
-0.2569468 -0.0045577995 1.391 4290165695
-0.25592348 -0.0045610759 1.3920001 4289968318
-0.25471544 -0.0045610759 1.3920001 4289968318
-0.25350741 -0.0045610759 1.3920001 4290034625
-0.25229934 -0.0045610759 1.3920001 4290363333
-0.25127167 -0.0045643523 1.393 4290494662
-0.25024229 -0.0045676292 1.3940001 4290363076
-0.24921116 -0.0045709056 1.3950001 4290297283
-0.24835606 -0.0045774588 1.3970001 4290363076
-0.24714367 -0.0045774588 1.3970001 4290494662
-0.24593128 -0.0045774588 1.3970001 4290560455
-0.24489407 -0.0045807357 1.3980001 4290494662
-0.24350652 -0.0045774588 1.3970001 4290494663
-0.24246757 -0.0045807357 1.3980001 4290494664
-0.24108174 -0.0045774588 1.3970001 4290494408
-0.23969766 -0.0045741824 1.396 4290560201
-0.23848614 -0.0045741824 1.396 4290428615
-0.23744459 -0.0045774588 1.3970001 4290297029
-0.23623221 -0.0045774588 1.3970001 4290297029
-0.23569275 -0.0045905658 1.401 4290494409
-0.23497897 -0.0046003954 1.404 4290494408
-0.23392701 -0.0046036723 1.4050001 4290297029
-0.2326417 -0.0046266085 1.4120001 4290165443
-0.23190795 -0.0046364386 1.4150001 4290297029
-0.23116903 -0.0046462682 1.4180001 4290428615
-0.23139782 -0.0046757581 1.427 4290560201
-0.23080456 -0.0046888646 1.4310001 4290625994
-0.23020437 -0.0047019711 1.4350001 4290691787
-0.2643798 -0.0033614151 1.3920001 4291876829
-0.2629827 -0.0033590002 1.391 4291942622
-0.26158735 -0.0033565855 1.3900001 4291942621
-0.26038104 -0.0033565855 1.3900001 4291679193
-0.25898826 -0.0033541706 1.3890001 4290955726
-0.2579684 -0.0033565855 1.3900001 4290297796
-0.2569468 -0.0033590002 1.391 4290034625
-0.25573963 -0.0033590002 1.391 4290034625
-0.25453246 -0.0033590002 1.391 4290166211
-0.25332528 -0.0033590002 1.391 4290232004
-0.25211811 -0.0033590002 1.391 4290363333
-0.2510913 -0.0033614151 1.3920001 4290428869
-0.25006276 -0.00336383 1.393 4290363076
-0.24903251 -0.0033662447 1.3940001 4290494662
-0.24817829 -0.0033710746 1.396 4290560455
-0.24696676 -0.0033710746 1.396 4290494662
-0.24575526 -0.0033710746 1.396 4290428869
-0.24471889 -0.003373489 1.3970001 4290363076
-0.24350652 -0.003373489 1.3970001 4290494407
-0.24246757 -0.0033759039 1.3980001 4290560201
-0.24108174 -0.003373489 1.3970001 4290560201
-0.23969766 -0.0033710746 1.396 4290560201
-0.23865697 -0.003373489 1.3970001 4290362822
-0.23744459 -0.003373489 1.3970001 4290165443
-0.2364013 -0.0033759039 1.3980001 4290231237
-0.23586099 -0.0033855634 1.4020001 4290428617
-0.23497897 -0.0033903928 1.404 4290494409
-0.23392701 -0.0033928077 1.4050001 4290428615
-0.23280644 -0.0034121261 1.4130001 4290231236
-0.23190795 -0.0034169557 1.4150001 4290297029
-0.23116903 -0.0034242002 1.4180001 4290428615
-0.23155998 -0.0034483483 1.4280001 4290494408
-0.23096585 -0.0034580075 1.432 4290560201
-0.23020437 -0.003465252 1.4350001 4290823373
-0.2643798 -0.0021617543 1.3920001 4291811036
-0.2629827 -0.0021602013 1.391 4291942622
-0.26158735 -0.0021586483 1.3900001 4292008415
-0.26019371 -0.0021570954 1.3890001 4291810522
-0.25898826 -0.0021570954 1.3890001 4291087056
-0.2579684 -0.0021586483 1.3900001 4290297540
-0.25676209 -0.0021586483 1.3900001 4290099904
-0.25573963 -0.0021602013 1.391 4290231490
-0.25453246 -0.0021602013 1.391 4290363077
-0.25332528 -0.0021602013 1.391 4290428615
-0.25193685 -0.0021586483 1.3900001 4290494407
-0.25091094 -0.0021602013 1.391 4290428869
-0.24988325 -0.0021617543 1.3920001 4290363077
-0.24885385 -0.0021633073 1.393 4290494408
-0.24800052 -0.0021664135 1.3950001 4290625993
-0.24678986 -0.0021664135 1.3950001 4290560200
-0.24557921 -0.0021664135 1.3950001 4290428871
-0.24471889 -0.0021695192 1.3970001 4290363078
-0.24350652 -0.0021695192 1.3970001 4290428615
-0.2421207 -0.0021679664 1.396 4290560201
-0.24108174 -0.0021695192 1.3970001 4290494408
-0.23969766 -0.0021679664 1.396 4290428615
-0.23865697 -0.0021695192 1.3970001 4290297029
-0.23761456 -0.0021710722 1.3980001 4290099650
-0.2364013 -0.0021710722 1.3980001 4289968319
-0.23602921 -0.0021788373 1.4030001 4290165697
-0.23497897 -0.0021803901 1.404 4290363333
-0.23409353 -0.002183496 1.406 4290232004
-0.23280644 -0.0021943669 1.4130001 4290231490
-0.23207185 -0.0021990261 1.416 4290362822
-0.2316581 -0.002206791 1.4210001 4290560201
-0.2318843 -0.0022207678 1.4300001 4290757580
-0.23096585 -0.0022238737 1.432 4290954959
-0.23036478 -0.0022300857 1.4360001 4291349717
-0.26456973 -0.0009627848 1.393 4291876829
-0.26317176 -0.00096209365 1.3920001 4291942622
-0.26139915 -0.00096002017 1.3890001 4292008415
-0.26019371 -0.00096002017 1.3890001 4291810779
-0.25898826 -0.00096002017 1.3890001 4291284692
-0.25778282 -0.00096002017 1.3890001 4290692041
-0.25657737 -0.00096002017 1.3890001 4290231490
-0.25555578 -0.00096071127 1.3900001 4290231490
-0.25434947 -0.00096071127 1.3900001 4290165697
-0.25296107 -0.00096002017 1.3890001 4290362820
-0.25175563 -0.00096002017 1.3890001 4290560199
-0.25073054 -0.00096071127 1.3900001 4290494408
-0.24970375 -0.00096140243 1.391 4290297029
-0.24867521 -0.00096209365 1.3920001 4290297029
-0.24782273 -0.00096347602 1.3940001 4290428615
-0.24643603 -0.0009627848 1.393 4290560201
-0.24522711 -0.0009627848 1.393 4290560201
-0.24436857 -0.00096416712 1.3950001 4290428615
-0.24333221 -0.00096485828 1.396 4290428615
-0.2421207 -0.00096485828 1.396 4290494408
-0.24108174 -0.00096554949 1.3970001 4290297029
-0.23969766 -0.00096485828 1.396 4290165443
-0.23865697 -0.00096554949 1.3970001 4290231491
-0.23761456 -0.00096624054 1.3980001 4290231490
-0.23657039 -0.00096693175 1.399 4290034111
-0.23636566 -0.00097107876 1.4050001 4290034111
-0.23548108 -0.00097246101 1.4070001 4290099904
-0.23442651 -0.00097315217 1.4080001 4290231490
-0.23330072 -0.00097868149 1.416 4290692041
-0.23239964 -0.00098006381 1.4180001 4290889166
-0.2316581 -0.00098213728 1.4210001 4291152338
-0.23172216 -0.00098766654 1.429 4291481303
-0.23096585 -0.00098974002 1.432 4291678682
-0.23020437 -0.00099181349 1.4350001 4291876061
-0.26532945 0.00023842043 1.3970001 4291942622
-0.26354989 0.00023790843 1.3940001 4291942622
-0.26158735 0.00023722576 1.3900001 4292008415
-0.26019371 0.00023705509 1.3890001 4291811036
-0.25898826 0.00023705509 1.3890001 4291547607
-0.25778282 0.00023705509 1.3890001 4290889420
-0.25676209 0.00023722576 1.3900001 4290363076
-0.25555578 0.00023722576 1.3900001 4290034111
-0.25434947 0.00023722576 1.3900001 4290034111
-0.25314316 0.00023722576 1.3900001 4290231490
-0.25175563 0.00023705509 1.3890001 4290494663
-0.25073054 0.00023722576 1.3900001 4290560201
-0.24952424 0.00023722576 1.3900001 4290362822
-0.24849656 0.00023739642 1.391 4290231236
-0.24764493 0.00023773775 1.393 4290362822
-0.24643603 0.00023773775 1.393 4290560201
-0.24540317 0.00023790843 1.3940001 4290691787
-0.24454373 0.00023824976 1.396 4290560201
-0.24333221 0.00023824976 1.396 4290494408
-0.24229413 0.00023842043 1.3970001 4290560201
-0.24125431 0.00023859109 1.3980001 4290494408
-0.24004106 0.00023859109 1.3980001 4290428615
-0.23899864 0.00023876176 1.399 4290363077
-0.23795451 0.00023893242 1.4000001 4290297283
-0.23690861 0.00023910309 1.401 4290099904
-0.23653392 0.00023995641 1.406 4290034111
-0.23548108 0.00024012709 1.4070001 4290297283
-0.234593 0.00024046842 1.409 4290626248
-0.23330072 0.00024166307 1.416 4291481301
-0.23256354 0.00024217508 1.419 4291612888
-0.23182112 0.00024268708 1.4220001 4291744475
-0.23172216 0.00024388173 1.429 4292007647
-0.23080456 0.00024422308 1.4310001 4292073440
-0.23004392 0.00024473507 1.434 4291876061
-0.26551938 0.0014434229 1.3980001 4292008415
-0.26354989 0.0014392928 1.3940001 4291876829
-0.26158735 0.0014351628 1.3900001 4291942622
-0.26038104 0.0014351628 1.3900001 4291876829
-0.25898826 0.0014341304 1.3890001 4291613400
-0.25778282 0.0014341304 1.3890001 4290889420
-0.25676209 0.0014351628 1.3900001 4290165697
-0.25555578 0.0014351628 1.3900001 4289902525
-0.25434947 0.0014351628 1.3900001 4289902526
-0.25314316 0.0014351628 1.3900001 4290099650
-0.25157437 0.0014330979 1.388 4290362822
-0.25055018 0.0014341304 1.3890001 4290559690
-0.24952424 0.0014351628 1.3900001 4290428104
-0.24849656 0.0014361953 1.391 4290362311
-0.24764493 0.0014382603 1.393 4290559689
-0.24661295 0.0014392928 1.3940001 4290691530
-0.24540317 0.0014392928 1.3940001 4290691530
-0.24454373 0.0014413578 1.396 4290428615
-0.24350652 0.0014423903 1.3970001 4290428615
-0.24229413 0.0014423903 1.3970001 4290560201
-0.24125431 0.0014434229 1.3980001 4290625994
-0.24004106 0.0014434229 1.3980001 4290625994
-0.23916949 0.0014454877 1.4000001 4290823628
-0.23812447 0.0014465202 1.401 4291021006
-0.23707771 0.0014475527 1.4020001 4291021006
-0.23653392 0.0014516828 1.406 4291152592
-0.23564844 0.0014537477 1.4080001 4291284178
-0.23475949 0.0014558126 1.4100001 4291415765
-0.23346551 0.0014630401 1.4170001 4291876061
-0.23272742 0.0014661376 1.4200001 4291810268
-0.23198417 0.0014692351 1.4230001 4291678682
-0.23155998 0.0014743975 1.4280001 4291612889
-0.23064329 0.0014764626 1.4300001 4291481303
-0.22988351 0.0014795599 1.4330001 4291218131
-0.26589924 0.002652043 1.4000001 4291942624
-0.26373896 0.0026425715 1.3950001 4291811038
-0.26177552 0.0026349942 1.391 4291876831
-0.26038104 0.0026330999 1.3900001 4291942623
-0.2591747 0.0026330999 1.3900001 4291744988
-0.2579684 0.0026330999 1.3900001 4291086544
-0.2569468 0.0026349942 1.391 4290231236
-0.25573963 0.0026349942 1.391 4290033857
-0.25434947 0.0026330999 1.3900001 4290034113
-0.25314316 0.0026330999 1.3900001 4290165443
-0.25175563 0.0026312056 1.3890001 4290165188
-0.25073054 0.0026330999 1.3900001 4290296518
-0.24970375 0.0026349942 1.391 4290493897
-0.24867521 0.0026368885 1.3920001 4290559690
-0.24782273 0.0026406772 1.3940001 4290559689
-0.24661295 0.0026406772 1.3940001 4290494151
-0.24540317 0.0026406772 1.3940001 4290428358
-0.24454373 0.0026444658 1.396 4290494151
-0.24350652 0.0026463603 1.3970001 4290691787
-0.24229413 0.0026463603 1.3970001 4290954959
-0.24142689 0.0026501487 1.399 4291152338
-0.24021275 0.0026501487 1.399 4291349717
-0.23934032 0.0026539373 1.401 4291612888
-0.23812447 0.0026539373 1.401 4291810522
-0.23707771 0.0026558316 1.4020001 4291876315
-0.23548108 0.0026653034 1.4070001 4291810524
-0.23475949 0.0026709861 1.4100001 4291744475
-0.23363025 0.0026861408 1.4180001 4291547096
-0.23272742 0.0026899294 1.4200001 4291283924
-0.23198417 0.0026956124 1.4230001 4291086545
-0.2326951 0.0027183441 1.4350001 4290954959
-0.23193358 0.0027240273 1.4380001 4290823373
-0.23132731 0.0027316043 1.442 4290691787
-0.26589924 0.0038585986 1.4000001 4292008930
-0.263928 0.0038475737 1.396 4291877088
-0.26177552 0.0038337929 1.391 4291877344
-0.26038104 0.0038310371 1.3900001 4292008417
-0.2591747 0.0038310371 1.3900001 4291811038
-0.2579684 0.0038310371 1.3900001 4291218644
-0.25676209 0.0038310371 1.3900001 4290626507
-0.25555578 0.0038310371 1.3900001 4290494408
-0.25434947 0.0038310371 1.3900001 4290494408
-0.25314316 0.0038310371 1.3900001 4290231236
-0.25193685 0.0038310371 1.3900001 4290099651
-0.25091094 0.0038337929 1.391 4290231238
-0.24970375 0.0038337929 1.391 4290362824
-0.24867521 0.0038365494 1.3920001 4290297031
-0.24782273 0.0038420616 1.3940001 4290297031
-0.24661295 0.0038420616 1.3940001 4290494153
-0.24540317 0.0038420616 1.3940001 4290757324
-0.24454373 0.0038475737 1.396 4291086545
-0.24350652 0.0038503301 1.3970001 4291415510
-0.24229413 0.0038503301 1.3970001 4291612889
-0.24142689 0.0038558424 1.399 4291876061
-0.24021275 0.0038558424 1.399 4292073440
-0.23934032 0.0038613547 1.401 4292139233
-0.23812447 0.0038613547 1.401 4292073440
-0.23707771 0.0038641109 1.4020001 4291810268
-0.23670214 0.0038778912 1.4070001 4291612889
-0.23564844 0.0038806475 1.4080001 4291481303
-0.23475949 0.0038861597 1.4100001 4291349717
-0.23363025 0.003908209 1.4180001 4290889166
-0.23272742 0.0039137215 1.4200001 4290625996
-0.23198417 0.0039219894 1.4230001 4290560203
-0.2326951 0.0039550634 1.4350001 4290625996
-0.23209487 0.0039660879 1.439 4290757582
-0.23132731 0.0039743562 1.442 4290823375
-0.26608917 0.0050687715 1.401 4292140516
-0.263928 0.005050682 1.396 4291943137
-0.26177552 0.005032592 1.391 4291942881
-0.26056835 0.005032592 1.391 4291942626
-0.25898826 0.0050253561 1.3890001 4291876833
-0.2579684 0.0050289743 1.3900001 4291547867
-0.25676209 0.0050289743 1.3900001 4291152853
-0.25573963 0.005032592 1.391 4290954961
-0.25453246 0.005032592 1.391 4290691789
-0.25314316 0.0050289743 1.3900001 4290362311
-0.25193685 0.0050289743 1.3900001 4290165189
-0.25091094 0.005032592 1.391 4290428617
-0.24970375 0.005032592 1.391 4290494410
-0.24867521 0.0050362102 1.3920001 4290362824
-0.24764493 0.0050398284 1.393 4290362824
-0.24661295 0.0050434461 1.3940001 4290691789
-0.24540317 0.0050434461 1.3940001 4291152339
-0.24454373 0.005050682 1.396 4291744475
-0.24333221 0.005050682 1.396 4291941854
-0.24229413 0.0050543002 1.3970001 4291810268
-0.24142689 0.0050615356 1.399 4291678682
-0.24021275 0.0050615356 1.399 4291547096
-0.23916949 0.0050651538 1.4000001 4291547096
-0.23812447 0.0050687715 1.401 4291481303
-0.23707771 0.0050723897 1.4020001 4291152338
-0.23653392 0.0050868616 1.406 4290954959
-0.23564844 0.0050940975 1.4080001 4290889168
-0.23475949 0.0051013334 1.4100001 4290889168
-0.23363025 0.0051302775 1.4180001 4290560203
-0.23272742 0.0051375134 1.4200001 4290494410
-0.23198417 0.005148367 1.4230001 4290494410
-0.23253292 0.0051881648 1.434 4290757582
-0.23209487 0.0052062543 1.439 4291086547
-0.23148772 0.0052207266 1.4430001 4291218903
-0.26608917 0.0062761889 1.401 4292206310
-0.26411706 0.0062582698 1.3970001 4291943138
-0.26234013 0.0062448303 1.3940001 4291811553
-0.26075566 0.006235871 1.3920001 4291811553
-0.25954762 0.006235871 1.3920001 4291877090
-0.258154 0.0062313909 1.391 4291811040
-0.25713152 0.006235871 1.3920001 4291481818
-0.25592348 0.006235871 1.3920001 4291020754
-0.25471544 0.006235871 1.3920001 4290625739
-0.25350741 0.006235871 1.3920001 4290296518
-0.25211811 0.0062313909 1.391 4290230982
-0.2510913 0.006235871 1.3920001 4290560203
-0.24988325 0.006235871 1.3920001 4290691789
-0.24867521 0.006235871 1.3920001 4290560203
-0.24764493 0.0062403507 1.393 4290625996
-0.24661295 0.0062448303 1.3940001 4291020754
-0.24540317 0.0062448303 1.3940001 4291415511
-0.24454373 0.0062537896 1.396 4291678682
-0.24333221 0.0062537896 1.396 4291678682
-0.24229413 0.0062582698 1.3970001 4291481303
-0.24125431 0.0062627494 1.3980001 4291218131
-0.24004106 0.0062627494 1.3980001 4290823374
-0.23916949 0.0062717092 1.4000001 4290428616
-0.23795451 0.0062717092 1.4000001 4290165443
-0.23690861 0.0062761889 1.401 4289968064
-0.23653392 0.0062985881 1.406 4289968321
-0.23564844 0.0063075474 1.4080001 4290297031
-0.234593 0.0063120276 1.409 4290494667
-0.23363025 0.0063523455 1.4180001 4290560203
-0.23272742 0.0063613052 1.4200001 4290692046
-0.23198417 0.0063747442 1.4230001 4290889169
-0.2326951 0.0064285016 1.4350001 4291021268
-0.23209487 0.0064464207 1.439 4291416283
-0.23148772 0.0064643403 1.4430001 4291613661
-0.26608917 0.0074836067 1.401 4292206311
-0.26430613 0.007467581 1.3980001 4291876833
-0.26234013 0.0074462146 1.3940001 4291876833
-0.260943 0.007440873 1.393 4291876833
-0.25973406 0.007440873 1.393 4291942369
-0.25833958 0.0074355318 1.3920001 4291876063
-0.25713152 0.0074355318 1.3920001 4291415512
-0.25610733 0.007440873 1.393 4290954961
-0.25471544 0.0074355318 1.3920001 4290560203
-0.25350741 0.0074355318 1.3920001 4290362824
-0.25229934 0.0074355318 1.3920001 4290494153
-0.2510913 0.0074355318 1.3920001 4290691789
-0.24988325 0.0074355318 1.3920001 4290889168
-0.24867521 0.0074355318 1.3920001 4290889168
-0.24782273 0.0074462146 1.3940001 4290889168
-0.24661295 0.0074462146 1.3940001 4291020754
-0.24540317 0.0074462146 1.3940001 4291152340
-0.24454373 0.0074568982 1.396 4291349719
-0.24333221 0.0074568982 1.396 4291349719
-0.24229413 0.0074622394 1.3970001 4291283926
-0.24125431 0.007467581 1.3980001 4290954961
-0.24004106 0.007467581 1.3980001 4290494410
-0.23916949 0.0074782646 1.4000001 4289902531
-0.23795451 0.0074782646 1.4000001 4289310651
-0.23690861 0.0074836067 1.401 4289376444
-0.23653392 0.0075103138 1.406 4289639616
-0.23548108 0.0075156554 1.4070001 4289968583
-0.234593 0.007526339 1.409 4290429134
-0.23363025 0.0075744139 1.4180001 4291021271
-0.23272742 0.0075850966 1.4200001 4291152857
-0.23182112 0.0075957803 1.4220001 4291087064
-0.2326951 0.0076652211 1.4350001 4291087064
-0.23209487 0.0076865875 1.439 4291416029
-0.23132731 0.0077026128 1.442 4291613408
-0.26608917 0.008691024 1.401 4292206311
-0.26411706 0.0086662089 1.3970001 4291811297
-0.2625283 0.0086538028 1.3950001 4291745504
-0.26113033 0.0086475993 1.3940001 4291876833
-0.25992057 0.0086475993 1.3940001 4291876833
-0.25852516 0.0086413957 1.393 4291745247
-0.25731626 0.0086413957 1.393 4291416026
-0.25610733 0.0086413957 1.393 4291152340
-0.25489843 0.0086413957 1.393 4290757582
-0.25350741 0.0086351931 1.3920001 4290428617
-0.25229934 0.0086351931 1.3920001 4290362824
-0.2510913 0.0086351931 1.3920001 4290560203
-0.24988325 0.0086351931 1.3920001 4290757582
-0.24885385 0.0086413957 1.393 4290757582
-0.24782273 0.0086475993 1.3940001 4290691789
-0.24661295 0.0086475993 1.3940001 4290757582
-0.24540317 0.0086475993 1.3940001 4290757582
-0.24454373 0.0086600063 1.396 4290823375
-0.24333221 0.0086600063 1.396 4291020754
-0.24229413 0.0086662089 1.3970001 4291152340
-0.24125431 0.0086724125 1.3980001 4290954961
-0.24004106 0.0086724125 1.3980001 4290494410
-0.23899864 0.008678616 1.399 4289902531
-0.23795451 0.0086848196 1.4000001 4289508030
-0.23690861 0.008691024 1.401 4289376444
-0.23636566 0.0087158373 1.4050001 4289376444
-0.23548108 0.0087282434 1.4070001 4289836997
-0.234593 0.0087406514 1.409 4290297548
-0.23346551 0.0087902779 1.4170001 4291087064
-0.23272742 0.0088088885 1.4200001 4290955478
-0.23198417 0.0088274991 1.4230001 4290429391
-0.23253292 0.0088957362 1.434 4290297549
-0.23209487 0.0089267539 1.439 4290692306
-0.23148772 0.0089515671 1.4430001 4291021271
-0.26779851 0.0099620279 1.4100001 4292272104
-0.26581863 0.009933766 1.406 4291811553
-0.26328105 0.00988431 1.399 4291614174
-0.26187962 0.009877244 1.3980001 4291679967
-0.2604799 0.009870179 1.3970001 4291745503
-0.25889635 0.009856049 1.3950001 4291679454
-0.25768572 0.009856049 1.3950001 4291481819
-0.25647506 0.009856049 1.3950001 4291283926
-0.25508142 0.009848983 1.3940001 4290823375
-0.2536895 0.009841918 1.393 4290428617
-0.2524806 0.009841918 1.393 4290231238
-0.2510913 0.009834853 1.3920001 4290231238
-0.24988325 0.009834853 1.3920001 4290428617
-0.24867521 0.009834853 1.3920001 4290297031
-0.24764493 0.009841918 1.393 4290231238
-0.24643603 0.009841918 1.393 4290297031
-0.24540317 0.009848983 1.3940001 4290297031
-0.24436857 0.009856049 1.3950001 4290362824
-0.24333221 0.009863114 1.396 4290625996
-0.2421207 0.009863114 1.396 4290757582
-0.24125431 0.009877244 1.3980001 4290428875
-0.24004106 0.009877244 1.3980001 4289968581
-0.23899864 0.00988431 1.399 4289573823
-0.23795451 0.009891375 1.4000001 4289573823
-0.23673952 0.009891375 1.4000001 4289639616
-0.23636566 0.0099267019 1.4050001 4289705409
-0.23548108 0.0099408319 1.4070001 4289836997
-0.234593 0.0099549629 1.409 4290034376
-0.23346551 0.010011485 1.4170001 4290100169
-0.23272742 0.01003268 1.4200001 4289639877
-0.23182112 0.010046811 1.4220001 4289376705
-0.23253292 0.010131594 1.434 4289574084
-0.23193358 0.010159855 1.4380001 4289903049
-0.23132731 0.010188117 1.442 4289969096
-0.26741865 0.011161347 1.4080001 4292403690
-0.26581863 0.011145493 1.406 4291811298
-0.26346928 0.01109793 1.4000001 4291416540
-0.26206693 0.011090003 1.399 4291416540
-0.26066637 0.011082076 1.3980001 4291482333
-0.25889635 0.011058295 1.3950001 4291547613
-0.25768572 0.011058295 1.3950001 4291416027
-0.25647506 0.011058295 1.3950001 4291087062
-0.25508142 0.011050368 1.3940001 4290692047
-0.2536895 0.01104244 1.393 4290494411
-0.2524806 0.01104244 1.393 4290494411
-0.2510913 0.011034514 1.3920001 4290494411
-0.24988325 0.011034514 1.3920001 4290362825
-0.24867521 0.011034514 1.3920001 4290033860
-0.24764493 0.01104244 1.393 4289902274
-0.24643603 0.01104244 1.393 4290033859
-0.24522711 0.01104244 1.393 4290165445
-0.24436857 0.011058295 1.3950001 4290362824
-0.24333221 0.011066223 1.396 4290494410
-0.2421207 0.011066223 1.396 4290297031
-0.24125431 0.011082076 1.3980001 4289836994
-0.24004106 0.011082076 1.3980001 4289639616
-0.23899864 0.011090003 1.399 4289705409
-0.23795451 0.01109793 1.4000001 4289836995
-0.23673952 0.01109793 1.4000001 4289639874
-0.23636566 0.011137567 1.4050001 4289574338
-0.23548108 0.01115342 1.4070001 4289771462
-0.234593 0.011169274 1.409 4289837256
-0.23346551 0.011232691 1.4170001 4289442498
-0.23272742 0.011256472 1.4200001 4289047741
-0.23182112 0.011272326 1.4220001 4289113533
-0.23253292 0.011367451 1.434 4289442498
-0.23193358 0.011399159 1.4380001 4289574084
-0.2311669 0.011422941 1.4410001 4289508291
-0.26741865 0.012374797 1.4080001 4292535277
-0.26581863 0.012357219 1.406 4291877091
-0.26365745 0.012313275 1.401 4291219161
-0.26206693 0.012295697 1.399 4291284954
-0.26066637 0.012286908 1.3980001 4291350747
-0.25908193 0.01226933 1.396 4291350747
-0.25787044 0.01226933 1.396 4291219161
-0.25665891 0.01226933 1.396 4291021269
-0.25508142 0.012251752 1.3940001 4290626511
-0.25387165 0.012251752 1.3940001 4290429132
-0.2524806 0.012242964 1.393 4290494668
-0.2510913 0.012234175 1.3920001 4290494411
-0.24988325 0.012234175 1.3920001 4290165446
-0.24867521 0.012234175 1.3920001 4289902274
-0.24764493 0.012242964 1.393 4289836480
-0.24643603 0.012242964 1.393 4289902273
-0.24522711 0.012242964 1.393 4289968066
-0.24436857 0.012260541 1.3950001 4290099652
-0.24333221 0.01226933 1.396 4290165445
-0.24229413 0.012278119 1.3970001 4289968067
-0.24125431 0.012286908 1.3980001 4289770945
-0.24004106 0.012286908 1.3980001 4289902788
-0.23899864 0.012295697 1.399 4290100168
-0.23795451 0.012304486 1.4000001 4290034376
-0.23690861 0.012313275 1.401 4289771461
-0.23636566 0.01234843 1.4050001 4289705924
-0.23548108 0.012366008 1.4070001 4289574084
-0.234593 0.012383587 1.409 4289376705
-0.23346551 0.012453898 1.4170001 4289310912
-0.23272742 0.012480264 1.4200001 4289179328
-0.23182112 0.012497842 1.4220001 4289245121
-0.23237076 0.01259452 1.4330001 4289310914
-0.2317723 0.012629676 1.437 4289245121
-0.23132731 0.012673621 1.442 4289179327
-0.26281625 0.013539993 1.4030001 4291087575
-0.2614122 0.013530343 1.4020001 4291284954
-0.2596387 0.013501391 1.399 4291284956
-0.25842458 0.013501391 1.399 4291218906
-0.25702661 0.01349174 1.3980001 4291021271
-0.25563037 0.013482088 1.3970001 4290626513
-0.25423586 0.013472439 1.396 4290231755
-0.25302434 0.013472439 1.396 4289968325
-0.25163245 0.013462787 1.3950001 4289836995
-0.25042182 0.013462787 1.3950001 4289770945
-0.24921116 0.013462787 1.3950001 4289770688
-0.24800052 0.013462787 1.3950001 4289770688
-0.24678986 0.013462787 1.3950001 4289902274
-0.24557921 0.013462787 1.3950001 4289770688
-0.24471889 0.013482088 1.3970001 4289639102
-0.24368082 0.01349174 1.3980001 4289770688
-0.24246757 0.01349174 1.3980001 4289836481
-0.24159947 0.013511041 1.4000001 4290034374
-0.24038449 0.013511041 1.4000001 4290494925
-0.23934032 0.013520692 1.401 4290889684
-0.23829444 0.013530343 1.4020001 4290823892
-0.23707771 0.013530343 1.4020001 4290363342
-0.23670214 0.013578597 1.4070001 4289771206
-0.23581579 0.013597898 1.409 4289310912
-0.23475949 0.013607549 1.4100001 4289113533
-0.23363025 0.013684754 1.4180001 4289113535
-0.23272742 0.013704056 1.4200001 4289245121
-0.23182112 0.013723358 1.4220001 4289376707
-0.23253292 0.013839167 1.434 4289376707
-0.2317723 0.013868119 1.437 4289245121
-0.23100647 0.013897071 1.4400001 4289179328
-0.26337823 0.014780671 1.406 4290890198
-0.26159865 0.014749134 1.4030001 4291021784
-0.25982431 0.014717597 1.4000001 4291087577
-0.25860932 0.014717597 1.4000001 4291087321
-0.25739431 0.014717597 1.4000001 4291021271
-0.25581336 0.014696571 1.3980001 4290692306
-0.25460011 0.014696571 1.3980001 4290100169
-0.2532056 0.014686059 1.3970001 4289442238
-0.25181285 0.014675546 1.396 4289113272
-0.25060132 0.014675546 1.396 4289047479
-0.2493898 0.014675546 1.396 4289047479
-0.24817829 0.014675546 1.396 4289441980
-0.24696676 0.014675546 1.396 4289770688
-0.24575526 0.014675546 1.396 4289770688
-0.24489407 0.014696571 1.3980001 4289968067
-0.24385512 0.014707083 1.399 4290297032
-0.242641 0.014707083 1.399 4290823376
-0.24177204 0.014728108 1.401 4291481051
-0.24055618 0.014728108 1.401 4291941603
-0.23951116 0.014738622 1.4020001 4292007910
-0.2384644 0.014749134 1.4030001 4291810787
-0.2372468 0.014749134 1.4030001 4291087065
-0.23687038 0.014801697 1.4080001 4290034378
-0.23564844 0.014801697 1.4080001 4289245119
-0.23475949 0.014822722 1.4100001 4289047740
-0.23346551 0.014896311 1.4170001 4288981949
-0.23272742 0.014927848 1.4200001 4289113536
-0.23182112 0.014948872 1.4220001 4289310914
-0.23237076 0.015064511 1.4330001 4289376708
-0.2317723 0.015106561 1.437 4289245122
-0.23100647 0.015138098 1.4400001 4289047743
-0.26375288 0.016015148 1.4080001 4290692819
-0.26197156 0.015981024 1.4050001 4290692819
-0.26000988 0.015935525 1.401 4290824405
-0.25879404 0.015935525 1.401 4290955735
-0.25757816 0.015935525 1.401 4291021271
-0.25599632 0.015912777 1.399 4290823892
-0.2547822 0.015912777 1.399 4290297548
-0.25338686 0.015901404 1.3980001 4289639618
-0.25199321 0.015890028 1.3970001 4289310653
-0.25078082 0.015890028 1.3970001 4289310652
-0.24956845 0.015890028 1.3970001 4289705409
-0.24835606 0.015890028 1.3970001 4290362825
-0.24714367 0.015890028 1.3970001 4290889169
-0.24593128 0.015890028 1.3970001 4291218134
-0.24506924 0.015912777 1.399 4291547099
-0.24402945 0.015924152 1.4000001 4291810271
-0.2429879 0.015935525 1.401 4292073443
-0.24194461 0.0159469 1.4020001 4292073445
-0.24072789 0.0159469 1.4020001 4292073189
-0.23968199 0.015958276 1.4030001 4292008167
-0.23829444 0.0159469 1.4020001 4292007912
-0.2372468 0.015958276 1.4030001 4291481824
-0.23670214 0.016003773 1.4070001 4290429136
-0.23581579 0.016026521 1.409 4289508291
-0.23492602 0.01604927 1.411 4289245119
-0.23363025 0.01612889 1.4180001 4288981949
-0.23272742 0.016151641 1.4200001 4289113536
-0.23198417 0.016185762 1.4230001 4289245122
-0.23237076 0.016299507 1.4330001 4289310915
-0.2317723 0.016345004 1.437 4289376708
-0.2311669 0.016390502 1.4410001 4289442501
-0.26450217 0.017277543 1.4120001 4290627539
-0.26290384 0.017253069 1.4100001 4290364111
-0.26056665 0.017179651 1.404 4290560979
-0.25934818 0.017179651 1.404 4290758357
-0.25812972 0.017179651 1.404 4290955480
-0.25654531 0.01715518 1.4020001 4291152859
-0.25532857 0.01715518 1.4020001 4291416031
-0.25411186 0.01715518 1.4020001 4291744482
-0.25271475 0.017142942 1.401 4291810019
-0.25149888 0.017142942 1.401 4291941605
-0.25028303 0.017142942 1.401 4292007398
-0.24906717 0.017142942 1.401 4292073190
-0.24785133 0.017142942 1.401 4292138982
-0.24645942 0.017130706 1.4000001 4292073189
-0.24559478 0.01715518 1.4020001 4292072932
-0.24437806 0.01715518 1.4020001 4292138982
-0.24333477 0.017167415 1.4030001 4291810017
-0.24228974 0.017179651 1.404 4291415259
-0.24107128 0.017179651 1.404 4291152087
-0.23968199 0.017167415 1.4030001 4291152089
-0.23863436 0.017179651 1.404 4291546847
-0.23758499 0.017191889 1.4050001 4291284445
-0.2370386 0.017240832 1.409 4290626515
-0.23598316 0.017253069 1.4100001 4289639620
-0.23509251 0.017277543 1.4120001 4289244862
-0.23379502 0.017363194 1.419 4288981690
-0.23289131 0.017387668 1.4210001 4289244864
-0.23198417 0.017412141 1.4230001 4289508293
-0.23253292 0.017546738 1.434 4289705673
-0.2317723 0.017583447 1.437 4289903052
-0.2311669 0.017632393 1.4410001 4290100430
-0.26450217 0.01849444 1.4120001 4290824664
-0.26309031 0.01848134 1.411 4290298064
-0.26075223 0.018402753 1.4050001 4290495186
-0.25934818 0.018389653 1.404 4290692565
-0.25812972 0.018389653 1.404 4290955737
-0.25672829 0.018376557 1.4030001 4291416031
-0.25532857 0.018363459 1.4020001 4291810789
-0.25411186 0.018363459 1.4020001 4292139497
-0.25289512 0.018363459 1.4020001 4292336363
-0.25167841 0.018363459 1.4020001 4292204777
-0.25046167 0.018363459 1.4020001 4292270570
-0.24906717 0.018350361 1.401 4292204776
-0.24785133 0.018350361 1.401 4292073189
-0.24663547 0.018350361 1.401 4291875810
-0.24559478 0.018363459 1.4020001 4291283416
-0.24455236 0.018376557 1.4030001 4290362571
-0.24333477 0.018376557 1.4030001 4289441212
-0.24228974 0.018389653 1.404 4288717746
-0.24089958 0.018376557 1.4030001 4289178297
-0.23985282 0.018389653 1.404 4290230985
-0.23880433 0.018402753 1.4050001 4290757329
-0.23758499 0.018402753 1.4050001 4291021016
-0.2370386 0.018455144 1.409 4290560722
-0.23615055 0.01848134 1.411 4289968328
-0.23509251 0.01849444 1.4120001 4289310654
-0.23379502 0.018586125 1.419 4289244862
-0.23289131 0.018612321 1.4210001 4289770952
-0.23198417 0.018638518 1.4230001 4290099917
-0.23253292 0.018782595 1.434 4290232016
-0.2317723 0.01882189 1.437 4290494931
-0.23100647 0.018861184 1.4400001 4290363346
-0.26468951 0.019725297 1.4130001 4291219422
-0.26309031 0.019697376 1.411 4290429906
-0.26075223 0.019613618 1.4050001 4290495699
-0.2595329 0.019613618 1.4050001 4290627028
-0.25831357 0.019613618 1.4050001 4290889944
-0.25672829 0.019585697 1.4030001 4291021530
-0.25551069 0.019585697 1.4030001 4290889944
-0.25429308 0.019585697 1.4030001 4290560723
-0.25289512 0.019571738 1.4020001 4290363089
-0.25167841 0.019571738 1.4020001 4290231244
-0.25046167 0.019571738 1.4020001 4290099401
-0.24924496 0.019571738 1.4020001 4289836229
-0.24802823 0.019571738 1.4020001 4289375678
-0.24681151 0.019571738 1.4020001 4288783539
-0.24576995 0.019585697 1.4030001 4288059816
-0.24437806 0.019571738 1.4020001 4287270300
-0.24333477 0.019585697 1.4030001 4286875285
-0.24211717 0.019585697 1.4030001 4286809749
-0.24089958 0.019585697 1.4030001 4288454574
-0.23985282 0.019599658 1.404 4289836227
-0.23880433 0.019613618 1.4050001 4290362571
-0.23775411 0.019627577 1.406 4290823122
-0.2370386 0.019669456 1.409 4290888915
-0.23615055 0.019697376 1.411 4290362571
-0.235259 0.019725297 1.4130001 4290033606
-0.23379502 0.019809054 1.419 4290165708
-0.23289131 0.019836975 1.4210001 4290363345
-0.23214719 0.019878855 1.424 4290363089
-0.23237076 0.020004494 1.4330001 4290297296
-0.2317723 0.020060332 1.437 4290297296
-0.2311669 0.020116173 1.4410001 4290231502
-0.26562613 0.021017164 1.4180001 4291285215
-0.26402259 0.02098752 1.416 4290364113
-0.26149458 0.020883767 1.409 4290429906
-0.26008707 0.020868946 1.4080001 4290561492
-0.25886515 0.020868946 1.4080001 4290758871
-0.25727725 0.020839304 1.406 4290692822
-0.25605705 0.020839304 1.406 4289639877
-0.25465557 0.020824483 1.4050001 4287600039
-0.25343627 0.020824483 1.4050001 4286744474
-0.25221694 0.020824483 1.4050001 4287139231
-0.2509976 0.020824483 1.4050001 4287205279
-0.24977827 0.020824483 1.4050001 4287204766
-0.24855894 0.020824483 1.4050001 4287204509
-0.24733962 0.020824483 1.4050001 4286941335
-0.24594511 0.02080966 1.404 4286743699
-0.24472666 0.02080966 1.404 4286612113
-0.2435082 0.02080966 1.404 4286414734
-0.24228974 0.02080966 1.404 4286743699
-0.24124297 0.020824483 1.4050001 4288191145
-0.24002364 0.020824483 1.4050001 4289901763
-0.2389743 0.020839304 1.406 4290362571
-0.2379232 0.020854125 1.4070001 4290823122
-0.23720683 0.02089859 1.4100001 4291020501
-0.2363179 0.020928234 1.4120001 4290691536
-0.235259 0.020943055 1.4130001 4290691536
-0.23395976 0.021046808 1.4200001 4290691537
-0.2330552 0.02107645 1.4220001 4290363343
-0.23214719 0.021106094 1.424 4290165707
-0.23253292 0.02125431 1.434 4289968587
-0.2317723 0.021298775 1.437 4289902794
-0.23100647 0.021343241 1.4400001 4290100171
-0.26618809 0.022286283 1.4210001 4291482594
-0.26420906 0.022223549 1.4170001 4290495699
-0.26168019 0.022113765 1.4100001 4290429906
-0.2604565 0.022113765 1.4100001 4290627285
-0.259049 0.022098079 1.409 4290693078
-0.25746024 0.022066714 1.4070001 4290627285
-0.25623918 0.022066714 1.4070001 4289376962
-0.25501812 0.022066714 1.4070001 4287205281
-0.25361666 0.022051029 1.406 4286152337
-0.25239646 0.022051029 1.406 4286612888
-0.2509976 0.022035347 1.4050001 4287139232
-0.24977827 0.022035347 1.4050001 4287138974
-0.24838203 0.022019662 1.404 4287007130
-0.24716358 0.022019662 1.404 4286941079
-0.24594511 0.022019662 1.404 4286809492
-0.24472666 0.022019662 1.404 4286743699
-0.2435082 0.022019662 1.404 4286217355
-0.24246231 0.022035347 1.4050001 4286217355
-0.24124297 0.022035347 1.4050001 4287467422
-0.24002364 0.022035347 1.4050001 4289573055
-0.2389743 0.022051029 1.406 4290428364
-0.2379232 0.022066714 1.4070001 4290757329
-0.23737508 0.022129446 1.411 4291020501
-0.2363179 0.022145132 1.4120001 4290954708
-0.23542549 0.022176497 1.414 4290757329
-0.23395976 0.022270599 1.4200001 4290494157
-0.2330552 0.022301964 1.4220001 4290362573
-0.23214719 0.022333333 1.424 4290230987
-0.23253292 0.022490168 1.434 4290231500
-0.2317723 0.022537218 1.437 4290363343
-0.2311669 0.022599952 1.4410001 4290560722
-0.26712471 0.023593662 1.4260001 4291877352
-0.26532781 0.023544027 1.4230001 4290627285
-0.26353607 0.023494391 1.4200001 4290364113
-0.26138011 0.023411665 1.4150001 4290627285
-0.2597844 0.023378573 1.4130001 4290758871
-0.25800917 0.023328938 1.4100001 4290890458
-0.25678551 0.023328938 1.4100001 4289640392
-0.2553806 0.023312392 1.409 4287008159
-0.25361666 0.023262756 1.406 4285691786
-0.25239646 0.023262756 1.406 4285823372
-0.25117627 0.023262756 1.406 4286349716
-0.24977827 0.02324621 1.4050001 4286414994
-0.24855894 0.02324621 1.4050001 4286217614
-0.24733962 0.02324621 1.4050001 4285954186
-0.24594511 0.023229664 1.404 4285888136
-0.24472666 0.023229664 1.404 4285822598
-0.2435082 0.023229664 1.404 4285756804
-0.24228974 0.023229664 1.404 4285756804
-0.24107128 0.023229664 1.404 4286875285
-0.24002364 0.02324621 1.4050001 4289046454
-0.2389743 0.023262756 1.406 4290428107
-0.2379232 0.023279302 1.4070001 4290954451
-0.23720683 0.023328938 1.4100001 4291020501
-0.2363179 0.023362029 1.4120001 4290888658
-0.23542549 0.023395117 1.414 4290691279
-0.23395976 0.023494391 1.4200001 4290494157
-0.2330552 0.023527481 1.4220001 4290559952
-0.23214719 0.023560572 1.424 4290625745
-0.23253292 0.023726026 1.434 4290692308
-0.23161101 0.023759115 1.4360001 4290823894
-0.23084603 0.023808751 1.439 4290823894
-0.26712471 0.024822626 1.4260001 4292074731
-0.26551425 0.024787812 1.424 4290956250
-0.26372164 0.02473559 1.4210001 4290429906
-0.26119539 0.02461374 1.414 4290561492
-0.2597844 0.024596332 1.4130001 4290758871
-0.25800917 0.024544111 1.4100001 4290956251
-0.25678551 0.024544111 1.4100001 4290166736
-0.25519934 0.024509296 1.4080001 4287468710
-0.25361666 0.024474481 1.406 4285889165
-0.25239646 0.024474481 1.406 4285823115
-0.2509976 0.024457075 1.4050001 4286020237
-0.2496005 0.024439666 1.404 4286085773
-0.24838203 0.024439666 1.404 4286151310
-0.24716358 0.024439666 1.404 4286019466
-0.24594511 0.024439666 1.404 4285888136
-0.24472666 0.024439666 1.404 4286151050
-0.2435082 0.024439666 1.404 4286348171
-0.24228974 0.024439666 1.404 4286875028
-0.24107128 0.024439666 1.404 4288059559
-0.24002364 0.024457075 1.4050001 4289704384
-0.2389743 0.024474481 1.406 4290362314
-0.23775411 0.024474481 1.406 4290691536
-0.23720683 0.024544111 1.4100001 4290954708
-0.23615055 0.024561517 1.411 4290954708
-0.235259 0.024596332 1.4130001 4290954451
-0.23395976 0.024718184 1.4200001 4290757329
-0.2330552 0.024752997 1.4220001 4290888917
-0.23214719 0.024787812 1.424 4291020503
-0.23237076 0.024944477 1.4330001 4290889687
-0.23161101 0.024996698 1.4360001 4290758101
-0.23084603 0.025048919 1.439 4290429136
-0.26749936 0.026088126 1.4280001 4292403696
-0.2657007 0.02603332 1.4250001 4291351008
-0.26390722 0.025978511 1.4220001 4290561492
-0.26119539 0.025832361 1.414 4290561493
-0.2597844 0.025814092 1.4130001 4290693080
-0.25782618 0.025741015 1.409 4290956252
-0.25642127 0.025722746 1.4080001 4290627287
-0.25519934 0.025722746 1.4080001 4288850363
-0.25361666 0.025686208 1.406 4286941853
-0.25221694 0.025667939 1.4050001 4286678424
-0.2509976 0.025667939 1.4050001 4287204511
-0.2496005 0.025649671 1.404 4287664806
