# .PCD v0.7 - Point Cloud Data file format
VERSION 0.7
FIELDS x y z rgba
SIZE 4 4 4 4
TYPE F F F U
COUNT 1 1 1 1
WIDTH 1092
HEIGHT 1
VIEWPOINT 0 0 0 1 0 0 0
POINTS 1092
DATA ascii
-0.18605056 -0.001002181 1.45 4291611587
-0.18340723 -0.0010014897 1.4490001 4291743173
-0.1808922 -0.0010014897 1.4490001 4291677382
-0.17837718 -0.0010014897 1.4490001 4291677638
-0.17598352 -0.001002181 1.45 4291480260
-0.17358638 -0.001002872 1.4510001 4291546055
-0.17130367 -0.0010042543 1.4530001 4291612105
-0.16924636 -0.0010070191 1.457 4292006865
-0.14301507 -0.00095034391 1.3750001 4292138449
-0.14042394 -0.00094896165 1.373 4291414211
-0.13743758 -0.00094481464 1.3670001 4291479745
-0.13476847 -0.00094274117 1.3640001 4291347900
-0.13230392 -0.00094205001 1.363 4291150519
-0.1297475 -0.00094066776 1.3610001 4291084469
-0.12710442 -0.00093859417 1.358 4291150261
-0.12474734 -0.00093859417 1.358 4291150516
-0.12221 -0.00093721191 1.3560001 4291018930
-0.11985639 -0.00093721191 1.3560001 4291018929
-0.11750279 -0.00093721191 1.3560001 4291150001
-0.11506427 -0.00093652075 1.355 4291281331
-0.1127124 -0.00093652075 1.355 4291347122
-0.11036053 -0.00093652075 1.355 4291216049
-0.10800865 -0.00093652075 1.355 4291018929
-0.10565679 -0.00093652075 1.355 4291084724
-0.10330492 -0.00093652075 1.355 4291150516
-0.10095304 -0.00093652075 1.355 4291084467
-0.09860117 -0.00093652075 1.355 4290689967
-0.096249297 -0.00093652075 1.355 4290426797
-0.093897432 -0.00093652075 1.355 4290689971
-0.091545559 -0.00093652075 1.355 4290953145
-0.089391164 -0.00093859417 1.358 4291479747
-0.087162264 -0.00093997654 1.36 4291348675
-0.084988773 -0.00094205001 1.363 4286085495
-0.083107971 -0.00094757928 1.3710001 4285691510
-0.22488244 0.0015043397 1.457 4293521138
-0.22235352 0.0015043397 1.457 4293455344
-0.21937199 0.0015012424 1.4540001 4292929000
-0.21610259 0.0014960798 1.4490001 4292205017
-0.21344015 0.0014950474 1.4480001 4292007635
-0.21063553 0.0014929824 1.4460001 4292072913
-0.2081257 0.0014929824 1.4460001 4292006863
-0.20547369 0.0014919499 1.4450001 4291875275
-0.20310606 0.0014929824 1.4460001 4291875274
-0.20073496 0.0014940149 1.447 4291940811
-0.19808643 0.0014929824 1.4460001 4291940554
-0.19544135 0.0014919499 1.4450001 4292006089
-0.19293328 0.0014919499 1.4450001 4292005832
-0.19042519 0.0014919499 1.4450001 4291808452
-0.1879171 0.0014919499 1.4450001 4291742658
-0.18553732 0.0014929824 1.4460001 4291742657
-0.18290094 0.0014919499 1.4450001 4291808451
-0.180268 0.0014909174 1.4440001 4291676867
-0.17776166 0.0014909174 1.4440001 4291742660
-0.1752553 0.0014909174 1.4440001 4291677124
-0.17286859 0.0014919499 1.4450001 4291874247
-0.17036052 0.0014919499 1.4450001 4291874761
-0.16785243 0.0014919499 1.4450001 4292072140
-0.14811069 0.0014227729 1.378 4292927965
-0.14540166 0.0014196755 1.3750001 4291940812
-0.14259902 0.0014155456 1.3710001 4291217086
-0.14011711 0.001414513 1.3700001 4291282364
-0.13743758 0.0014114155 1.3670001 4291281849
-0.13476847 0.0014083181 1.3640001 4291084468
-0.13220684 0.0014062531 1.3620001 4290953137
-0.12955682 0.0014031556 1.3590001 4290953137
-0.12710442 0.0014021231 1.358 4290755757
-0.12474734 0.0014021231 1.358 4290755757
-0.12221 0.0014000582 1.3560001 4290821550
-0.11985639 0.0014000582 1.3560001 4290887343
-0.11750279 0.0014000582 1.3560001 4291018929
-0.11506427 0.0013990257 1.355 4291084467
-0.1127124 0.0013990257 1.355 4291150516
-0.11027908 0.0013979931 1.3540001 4291084721
-0.10792895 0.0013979931 1.3540001 4290952881
-0.10557881 0.0013979931 1.3540001 4291084468
-0.10322867 0.0013979931 1.3540001 4291084467
-0.10080403 0.0013969607 1.353 4290755504
-0.09845563 0.0013969607 1.353 4290689713
-0.096036203 0.0013959282 1.3520001 4290624437
-0.093689539 0.0013959282 1.3520001 4291413955
-0.091342874 0.0013959282 1.3520001 4291809228
-0.089062028 0.0013969607 1.353 4290691005
-0.086969994 0.0014010906 1.3570001 4285625460
-0.084739357 0.0014031556 1.3590001 4281020209
-0.082683638 0.0014083181 1.3640001 4281283383
-0.22426504 0.004004674 1.4530001 4293192172
-0.22174306 0.004004674 1.4530001 4292468448
-0.2186176 0.0039936495 1.4490001 4292073431
-0.21550603 0.003982625 1.4450001 4291809485
-0.21285053 0.0039798687 1.4440001 4292006862
-0.21005286 0.0039743562 1.442 4291875274
-0.20754997 0.0039743562 1.442 4291809481
-0.2050471 0.0039743562 1.442 4291940554
-0.20268469 0.0039771125 1.4430001 4291940810
-0.20031878 0.0039798687 1.4440001 4292137674
-0.19781244 0.0039798687 1.4440001 4291940038
-0.19503559 0.0039743562 1.442 4291940037
-0.19266623 0.0039771125 1.4430001 4291940037
-0.19016162 0.0039771125 1.4430001 4291939780
-0.187657 0.0039771125 1.4430001 4291939780
-0.1851524 0.0039771125 1.4430001 4292005571
-0.18264778 0.0039771125 1.4430001 4291874242
-0.17989348 0.0039716004 1.4410001 4291677120
-0.17739235 0.0039716004 1.4410001 4291808450
-0.1748912 0.0039716004 1.4410001 4292006086
-0.17227043 0.0039688442 1.4400001 4292203209
-0.16988891 0.0039716004 1.4410001 4292334796
-0.16715546 0.0039660879 1.439 4292400590
-0.14778824 0.0037896947 1.3750001 4291743174
-0.14519016 0.0037841825 1.373 4291282620
-0.14249502 0.0037759144 1.3700001 4291216569
-0.14001484 0.003773158 1.3690001 4291019188
-0.13723651 0.0037621337 1.365 4290953393
-0.13457087 0.0037538649 1.3620001 4290887599
-0.13210978 0.0037511091 1.3610001 4290887085
-0.12955682 0.0037455964 1.3590001 4290952366
-0.12701081 0.0037400841 1.3570001 4290820780
-0.12465547 0.0037400841 1.3570001 4290755244
-0.12221 0.0037373283 1.3560001 4290821293
-0.11976802 0.0037345721 1.355 4290887343
-0.11741614 0.0037345721 1.355 4291018416
-0.11506427 0.0037345721 1.355 4291018418
-0.11262921 0.0037318161 1.3540001 4290952880
-0.11027908 0.0037318161 1.3540001 4291018929
-0.10784923 0.0037290598 1.353 4291084468
-0.10550083 0.0037290598 1.353 4290953139
-0.1030762 0.0037263033 1.3520001 4290624431
-0.10058052 0.0037207911 1.35 4290427311
-0.098237328 0.0037207911 1.35 4291019965
-0.095752068 0.003715279 1.348 4291611847
-0.093412347 0.003715279 1.348 4290033332
-0.09120775 0.0037207911 1.35 4283914329
-0.088996209 0.0037263033 1.3520001 4281217332
-0.086841814 0.0037345721 1.355 4281217846
-0.084677003 0.0037428406 1.358 4281546812
-0.082562394 0.0037538649 1.3620001 4281612606
-0.22694311 0.0065136179 1.4540001 4293060585
-0.22349332 0.006486739 1.4480001 4291810516
-0.2206748 0.0064777792 1.4460001 4291678414
-0.21756148 0.0064598601 1.442 4291678155
-0.21461119 0.0064464207 1.439 4291611847
-0.21196611 0.0064419415 1.4380001 4291874762
-0.20932451 0.0064374614 1.437 4291940553
-0.20697424 0.0064419415 1.4380001 4292137931
-0.20462051 0.0064464207 1.439 4292203725
-0.2022633 0.0064509008 1.4400001 4292137931
-0.19990261 0.0064553809 1.4410001 4292203210
-0.19726449 0.0064509008 1.4400001 4292071623
-0.19462983 0.0064464207 1.439 4292005573
-0.19213216 0.0064464207 1.439 4291808450
-0.18976627 0.0064509008 1.4400001 4291742400
-0.18726687 0.0064509008 1.4400001 4291873986
-0.18476745 0.0064509008 1.4400001 4292005571
-0.18214148 0.0064464207 1.439 4292005828
-0.17951897 0.0064419415 1.4380001 4292005828
-0.17677684 0.0064329817 1.4360001 4292071621
-0.174163 0.0064285016 1.4350001 4292269000
-0.17155264 0.0064240224 1.434 4292400587
-0.16894576 0.0064195422 1.4330001 4292532174
-0.16622618 0.0064105829 1.4310001 4292532175
-0.15039326 0.0061686742 1.3770001 4291743171
-0.14735831 0.0061417948 1.3710001 4291282107
-0.14476718 0.0061328355 1.3690001 4291084470
-0.14228699 0.0061283559 1.368 4291018931
-0.13970801 0.0061193961 1.3660001 4290887344
-0.13723651 0.0061149164 1.365 4290953135
-0.13457087 0.006101477 1.3620001 4291018671
-0.13210978 0.0060969973 1.3610001 4290886571
-0.12955682 0.0060880375 1.3590001 4290952364
-0.12710442 0.0060835578 1.358 4291018158
-0.12465547 0.0060790777 1.3570001 4290886573
-0.12221 0.0060745985 1.3560001 4290886830
-0.11985639 0.0060745985 1.3560001 4290953136
-0.11750279 0.0060745985 1.3560001 4291018672
-0.11514919 0.0060745985 1.3560001 4290755503
-0.1127124 0.0060701184 1.355 4290689710
-0.11027908 0.0060656387 1.3540001 4290887602
-0.10776953 0.0060566789 1.3520001 4290822067
-0.10534488 0.0060521993 1.3510001 4290493360
-0.10292371 0.0060477192 1.35 4290362033
-0.100357 0.0060342802 1.3470001 4290559671
-0.098019019 0.0060342802 1.3470001 4287928467
-0.09561 0.0060298005 1.3460001 4285099628
-0.093343049 0.0060342802 1.3470001 4280823341
-0.091072626 0.0060387598 1.348 4281020467
-0.088930383 0.0060521993 1.3510001 4281217849
-0.086777724 0.0060656387 1.3540001 4281809986
-0.084552296 0.0060745985 1.3560001 4281678914
-0.08231993 0.0060835578 1.358 4281613377
-0.07996285 0.0060835578 1.358 4282797653
-0.077720061 0.0060925176 1.36 4283126618
-0.075525746 0.0061059571 1.363 4282995032
-0.073106311 0.006101477 1.3620001 4283982184
-0.22647485 0.0090011954 1.4510001 4291679184
-0.22318462 0.0089701787 1.4460001 4291612363
-0.22006436 0.0089453645 1.442 4291678153
-0.21725973 0.0089329574 1.4400001 4291743432
-0.21431291 0.0089143477 1.437 4291743175
-0.21152391 0.0089019407 1.4350001 4291874759
-0.20903318 0.0089019407 1.4350001 4292137418
-0.20654245 0.0089019407 1.4350001 4292334796
-0.20419392 0.0089081442 1.4360001 4292400588
-0.20184192 0.0089143477 1.437 4292400588
-0.19948643 0.0089205503 1.4380001 4292334795
-0.19685352 0.0089143477 1.437 4292203209
-0.19422407 0.0089081442 1.4360001 4291939780
-0.19173162 0.0089081442 1.4360001 4291676607
-0.18923914 0.0089081442 1.4360001 4291676606
-0.18687673 0.0089143477 1.437 4291873985
-0.18425423 0.0089081442 1.4360001 4292005571
-0.1815086 0.0088957362 1.434 4292137157
-0.17889477 0.0088895336 1.4330001 4292071364
-0.17628442 0.00888333 1.432 4292137157
-0.17343479 0.0088647194 1.429 4292334536
-0.16192822 0.0086475993 1.3940001 4292334795
-0.15927981 0.0086351931 1.3920001 4292203210
-0.15630028 0.0086041754 1.3870001 4292005832
-0.15289427 0.0085483445 1.378 4291742658
-0.14962873 0.0084987162 1.3700001 4291150519
-0.14714335 0.0084925136 1.3690001 4290953139
-0.14455569 0.0084801065 1.3670001 4290821552
-0.14207898 0.0084739029 1.3660001 4290689451
-0.13970801 0.0084739029 1.3660001 4290689450
-0.13723651 0.0084676994 1.365 4290689449
-0.13466968 0.0084552923 1.363 4290886571
-0.13220684 0.0084490888 1.3620001 4290754985
-0.12965216 0.0084366817 1.36 4290952364
-0.12719801 0.0084304791 1.3590001 4291083950
-0.12474734 0.0084242756 1.358 4290886571
-0.12230013 0.008418072 1.3570001 4290755500
-0.11994478 0.008418072 1.3570001 4290953136
-0.11758944 0.008418072 1.3570001 4291018929
-0.1152341 0.008418072 1.3570001 4290755503
-0.1127124 0.0084056649 1.355 4290624174
-0.11019763 0.0083932579 1.353 4290295981
-0.1076101 0.0083746482 1.35 4290230445
-0.10511096 0.0083622411 1.348 4289309345
-0.10261875 0.008349834 1.3460001 4287664523
-0.1002825 0.008349834 1.3460001 4283059787
-0.097946249 0.008349834 1.3460001 4280691755
-0.09561 0.008349834 1.3460001 4281481017
-0.093412347 0.0083622411 1.348 4281415225
-0.091140181 0.0083684446 1.3490001 4281283639
-0.088864557 0.0083746482 1.35 4281349434
-0.086649545 0.0083870543 1.3520001 4281744450
-0.08430288 0.0083870543 1.3520001 4282402637
-0.082016833 0.0083932579 1.353 4282139980
-0.079609551 0.0083870543 1.3520001 4283390047
-0.077320032 0.0083932579 1.353 4283982184
-0.075137869 0.0084118675 1.3560001 4284311149
-0.072891615 0.0084242756 1.358 4283784805
-0.070638411 0.0084366817 1.36 4285034361
-0.22538227 0.011446723 1.4440001 4291678925
-0.22225854 0.011415014 1.4400001 4291678154
-0.21960653 0.011407087 1.439 4291940555
-0.21680711 0.011391234 1.437 4291940554
-0.21416378 0.011383306 1.4360001 4292137418
-0.2113765 0.011367451 1.434 4292071624
-0.20874184 0.011359525 1.4330001 4292071623
-0.20625459 0.011359525 1.4330001 4292269002
-0.20390953 0.011367451 1.434 4292400588
-0.20142053 0.011367451 1.434 4292400588
-0.19907026 0.011375379 1.4350001 4292269002
-0.19657955 0.011375379 1.4350001 4291874244
-0.19395356 0.011367451 1.434 4291742399
-0.19133106 0.011359525 1.4330001 4291676606
-0.1888438 0.011359525 1.4330001 4291610813
-0.18622649 0.011351597 1.432 4291808192
-0.18374097 0.011351597 1.432 4291939778
-0.18112887 0.01134367 1.4310001 4292005571
-0.17839542 0.011327816 1.429 4292005571
-0.17579201 0.01131989 1.4280001 4292137413
-0.17282796 0.01128818 1.424 4292203208
-0.16157974 0.011026587 1.391 4291940037
-0.15893653 0.011010733 1.3890001 4291742659
-0.1559622 0.010971096 1.3840001 4291742914
-0.15267237 0.01090768 1.376 4291282362
-0.14941029 0.010844263 1.368 4290887090
-0.14703587 0.010844263 1.368 4290755503
-0.14455569 0.010836337 1.3670001 4290689708
-0.14207898 0.010828409 1.3660001 4290755243
-0.13970801 0.010828409 1.3660001 4290689192
-0.13713597 0.010812555 1.3640001 4290557606
-0.13457087 0.010796701 1.3620001 4290426020
-0.13220684 0.010796701 1.3620001 4290162848
-0.12965216 0.010780847 1.36 4290623399
-0.12719801 0.01077292 1.3590001 4290754985
-0.12474734 0.010764993 1.358 4290689192
-0.12230013 0.010757065 1.3570001 4290755498
-0.11985639 0.010749138 1.3560001 4290821550
-0.11750279 0.010749138 1.3560001 4290821550
-0.11514919 0.010749138 1.3560001 4290689966
-0.1127124 0.010741211 1.355 4290427310
-0.11003474 0.010709503 1.3510001 4290230190
-0.10737097 0.010677794 1.3470001 4289638568
-0.104955 0.010669868 1.3460001 4285954675
-0.10246627 0.010654014 1.3440001 4281743927
-0.10013349 0.010654014 1.3440001 4281020465
-0.097800717 0.010654014 1.3440001 4281020981
-0.09561 0.010669868 1.3460001 4281481019
-0.093412347 0.010685721 1.348 4281678911
-0.091140181 0.010693649 1.3490001 4281152569
-0.088864557 0.010701576 1.35 4281810500
-0.086457267 0.010693649 1.3490001 4283126360
-0.084115811 0.010693649 1.3490001 4283784803
-0.081774354 0.010693649 1.3490001 4283390047
-0.079374023 0.010685721 1.348 4283719012
-0.077148594 0.010701576 1.35 4283982186
-0.074971631 0.010725357 1.353 4282929498
-0.072676912 0.010733284 1.3540001 4281679431
-0.070586473 0.01077292 1.3590001 4281349953
-0.22507012 0.013916372 1.442 4291810253
-0.22194985 0.013877769 1.4380001 4291941069
-0.21930131 0.013868119 1.437 4291940554
-0.21665624 0.013858468 1.4360001 4292203467
-0.21401463 0.013848817 1.4350001 4292334797
-0.2110817 0.013819865 1.432 4292334795
-0.20830485 0.013800563 1.4300001 4292137159
-0.20596673 0.013810215 1.4310001 4292005573
-0.20334075 0.013800563 1.4300001 4292268745
-0.2008587 0.013800563 1.4300001 4292202951
-0.19851537 0.013810215 1.4310001 4291873985
-0.1958946 0.013800563 1.4300001 4291676606
-0.19327728 0.013790912 1.429 4291742399
-0.19066347 0.013781263 1.4280001 4291808192
-0.18805312 0.013771611 1.427 4291742399
-0.18557627 0.013771611 1.427 4291939778
-0.18309943 0.013771611 1.427 4292137157
-0.18049601 0.013761961 1.4260001 4292071364
-0.17764638 0.013733009 1.4230001 4292005572
-0.17493027 0.013713706 1.4210001 4292005573
-0.1707647 0.013578597 1.4070001 4291874244
-0.16784404 0.013539993 1.4030001 4291940037
-0.16434778 0.013453136 1.3940001 4291676865
-0.1611151 0.013385582 1.3870001 4291676865
-0.15836442 0.013356629 1.3840001 4291479486
-0.15528607 0.013298725 1.378 4291413691
-0.15222855 0.013240821 1.3720001 4291084725
-0.14930108 0.013192567 1.3670001 4290821553
-0.14692838 0.013192567 1.3670001 4290492586
-0.14444993 0.013182916 1.3660001 4290295206
-0.14207898 0.013182916 1.3660001 4290360741
-0.13970801 0.013182916 1.3660001 4290228898
-0.13713597 0.013163615 1.3640001 4289768090
-0.13466968 0.013153964 1.363 4289570711
-0.13220684 0.013144312 1.3620001 4289504918
-0.12965216 0.013125011 1.36 4289965469
-0.12710442 0.01310571 1.358 4290163361
-0.12474734 0.01310571 1.358 4290426790
-0.12230013 0.013096059 1.3570001 4290689964
-0.11994478 0.013096059 1.3570001 4290821295
-0.11758944 0.013096059 1.3570001 4290558380
-0.11514919 0.013086408 1.3560001 4290230187
-0.11246285 0.013047805 1.3520001 4290033068
-0.10987184 0.013018853 1.3490001 4289836204
-0.10729125 0.012989901 1.3460001 4285494381
-0.10487703 0.012980251 1.345 4280757546
-0.10239003 0.012960949 1.3430001 4281086513
-0.10013349 0.012970599 1.3440001 4281020979
-0.097873487 0.012980251 1.345 4281152824
-0.09561 0.012989901 1.3460001 4281087287
-0.093343049 0.012999551 1.3470001 4281087290
-0.091005065 0.012999551 1.3470001 4281613634
-0.088601254 0.012989901 1.3460001 4282205771
-0.086136825 0.012970599 1.3440001 4283323995
-0.083804041 0.012970599 1.3440001 4283916389
-0.081471264 0.012970599 1.3440001 4284376942
-0.07919737 0.012980251 1.345 4283192670
-0.076862857 0.012980251 1.345 4282074189
-0.074749984 0.013018853 1.3490001 4280955708
-0.072462209 0.013028504 1.35 4281087294
-0.070430651 0.013086408 1.3560001 4281547332
-0.22210421 0.016367752 1.439 4291940811
-0.21945392 0.016356379 1.4380001 4292138188
-0.21680711 0.016345004 1.437 4292138188
-0.21416378 0.01633363 1.4360001 4292400588
-0.2112291 0.016299507 1.4330001 4292203209
-0.20845051 0.016276758 1.4310001 4292071366
-0.2058228 0.016265385 1.4300001 4291873987
-0.20334075 0.016265385 1.4300001 4291873988
-0.20071822 0.01625401 1.429 4291808194
-0.1980992 0.016242635 1.4280001 4291808192
-0.19534664 0.016219886 1.4260001 4291742399
-0.19273628 0.016208513 1.4250001 4291808192
-0.19026291 0.016208513 1.4250001 4291873985
-0.18765776 0.016197138 1.424 4292137157
-0.18505608 0.016185762 1.4230001 4292334536
-0.18258618 0.016185762 1.4230001 4292531916
-0.17986313 0.016163014 1.4210001 4292466124
-0.17689735 0.016117517 1.4170001 4292071366
-0.1723451 0.015924152 1.4000001 4291808193
-0.16955101 0.015890028 1.3970001 4291676864
-0.16664772 0.015844531 1.393 4291742658
-0.16328672 0.015753536 1.3850001 4291611072
-0.16041814 0.015708037 1.381 4291347899
-0.15767786 0.015673915 1.378 4291150776
-0.1548353 0.015628418 1.3740001 4290887346
-0.15200664 0.01558292 1.3700001 4290623917
-0.14930108 0.015548796 1.3670001 4290492330
-0.1468209 0.015537423 1.3660001 4290295206
-0.14444993 0.015537423 1.3660001 4290097826
-0.14207898 0.015537423 1.3660001 4289900189
-0.13970801 0.015537423 1.3660001 4290097312
-0.13723651 0.015526048 1.365 4289833883
-0.13466968 0.015503298 1.363 4289768090
-0.13220684 0.015491925 1.3620001 4289768605
-0.12955682 0.015457802 1.3590001 4290229155
-0.12701081 0.015435053 1.3570001 4289966239
-0.12465547 0.015435053 1.3570001 4289966241
-0.12230013 0.015435053 1.3570001 4290163878
-0.11994478 0.015435053 1.3570001 4290164137
-0.11750279 0.015423679 1.3560001 4289375135
-0.11480951 0.015378181 1.3520001 4288849049
-0.11229648 0.015355431 1.35 4288323222
-0.1097904 0.015332684 1.348 4285099880
-0.10729125 0.015309935 1.3460001 4280823339
-0.10487703 0.015298559 1.345 4280955440
-0.10246627 0.015287186 1.3440001 4281679166
-0.100208 0.015298559 1.345 4281219130
-0.097946249 0.015309935 1.3460001 4280824372
-0.095538974 0.015298559 1.345 4281614147
-0.093135156 0.015287186 1.3440001 4282600785
-0.090734817 0.015275812 1.3430001 4283324252
-0.088272125 0.015253063 1.3410001 4282468943
-0.085816376 0.015230314 1.3390001 4282797910
-0.083554626 0.015241687 1.34 4282929496
-0.081289411 0.015253063 1.3410001 4281416257
-0.079079606 0.015275812 1.3430001 4281153085
-0.076748557 0.015275812 1.3430001 4281547845
-0.074639164 0.015321309 1.3470001 4281087294
-0.072408527 0.015344058 1.3490001 4281152574
-0.07027483 0.015389556 1.353 4281152831
-0.068026848 0.015412304 1.355 4281613123
-0.065674976 0.015412304 1.355 4281086780
-0.21665624 0.018808791 1.4360001 4292269261
-0.21386549 0.018782595 1.434 4292203210
-0.2109343 0.018743303 1.4310001 4291874244
-0.20815916 0.018717105 1.429 4291808451
-0.20567885 0.018717105 1.429 4291873987
-0.20291416 0.018690908 1.427 4291873987
-0.20029685 0.018677812 1.4260001 4291873986
-0.19782174 0.018677812 1.4260001 4291873986
-0.19520965 0.018664714 1.4250001 4291873985
-0.19260104 0.018651616 1.424 4292005571
-0.18999587 0.018638518 1.4230001 4292071364
-0.1873942 0.01862542 1.4220001 4292334536
-0.18466593 0.018599223 1.4200001 4292400330
-0.18220125 0.018599223 1.4200001 4292597710
-0.1794834 0.018573027 1.4180001 4292466124
-0.17589863 0.018455144 1.409 4292137416
-0.17197579 0.018297968 1.3970001 4291939779
-0.16894417 0.018232478 1.3920001 4291742656
-0.16616918 0.018193185 1.3890001 4291545278
-0.16305092 0.018114595 1.383 4291216314
-0.15995349 0.018036008 1.3770001 4290953397
-0.15744901 0.01802291 1.376 4290690224
-0.15472262 0.017983615 1.373 4290623918
-0.15200664 0.017944321 1.3700001 4290360745
-0.14930108 0.017905027 1.3670001 4290426537
-0.1468209 0.01789193 1.3660001 4290492585
-0.14444993 0.01789193 1.3660001 4290360999
-0.14207898 0.01789193 1.3660001 4289900447
-0.13970801 0.01789193 1.3660001 4290097568
-0.13723651 0.01787883 1.365 4290492070
-0.13457087 0.017839536 1.3620001 4290755500
-0.13210978 0.01782644 1.3610001 4290426792
-0.1294615 0.017787144 1.358 4290360997
-0.12691721 0.017760949 1.3560001 4290295205
-0.12456361 0.017760949 1.3560001 4290163620
-0.12211988 0.017747849 1.355 4289966758
-0.11976802 0.017747849 1.355 4289835687
-0.11741614 0.017747849 1.355 4288980380
-0.11463968 0.01768236 1.35 4287467657
-0.1122133 0.017669262 1.3490001 4283586386
-0.10970895 0.017643066 1.3470001 4281218097
-0.10721155 0.01761687 1.345 4280889648
-0.10487703 0.01761687 1.345 4280955443
-0.10246627 0.017603772 1.3440001 4281153336
-0.100208 0.01761687 1.345 4281350716
-0.097873487 0.01761687 1.345 4281219130
-0.09546794 0.017603772 1.3440001 4283061592
-0.09292727 0.017564477 1.3410001 4283390558
-0.090532131 0.017551379 1.34 4283587937
-0.088074647 0.017525185 1.3380001 4283456353
-0.085688196 0.017512085 1.337 4281614149
-0.083429918 0.017525185 1.3380001 4281284671
-0.081168175 0.017538281 1.3390001 4280955708
-0.078961842 0.017564477 1.3410001 4280955708
-0.076748557 0.017590676 1.3430001 4280889915
-0.074639164 0.017643066 1.3470001 4281284673
-0.072408527 0.017669262 1.3490001 4280758329
-0.070222899 0.017708557 1.3520001 4281876809
-0.067976639 0.017734753 1.3540001 4283389534
-0.065626502 0.017734753 1.3540001 4283586913
-0.21356721 0.021224666 1.432 4292137674
-0.21078689 0.021195024 1.4300001 4291874246
-0.20815916 0.021180201 1.429 4291676609
-0.205391 0.021150557 1.427 4291742401
-0.20277196 0.021135738 1.4260001 4292071366
-0.20001593 0.021106094 1.424 4292071365
-0.19754431 0.021106094 1.424 4292005571
-0.19493566 0.021091273 1.4230001 4292071364
-0.19219527 0.021061629 1.4210001 4292137157
-0.18972883 0.021061629 1.4210001 4292005571
-0.18699884 0.021031985 1.419 4292400329
-0.18414575 0.02098752 1.416 4292466122
-0.18155968 0.020972699 1.4150001 4292334536
-0.17758478 0.020794839 1.4030001 4292005829
-0.17477508 0.020750374 1.4000001 4292005830
-0.17136027 0.020631799 1.3920001 4291874243
-0.16809461 0.020528048 1.3850001 4291611326
-0.16533177 0.020483583 1.3820001 4291216568
-0.16246144 0.020424295 1.378 4290953396
-0.15972117 0.02037983 1.3750001 4290887347
-0.15722016 0.020365009 1.3740001 4290689710
-0.15460993 0.020335365 1.3720001 4290558124
-0.15200664 0.020305723 1.3700001 4290360744
-0.14930108 0.020261258 1.3670001 4290360743
-0.14692838 0.020261258 1.3670001 4290360999
-0.14444993 0.020246437 1.3660001 4290360999
-0.14207898 0.020246437 1.3660001 4290360999
-0.13970801 0.020246437 1.3660001 4290492585
-0.13713597 0.020216793 1.3640001 4290558378
-0.13457087 0.020187149 1.3620001 4290821550
-0.13210978 0.020172328 1.3610001 4290755757
-0.1294615 0.020127861 1.358 4290492585
-0.12682362 0.020083396 1.355 4290426794
-0.12447175 0.020083396 1.355 4289769378
-0.12211988 0.020083396 1.355 4289177757
-0.11967961 0.020068575 1.3540001 4289046429
-0.11724283 0.020053754 1.353 4286283382
-0.11446983 0.019979646 1.348 4282204733
-0.11204693 0.019964823 1.3470001 4280954671
-0.10970895 0.019964823 1.3470001 4280955187
-0.10729125 0.019950002 1.3460001 4280955444
-0.104955 0.019950002 1.3460001 4280824372
-0.10246627 0.019920358 1.3440001 4280955958
-0.10005899 0.019905537 1.3430001 4282140489
-0.097727947 0.019905537 1.3430001 4281811524
-0.095183805 0.01986107 1.34 4282403661
-0.092719376 0.019831428 1.3380001 4283587935
-0.090329453 0.019816605 1.337 4283127899
-0.087942995 0.019801784 1.3360001 4281285697
-0.085560016 0.019786961 1.335 4281219391
-0.083367564 0.019816605 1.337 4281482563
-0.081228793 0.01986107 1.34 4280824379
-0.079020724 0.019890714 1.342 4280692793
-0.076748557 0.019905537 1.3430001 4281021501
-0.074528344 0.01993518 1.345 4282205773
-0.072301179 0.019964823 1.3470001 4282863703
-0.070015132 0.019979646 1.348 4282732117
-0.067775823 0.020009289 1.35 4283916391
-0.063323103 0.020083396 1.355 4284047977
-0.061151214 0.020142684 1.3590001 4283587685
-0.058835663 0.020157505 1.36 4282929498
-0.2080135 0.023626754 1.4280001 4291808452
-0.20553493 0.023626754 1.4280001 4291939780
-0.20277196 0.023593662 1.4260001 4292137159
-0.20001593 0.023560572 1.424 4292202951
-0.19754431 0.023560572 1.424 4292137157
-0.19479868 0.023527481 1.4220001 4292137157
-0.19219527 0.023510937 1.4210001 4292268743
-0.18972883 0.023510937 1.4210001 4292071364
-0.18686706 0.023461301 1.4180001 4292005571
-0.18401571 0.023411665 1.4150001 4292005571
-0.18143138 0.023395117 1.414 4292005571
-0.17669876 0.023097303 1.396 4291808193
-0.1739012 0.023047667 1.393 4291808451
-0.17062165 0.022931848 1.386 4291611326
-0.16748776 0.022832576 1.3800001 4291216568
-0.16497287 0.022816032 1.3790001 4290887603
-0.16222565 0.022766396 1.376 4290690224
-0.159605 0.022733305 1.3740001 4290624174
-0.15722016 0.022733305 1.3740001 4290624172
-0.15460993 0.022700215 1.3720001 4290558378
-0.15200664 0.022667123 1.3700001 4290360999
-0.14941029 0.022634031 1.368 4290492585
-0.1468209 0.022600943 1.3660001 4290558378
-0.14434418 0.022584397 1.365 4290624170
-0.14197496 0.022584397 1.365 4290689962
-0.13960573 0.022584397 1.365 4290426790
-0.13713597 0.022567851 1.3640001 4290426791
-0.13457087 0.022534762 1.3620001 4290624171
-0.13201271 0.02250167 1.36 4290689964
-0.1294615 0.022468578 1.358 4290229414
-0.12691721 0.02243549 1.3560001 4290032550
-0.12447175 0.022418942 1.355 4289375136
-0.12211988 0.022418942 1.355 4288520344
-0.11959123 0.022385854 1.353 4286612606
-0.11689622 0.022319671 1.3490001 4281876025
-0.11446983 0.022303127 1.348 4281218098
-0.11204693 0.022286581 1.3470001 4281152566
-0.10970895 0.022286581 1.3470001 4281481789
-0.10737097 0.022286581 1.3470001 4280955958
-0.104955 0.022270035 1.3460001 4281284923
-0.10239003 0.022220399 1.3430001 4282535247
-0.099909984 0.022187309 1.3410001 4283587935
-0.097582415 0.022187309 1.3410001 4283719521
-0.095112778 0.022154218 1.3390001 4282403661
-0.092650078 0.022121126 1.337 4281746501
-0.09019433 0.022088036 1.335 4280562229
-0.087877169 0.022088036 1.335 4280891194
-0.085624099 0.022104582 1.3360001 4280891194
-0.083429918 0.022137674 1.3380001 4281022010
-0.081289411 0.022187309 1.3410001 4281284926
-0.079138488 0.022236945 1.3440001 4281021497
-0.076748557 0.022220399 1.3430001 4282403151
-0.074417517 0.022220399 1.3430001 4283192666
-0.072086476 0.022220399 1.3430001 4284179561
-0.069859318 0.022253489 1.345 4282995287
-0.067575 0.022270035 1.3460001 4282797908
-0.065384157 0.022319671 1.3490001 4282601044
-0.063323103 0.022418942 1.355 4281942860
-0.061106224 0.022468578 1.358 4281548102
-0.058922186 0.022534762 1.3620001 4280890173
-0.19973502 0.025978511 1.4220001 4292071624
-0.19726685 0.025978511 1.4220001 4292202952
-0.19438772 0.025923705 1.419 4292202951
-0.19178949 0.025905436 1.4180001 4292268743
-0.18919477 0.025887169 1.4170001 4292202950
-0.18633993 0.025832361 1.414 4291939778
-0.18323542 0.025741015 1.409 4291939778
-0.17963503 0.025576595 1.4000001 4292071364
-0.17606588 0.025412172 1.391 4292005573
-0.17340183 0.025375636 1.3890001 4291677121
-0.17037544 0.02528429 1.3840001 4291282361
-0.1673664 0.025192946 1.3790001 4291084982
-0.16485325 0.025174676 1.378 4290887603
-0.16222565 0.02513814 1.376 4290690224
-0.159605 0.0251016 1.3740001 4290558125
-0.15710573 0.025083331 1.373 4290492331
-0.15460993 0.025065063 1.3720001 4290558123
-0.15189569 0.025010256 1.3690001 4290360999
-0.14930108 0.024973718 1.3670001 4290426792
-0.1468209 0.02495545 1.3660001 4290492585
-0.14434418 0.024937179 1.365 4290624170
-0.14187095 0.02491891 1.3640001 4290624171
-0.13950346 0.02491891 1.3640001 4290492584
-0.13713597 0.02491891 1.3640001 4290624170
-0.13447206 0.024864104 1.3610001 4290492330
-0.13201271 0.024845835 1.36 4290295208
-0.1294615 0.024809295 1.358 4290098344
-0.12691721 0.02477276 1.3560001 4289506723
-0.12447175 0.024754489 1.355 4288980895
-0.12202975 0.02473622 1.3540001 4283849556
-0.11941445 0.024681414 1.3510001 4281547062
-0.11680955 0.024626607 1.348 4281218099
-0.11438492 0.024608338 1.3470001 4281087029
-0.11204693 0.024608338 1.3470001 4280889652
-0.10970895 0.024608338 1.3470001 4280955445
-0.10729125 0.024590069 1.3460001 4281416252
-0.10479905 0.02455353 1.3440001 4281679424
-0.10223755 0.024498723 1.3410001 4283390044
-0.099835478 0.024480455 1.34 4283390557
-0.097509637 0.024480455 1.34 4283456350
-0.094970711 0.024425648 1.337 4281877317
-0.09258078 0.024407379 1.3360001 4281416766
-0.09019433 0.024389109 1.335 4280693813
-0.087877169 0.024389109 1.335 4280693813
-0.085624099 0.024407379 1.3360001 4280759606
-0.083429918 0.024443917 1.3380001 4280758836
-0.081228793 0.024480455 1.34 4282534992
-0.078961842 0.024498723 1.3410001 4281876806
-0.076634265 0.024498723 1.3410001 4282600529
-0.074306697 0.024498723 1.3410001 4283850083
-0.071979128 0.024498723 1.3410001 4283324252
-0.069755428 0.024535263 1.3430001 4282337872
-0.067474596 0.02455353 1.3440001 4282073674
-0.065335691 0.024626607 1.348 4281482052
-0.063229635 0.024717953 1.353 4281219138
-0.061016224 0.02477276 1.3560001 4281416004
-0.058922186 0.024882372 1.3620001 4281482052
-0.19698939 0.028389556 1.4200001 4292137159
-0.19411373 0.028329579 1.4170001 4292268745
-0.19124849 0.028269602 1.414 4292334537
-0.1886607 0.028249608 1.4130001 4292268744
-0.18581282 0.028189631 1.4100001 4292202950
-0.18219507 0.028009698 1.401 4291939779
-0.17873687 0.027849756 1.393 4292005573
-0.17555958 0.027729802 1.3870001 4291742658
-0.17290248 0.027689815 1.3850001 4291348413
-0.17012922 0.027629837 1.3820001 4291085240
-0.1673664 0.02756986 1.3790001 4290822067
-0.16485325 0.027549867 1.378 4290690481
-0.16222565 0.027509883 1.376 4290690224
-0.159605 0.027469898 1.3740001 4290689711
-0.15710573 0.027449904 1.373 4290492332
-0.15460993 0.02742991 1.3720001 4290558124
-0.15189569 0.027369933 1.3690001 4290426792
-0.14930108 0.027329948 1.3670001 4290492585
-0.1468209 0.027309956 1.3660001 4290558378
-0.14434418 0.027289962 1.365 4290558378
-0.14187095 0.027269971 1.3640001 4290558378
-0.13940118 0.027249977 1.363 4290426792
-0.13703543 0.027249977 1.363 4290492585
-0.13466968 0.027249977 1.363 4290229416
-0.13230392 0.027249977 1.363 4289966245
-0.1297475 0.027209993 1.3610001 4289440674
-0.12701081 0.027130021 1.3570001 4287928206
-0.12447175 0.027090035 1.355 4284112728
-0.12193963 0.027050052 1.353 4281481269
-0.11914928 0.026950089 1.348 4281547064
-0.1167229 0.026930094 1.3470001 4281283895
-0.11438492 0.026930094 1.3470001 4280889394
-0.11196375 0.026910102 1.3460001 4280955444
-0.10954606 0.026890108 1.345 4281284410
-0.10705212 0.026850125 1.3430001 4282797649
-0.10456513 0.026810139 1.3410001 4281744961
-0.10200883 0.026750162 1.3380001 4282468943
-0.099611968 0.026730169 1.337 4282995287
-0.097291335 0.026730169 1.337 4281153083
-0.095041744 0.026750162 1.3380001 4280692786
-0.092719376 0.026750162 1.3380001 4281021751
-0.090397015 0.026750162 1.3380001 4281417022
-0.088074647 0.026750162 1.3380001 4280824629
-0.085688196 0.026730169 1.337 4281153851
-0.083429918 0.026750162 1.3380001 4282535247
-0.081107557 0.026750162 1.3380001 4283061591
-0.078726307 0.026730169 1.337 4282863955
-0.076348528 0.026710177 1.3360001 4282139978
-0.074029639 0.026710177 1.3360001 4282534223
-0.071764417 0.026730169 1.337 4281745220
-0.069599614 0.026790146 1.34 4281350462
-0.067374192 0.026830131 1.342 4281284671
-0.065287225 0.026930094 1.3470001 4281547845
-0.063182905 0.027030058 1.3520001 4280890173
-0.060881231 0.027050052 1.353 4281087552
-0.058749143 0.027150013 1.358 4281284930
-0.056558166 0.027229985 1.3620001 4281613895
-0.054194145 0.027229985 1.3620001 4282140239
-0.19397675 0.030750278 1.416 4292005574
-0.19111325 0.030685127 1.4130001 4292268746
-0.18852717 0.030663412 1.4120001 4292334539
-0.18554924 0.030576546 1.4080001 4292465869
-0.18193497 0.0303811 1.399 4291939781
-0.17860854 0.030229086 1.3920001 4291611074
-0.17555958 0.030120503 1.3870001 4291348158
-0.17290248 0.030077072 1.3850001 4291085498
-0.17012922 0.030011922 1.3820001 4290953911
-0.16748776 0.029968491 1.3800001 4290756274
-0.16497287 0.029946774 1.3790001 4290624687
-0.16234355 0.029903339 1.3770001 4290690223
-0.159605 0.029838191 1.3740001 4290624174
-0.15722016 0.029838191 1.3740001 4290558125
-0.15460993 0.02979476 1.3720001 4290623917
-0.15200664 0.029751329 1.3700001 4290492585
-0.14941029 0.029707894 1.368 4290492585
-0.14671342 0.029642746 1.365 4290492585
-0.14423844 0.029621027 1.3640001 4290492585
-0.14176695 0.029599315 1.363 4290558123
-0.13940118 0.029599315 1.363 4290360744
-0.13713597 0.029621027 1.3640001 4290032037
-0.13496609 0.029664462 1.3660001 4289637537
-0.13259512 0.029664462 1.3660001 4289177502
-0.12993816 0.029599315 1.363 4287533193
-0.12710442 0.02949073 1.358 4284572767
-0.12447175 0.029425582 1.355 4281876026
-0.12175938 0.029338716 1.3510001 4281415478
-0.11906089 0.029251853 1.3470001 4281020722
-0.1167229 0.029251853 1.3470001 4281546811
-0.11430001 0.029230136 1.3460001 4281152823
-0.11188057 0.029208418 1.345 4281415996
-0.10938316 0.029164989 1.3430001 4283126614
-0.10681298 0.029099839 1.34 4283323993
-0.1043312 0.029056404 1.3380001 4283455325
-0.10185635 0.029012972 1.3360001 4282271308
-0.099537462 0.029012972 1.3360001 4280824118
-0.097291335 0.029034691 1.337 4280626739
-0.095112778 0.029078122 1.3390001 4280824118
-0.092857972 0.029099839 1.34 4280626993
-0.090532131 0.029099839 1.34 4281285180
-0.08814048 0.029078122 1.3390001 4281350973
-0.085752286 0.029056404 1.3380001 4282074696
-0.08330521 0.029012972 1.3360001 4282864212
-0.08080446 0.028947825 1.3330001 4282929748
-0.078490771 0.028947825 1.3330001 4283324506
-0.076119944 0.028926108 1.332 4282008646
-0.073863402 0.028947825 1.3330001 4281482048
-0.071657069 0.028991256 1.335 4280955704
-0.069547676 0.029078122 1.3390001 4280824118
-0.067323983 0.029121554 1.3410001 4281087292
-0.065141819 0.029186701 1.3440001 4281285184
-0.0630427 0.029295284 1.3490001 4281284930
-0.060746241 0.029317003 1.35 4281745482
-0.058489576 0.029360434 1.3520001 4283127134
-0.056267485 0.029425582 1.355 4283456099
-0.053995196 0.029469017 1.3570001 4283456099
-0.19070747 0.033050325 1.4100001 4292400591
-0.18799311 0.033003446 1.4080001 4292400334
-0.18409964 0.032745607 1.3970001 4292202954
-0.18141478 0.032698728 1.3950001 4291611074
-0.17835192 0.032581527 1.3900001 4291413695
-0.17543299 0.032487769 1.386 4291282108
-0.17290248 0.032464329 1.3850001 4291150521
-0.17012922 0.032394007 1.3820001 4291084983
-0.16748776 0.032347128 1.3800001 4291084981
-0.16497287 0.032323688 1.3790001 4290953138
-0.16222565 0.03225337 1.376 4290689710
-0.15948884 0.032183047 1.373 4290492331
-0.15710573 0.032183047 1.373 4290558124
-0.15438455 0.032112729 1.3700001 4290492331
-0.15189569 0.032089289 1.3690001 4290492331
-0.14919187 0.032018971 1.3660001 4290558124
-0.14660594 0.031972088 1.3640001 4290426794
-0.1441327 0.031948648 1.363 4290294952
-0.14166293 0.031925209 1.3620001 4290097830
-0.1392989 0.031925209 1.3620001 4289440415
-0.13713597 0.031972088 1.3640001 4289506465
-0.13476847 0.031972088 1.3640001 4288783002
-0.13240097 0.031972088 1.3640001 4285822832
-0.12965216 0.03187833 1.36 4282928201
-0.12682362 0.031761128 1.355 4281481270
-0.12428803 0.031714249 1.353 4281481273
-0.12166926 0.031643931 1.35 4280692016
-0.11906089 0.031573612 1.3470001 4280758065
-0.11663625 0.031550169 1.3460001 4281086519
-0.11421508 0.031526729 1.345 4281284410
-0.11179738 0.031503286 1.3440001 4282008133
-0.10913882 0.031409532 1.34 4282732112
-0.10665356 0.031362649 1.3380001 4283389788
-0.10425323 0.03133921 1.337 4282731858
-0.10185635 0.03131577 1.3360001 4281021499
-0.099537462 0.03131577 1.3360001 4280955705
-0.097291335 0.03133921 1.337 4280692534
-0.095041744 0.031362649 1.3380001 4280626739
-0.092788674 0.031386089 1.3390001 4280889911
-0.090464577 0.031386089 1.3390001 4282008903
-0.088008821 0.03133921 1.337 4282732626
-0.085560016 0.03129233 1.335 4281548095
-0.083180502 0.031268891 1.3340001 4282534990
-0.080743849 0.03122201 1.332 4282206025
-0.078373007 0.031198569 1.3310001 4280955960
-0.076062799 0.031198569 1.3310001 4281153083
-0.073807992 0.03122201 1.332 4281153340
-0.071603395 0.031268891 1.3340001 4281218876
-0.069443792 0.03133921 1.337 4281086777
-0.067173369 0.031362649 1.3380001 4281218876
-0.06504488 0.031456411 1.342 4281811013
-0.062855773 0.031526729 1.345 4282797395
-0.06056625 0.031550169 1.3460001 4282271566
-0.058359787 0.031620488 1.3490001 4282995548
-0.056101386 0.031667367 1.3510001 4283587685
-0.053796243 0.03169081 1.3520001 4284311408
-0.19030172 0.035405181 1.4070001 4292071884
-0.18759255 0.035354856 1.4050001 4292005834
-0.18383609 0.03510322 1.3950001 4291808454
-0.18115468 0.035052892 1.393 4291479488
-0.17822361 0.034952238 1.3890001 4291216316
-0.17543299 0.034876749 1.386 4291018936
-0.17290248 0.034851585 1.3850001 4290953142
-0.17012922 0.034776092 1.3820001 4290952884
-0.16748776 0.034725767 1.3800001 4291018676
-0.16497287 0.034700602 1.3790001 4291018675
-0.16222565 0.034625113 1.376 4290624173
-0.159605 0.034574784 1.3740001 4290558123
-0.15710573 0.03454962 1.373 4290360745
-0.15415917 0.034423802 1.368 4290426538
-0.15178473 0.034423802 1.368 4290492331
-0.14919187 0.034373477 1.3660001 4290492331
-0.14660594 0.034323145 1.3640001 4290360746
-0.14423844 0.034323145 1.3640001 4289965989
-0.14176695 0.034297984 1.363 4289045658
-0.13940118 0.034297984 1.363 4288585365
-0.13713597 0.034323145 1.3640001 4288059281
-0.13466968 0.034297984 1.363 4284704609
-0.13210978 0.034247655 1.3610001 4281941306
-0.12936616 0.034147006 1.3570001 4282204994
-0.12663643 0.034046348 1.353 4281547580
-0.1241043 0.03399602 1.3510001 4281218616
-0.12157913 0.033945695 1.3490001 4281218616
-0.11906089 0.03389537 1.3470001 4281547582
-0.11663625 0.033870202 1.3460001 4281942340
-0.11396033 0.033769548 1.342 4282863698
-0.11154784 0.033744384 1.3410001 4281548095
-0.10897593 0.033668894 1.3380001 4282074440
-0.10657385 0.03364373 1.337 4282074185
-0.10417525 0.033618566 1.3360001 4280626740
-0.10185635 0.033618566 1.3360001 4280560947
-0.099611968 0.03364373 1.337 4280626740
-0.097291335 0.03364373 1.337 4281020984
-0.095041744 0.033668894 1.3380001 4280824372
-0.092719376 0.033668894 1.3380001 4282469198
-0.090329453 0.03364373 1.337 4283324506
-0.087811343 0.033568241 1.3340001 4283587678
-0.085367747 0.033517912 1.332 4283192666
-0.08299344 0.033492748 1.3310001 4281482048
-0.080622606 0.033467587 1.33 4281087290
-0.078314126 0.033467587 1.33 4280758325
-0.076062799 0.033492748 1.3310001 4280758325
-0.073697165 0.033467587 1.33 4281021497
-0.071549714 0.033543076 1.3330001 4281284923
-0.069339916 0.033593401 1.335 4281350716
-0.067072958 0.033618566 1.3360001 4282732369
-0.064802535 0.03364373 1.337 4283324506
-0.062575378 0.033694059 1.3390001 4283587424
-0.060251277 0.033694059 1.3390001 4283126873
-0.058013696 0.033744384 1.3410001 4282534738
-0.055810701 0.033819873 1.3440001 4282271823
-0.053557504 0.033870202 1.3460001 4281679688
-0.051411528 0.03399602 1.3510001 4281153344
-0.049211871 0.034096673 1.355 4280890172
-0.046929166 0.034147006 1.3570001 4281153344
-0.19003122 0.037776586 1.4050001 4291348418
-0.18665794 0.037588373 1.3980001 4291545797
-0.18370429 0.037480824 1.3940001 4291545539
-0.18115468 0.037453938 1.393 4291347903
-0.17835192 0.037373275 1.3900001 4291084731
-0.17555958 0.037292611 1.3870001 4290821557
-0.17290248 0.03723884 1.3850001 4290887092
-0.17025234 0.037185065 1.383 4290887090
-0.16748776 0.037104405 1.3800001 4290689710
-0.16497287 0.037077516 1.3790001 4290492331
-0.16234355 0.037023738 1.3770001 4290295208
-0.15972117 0.036969967 1.3750001 4290295208
-0.15710573 0.036916193 1.373 4290294952
-0.15427187 0.036808643 1.3690001 4290294952
-0.15178473 0.036781754 1.368 4290294952
-0.14919187 0.036727984 1.3660001 4290032037
-0.14671342 0.036701094 1.365 4289834661
-0.14434418 0.036701094 1.365 4289111196
-0.14197496 0.036701094 1.365 4288388243
-0.13960573 0.036701094 1.365 4287401607
-0.13723651 0.036701094 1.365 4285559664
-0.13466968 0.03664732 1.363 4282072895
-0.13210978 0.036593545 1.3610001 4282336580
-0.12936616 0.036485996 1.3570001 4281613116
-0.12663643 0.036378447 1.353 4280889652
-0.1241043 0.036324672 1.3510001 4281679168
-0.12166926 0.036297787 1.35 4281152824
-0.11906089 0.036217127 1.3470001 4281481789
-0.1165496 0.036163349 1.345 4282534477
-0.1137905 0.036028914 1.34 4282995541
-0.11138148 0.036002025 1.3390001 4283258713
-0.10889448 0.035948254 1.337 4281482047
-0.10657385 0.035948254 1.337 4280955704
-0.10425323 0.035948254 1.337 4280626739
-0.10200883 0.035975136 1.3380001 4280626739
-0.099686474 0.035975136 1.3380001 4280560946
-0.097291335 0.035948254 1.337 4281218876
-0.094970711 0.035948254 1.337 4281218876
-0.09251149 0.035894476 1.335 4282600529
-0.090126768 0.03586759 1.3340001 4283587424
-0.087679699 0.035813816 1.332 4282732115
-0.085303657 0.035786927 1.3310001 4281153083
-0.08299344 0.035786927 1.3310001 4281218877
-0.080743849 0.035813816 1.332 4281350464
-0.078373007 0.035786927 1.3310001 4280824120
-0.076062799 0.035786927 1.3310001 4280692532
-0.073697165 0.035760041 1.33 4281218876
-0.071496047 0.035813816 1.332 4282468943
-0.069236033 0.035840701 1.3330001 4282666576
-0.066922344 0.035840701 1.3330001 4282271818
-0.064608656 0.035840701 1.3330001 4283258458
-0.062294971 0.035840701 1.3330001 4283258459
-0.060026284 0.03586759 1.3340001 4282534736
-0.057797384 0.035921365 1.3360001 4282271566
-0.055644598 0.036028914 1.34 4281942602
-0.053438134 0.036109574 1.3430001 4281153344
-0.051259309 0.036217127 1.3470001 4281021758
-0.049102917 0.036351562 1.3520001 4281350723
-0.046894584 0.036459111 1.3560001 4281482309
-0.18652441 0.039969426 1.3970001 4291282626
-0.18370429 0.039883591 1.3940001 4291216832
-0.18128473 0.039883591 1.3940001 4291150782
-0.17848024 0.039797761 1.391 4291018939
-0.17568615 0.039711926 1.388 4290689715
-0.17302732 0.039654706 1.386 4290623919
-0.17025234 0.039568875 1.383 4290623918
-0.16748776 0.039483041 1.3800001 4290492331
-0.16497287 0.03945443 1.3790001 4290229158
-0.16234355 0.039397206 1.3770001 4290229413
-0.159605 0.039311375 1.3740001 4290295206
-0.15710573 0.039282765 1.373 4290229413
-0.15415917 0.03913971 1.368 4290097573
-0.15167378 0.039111096 1.3670001 4289768609
-0.14919187 0.03908249 1.3660001 4289110680
-0.1468209 0.03908249 1.3660001 4288979354
-0.14444993 0.03908249 1.3660001 4288453782
-0.14197496 0.039053876 1.365 4287927696
-0.13940118 0.038996655 1.363 4283981145
-0.13663326 0.038882211 1.3590001 4282402374
-0.13417566 0.038853601 1.358 4281810496
-0.13162443 0.03879638 1.3560001 4281679167
-0.12898482 0.038710546 1.353 4280889909
-0.12654284 0.038681936 1.3520001 4280692786
-0.1241043 0.038653322 1.3510001 4281087287
-0.12175938 0.038653322 1.3510001 4281153337
-0.11897251 0.03851027 1.3460001 4281810754
-0.11628963 0.038395826 1.342 4283060821
-0.11370558 0.038309995 1.3390001 4283192665
-0.11121511 0.038252775 1.337 4281942599
-0.10881303 0.038224161 1.3360001 4281021753
-0.10649414 0.038224161 1.3360001 4281022010
-0.10425323 0.038252775 1.337 4280495666
-0.10193259 0.038252775 1.337 4280561203
-0.099611968 0.038252775 1.337 4281482048
-0.097218566 0.038224161 1.3360001 4282600529
-0.094828643 0.03819555 1.335 4283061080
-0.092372887 0.03813833 1.3330001 4282008392
-0.089991644 0.038109716 1.332 4282600529
-0.08754804 0.038052496 1.33 4281153085
-0.085239559 0.038052496 1.33 4280824120
-0.08299344 0.038081106 1.3310001 4280758327
-0.080743849 0.038109716 1.332 4280955706
-0.078431897 0.038109716 1.332 4281021499
-0.076062799 0.038081106 1.3310001 4281416255
-0.073697165 0.038052496 1.33 4283126873
-0.071388692 0.038052496 1.33 4283390045
-0.069132149 0.038081106 1.3310001 4283258459
-0.06682194 0.038081106 1.3310001 4282534736
-0.064511724 0.038081106 1.3310001 4282074185
-0.062201511 0.038081106 1.3310001 4281350205
-0.059936292 0.038109716 1.332 4280955193
-0.057710864 0.03816694 1.3340001 4281415744
-0.055603072 0.038309995 1.3390001 4282008394
-0.053358555 0.038367216 1.3410001 4281284673
-0.051221255 0.03851027 1.3460001 4281218880
-0.049030278 0.038624715 1.35 4281350723
-0.046756253 0.038681936 1.3520001 4281613895
-0.18665794 0.042407699 1.3980001 4291217089
-0.18383609 0.042316698 1.3950001 4291084989
-0.18128473 0.042286362 1.3940001 4290953146
-0.17848024 0.042195357 1.391 4290821559
-0.17581272 0.042134691 1.3890001 4290623922
-0.17315216 0.042074017 1.3870001 4290426541
-0.17025234 0.041952685 1.383 4290294954
-0.16760914 0.041892011 1.381 4290294952
-0.1650925 0.041861679 1.3800001 4290294952
-0.16246144 0.041801009 1.378 4290229159
-0.15995349 0.041770674 1.3770001 4290229159
-0.15733458 0.041710004 1.3750001 4290031780
-0.15427187 0.041527998 1.3690001 4289702817
-0.15178473 0.041497663 1.368 4289111194
-0.14941029 0.041497663 1.368 4288256143
-0.14703587 0.041497663 1.368 4287664523
-0.14466143 0.041497663 1.368 4284638304
-0.14197496 0.041406661 1.365 4282336320
-0.13940118 0.041345991 1.363 4282139201
-0.13673382 0.04125499 1.36 4282534476
-0.13387924 0.041103315 1.355 4282403404
-0.1314303 0.04107298 1.3540001 4281153337
-0.1288895 0.041012309 1.3520001 4280890165
-0.12654284 0.041012309 1.3520001 4280627250
-0.12401245 0.040951643 1.35 4280758579
-0.12130876 0.040830303 1.3460001 4282601040
-0.11870734 0.040739302 1.3430001 4282008903
-0.11602967 0.040617961 1.3390001 4282469454
-0.11353574 0.040557295 1.337 4281811524
-0.11113192 0.04052696 1.3360001 4280429873
-0.10881303 0.04052696 1.3360001 4280627252
-0.10657385 0.040557295 1.337 4281087803
-0.1043312 0.040587626 1.3380001 4280758838
-0.10200883 0.040587626 1.3380001 4281350462
-0.099537462 0.04052696 1.3360001 4282863701
-0.097145803 0.040496621 1.335 4282797908
-0.094615549 0.04040562 1.332 4283521631
-0.092165001 0.04034495 1.33 4281876806
-0.08985652 0.04034495 1.33 4281153085
-0.08754804 0.04034495 1.33 4280627254
-0.085239559 0.04034495 1.33 4280561461
-0.083055794 0.04040562 1.332 4280560948
-0.08080446 0.040435955 1.3330001 4281021497
-0.078431897 0.04040562 1.332 4282271564
-0.076005645 0.04034495 1.33 4281482048
-0.073641762 0.040314615 1.3290001 4283061080
-0.071281344 0.04028428 1.3280001 4283258459
-0.068976335 0.04028428 1.3280001 4283126873
-0.066671327 0.04028428 1.3280001 4281482050
-0.064366318 0.04028428 1.3280001 4281547330
-0.062154774 0.04034495 1.33 4281218365
-0.059846297 0.04034495 1.33 4280954423
-0.057624344 0.04040562 1.332 4281152570
-0.05552002 0.040557295 1.337 4281284157
-0.053278971 0.040617961 1.3390001 4281744964
-0.05110709 0.040739302 1.3430001 4281613636
-0.048848685 0.040799968 1.345 4283061082
-0.046548754 0.040830303 1.3460001 4283719012
-0.044311047 0.040921308 1.3490001 4283061595
-0.042062923 0.041012309 1.3520001 4283785318
-0.039716259 0.041012309 1.3520001 4284047979
-0.17873687 0.044657074 1.393 4290755765
-0.17581272 0.044528842 1.3890001 4290689972
-0.17327701 0.044496782 1.388 4290558385
-0.17049854 0.044400606 1.3850001 4290360748
-0.1677305 0.044304434 1.3820001 4290295210
-0.16521214 0.044272374 1.381 4290032294
-0.16257934 0.044208258 1.3790001 4290163880
-0.15995349 0.044144139 1.3770001 4290163623
-0.15744901 0.044112083 1.376 4289703072
-0.15427187 0.043887675 1.3690001 4288979609
-0.15189569 0.043887675 1.3690001 4288651159
-0.14941029 0.043855619 1.368 4287927695
