# .PCD v0.7 - Point Cloud Data file format
VERSION 0.7
FIELDS x y z rgba
SIZE 4 4 4 4
TYPE F F F U
COUNT 1 1 1 1
WIDTH 1084
HEIGHT 1
VIEWPOINT 0 0 0 1 0 0 0
POINTS 1084
DATA ascii
-0.23161101 -0.045545425 1.4360001 4290624950
-0.22863989 -0.045450274 1.4330001 4290756021
-0.22583699 -0.04538684 1.4310001 4290887090
-0.22272889 -0.045259971 1.427 4291084468
-0.21963465 -0.045133103 1.4230001 4291216309
-0.21701215 -0.045101386 1.4220001 4291281586
-0.21424223 -0.045037955 1.4200001 4291347122
-0.21162841 -0.045006234 1.419 4291347122
-0.20946024 -0.045069668 1.4210001 4291412915
-0.20699382 -0.045069668 1.4210001 4291412915
-0.20452739 -0.045069668 1.4210001 4291412915
-0.20206097 -0.045069668 1.4210001 4291215538
-0.19959454 -0.045069668 1.4210001 4291544503
-0.19726685 -0.045101386 1.4220001 4291545273
-0.19534664 -0.04522825 1.4260001 4291742398
-0.19327728 -0.045323402 1.429 4291676606
-0.1909305 -0.045355123 1.4300001 4291347641
-0.1888438 -0.045450274 1.4330001 4291676606
-0.18635654 -0.045450274 1.4330001 4291939780
-0.18425423 -0.045545425 1.4360001 4291742658
-0.18226805 -0.04567229 1.4400001 4291808453
-0.18014316 -0.045767441 1.4430001 4292071625
-0.17518491 -0.048558522 1.531 4292071625
-0.17320368 -0.048748825 1.5370001 4292005832
-0.24141935 -0.043490168 1.45 4292205017
-0.2375845 -0.043250218 1.442 4290888639
-0.23459254 -0.043160237 1.439 4290625208
-0.23128842 -0.043010276 1.434 4290559155
-0.22832078 -0.042920295 1.4310001 4290690224
-0.22567919 -0.042890303 1.4300001 4290887090
-0.2225728 -0.042770326 1.4260001 4291084467
-0.21963465 -0.042680349 1.4230001 4291216308
-0.21701215 -0.042650353 1.4220001 4291478710
-0.21424223 -0.042590369 1.4200001 4291478708
-0.21162841 -0.042560376 1.419 4291478708
-0.20931286 -0.042590369 1.4200001 4291412915
-0.20684816 -0.042590369 1.4200001 4291544501
-0.20423955 -0.042560376 1.419 4291347122
-0.20177658 -0.042560376 1.419 4291478710
-0.19945408 -0.042590369 1.4200001 4291676603
-0.19712812 -0.042620361 1.4210001 4291479737
-0.19507267 -0.042710342 1.424 4291479226
-0.19314204 -0.042830314 1.4280001 4291413433
-0.19079697 -0.042860307 1.429 4291610813
-0.18871202 -0.042950287 1.432 4291676606
-0.18635654 -0.042980283 1.4330001 4291808192
-0.1841259 -0.043040268 1.4350001 4291610815
-0.18188833 -0.043100253 1.437 4291676867
-0.17964381 -0.043160237 1.439 4291940039
-0.17776166 -0.043310206 1.4440001 4292334797
-0.24427259 -0.041047409 1.452 4292863459
-0.24075337 -0.040877797 1.4460001 4290822847
-0.23725499 -0.040708177 1.4400001 4290625208
-0.23410349 -0.040595099 1.4360001 4290756279
-0.23096585 -0.040482018 1.432 4290821556
-0.22800168 -0.040397208 1.429 4290755504
-0.22536355 -0.040368941 1.4280001 4290952882
-0.22241673 -0.040284131 1.4250001 4290887089
-0.21948032 -0.040199324 1.4220001 4291084722
-0.21685953 -0.040171053 1.4210001 4291412917
-0.21409136 -0.040114515 1.419 4291478710
-0.21147926 -0.040086247 1.4180001 4291478708
-0.20901804 -0.040086247 1.4180001 4291544501
-0.20655683 -0.040086247 1.4180001 4291610294
-0.2040956 -0.040086247 1.4180001 4291544503
-0.20163438 -0.040086247 1.4180001 4291413687
-0.19931363 -0.040114515 1.419 4291742652
-0.19698939 -0.040142786 1.4200001 4291676859
-0.19493566 -0.040227596 1.4230001 4291479226
-0.1930068 -0.040340673 1.427 4291676605
-0.19066347 -0.040368941 1.4280001 4291808192
-0.18858023 -0.040453751 1.4310001 4291873985
-0.18635654 -0.040510289 1.4330001 4291676606
-0.1839976 -0.040538561 1.434 4291676608
-0.18176176 -0.040595099 1.4360001 4291742147
-0.17939413 -0.040623367 1.437 4291676867
-0.17726925 -0.040708177 1.4400001 4292005832
-0.17561941 -0.040906064 1.447 4291940039
-0.17358638 -0.041019142 1.4510001 4292137418
-0.24427259 -0.03854467 1.452 4291349961
-0.24058686 -0.038358849 1.4450001 4290296501
-0.23676069 -0.038146481 1.437 4290362035
-0.23394045 -0.038093388 1.4350001 4290624948
-0.23064329 -0.037960663 1.4300001 4290821810
-0.22784211 -0.037907567 1.4280001 4290755504
-0.2250479 -0.037854474 1.4260001 4290821296
-0.22226064 -0.037801385 1.424 4290887089
-0.21932596 -0.037721746 1.4210001 4291150261
-0.21685953 -0.037721746 1.4210001 4291018929
-0.21363874 -0.037589017 1.416 4291084722
-0.21118098 -0.037589017 1.416 4291084722
-0.20872325 -0.037589017 1.416 4291216308
-0.20626549 -0.037589017 1.416 4291413687
-0.20380774 -0.037589017 1.416 4291282101
-0.20149219 -0.037615564 1.4170001 4291479224
-0.19917317 -0.03764211 1.4180001 4291610812
-0.19685067 -0.037668653 1.419 4291413433
-0.19479868 -0.037748292 1.4220001 4291610812
-0.19287153 -0.037854474 1.4260001 4291808192
-0.19052996 -0.037881024 1.427 4291939778
-0.18831666 -0.037934113 1.429 4292005571
-0.18622649 -0.038013753 1.432 4291873985
-0.18386929 -0.038040299 1.4330001 4291808194
-0.18176176 -0.038119938 1.4360001 4291873733
-0.17939413 -0.038146481 1.437 4291808453
-0.17726925 -0.03822612 1.4400001 4291874246
-0.17537668 -0.038358849 1.4450001 4291874246
-0.17334712 -0.03846503 1.4490001 4291940040
-0.24815255 -0.036240511 1.46 4292928995
-0.24393611 -0.035992287 1.45 4290559929
-0.24025387 -0.035818532 1.4430001 4290427829
-0.23659594 -0.035644777 1.4360001 4290559154
-0.23361439 -0.035570309 1.4330001 4290953396
-0.23032069 -0.035446197 1.4280001 4290690223
-0.22752301 -0.03539655 1.4260001 4290689710
-0.22473228 -0.035346907 1.424 4290887089
-0.22194847 -0.03529726 1.4220001 4290755503
-0.21901728 -0.035222795 1.419 4290427051
-0.2164017 -0.035197973 1.4180001 4290492331
-0.21348786 -0.035123505 1.4150001 4290558378
-0.21103184 -0.035123505 1.4150001 4290492585
-0.20857583 -0.035123505 1.4150001 4290755503
-0.20611982 -0.035123505 1.4150001 4291018931
-0.20366381 -0.035123505 1.4150001 4291150261
-0.20135 -0.035148326 1.416 4291347897
-0.19917317 -0.035197973 1.4180001 4291347897
-0.19685067 -0.035222795 1.419 4291413433
-0.19479868 -0.03529726 1.4220001 4291545020
-0.19260104 -0.035346907 1.424 4291742399
-0.19026291 -0.035371728 1.4250001 4291742399
-0.18818489 -0.035446197 1.4280001 4291676606
-0.18609644 -0.035520662 1.4310001 4291413434
-0.18374097 -0.035545483 1.432 4291742658
-0.18163517 -0.035619952 1.4350001 4291808452
-0.17939413 -0.035669595 1.437 4291742658
-0.17726925 -0.035744064 1.4400001 4291874245
-0.17549804 -0.035892997 1.4460001 4291742661
-0.17310785 -0.035917819 1.447 4291808969
-0.17212896 -0.036240511 1.46 4291808969
-0.24662283 -0.03351609 1.4510001 4291349706
-0.24359965 -0.033446796 1.4480001 4290691515
-0.23992088 -0.033285104 1.4410001 4290624950
-0.23643118 -0.033146512 1.4350001 4290427567
-0.23345137 -0.033077218 1.432 4290690223
-0.2301594 -0.032961726 1.427 4290690221
-0.22704436 -0.032869332 1.4230001 4290492842
-0.22441664 -0.032846231 1.4220001 4290295465
-0.22132415 -0.032753836 1.4180001 4290295465
-0.21855424 -0.032707639 1.416 4290295465
-0.21579127 -0.032661442 1.414 4290953395
-0.21318612 -0.032638345 1.4130001 4290690223
-0.21073358 -0.032638345 1.4130001 4290887602
-0.20828104 -0.032638345 1.4130001 4290887603
-0.20597416 -0.032661442 1.414 4291084982
-0.20351988 -0.032661442 1.414 4291216569
-0.20120779 -0.032684542 1.4150001 4291216825
-0.19903271 -0.03273074 1.4170001 4290953653
-0.19671194 -0.032753836 1.4180001 4291281849
-0.19452471 -0.032800034 1.4200001 4291282105
-0.19233052 -0.032846231 1.4220001 4291413434
-0.18999587 -0.032869332 1.4230001 4290821553
-0.18792132 -0.032938626 1.4260001 4291018932
-0.1859664 -0.03303102 1.4300001 4291084469
-0.18361266 -0.033054117 1.4310001 4291611072
-0.18163517 -0.033146512 1.4350001 4291611072
-0.17951897 -0.03321581 1.4380001 4291479486
-0.17726925 -0.033262007 1.4400001 4291611073
-0.17537668 -0.033377498 1.4450001 4291677124
-0.17322749 -0.033446796 1.4480001 4291743176
-0.17189316 -0.033677779 1.4580001 4291808969
-0.24628291 -0.030972322 1.4490001 4290889411
-0.24343142 -0.030929575 1.447 4290757052
-0.23975439 -0.03077995 1.4400001 4290493875
-0.2362664 -0.0306517 1.434 4290033323
-0.23312533 -0.030566201 1.4300001 4289770149
-0.22983684 -0.030459324 1.4250001 4289901222
-0.22672524 -0.030373825 1.4210001 4289704356
-0.22394319 -0.030331073 1.419 4288914840
-0.22101198 -0.03026695 1.416 4288651670
-0.21824554 -0.0302242 1.414 4287599239
-0.21548603 -0.030181451 1.4120001 4289375393
-0.21288437 -0.030160075 1.411 4290493874
-0.21043529 -0.030160075 1.411 4290428338
-0.20798622 -0.030160075 1.411 4290954426
-0.20553716 -0.030160075 1.411 4291020475
-0.20323201 -0.030181451 1.4120001 4291151548
-0.2010656 -0.0302242 1.414 4290427825
-0.19889225 -0.03026695 1.416 4289967274
-0.19657321 -0.030288326 1.4170001 4291019962
-0.19438772 -0.030331073 1.419 4291151289
-0.19219527 -0.030373825 1.4210001 4290427310
-0.18986236 -0.030395199 1.4220001 4290098088
-0.18778954 -0.030459324 1.4250001 4290689969
-0.18583636 -0.030544823 1.429 4290887604
-0.18335605 -0.030544823 1.429 4291413693
-0.18138203 -0.030630326 1.4330001 4291545280
-0.17951897 -0.030737199 1.4380001 4291347901
-0.17726925 -0.03077995 1.4400001 4291479745
-0.17537668 -0.030886823 1.4450001 4291480258
-0.17322749 -0.030950949 1.4480001 4291348416
-0.17177527 -0.031143324 1.457 4291282625
-0.25512862 -0.028907083 1.4710001 4293389550
-0.25154519 -0.028789174 1.465 4291547087
-0.24611294 -0.028455103 1.4480001 4290626237
-0.24309494 -0.028396148 1.4450001 4290362293
-0.23958787 -0.028278241 1.439 4290033324
-0.2359369 -0.028140683 1.432 4289506980
-0.23296231 -0.028081728 1.429 4288783513
-0.22919168 -0.027924519 1.4210001 4288257169
-0.22592749 -0.027826261 1.416 4285822828
-0.22331192 -0.02780661 1.4150001 4283257673
-0.22054374 -0.027767308 1.4130001 4281283629
-0.2177825 -0.027728004 1.411 4280231454
-0.21518083 -0.027708353 1.4100001 4280756772
-0.2125826 -0.027688703 1.409 4280362784
-0.21013701 -0.027688703 1.409 4279770391
-0.20769142 -0.027688703 1.409 4280231198
-0.20524581 -0.027688703 1.409 4280888612
-0.20294416 -0.027708353 1.4100001 4280296219
-0.20092341 -0.027767308 1.4130001 4280230169
-0.19875178 -0.02780661 1.4150001 4281677615
-0.1964345 -0.027826261 1.416 4285954161
-0.19425072 -0.027865564 1.4180001 4288125329
-0.19206001 -0.027904866 1.4200001 4288651673
-0.18959531 -0.027904866 1.4200001 4289967276
-0.18765776 -0.027983472 1.424 4289967018
-0.18583636 -0.028081728 1.429 4290427058
-0.18348436 -0.028101379 1.4300001 4291084475
-0.1815086 -0.028179985 1.434 4291216317
-0.17964381 -0.028278241 1.439 4291282364
-0.17739235 -0.028317545 1.4410001 4291282366
-0.17549804 -0.028415803 1.4460001 4291217086
-0.17322749 -0.028455103 1.4480001 4291414210
-0.17165737 -0.028612316 1.4560001 4291414211
-0.17029181 -0.028808828 1.4660001 4291414211
-0.1683194 -0.028907083 1.4710001 4291282625
-0.25512862 -0.026371593 1.4710001 4292797414
-0.25154519 -0.026264029 1.465 4290560705
-0.24594298 -0.025941331 1.447 4290363067
-0.24292672 -0.025887547 1.4440001 4289968305
-0.23925489 -0.025762053 1.437 4289704618
-0.23560739 -0.025636559 1.4300001 4288783515
-0.23231021 -0.025546921 1.4250001 4285757807
-0.22854653 -0.0254035 1.4170001 4283323212
-0.22528927 -0.025313862 1.4120001 4280823591
-0.22283846 -0.025313862 1.4120001 4280626213
-0.2200755 -0.025278006 1.4100001 4280955178
-0.2174738 -0.02526008 1.409 4280823339
-0.21487561 -0.025242152 1.4080001 4281415475
-0.21228087 -0.025224222 1.4070001 4281086767
-0.20983875 -0.025224222 1.4070001 4280692009
-0.20739661 -0.025224222 1.4070001 4281349939
-0.20510015 -0.025242152 1.4080001 4281481525
-0.20280021 -0.02526008 1.409 4281020717
-0.2007812 -0.025313862 1.4120001 4281086510
-0.19875178 -0.025367644 1.4150001 4281283633
-0.19615704 -0.025349718 1.414 4281217838
-0.19397675 -0.025385572 1.416 4280230943
-0.19192477 -0.025439356 1.419 4281415217
-0.18972883 -0.025475211 1.4210001 4285757040
-0.18778954 -0.025546921 1.4250001 4289638313
-0.1859664 -0.025636559 1.4300001 4290361780
-0.18374097 -0.025672415 1.432 4290361778
-0.18163517 -0.025726197 1.4350001 4290559157
-0.17964381 -0.025797909 1.439 4290888122
-0.17739235 -0.025833763 1.4410001 4290953915
-0.17549804 -0.025923401 1.4460001 4291151039
-0.17334712 -0.025977185 1.4490001 4291545797
-0.17153947 -0.026084753 1.455 4291545797
-0.17005947 -0.026246101 1.4640001 4291480004
-0.16797613 -0.026317813 1.4680001 4291480004
-0.16632962 -0.026461231 1.4760001 4291348418
-0.25512862 -0.023836104 1.4710001 4291876312
-0.25171688 -0.023755083 1.4660001 4289968569
-0.24577302 -0.023431003 1.4460001 4289836980
-0.24275848 -0.023382392 1.4430001 4289507756
-0.23875539 -0.023236556 1.434 4288126102
-0.23478357 -0.023090718 1.4250001 4284770659
-0.23182112 -0.023042109 1.4220001 4281349682
-0.22806266 -0.022912476 1.414 4281086510
-0.2248106 -0.022831455 1.409 4281020719
-0.22236501 -0.022831455 1.409 4281218098
-0.21960725 -0.022799047 1.4070001 4280757550
-0.21716513 -0.022799047 1.4070001 4280691757
-0.21472299 -0.022799047 1.4070001 4281481786
-0.21212998 -0.022782844 1.406 4281482042
-0.20968959 -0.022782844 1.406 4280955699
-0.20724919 -0.022782844 1.406 4281284663
-0.20495449 -0.022799047 1.4070001 4281284662
-0.20265628 -0.022815252 1.4080001 4280757548
-0.20035462 -0.022831455 1.409 4281152306
-0.1983304 -0.022880066 1.4120001 4281480758
-0.19601832 -0.022896271 1.4130001 4281942078
-0.19383976 -0.022928679 1.4150001 4280955183
-0.19178949 -0.022977291 1.4180001 4281152304
-0.18959531 -0.023009699 1.4200001 4280823082
-0.18765776 -0.023074515 1.424 4281875255
-0.18583636 -0.023155537 1.429 4287138694
-0.18361266 -0.023187943 1.4310001 4290427830
-0.18163517 -0.023252759 1.4350001 4290625209
-0.17964381 -0.023317575 1.439 4290822331
-0.17739235 -0.023349984 1.4410001 4291019709
-0.17549804 -0.023431003 1.4460001 4291085246
-0.17322749 -0.023463411 1.4480001 4291414211
-0.17153947 -0.023576841 1.455 4291480004
-0.16994332 -0.023706473 1.4630001 4291216832
-0.16786169 -0.023771288 1.4670001 4291283138
-0.16644232 -0.023933329 1.4770001 4291612104
-0.25564891 -0.021344054 1.4740001 4290560452
-0.25206029 -0.021257173 1.4680001 4289310639
-0.2452631 -0.020895163 1.4430001 4289113258
-0.24174909 -0.020808283 1.437 4286876296
-0.23775642 -0.020677958 1.4280001 4283191888
-0.23379502 -0.020547636 1.419 4281086512
-0.23067994 -0.020489713 1.4150001 4280691756
-0.22709492 -0.020388352 1.4080001 4281283639
-0.2241724 -0.020344909 1.4050001 4281349433
-0.2214181 -0.020315949 1.4030001 4283060051
-0.21882685 -0.020301469 1.4020001 4283125844
-0.2163934 -0.020301469 1.4020001 4281876547
-0.21395995 -0.020301469 1.4020001 4282928465
-0.2115265 -0.020301469 1.4020001 4283455579
-0.20909305 -0.020301469 1.4020001 4283718751
-0.2066596 -0.020301469 1.4020001 4281153336
-0.20437181 -0.020315949 1.4030001 4282863954
-0.20208056 -0.020330431 1.404 4282732368
-0.19992803 -0.020359391 1.406 4282468939
-0.19790901 -0.020402832 1.409 4281613374
-0.19560215 -0.020417312 1.4100001 4281415995
-0.19370277 -0.020475235 1.414 4280955444
-0.19192477 -0.020547636 1.419 4280889138
-0.18959531 -0.020562114 1.4200001 4281349430
-0.18778954 -0.020634517 1.4250001 4281086515
-0.1859664 -0.020706918 1.4300001 4280230690
-0.18374097 -0.02073588 1.432 4284178013
-0.18176176 -0.020793801 1.4360001 4287861649
-0.17976865 -0.020851724 1.4400001 4290559160
-0.17751546 -0.020880684 1.442 4290625210
-0.17561941 -0.020953085 1.447 4290427830
-0.17370602 -0.021025488 1.452 4290690488
-0.17142159 -0.021054449 1.4540001 4291085247
-0.16982716 -0.02117029 1.462 4291414725
-0.16763285 -0.021213733 1.465 4291217346
-0.16621694 -0.021358537 1.475 4291283139
-0.16521014 -0.021561259 1.4890001 4291480776
-0.16349943 -0.021677103 1.4970001 4291546571
-0.23659095 -0.018127289 1.4210001 4280626733
-0.23280644 -0.018025234 1.4130001 4280758065
-0.2297018 -0.017974209 1.409 4283060050
-0.22644977 -0.017910425 1.404 4283783774
-0.22337462 -0.017859397 1.4000001 4283125844
-0.22078684 -0.017846642 1.399 4283915360
-0.21820252 -0.017833885 1.3980001 4283783774
-0.21562165 -0.017821128 1.3970001 4282336328
-0.21319689 -0.017821128 1.3970001 4283783774
-0.21077211 -0.017821128 1.3970001 4283718751
-0.2084965 -0.017833885 1.3980001 4284179302
-0.20606999 -0.017833885 1.3980001 4282798161
-0.20378914 -0.017846642 1.399 4284114021
-0.20150483 -0.017859397 1.4000001 4284114021
-0.19935925 -0.01788491 1.4020001 4283850849
-0.19734718 -0.01792318 1.4050001 4281811265
-0.19504724 -0.017935939 1.406 4282534989
-0.1932918 -0.017999722 1.411 4283323992
-0.19165425 -0.018076262 1.4170001 4282139718
-0.18959531 -0.018114531 1.4200001 4281547581
-0.18778954 -0.018178314 1.4250001 4280758065
-0.18609644 -0.018254856 1.4310001 4281152310
-0.18374097 -0.018267613 1.432 4280691502
-0.18176176 -0.01831864 1.4360001 4281217331
-0.17989348 -0.018382423 1.4410001 4283191118
-0.17763856 -0.018407935 1.4430001 4288191129
-0.17561941 -0.018458964 1.447 4289704110
-0.17358638 -0.01850999 1.4510001 4290164403
-0.17130367 -0.018535502 1.4530001 4290625209
-0.16947868 -0.018612044 1.4590001 4291085760
-0.167404 -0.018663071 1.4630001 4291283139
-0.16599156 -0.018790638 1.473 4291217346
-0.16498823 -0.018969232 1.4870001 4291283140
-0.2415238 -0.015677981 1.4210001 4285889150
-0.23838447 -0.015633848 1.4170001 4281942340
-0.23509251 -0.015578683 1.4120001 4282863442
-0.23231216 -0.015556618 1.4100001 4284047716
-0.22921275 -0.015512486 1.406 4284047716
-0.2258046 -0.015446287 1.4000001 4283981153
-0.22321507 -0.015435255 1.399 4282467914
-0.22047119 -0.015413187 1.3970001 4281941570
-0.21789035 -0.015402155 1.396 4281875777
-0.21515861 -0.015380088 1.3940001 4281546812
-0.21273905 -0.015380088 1.3940001 4281415226
-0.21047038 -0.015391122 1.3950001 4281086261
-0.20804907 -0.015391122 1.3950001 4282271305
-0.20577517 -0.015402155 1.396 4282140232
-0.2034978 -0.015413187 1.3970001 4282008646
-0.20121697 -0.015424221 1.3980001 4282337610
-0.19907485 -0.015446287 1.4000001 4283192919
-0.1969258 -0.015468352 1.4020001 4281942852
-0.1947698 -0.01549042 1.404 4283916642
-0.19301781 -0.015545585 1.409 4284245094
-0.19124849 -0.01560075 1.414 4283850336
-0.18879421 -0.01560075 1.414 4282337098
-0.1872624 -0.015677981 1.4210001 4282271304
-0.18570632 -0.015755212 1.4280001 4281679167
-0.18335605 -0.015766246 1.429 4281218103
-0.18163517 -0.015832443 1.4350001 4280888881
-0.17989348 -0.015898643 1.4410001 4280230951
-0.17776166 -0.015931742 1.4440001 4282336069
-0.17561941 -0.015964841 1.447 4286480513
-0.17370602 -0.016020007 1.452 4288848802
-0.17130367 -0.016031038 1.4530001 4289703852
-0.16947868 -0.016097238 1.4590001 4290362037
-0.167404 -0.01614137 1.4630001 4290954174
-0.16599156 -0.016251702 1.473 4291348932
-0.16498823 -0.016406164 1.4870001 4291348677
-0.24467705 -0.013265911 1.4250001 4286679179
-0.24067396 -0.013182127 1.416 4283126614
-0.23771153 -0.013154198 1.4130001 4283521628
-0.234593 -0.01311696 1.409 4283981923
-0.23165314 -0.013089033 1.406 4282600270
-0.22888668 -0.013070414 1.404 4280626480
-0.2258046 -0.013033176 1.4000001 4280758066
-0.22321507 -0.013023867 1.399 4280626480
-0.22047119 -0.013005248 1.3970001 4280823346
-0.21773428 -0.012986629 1.3950001 4281152054
-0.21515861 -0.01297732 1.3940001 4281217847
-0.21258645 -0.01296801 1.393 4280494381
-0.21016861 -0.01296801 1.393 4280297001
-0.2077508 -0.01296801 1.393 4281218617
-0.20548037 -0.01297732 1.3940001 4281087031
-0.20320648 -0.012986629 1.3950001 4280561200
-0.20092911 -0.012995939 1.396 4280429614
-0.19879046 -0.013014558 1.3980001 4281021751
-0.19664487 -0.013033176 1.4000001 4281811010
-0.19435363 -0.013042485 1.401 4281745474
-0.19219588 -0.013061104 1.4030001 4282534477
-0.19043697 -0.013107652 1.4080001 4283784544
-0.18839365 -0.01313558 1.411 4282600270
-0.18686706 -0.013200746 1.4180001 4283521629
-0.18531618 -0.013265911 1.4250001 4283521628
-0.18322773 -0.013293839 1.4280001 4281942083
-0.18138203 -0.013340387 1.4330001 4281020725
-0.17976865 -0.013405553 1.4400001 4280954932
-0.17763856 -0.013433482 1.4430001 4281152053
-0.17586215 -0.013489338 1.4490001 4281151538
-0.17394529 -0.013535884 1.4540001 4285888118
-0.17165737 -0.013554503 1.4560001 4289309095
-0.16982716 -0.01361036 1.462 4290033073
-0.16763285 -0.013638288 1.465 4290691002
-0.16610426 -0.013722072 1.4740001 4291151554
-0.24416193 -0.010786952 1.4220001 4283258200
-0.24016407 -0.01071868 1.4130001 4283389786
-0.23737508 -0.01070351 1.411 4282929235
-0.23426002 -0.010673166 1.4070001 4281021238
-0.23115884 -0.010642823 1.4030001 4280692273
-0.22839761 -0.010627651 1.401 4280560687
-0.22532074 -0.010597309 1.3970001 4280823858
-0.22289596 -0.010597309 1.3970001 4280823858
-0.22031339 -0.010589723 1.396 4280626736
-0.21773428 -0.010582137 1.3950001 4280955445
-0.21531297 -0.010582137 1.3950001 4280889138
-0.21273905 -0.010574551 1.3940001 4280494894
-0.21031949 -0.010574551 1.3940001 4280494894
-0.2077508 -0.010566966 1.393 4280823859
-0.20548037 -0.010574551 1.3940001 4280692529
-0.20335214 -0.010589723 1.396 4280560687
-0.20107304 -0.010597309 1.3970001 4280494894
-0.19893266 -0.010612479 1.399 4280955445
-0.19678535 -0.010627651 1.401 4281547582
-0.19435363 -0.010627651 1.401 4280560687
-0.19219588 -0.010642823 1.4030001 4280494894
-0.19030172 -0.010673166 1.4070001 4281087031
-0.18812662 -0.010688337 1.409 4282008133
-0.18647172 -0.010733852 1.4150001 4283258713
-0.18492603 -0.010786952 1.4220001 4283587421
-0.18271449 -0.010802125 1.424 4282797649
-0.18112887 -0.010855224 1.4310001 4282468427
-0.17964381 -0.010915911 1.439 4282402378
-0.17763856 -0.010946253 1.4430001 4281283640
-0.17598352 -0.010999354 1.45 4281020210
-0.17406492 -0.011037283 1.455 4282203711
-0.17177527 -0.011052454 1.457 4287072391
-0.16994332 -0.011097969 1.4630001 4289177508
-0.16774727 -0.011120726 1.4660001 4290296244
-0.16621694 -0.011188998 1.475 4290691003
-0.24962379 -0.0083535081 1.4250001 4293455863
-0.24680355 -0.0083417837 1.4230001 4289508281
-0.24313171 -0.0083007487 1.416 4283126360
-0.23948419 -0.0082597136 1.409 4281613375
-0.23670214 -0.0082479902 1.4070001 4280559917
-0.23342754 -0.0082186796 1.4020001 4280626479
-0.23017028 -0.008189369 1.3970001 4280692272
-0.22725643 -0.0081717819 1.3940001 4280692272
-0.22467558 -0.0081659202 1.393 4281613374
-0.22225776 -0.0081659202 1.393 4281942852
-0.21983993 -0.0081659202 1.393 4281811266
-0.2174221 -0.0081659202 1.393 4281745473
-0.21500428 -0.0081659202 1.393 4282534477
-0.21258645 -0.0081659202 1.393 4282074182
-0.21016861 -0.0081659202 1.393 4281679681
-0.2077508 -0.0081659202 1.393 4280495407
-0.20562777 -0.0081776446 1.3950001 4281350716
-0.20364347 -0.0081952307 1.3980001 4281021751
-0.2013609 -0.0082010925 1.399 4280824372
-0.19935925 -0.0082186796 1.4020001 4281153081
-0.19706625 -0.0082245413 1.4030001 4281152824
-0.19463107 -0.0082245413 1.4030001 4280626736
-0.19219588 -0.0082245413 1.4030001 4280560687
-0.19003122 -0.0082362648 1.4050001 4280692274
-0.18785959 -0.0082479902 1.4070001 4281087288
-0.18620816 -0.0082831625 1.4130001 4281021751
-0.18453589 -0.0083183348 1.419 4282140232
-0.18232955 -0.0083300592 1.4210001 4282534990
-0.18074916 -0.0083710933 1.4280001 4283258713
-0.17939413 -0.0084238527 1.437 4283652958
-0.17751546 -0.0084531633 1.442 4282073669
-0.17622626 -0.0085117854 1.452 4281020468
-0.17466308 -0.0085586812 1.46 4280888366
-0.17236476 -0.0085704057 1.462 4281677880
-0.17040797 -0.0085997162 1.4670001 4286414717
-0.16854824 -0.0086348886 1.473 4289440937
-0.16644232 -0.0086583374 1.4770001 4290098610
-0.24962379 -0.0058973054 1.4250001 4293324790
-0.24645667 -0.0058807521 1.4210001 4284245354
-0.24278831 -0.0058517829 1.414 4281020984
-0.23931423 -0.0058269519 1.4080001 4280955445
-0.23636566 -0.0058145365 1.4050001 4280494894
-0.23259504 -0.0057814289 1.3970001 4281744961
-0.22951123 -0.0057648751 1.393 4283192406
-0.22676736 -0.0057565984 1.391 4282468683
-0.22419173 -0.0057524596 1.3900001 4282863441
-0.22193864 -0.0057565984 1.391 4283324505
-0.21936648 -0.0057524596 1.3900001 4282600782
-0.21695386 -0.0057524596 1.3900001 4282271817
-0.21469557 -0.0057565984 1.391 4284179814
-0.21228123 -0.0057565984 1.391 4283982436
-0.21001774 -0.0057607368 1.3920001 4283719521
-0.20760164 -0.0057607368 1.3920001 4281482559
-0.20548037 -0.0057690134 1.3940001 4282995798
-0.20364347 -0.0057855677 1.3980001 4283061591
-0.2013609 -0.005789706 1.399 4282666576
-0.19935925 -0.005802121 1.4020001 4281416510
-0.1969258 -0.005802121 1.4020001 4281482048
-0.19449235 -0.005802121 1.4020001 4280889911
-0.19219588 -0.0058062598 1.4030001 4280560946
-0.19003122 -0.0058145365 1.4050001 4280692275
-0.18785959 -0.0058228136 1.4070001 4280889911
-0.18607637 -0.0058435057 1.4120001 4280560946
-0.18427579 -0.0058641983 1.4170001 4280824117
-0.18207294 -0.005872475 1.419 4281613632
-0.18049601 -0.0059014442 1.4260001 4282994772
-0.17914444 -0.0059386906 1.4350001 4283323739
-0.17739235 -0.0059635211 1.4410001 4282797394
-0.17622626 -0.0060090441 1.452 4282994259
-0.17490235 -0.0060504288 1.462 4281283639
-0.17271845 -0.0060628443 1.465 4280822574
-0.17087261 -0.0060876752 1.4710001 4282467397
-0.24822241 -0.0034217853 1.4170001 4290298312
-0.2452426 -0.0034145408 1.414 4280363567
-0.24175809 -0.003400052 1.4080001 4280626739
-0.2384644 -0.0033879781 1.4030001 4282666063
-0.23569275 -0.0033831485 1.401 4283323993
-0.23159607 -0.0033590002 1.391 4283718751
-0.22918172 -0.0033590002 1.391 4283850337
-0.22660434 -0.0033565855 1.3900001 4282534476
-0.22403042 -0.0033541706 1.3890001 4282600269
-0.22161953 -0.0033541706 1.3890001 4283061333
-0.21920866 -0.0033541706 1.3890001 4282403403
-0.21679777 -0.0033541706 1.3890001 4281679680
-0.21438688 -0.0033541706 1.3890001 4282600782
-0.21197599 -0.0033541706 1.3890001 4282403661
-0.20971599 -0.0033565855 1.3900001 4282403661
-0.20730338 -0.0033565855 1.3900001 4281811524
-0.20518555 -0.0033614151 1.3920001 4283259483
-0.20320648 -0.0033686596 1.3950001 4283193177
-0.20078517 -0.0033686596 1.3950001 4283653474
-0.19879046 -0.0033759039 1.3980001 4281876806
-0.19650441 -0.0033783189 1.399 4283192411
-0.1942149 -0.0033807335 1.4000001 4283258203
-0.19205891 -0.0033855634 1.4020001 4282534737
-0.18989596 -0.0033903928 1.404 4280955704
-0.18772607 -0.0033952224 1.406 4280824119
-0.18594459 -0.0034072965 1.411 4280560946
-0.18427579 -0.0034217853 1.4170001 4280758325
-0.18207294 -0.0034266151 1.419 4281087032
-0.18036944 -0.003441104 1.4250001 4280823860
-0.17901962 -0.0034628371 1.434 4281613121
-0.17714615 -0.0034749112 1.439 4282862674
-0.17610489 -0.0035038891 1.4510001 4284112740
-0.17490235 -0.003530452 1.462 4282270535
-0.17271845 -0.0035376963 1.465 4280954161
-0.25085881 -0.00098006381 1.4180001 4292404201
-0.24734654 -0.0009759168 1.4120001 4283193181
-0.24437539 -0.00097384339 1.409 4281811015
-0.24107128 -0.00097038754 1.404 4283455838
-0.23795451 -0.00096762291 1.4000001 4283587424
-0.23535627 -0.00096693175 1.399 4282995028
-0.23142958 -0.00096071127 1.3900001 4281876547
-0.22918172 -0.00096140243 1.391 4281152824
-0.22660434 -0.00096071127 1.3900001 4281284410
-0.22403042 -0.00096002017 1.3890001 4280758066
-0.22161953 -0.00096002017 1.3890001 4280232235
-0.21920866 -0.00096002017 1.3890001 4281087544
-0.21664169 -0.00095932902 1.388 4280890165
-0.21423253 -0.00095932902 1.388 4280758579
-0.21182339 -0.00095932902 1.388 4280298028
-0.20941424 -0.00095932902 1.388 4281482559
-0.2070051 -0.00095932902 1.388 4281416766
-0.20474334 -0.00096002017 1.3890001 4281219387
-0.2026238 -0.00096140243 1.391 4281416766
-0.20035337 -0.00096209365 1.3920001 4282272077
-0.19822167 -0.00096347602 1.3940001 4282008393
-0.19608304 -0.00096485828 1.396 4283192668
-0.19379872 -0.00096554949 1.3970001 4283587424
-0.19164793 -0.00096693175 1.399 4283719010
-0.1897607 -0.00096969638 1.4030001 4281876806
-0.18745904 -0.00097038754 1.404 4282732115
-0.18581282 -0.00097453455 1.4100001 4282337357
-0.18414575 -0.00097868149 1.416 4281350462
-0.18194462 -0.00098006381 1.4180001 4280758325
-0.18036944 -0.00098490191 1.4250001 4280560689
-0.17876993 -0.00098974002 1.432 4280757812
-0.17677684 -0.00099250465 1.4360001 4281744450
-0.17561941 -0.0010001074 1.447 4283125846
-0.17466308 -0.0010090924 1.46 4283323224
-0.17271845 -0.0010125483 1.465 4283191381
-0.2513895 0.0014671701 1.4210001 4288719537
-0.24717136 0.0014568452 1.411 4282469458
-0.24420196 0.0014537477 1.4080001 4283850598
-0.24107128 0.0014496177 1.404 4282666322
-0.23812447 0.0014465202 1.401 4281021751
-0.23535627 0.0014444554 1.399 4280692273
-0.23176256 0.0014372278 1.3920001 4280494894
-0.22951123 0.0014382603 1.393 4280823859
-0.22693038 0.0014372278 1.3920001 4281021238
-0.224353 0.0014361953 1.391 4280626480
-0.22193864 0.0014361953 1.391 4280494894
-0.21952429 0.0014361953 1.391 4281087544
-0.21695386 0.0014351628 1.3900001 4280626993
-0.21438688 0.0014341304 1.3890001 4280560944
-0.21182339 0.0014330979 1.388 4280626993
-0.20941424 0.0014330979 1.388 4281613888
-0.2070051 0.0014330979 1.388 4280890165
-0.20489076 0.0014351628 1.3900001 4280626993
-0.2026238 0.0014361953 1.391 4280626993
-0.20020944 0.0014361953 1.391 4280824118
-0.19793728 0.0014372278 1.3920001 4281745220
-0.19580211 0.0014392928 1.3940001 4281218876
-0.19352128 0.0014403253 1.3950001 4281482048
-0.19151095 0.0014434229 1.3980001 4282534736
-0.1894902 0.0014465202 1.401 4281811013
-0.18732551 0.0014485853 1.4030001 4283390045
-0.18554924 0.0014537477 1.4080001 4283652960
-0.18388566 0.0014599427 1.414 4283060567
-0.18181631 0.0014630401 1.4170001 4281218363
-0.18024287 0.0014702675 1.424 4280955191
-0.17864509 0.0014774951 1.4310001 4281020986
-0.17653063 0.0014805924 1.434 4281086779
-0.17513394 0.0014898849 1.4430001 4281152572
-0.17418455 0.0015033073 1.4560001 4282928726
-0.17248265 0.0015105348 1.4630001 4283980899
-0.24997425 0.0038944283 1.4130001 4284837493
-0.24647066 0.0038778912 1.4070001 4282995802
-0.2435082 0.0038696232 1.404 4281349951
-0.24021275 0.0038558424 1.399 4281152570
-0.23727463 0.0038475737 1.396 4280692786
-0.23451513 0.0038420616 1.3940001 4280889652
-0.23159607 0.0038337929 1.391 4280495407
-0.22918172 0.0038337929 1.391 4280495407
-0.22676736 0.0038337929 1.391 4281087031
-0.22419173 0.0038310371 1.3900001 4280758065
-0.22177909 0.0038310371 1.3900001 4280823859
-0.21936648 0.0038310371 1.3900001 4281350203
-0.21664169 0.0038255248 1.388 4281087031
-0.21423253 0.0038255248 1.388 4280955191
-0.21167079 0.0038227686 1.3870001 4280955445
-0.20926337 0.0038227686 1.3870001 4281284410
-0.20685595 0.0038227686 1.3870001 4280692273
-0.20474334 0.0038282808 1.3890001 4280560687
-0.2026238 0.0038337929 1.391 4280561200
-0.20020944 0.0038337929 1.391 4281087545
-0.19793728 0.0038365494 1.3920001 4281153083
-0.19580211 0.0038420616 1.3940001 4280626739
-0.19338255 0.0038420616 1.3940001 4280692532
-0.19137394 0.0038503301 1.3970001 4281153083
-0.18935494 0.0038585986 1.4000001 4281284669
-0.18705849 0.0038613547 1.401 4281613121
-0.18528567 0.0038751354 1.406 4282600016
-0.18375562 0.0038944283 1.4130001 4282863188
-0.18168801 0.0039026965 1.416 4282731602
-0.18011628 0.0039219894 1.4230001 4283389532
-0.17852026 0.0039412826 1.4300001 4281876293
-0.17640753 0.0039495509 1.4330001 4280626227
-0.17501257 0.0039743562 1.442 4280955193
-0.17394529 0.0040074303 1.4540001 4281218109
-0.24979734 0.0063254666 1.4120001 4281218880
-0.24559478 0.006280669 1.4020001 4280889913
-0.242641 0.0062672296 1.399 4280560435
-0.23935427 0.0062448303 1.3940001 4280757812
-0.23642479 0.0062313909 1.391 4281087031
-0.23367397 0.0062224311 1.3890001 4282863185
-0.2310966 0.0062179519 1.388 4282732113
-0.22868745 0.0062179519 1.388 4282337610
-0.22611527 0.0062134718 1.3870001 4283718750
-0.22370785 0.0062134718 1.3870001 4283389785
-0.22130044 0.0062134718 1.3870001 4282271304
-0.21889302 0.0062134718 1.3870001 4282402891
-0.2164856 0.0062134718 1.3870001 4283586908
-0.2140782 0.0062134718 1.3870001 4283192407
-0.21167079 0.0062134718 1.3870001 4282205255
-0.20926337 0.0062134718 1.3870001 4281415740
-0.20685595 0.0062134718 1.3870001 4282534477
-0.20474334 0.0062224311 1.3890001 4282073669
-0.2026238 0.0062313909 1.391 4281284410
-0.20020944 0.0062313909 1.391 4281284667
-0.19807948 0.0062403507 1.393 4281087289
-0.19594258 0.0062493104 1.3950001 4280429359
-0.19352128 0.0062493104 1.3950001 4280626739
-0.19137394 0.0062582698 1.3970001 4280889911
-0.18921968 0.0062672296 1.399 4281021497
-0.18705849 0.0062761889 1.401 4280494896
-0.1851539 0.006294108 1.4050001 4280626483
-0.18349552 0.0063209869 1.411 4281218363
-0.18130307 0.0063299467 1.4130001 4282928981
-0.17973655 0.0063613052 1.4200001 4284244841
-0.17827058 0.006397143 1.4280001 4283389532
-0.17616132 0.0064105829 1.4310001 4281613121
-0.1748912 0.0064553809 1.4410001 4281218365
-0.17382565 0.0065091378 1.4530001 4281152316
-0.24926659 0.0087406514 1.409 4280626741
-0.24541961 0.008691024 1.401 4280824120
-0.24229413 0.0086662089 1.3970001 4282600018
-0.23918253 0.0086413957 1.393 4282928981
-0.23642479 0.0086289886 1.391 4282402637
-0.23350574 0.008610378 1.388 4283587165
-0.2310966 0.008610378 1.388 4283258713
-0.22868745 0.008610378 1.388 4282798162
-0.22578922 0.0085917683 1.3850001 4283521372
-0.22338527 0.0085917683 1.3850001 4283521371
-0.22098133 0.0085917683 1.3850001 4282271304
-0.2187352 0.0085979719 1.386 4282665293
-0.21632951 0.0085979719 1.386 4283060051
-0.2140782 0.0086041754 1.3870001 4283717981
-0.21167079 0.0086041754 1.3870001 4282731086
-0.20911248 0.0085979719 1.386 4282336328
-0.20670681 0.0085979719 1.386 4283652188
-0.20444855 0.0086041754 1.3870001 4283257687
-0.20233245 0.0086165816 1.3890001 4283258200
-0.20006551 0.0086227851 1.3900001 4281350203
-0.19807948 0.0086413957 1.393 4282337098
-0.19608304 0.0086600063 1.396 4282205512
-0.19366001 0.0086600063 1.396 4281613631
-0.19137394 0.0086662089 1.3970001 4280890166
-0.18921968 0.008678616 1.399 4280824374
-0.18705849 0.008691024 1.401 4280429360
-0.1851539 0.0087158373 1.4050001 4280495153
-0.18336548 0.008746855 1.4100001 4280823862
-0.18104646 0.0087530576 1.411 4281349949
-0.17935683 0.0087902779 1.4170001 4282073672
-0.17777123 0.0088337017 1.424 4282731602
-0.17579201 0.0088585168 1.4280001 4282797395
-0.17464848 0.0089267539 1.439 4283455325
-0.24820514 0.011121712 1.4030001 4282732117
-0.24454373 0.011066223 1.396 4283521120
-0.24177383 0.011050368 1.3940001 4283718499
-0.23866744 0.01101866 1.3900001 4282928981
-0.23557495 0.010986951 1.386 4282336844
-0.23316927 0.010986951 1.386 4281810500
-0.2304306 0.010971096 1.3840001 4281876547
-0.22786364 0.01096317 1.383 4281481789
-0.22530013 0.010955243 1.3820001 4281218617
-0.2229014 0.010955243 1.3820001 4281152824
-0.22050267 0.010955243 1.3820001 4281679167
-0.21826175 0.01096317 1.383 4281415995
-0.21586128 0.01096317 1.383 4281481275
-0.2134608 0.01096317 1.383 4281809984
-0.21121295 0.010971096 1.3840001 4282007363
-0.20881075 0.010971096 1.3840001 4282270535
-0.20640855 0.010971096 1.3840001 4283125844
-0.20415373 0.010979024 1.3850001 4283520602
-0.20204113 0.010994879 1.3870001 4283192407
-0.19977765 0.011002805 1.388 4282008133
-0.19779508 0.011026587 1.391 4283916130
-0.19594258 0.011058295 1.3950001 4283587422
-0.19352128 0.011058295 1.3950001 4283850850
-0.19123696 0.011066223 1.396 4281482302
-0.18921968 0.011090003 1.399 4281745474
-0.18679145 0.011090003 1.399 4281482303
-0.18502212 0.011129639 1.404 4280758581
-0.18323542 0.011169274 1.409 4280824118
-0.18104646 0.011185128 1.411 4280626482
-0.17923026 0.011224763 1.416 4280757811
-0.17752154 0.011272326 1.4220001 4281284410
-0.1754227 0.011296107 1.4250001 4282600272
-0.17440574 0.011391234 1.437 4283850083
-0.25433818 0.013607549 1.4100001 4285429630
-0.2509976 0.013559295 1.4050001 4282600531
-0.24749748 0.013501391 1.399 4283982184
-0.24419339 0.013453136 1.3940001 4282731604
-0.24142693 0.013433835 1.3920001 4281481537
-0.23849575 0.013404883 1.3890001 4281086777
-0.23540498 0.01336628 1.3850001 4280494894
-0.23283282 0.013356629 1.3840001 4280429101
-0.23026411 0.013346978 1.383 4280955445
-0.22769889 0.013337328 1.3820001 4280823859
-0.22513711 0.013327677 1.381 4280626737
-0.22274011 0.013327677 1.381 4280626993
-0.22050267 0.013337328 1.3820001 4281219130
-0.21810393 0.013337328 1.3820001 4280692273
-0.2157052 0.013337328 1.3820001 4280560687
-0.21315213 0.013327677 1.381 4281283640
-0.21090773 0.013337328 1.3820001 4282336328
-0.208509 0.013337328 1.3820001 4281481019
-0.20596112 0.013327677 1.381 4281020468
-0.20371152 0.013337328 1.3820001 4281020468
-0.20160413 0.013356629 1.3840001 4281744961
-0.19934584 0.01336628 1.3850001 4281876547
-0.19751069 0.013404883 1.3890001 4283127127
-0.19552118 0.013433835 1.3920001 4283258713
-0.19324383 0.013443486 1.393 4283521885
-0.190826 0.013443486 1.393 4281811267
-0.18881392 0.013472439 1.396 4283587935
-0.18652441 0.013482088 1.3970001 4283719264
-0.18475856 0.013530343 1.4020001 4282206025
-0.18310538 0.013588247 1.4080001 4281087544
-0.18091814 0.013607549 1.4100001 4280824372
-0.1789771 0.013646152 1.414 4280758324
-0.17714703 0.013694406 1.419 4280955447
-0.17505339 0.013723358 1.4220001 4281021240
-0.17379889 0.013819865 1.432 4282271308
-0.25415778 0.016026521 1.409 4283587939
-0.25081897 0.015969649 1.404 4282929496
-0.24749748 0.015912777 1.399 4281350464
-0.24454373 0.015878653 1.396 4281020986
-0.24160036 0.015844531 1.393 4280757812
-0.23883913 0.015821781 1.391 4281086261
-0.23574491 0.015776286 1.3870001 4280626480
-0.23300104 0.015753536 1.3850001 4280758065
-0.2304306 0.015742162 1.3840001 4281087031
-0.2280284 0.015742162 1.3840001 4280889908
-0.22546315 0.015730787 1.383 4280561200
-0.2229014 0.015719414 1.3820001 4280561200
-0.22050267 0.015719414 1.3820001 4281219130
-0.21826175 0.015730787 1.383 4280692530
-0.2157052 0.015719414 1.3820001 4280692016
-0.21330646 0.015719414 1.3820001 4281217847
-0.21090773 0.015719414 1.3820001 4281876034
-0.208509 0.015719414 1.3820001 4280889139
-0.20596112 0.015708037 1.381 4280757296
-0.20371152 0.015719414 1.3820001 4280757296
-0.20145845 0.015730787 1.383 4281415997
-0.19920193 0.015742162 1.3840001 4281416253
-0.1972263 0.015776286 1.3870001 4280692787
-0.19524027 0.015810408 1.3900001 4280824373
-0.19282766 0.015810408 1.3900001 4281548353
-0.19055201 0.015821781 1.391 4281745731
-0.18840817 0.015844531 1.393 4283258970
-0.18625738 0.01586728 1.3950001 4283522142
-0.18449499 0.015924152 1.4000001 4282930005
-0.18284528 0.015992397 1.406 4281679938
-0.18078983 0.016026521 1.409 4282732369
-0.17885053 0.01607202 1.4130001 4281482047
-0.17689735 0.016117517 1.4170001 4280824119
-0.17480718 0.016151641 1.4200001 4280692533
-0.17343479 0.01625401 1.429 4281021499
-0.17203116 0.016356379 1.4380001 4281745222
-0.25307551 0.018376557 1.4030001 4282140493
-0.2501044 0.018337263 1.4000001 4280758327
-0.24678986 0.018271772 1.3950001 4281087292
-0.2440182 0.018245576 1.393 4281087292
-0.24108006 0.018206282 1.3900001 4280823605
-0.23832405 0.018180085 1.388 4281481535
-0.23540498 0.018140791 1.3850001 4282139719
-0.23283282 0.018127695 1.3840001 4281810754
-0.23026411 0.018114595 1.383 4282206025
-0.22769889 0.018101498 1.3820001 4282600783
-0.22530013 0.018101498 1.3820001 4281942853
-0.2229014 0.018101498 1.3820001 4281482302
-0.22050267 0.018101498 1.3820001 4282008646
-0.21810393 0.018101498 1.3820001 4282731856
-0.2157052 0.018101498 1.3820001 4281876547
-0.21315213 0.018088399 1.381 4281547068
-0.21060251 0.018075302 1.3800001 4281152824
-0.20835812 0.018088399 1.381 4280823859
-0.20596112 0.018088399 1.381 4280625966
-0.20371152 0.018101498 1.3820001 4280823859
-0.20145845 0.018114595 1.383 4281415997
-0.19920193 0.018127695 1.3840001 4281087290
-0.1970841 0.018153889 1.386 4280560946
-0.19495934 0.018180085 1.388 4280626996
-0.1925502 0.018180085 1.388 4280890423
-0.19041502 0.018206282 1.3900001 4281482559
-0.18827291 0.018232478 1.3920001 4280890422
-0.18599035 0.018245576 1.393 4281614145
-0.18423143 0.018311067 1.3980001 4282403661
-0.18258519 0.018389653 1.404 4282272076
-0.18053322 0.01842895 1.4070001 4283587680
-0.17872395 0.01849444 1.4120001 4283324252
-0.17689735 0.018559931 1.4170001 4281482049
-0.17468408 0.018586125 1.419 4280824120
-0.17331342 0.018704008 1.4280001 4280758327
-0.25623918 0.020854125 1.4070001 4283587685
-0.2521736 0.02072073 1.3980001 4280758329
-0.24921116 0.020676265 1.3950001 4280626743
-0.24590531 0.020602155 1.3900001 4282337361
-0.24314235 0.020572513 1.388 4283192155
-0.24055973 0.020557692 1.3870001 4283126360
-0.23746553 0.020498404 1.383 4284179048
-0.2348951 0.020483583 1.3820001 4284047716
-0.2323281 0.02046876 1.381 4282863442
-0.22976461 0.020453939 1.3800001 4283192920
-0.22720459 0.020439118 1.3790001 4283850850
-0.22497408 0.020453939 1.3800001 4283916643
-0.22274011 0.02046876 1.381 4282600783
-0.22018355 0.020453939 1.3800001 4283258713
-0.21794613 0.02046876 1.381 4283587678
-0.21539304 0.020453939 1.3800001 4283653471
-0.21299776 0.020453939 1.3800001 4282797649
-0.2104499 0.020439118 1.3790001 4281876547
-0.20820723 0.020453939 1.3800001 4282402891
-0.20581198 0.020453939 1.3800001 4282073926
-0.20371152 0.020483583 1.3820001 4281942340
-0.20174979 0.020528048 1.3850001 4281219130
-0.19934584 0.020528048 1.3850001 4281350717
-0.1970841 0.020542869 1.386 4280495152
-0.19481888 0.020557692 1.3870001 4280363567
-0.1925502 0.020572513 1.388 4280890168
-0.19027804 0.020587334 1.3890001 4281022010
-0.18813767 0.020616977 1.391 4280561459
-0.18585682 0.020631799 1.3920001 4280627252
-0.18396786 0.020691086 1.396 4281087803
-0.18232511 0.020780018 1.4020001 4282008905
-0.18027659 0.020824483 1.4050001 4282403663
-0.17859738 0.020913411 1.411 4283390302
-0.17689735 0.021002343 1.4170001 4282468945
-0.17468408 0.021031985 1.419 4282468945
-0.17331342 0.02116538 1.4280001 4281284671
-0.2558749 0.02324621 1.4050001 4280955965
-0.25163245 0.023080757 1.3950001 4282798169
-0.24885385 0.023047667 1.393 4283455842
-0.2457284 0.022981485 1.3890001 4283916391
-0.24279198 0.022931848 1.386 4283521632
-0.24021287 0.022915304 1.3850001 4282994774
-0.23746553 0.022882212 1.383 4284113509
-0.2347251 0.022849122 1.381 4282995028
-0.23215988 0.022832576 1.3800001 4282600270
-0.22959812 0.022816032 1.3790001 4283258713
-0.22703984 0.022799486 1.378 4283192920
-0.22481106 0.022816032 1.3790001 4283390298
-0.22241753 0.022816032 1.3790001 4282140231
-0.220024 0.022816032 1.3790001 4283521884
-0.21778829 0.022832576 1.3800001 4283456091
-0.21539304 0.022832576 1.3800001 4283258713
-0.21284342 0.022816032 1.3790001 4281942853
-0.21029729 0.022799486 1.378 4282731856
-0.20805638 0.022816032 1.3790001 4283850337
-0.20581198 0.022832576 1.3800001 4283455579
-0.20385893 0.022882212 1.383 4283323993
-0.20174979 0.022915304 1.3850001 4281548095
-0.19948977 0.022931848 1.386 4283258713
-0.1970841 0.022931848 1.386 4282995284
-0.19495934 0.022964939 1.388 4282468941
-0.1925502 0.022964939 1.388 4281219131
-0.19041502 0.022998031 1.3900001 4280955704
-0.18827291 0.023031121 1.3920001 4280561203
-0.18599035 0.023047667 1.393 4280626996
-0.18409964 0.023113849 1.3970001 4280890168
-0.18232511 0.023196574 1.4020001 4280956218
-0.18027659 0.02324621 1.4050001 4280758840
-0.17859738 0.023345482 1.411 4281416514
-0.17689735 0.023444755 1.4170001 4282403409
-0.17480718 0.023494391 1.4200001 4283587683
-0.25460011 0.025540056 1.3980001 4283324513
-0.2510913 0.025430443 1.3920001 4284574580
-0.24831793 0.025393905 1.3900001 4283719271
-0.24537456 0.025339099 1.3870001 4283258974
-0.24244164 0.02528429 1.3840001 4282403150
-0.23969257 0.025247753 1.3820001 4281613634
-0.2371221 0.025229482 1.381 4281481789
-0.23455514 0.025211215 1.3800001 4281021494
-0.23199165 0.025192946 1.3790001 4281810754
-0.22943163 0.025174676 1.378 4281219130
-0.22687507 0.025156409 1.3770001 4280890165
-0.22448501 0.025156409 1.3770001 4281021751
-0.22209495 0.025156409 1.3770001 4281877060
-0.2197049 0.025156409 1.3770001 4281350716
-0.21731484 0.025156409 1.3770001 4281219386
-0.21476871 0.02513814 1.376 4281679680
-0.21238039 0.02513814 1.376 4281679681
-0.20999207 0.02513814 1.376 4282403403
-0.20775461 0.025156409 1.3770001 4282863697
-0.2055137 0.025174676 1.378 4282666319
-0.20356412 0.025229482 1.381 4282403148
-0.20160413 0.02528429 1.3840001 4281876803
-0.19920193 0.02528429 1.3840001 4282995284
-0.19694191 0.025302559 1.3850001 4283258200
-0.19481888 0.025339099 1.3870001 4283324249
-0.1925502 0.025357366 1.388 4282139976
-0.19041502 0.025393905 1.3900001 4283456092
-0.18827291 0.025430443 1.3920001 4282863699
-0.18599035 0.025448712 1.393 4281350205
-0.18409964 0.025521789 1.3970001 4280955961
-0.18245514 0.025631402 1.4030001 4280758584
-0.18027659 0.025667939 1.4050001 4280692790
-0.17859738 0.025777554 1.411 4280758584
-0.17677251 0.025868898 1.416 4280955964
-0.17468408 0.025923705 1.419 4282403409
-0.26186579 0.028209625 1.411 4291811553
-0.25812972 0.028069675 1.404 4283521892
-0.25405377 0.027889742 1.3950001 4284377201
-0.25073054 0.027789779 1.3900001 4283192928
-0.24831793 0.027789779 1.3900001 4281877068
-0.24537456 0.027729802 1.3870001 4280758586
-0.24244164 0.027669823 1.3840001 4280824120
-0.239866 0.027649829 1.383 4280955704
-0.2371221 0.027609844 1.381 4280692786
-0.23455514 0.027589852 1.3800001 4280955958
-0.23199165 0.02756986 1.3790001 4281219130
-0.22943163 0.027549867 1.378 4280758579
-0.22687507 0.027529875 1.3770001 4280692786
-0.22448501 0.027529875 1.3770001 4280824372
-0.22193368 0.027509883 1.376 4281482302
-0.21922624 0.027469898 1.3740001 4280627250
-0.21699922 0.027489889 1.3750001 4280561457
-0.21461263 0.027489889 1.3750001 4280758836
-0.21222605 0.027489889 1.3750001 4281416766
-0.20983946 0.027489889 1.3750001 4281219130
-0.20775461 0.027529875 1.3770001 4280824372
-0.20536456 0.027529875 1.3770001 4281219130
-0.20326932 0.02756986 1.3790001 4281482302
-0.20116712 0.027609844 1.381 4281942596
-0.19891405 0.027629837 1.3820001 4282271305
-0.19665751 0.027649829 1.383 4282797649
-0.19453797 0.027689815 1.3850001 4282797392
-0.19227274 0.027709808 1.386 4282073926
-0.19027804 0.027769787 1.3890001 4283916130
-0.18827291 0.027829764 1.3920001 4283521373
-0.18612385 0.02786975 1.3940001 4283323995
-0.1843632 0.027969712 1.399 4281613377
-0.18258519 0.028069675 1.404 4281613635
-0.18053322 0.028129654 1.4070001 4280824119
-0.17847081 0.028189631 1.4100001 4280955706
-0.17652282 0.028269602 1.414 4280824120
-0.17431477 0.028309589 1.416 4281022012
-0.26149458 0.030598264 1.409 4286613906
-0.25812972 0.030489679 1.404 4283916650
-0.25423586 0.030315952 1.396 4281877067
-0.25091094 0.030207369 1.391 4281087552
-0.24831793 0.030185651 1.3900001 4281350723
-0.24537456 0.030120503 1.3870001 4281021758
-0.2426168 0.030077072 1.3850001 4280824633
-0.24003944 0.030055353 1.3840001 4280955704
-0.23729382 0.030011922 1.3820001 4281087290
-0.2347251 0.029990206 1.381 4281152570
-0.23215988 0.029968491 1.3800001 4281218363
-0.22959812 0.029946774 1.3790001 4280692530
-0.22703984 0.029925058 1.378 4280955958
-0.22448501 0.029903339 1.3770001 4280890165
-0.22193368 0.029881626 1.376 4281021494
-0.2193858 0.029859908 1.3750001 4280758579
-0.21699922 0.029859908 1.3750001 4280495407
-0.21476871 0.029881626 1.376 4280955958
-0.21238039 0.029881626 1.376 4281350973
-0.20999207 0.029881626 1.376 4280824372
-0.20775461 0.029903339 1.3770001 4280890165
-0.2055137 0.029925058 1.378 4280692786
-0.20326932 0.029946774 1.3790001 4281219130
-0.20116712 0.029990206 1.381 4281087031
-0.19877012 0.029990206 1.381 4280758066
-0.19651532 0.030011922 1.3820001 4281020981
-0.19439751 0.030055353 1.3840001 4281481533
-0.19213402 0.030077072 1.3850001 4281679168
-0.19014105 0.03014222 1.388 4283060821
-0.18827291 0.030229086 1.3920001 4283389786
-0.18449499 0.030402815 1.4000001 4282139463
-0.18258519 0.030489679 1.404 4283850340
-0.18053322 0.030554829 1.4070001 4283258459
-0.17859738 0.030641695 1.411 4282008649
-0.17664766 0.03072856 1.4150001 4280693047
-0.17443787 0.030771991 1.4170001 4280758840
-0.26506412 0.033167526 1.4150001 4291943139
-0.26093784 0.032956567 1.406 4284113770
-0.25794587 0.032886248 1.4030001 4281942601
-0.25387165 0.032675285 1.3940001 4281218878
-0.25055018 0.032558087 1.3890001 4281350466
