# .PCD v0.7 - Point Cloud Data file format
VERSION 0.7
FIELDS x y z rgba
SIZE 4 4 4 4
TYPE F F F U
COUNT 1 1 1 1
WIDTH 1064
HEIGHT 1
VIEWPOINT 0 0 0 1 0 0 0
POINTS 1064
DATA ascii
-0.13938989 -0.020793801 1.4360001 4288387204
-0.13699275 -0.020808283 1.437 4288255619
-0.13449855 -0.020808283 1.437 4287334518
-0.13200437 -0.020808283 1.437 4286216038
-0.12942004 -0.020793801 1.4360001 4285887073
-0.12692758 -0.020793801 1.4360001 4286149989
-0.12452176 -0.020808283 1.437 4286281317
-0.12194265 -0.020793801 1.4360001 4286478440
-0.11953337 -0.020808283 1.437 4286215268
-0.11695772 -0.020793801 1.4360001 4286017889
-0.11446527 -0.020793801 1.4360001 4286281061
-0.11189482 -0.020779321 1.4350001 4286742125
-0.10932785 -0.020764841 1.434 4287531898
-0.10683886 -0.020764841 1.434 4287597691
-0.10434987 -0.020764841 1.434 4287466105
-0.10178985 -0.020750361 1.4330001 4287531898
-0.099164002 -0.0207214 1.4310001 4287334519
-0.096545085 -0.02069244 1.429 4288255621
-0.093933128 -0.020663479 1.427 4288913551
-0.091264017 -0.020620037 1.424 4289439895
-0.088667676 -0.020591076 1.4220001 4289636504
-0.086199515 -0.020591076 1.4220001 4290097053
-0.083790228 -0.020605557 1.4230001 4290623653
-0.081320331 -0.020605557 1.4230001 4290623398
-0.078905843 -0.020620037 1.424 4290426020
-0.07643421 -0.020620037 1.424 4290623399
-0.073910631 -0.020605557 1.4230001 4290557606
-0.071440734 -0.020605557 1.4230001 4290491813
-0.068970837 -0.020605557 1.4230001 4290557863
-0.066454209 -0.020591076 1.4220001 4290623401
-0.064031035 -0.020605557 1.4230001 4290623401
-0.061647665 -0.020634517 1.4250001 4290492074
-0.059257343 -0.020663479 1.427 4289965988
-0.057019241 -0.020750361 1.4330001 4289702564
-0.054912534 -0.020895163 1.4430001 4288913308
-0.052625831 -0.020982046 1.4490001 4288124822
-0.24622236 -0.018293126 1.434 4293651431
-0.24305353 -0.018242098 1.4300001 4290624945
-0.24057148 -0.018242098 1.4300001 4290164130
-0.23842241 -0.018267613 1.432 4290427043
-0.23659594 -0.01831864 1.4360001 4290361250
-0.23459254 -0.01835691 1.439 4290557859
-0.2330626 -0.01843345 1.4450001 4290097308
-0.23199052 -0.01854826 1.4540001 4288978827
-0.23009808 -0.018599287 1.4580001 4287531381
-0.22897215 -0.018714098 1.4670001 4286478694
-0.22766067 -0.018816151 1.475 4286346854
-0.22555834 -0.018854422 1.478 4286412649
-0.22480348 -0.019007502 1.4900001 4285886307
-0.2189206 -0.01940296 1.521 4294243824
-0.20563436 -0.018675826 1.4640001 4289967278
-0.2008737 -0.01847172 1.4480001 4284571991
-0.19808643 -0.018446207 1.4460001 4285426781
-0.19571185 -0.018458964 1.447 4285163350
-0.19333382 -0.01847172 1.4480001 4285360213
-0.19147943 -0.018535502 1.4530001 4285491286
-0.18999784 -0.018637557 1.4610001 4285425750
-0.18810354 -0.018701341 1.4660001 4286478697
-0.18657161 -0.018803393 1.4740001 4286873714
-0.16831706 -0.018484477 1.4490001 4288716952
-0.16511549 -0.018407935 1.4430001 4285164126
-0.16204743 -0.018344153 1.4380001 4285558367
-0.15944055 -0.018331397 1.437 4285558107
-0.15694635 -0.018331397 1.437 4285491799
-0.15445215 -0.018331397 1.437 4285623383
-0.15185221 -0.01831864 1.4360001 4286281311
-0.14935975 -0.01831864 1.4360001 4286281311
-0.14676499 -0.018305881 1.4350001 4286347106
-0.14417374 -0.018293126 1.434 4286281314
-0.14178354 -0.018305881 1.4350001 4286413158
-0.13948695 -0.018331397 1.437 4287202931
-0.13708809 -0.018344153 1.4380001 4287531897
-0.13468575 -0.01835691 1.439 4286939761
-0.13218808 -0.01835691 1.439 4285821280
-0.12969042 -0.01835691 1.439 4285623901
-0.12719275 -0.01835691 1.439 4285755230
-0.12460841 -0.018344153 1.4380001 4285820510
-0.12211248 -0.018344153 1.4380001 4285952096
-0.11969974 -0.01835691 1.439 4285886303
-0.11712061 -0.018344153 1.4380001 4285952096
-0.11462468 -0.018344153 1.4380001 4285886817
-0.11205077 -0.018331397 1.437 4286084452
-0.10948033 -0.01831864 1.4360001 4285887073
-0.10698787 -0.01831864 1.4360001 4286018915
-0.10449541 -0.01831864 1.4360001 4286084965
-0.10193191 -0.018305881 1.4350001 4286150245
-0.099371888 -0.018293126 1.434 4285952866
-0.096680216 -0.018254856 1.4310001 4286281831
-0.094130605 -0.018242098 1.4300001 4286018659
-0.091392189 -0.018191073 1.4260001 4287334519
-0.088792384 -0.018165559 1.424 4289176464
-0.086199515 -0.018140046 1.4220001 4290031516
-0.083731346 -0.018140046 1.4220001 4290623653
-0.081263185 -0.018140046 1.4220001 4290754984
-0.078850426 -0.018152801 1.4230001 4290360482
-0.076326862 -0.018140046 1.4220001 4290623397
-0.073858693 -0.018140046 1.4220001 4290426274
-0.07134033 -0.018127289 1.4210001 4290294432
-0.068873897 -0.018127289 1.4210001 4290557860
-0.066407472 -0.018127289 1.4210001 4290689192
-0.063986048 -0.018140046 1.4220001 4290557606
-0.061604403 -0.018165559 1.424 4290163618
-0.059215818 -0.018191073 1.4260001 4290229159
-0.057019241 -0.018280368 1.4330001 4290031783
-0.054912534 -0.018407935 1.4430001 4288847770
-0.052589513 -0.01847172 1.4480001 4287598220
-0.24927345 -0.015700048 1.4230001 4293520880
-0.24680355 -0.015700048 1.4230001 4293586408
-0.24416193 -0.015689015 1.4220001 4290953915
-0.24186376 -0.015700048 1.4230001 4290361514
-0.23956209 -0.01571108 1.424 4290558373
-0.23775642 -0.015755212 1.4280001 4290360480
-0.2362664 -0.015821412 1.434 4290294687
-0.2342665 -0.015854511 1.437 4290031515
-0.2330626 -0.015942775 1.4450001 4289439378
-0.23215006 -0.016053107 1.455 4288255104
-0.2302559 -0.016097238 1.4590001 4286873451
-0.22912824 -0.016196536 1.4680001 4286083936
-0.22766067 -0.016273767 1.475 4286610279
-0.22555834 -0.016306866 1.478 4286346854
-0.22450173 -0.016417196 1.488 4285754719
-0.22370867 -0.016549593 1.5000001 4285755236
-0.22184214 -0.016604759 1.5050001 4286479220
-0.22054093 -0.016704056 1.5140001 4285756014
-0.20577481 -0.016163437 1.465 4290098351
-0.20170605 -0.016042072 1.4540001 4284440148
-0.19849738 -0.015986906 1.4490001 4285360989
-0.19598237 -0.015986906 1.4490001 4285426265
-0.19360085 -0.015997941 1.45 4285622873
-0.19161123 -0.016042072 1.4540001 4285688665
-0.18986779 -0.016108271 1.46 4285622872
-0.18771861 -0.01614137 1.4630001 4286412389
-0.18619189 -0.016229633 1.4710001 4286610029
-0.18426286 -0.016284799 1.4760001 4286610545
-0.18145478 -0.016262732 1.4740001 4286808442
-0.17418455 -0.016064137 1.4560001 4293914345
-0.17130367 -0.016031038 1.4530001 4293914345
-0.16796859 -0.015953807 1.4460001 4289111968
-0.16500106 -0.015909676 1.442 4284835162
-0.16204743 -0.015865542 1.4380001 4285229146
-0.15944055 -0.015854511 1.437 4285426521
-0.15694635 -0.015854511 1.437 4285492056
-0.15455963 -0.015865542 1.4380001 4285820762
-0.15195794 -0.015854511 1.437 4285952346
-0.14935975 -0.015843477 1.4360001 4285820760
-0.14676499 -0.015832443 1.4350001 4285820762
-0.14417374 -0.015821412 1.434 4285886556
-0.14178354 -0.015832443 1.4350001 4285623387
-0.13948695 -0.015854511 1.437 4285557852
-0.13708809 -0.015865542 1.4380001 4286018659
-0.13468575 -0.015876576 1.439 4286413417
-0.13227995 -0.015887611 1.4400001 4285952866
-0.12969042 -0.015876576 1.439 4285558108
-0.12710434 -0.015865542 1.4380001 4285623388
-0.12469508 -0.015876576 1.439 4285886303
-0.1221974 -0.015876576 1.439 4285952096
-0.11969974 -0.015876576 1.439 4285557338
-0.11720207 -0.015876576 1.439 4285821023
-0.11462468 -0.015865542 1.4380001 4285492315
-0.11205077 -0.015854511 1.437 4285689694
-0.10948033 -0.015843477 1.4360001 4285755487
-0.10698787 -0.015843477 1.4360001 4285887075
-0.10449541 -0.015843477 1.4360001 4285887075
-0.10193191 -0.015832443 1.4350001 4285887073
-0.099371888 -0.015821412 1.434 4285689694
-0.096815333 -0.015810378 1.4330001 4285755487
-0.094196431 -0.015788311 1.4310001 4285294936
-0.091392189 -0.015733147 1.4260001 4285755487
-0.088730022 -0.015700048 1.4230001 4287071088
-0.086260125 -0.015700048 1.4230001 4288715656
-0.083731346 -0.015689015 1.4220001 4288913034
-0.081263185 -0.015689015 1.4220001 4289242514
-0.078795023 -0.015689015 1.4220001 4289834394
-0.076326862 -0.015689015 1.4220001 4289834394
-0.073806755 -0.015677981 1.4210001 4290163102
-0.07134033 -0.015677981 1.4210001 4290426274
-0.068873897 -0.015677981 1.4210001 4290426274
-0.066407472 -0.015677981 1.4210001 4290557860
-0.063986048 -0.015689015 1.4220001 4290097568
-0.061604403 -0.01571108 1.424 4290360997
-0.059257343 -0.015744179 1.427 4290426537
-0.057019241 -0.015810378 1.4330001 4290426540
-0.05487448 -0.015909676 1.442 4287992461
-0.052553196 -0.015964841 1.447 4286808704
-0.24892309 -0.013228674 1.4210001 4293586152
-0.24593636 -0.013200746 1.4180001 4290756796
-0.24347514 -0.013200746 1.4180001 4289834915
-0.2415238 -0.013228674 1.4210001 4290426791
-0.23956209 -0.013256603 1.424 4290557607
-0.23792294 -0.013303149 1.429 4290492066
-0.23659594 -0.013368315 1.4360001 4290360480
-0.23475559 -0.013405553 1.4400001 4289636757
-0.23354648 -0.013480028 1.4480001 4288189311
-0.23230961 -0.013554503 1.4560001 4287070830
-0.23041371 -0.01359174 1.46 4286149728
-0.22912824 -0.013666216 1.4680001 4286083935
-0.22766067 -0.013731383 1.475 4285820763
-0.22555834 -0.01375931 1.478 4285754717
-0.22419998 -0.013833785 1.4860001 4285886305
-0.2226647 -0.013898952 1.493 4285623907
-0.22036812 -0.01391757 1.4950001 4285623911
-0.21835591 -0.013954808 1.4990001 4285558377
-0.2130194 -0.013777929 1.48 4292730071
-0.20959738 -0.013722072 1.4740001 4294769654
-0.20591527 -0.013647597 1.4660001 4290821560
-0.20198348 -0.013554503 1.4560001 4284439635
-0.19877137 -0.013507956 1.4510001 4285689954
-0.19598237 -0.013489338 1.4490001 4285820511
-0.19346733 -0.013489338 1.4490001 4285491287
-0.19108409 -0.013498647 1.45 4285753946
-0.18869738 -0.013507956 1.4510001 4286083166
-0.18592225 -0.013489338 1.4490001 4286149216
-0.18429326 -0.013554503 1.4560001 4286215012
-0.18239027 -0.013601051 1.4610001 4286281064
-0.1792389 -0.013554503 1.4560001 4286873717
-0.17622626 -0.013517266 1.452 4288715924
-0.17274895 -0.01344279 1.4440001 4293979879
-0.17024261 -0.01344279 1.4440001 4294703602
-0.16762011 -0.013433482 1.4430001 4289572003
-0.16488664 -0.013414862 1.4410001 4284505427
-0.16238549 -0.013414862 1.4410001 4285426525
-0.15988435 -0.013414862 1.4410001 4285623900
-0.15749244 -0.013424171 1.442 4285821020
-0.15477459 -0.013405553 1.4400001 4285754969
-0.15227519 -0.013405553 1.4400001 4285952603
-0.14956775 -0.013386934 1.4380001 4286084189
-0.14707182 -0.013386934 1.4380001 4285886556
-0.14457589 -0.013386934 1.4380001 4285820507
-0.14217876 -0.013396244 1.439 4285754716
-0.13977817 -0.013405553 1.4400001 4285688924
-0.13737409 -0.013414862 1.4410001 4286083939
-0.13506013 -0.013433482 1.4430001 4286215524
-0.13264738 -0.01344279 1.4440001 4285952353
-0.13014103 -0.01344279 1.4440001 4285623387
-0.12763469 -0.01344279 1.4440001 4285688922
-0.12512834 -0.01344279 1.4440001 4285886301
-0.12253708 -0.013433482 1.4430001 4285886301
-0.12003246 -0.013433482 1.4430001 4285886558
-0.11752785 -0.013433482 1.4430001 4285689436
-0.11502324 -0.013433482 1.4430001 4285558108
-0.11244065 -0.013424171 1.442 4285558108
-0.10993777 -0.013424171 1.442 4285558108
-0.10736039 -0.013414862 1.4410001 4285623901
-0.10464095 -0.013386934 1.4380001 4285426523
-0.10207397 -0.013377625 1.437 4285623902
-0.099510483 -0.013368315 1.4360001 4285492315
-0.096950464 -0.013359006 1.4350001 4285558108
-0.094393909 -0.013349697 1.434 4285492315
-0.091776729 -0.013331077 1.432 4286083938
-0.089041799 -0.013293839 1.4280001 4286149475
-0.086502604 -0.01328453 1.427 4286741866
-0.083907999 -0.013265911 1.4250001 4286807659
-0.08143463 -0.013265911 1.4250001 4287400310
-0.078961253 -0.013265911 1.4250001 4287334517
-0.076541558 -0.013275221 1.4260001 4287399796
-0.074066453 -0.013275221 1.4260001 4287662968
-0.071591347 -0.013275221 1.4260001 4288189312
-0.069067776 -0.013265911 1.4250001 4288386691
-0.066594407 -0.013265911 1.4250001 4288846988
-0.064121038 -0.013265911 1.4250001 4288913551
-0.06177745 -0.013293839 1.4280001 4289242516
-0.059340395 -0.013303149 1.429 4288979092
-0.057019241 -0.013340387 1.4330001 4288255629
-0.05487448 -0.013424171 1.442 4288124561
-0.052553196 -0.013470719 1.447 4287795855
-0.25050497 -0.010741438 1.416 4293914607
-0.24769688 -0.010726266 1.414 4291743177
-0.24541603 -0.010733852 1.4150001 4289966247
-0.24330343 -0.010749023 1.4170001 4290229414
-0.2415238 -0.010779367 1.4210001 4290558376
-0.23939386 -0.010794538 1.4230001 4290492584
-0.23808943 -0.010847638 1.4300001 4290360480
-0.23676069 -0.010900739 1.437 4290360480
-0.23475559 -0.010923496 1.4400001 4289176207
-0.23354648 -0.010984182 1.4480001 4287465589
-0.23230961 -0.011044868 1.4560001 4286215522
-0.23041371 -0.011075211 1.46 4285491799
-0.22897215 -0.011128312 1.4670001 4285689692
-0.22750631 -0.011181411 1.4740001 4285558106
-0.22540574 -0.011204169 1.4770001 4285623901
-0.22389822 -0.011257269 1.4840001 4285558110
-0.22236642 -0.01131037 1.4910001 4285426784
-0.22022071 -0.011333128 1.4940001 4285689704
-0.21777324 -0.011340713 1.4950001 4285689706
-0.21330725 -0.011242098 1.4820001 4290163630
-0.20988177 -0.011196584 1.4760001 4294900726
-0.20577481 -0.01111314 1.465 4291873991
-0.20198348 -0.011044868 1.4560001 4285229150
-0.19877137 -0.011006939 1.4510001 4285755489
-0.19571185 -0.010976597 1.447 4285557338
-0.19306679 -0.01096901 1.4460001 4285359700
-0.19042519 -0.010961425 1.4450001 4285622614
-0.1879171 -0.010961425 1.4450001 4286083164
-0.1852807 -0.010953839 1.4440001 4285885786
-0.18340723 -0.010991768 1.4490001 4285951582
-0.18126673 -0.011014526 1.452 4286280548
-0.17850028 -0.010999354 1.45 4287202422
-0.17561941 -0.010976597 1.447 4288453004
-0.17262933 -0.010946253 1.4430001 4291216567
-0.17012471 -0.010946253 1.4430001 4293321688
-0.16738778 -0.010931082 1.4410001 4289834657
-0.16477221 -0.010923496 1.4400001 4285163353
-0.16238549 -0.010931082 1.4410001 4285689695
-0.15988435 -0.010931082 1.4410001 4285689436
-0.15749244 -0.010938668 1.442 4285754971
-0.15477459 -0.010923496 1.4400001 4285689177
-0.15216945 -0.010915911 1.439 4285689176
-0.14956775 -0.010908325 1.4380001 4286083934
-0.14707182 -0.010908325 1.4380001 4286149215
-0.14437482 -0.010893153 1.4360001 4285754458
-0.14207995 -0.010908325 1.4380001 4285820507
-0.13977817 -0.010923496 1.4400001 4285754715
-0.13737409 -0.010931082 1.4410001 4286083680
-0.13506013 -0.010946253 1.4430001 4286083680
-0.13273925 -0.010961425 1.4450001 4285557592
-0.13023117 -0.010961425 1.4450001 4285623385
-0.12763469 -0.010953839 1.4440001 4285426005
-0.12504169 -0.010946253 1.4430001 4285820763
-0.12245216 -0.010938668 1.442 4285820764
-0.11994928 -0.010938668 1.442 4285689178
-0.11744641 -0.010938668 1.442 4285557849
-0.11494353 -0.010938668 1.442 4285294935
-0.11244065 -0.010938668 1.442 4285426522
-0.10986154 -0.010931082 1.4410001 4285623901
-0.10721138 -0.010915911 1.439 4285492315
-0.10449541 -0.010893153 1.4360001 4285558108
-0.10193191 -0.010885567 1.4350001 4285558108
-0.099441186 -0.010885567 1.4350001 4285426522
-0.096950464 -0.010885567 1.4350001 4285557595
-0.094393909 -0.010877982 1.434 4285557594
-0.091776729 -0.01086281 1.432 4285820510
-0.089104146 -0.010840053 1.429 4285754717
-0.086502604 -0.010824881 1.427 4285886559
-0.083966874 -0.010817296 1.4260001 4285623385
-0.081491768 -0.010817296 1.4260001 4286084450
-0.079016663 -0.010817296 1.4260001 4286084450
-0.076541558 -0.010817296 1.4260001 4286018143
-0.074118391 -0.010824881 1.427 4286149729
-0.071591347 -0.010817296 1.4260001 4286347108
-0.069116242 -0.010817296 1.4260001 4286478696
-0.066641137 -0.010817296 1.4260001 4286610026
-0.064121038 -0.01080971 1.4250001 4286084452
-0.061734185 -0.010824881 1.427 4286347625
-0.059340395 -0.010840053 1.429 4287268474
-0.057019241 -0.010870395 1.4330001 4288255371
-0.054836422 -0.010931082 1.4410001 4288387219
-0.052553196 -0.010976597 1.447 4287729806
-0.2558749 -0.0082362648 1.4050001 4293257965
-0.25361666 -0.0082421284 1.406 4292796384
-0.25117627 -0.0082421284 1.406 4290954177
-0.24873587 -0.0082421284 1.406 4290361523
-0.24664582 -0.0082538519 1.4080001 4290426799
-0.24472229 -0.0082714381 1.411 4290229160
-0.24313171 -0.0083007487 1.416 4290229414
-0.2415238 -0.0083300592 1.4210001 4290097825
-0.23973031 -0.0083535081 1.4250001 4290426790
-0.23842241 -0.0083945422 1.432 4289768858
-0.23709022 -0.0084355772 1.439 4288584584
-0.23524465 -0.008459026 1.4430001 4287465589
-0.23386905 -0.0085000601 1.45 4286478694
-0.23246916 -0.0085410951 1.457 4285754971
-0.23041371 -0.0085586812 1.46 4285820764
-0.22897215 -0.0085997162 1.4670001 4285558106
-0.22735196 -0.0086348886 1.473 4285492313
-0.2251005 -0.0086466139 1.475 4285294936
-0.22344559 -0.0086817862 1.4810001 4285426524
-0.22176987 -0.0087169586 1.4870001 4285294684
-0.21963109 -0.0087345447 1.4900001 4285623652
-0.2170449 -0.0087345447 1.4900001 4285755496
-0.21316332 -0.0086817862 1.4810001 4288453010
-0.20988177 -0.0086524757 1.4760001 4294703088
-0.20577481 -0.0085879918 1.465 4292005831
-0.20212223 -0.0085410951 1.457 4284834134
-0.19849738 -0.0084941983 1.4490001 4285426524
-0.19503559 -0.0084531633 1.442 4285359958
-0.19213216 -0.0084355772 1.439 4285425493
-0.18910736 -0.0084121292 1.4350001 4285491027
-0.17476983 -0.0084414398 1.4400001 4288847245
-0.17179191 -0.008417991 1.4360001 4288715661
-0.16941734 -0.0084238527 1.437 4288386696
-0.16715546 -0.0084355772 1.439 4286676077
-0.16500106 -0.0084531633 1.442 4285821279
-0.16249819 -0.0084531633 1.442 4285821024
-0.16010627 -0.008459026 1.4430001 4285820765
-0.15760165 -0.008459026 1.4430001 4285886300
-0.15488207 -0.0084473016 1.4410001 4285886044
-0.15227519 -0.0084414398 1.4400001 4286149215
-0.14956775 -0.0084297154 1.4380001 4286280801
-0.14707182 -0.0084297154 1.4380001 4286149215
-0.14457589 -0.0084297154 1.4380001 4285886043
-0.14227757 -0.0084414398 1.4400001 4285688920
-0.14006937 -0.008459026 1.4430001 4285689177
-0.13766009 -0.0084648877 1.4440001 4285754970
-0.13534093 -0.0084766122 1.4460001 4285689178
-0.13292296 -0.0084824748 1.447 4285623384
-0.13032129 -0.0084766122 1.4460001 4285557590
-0.12763469 -0.0084648877 1.4440001 4285491797
-0.12486838 -0.0084473016 1.4410001 4285557591
-0.1221974 -0.0084355772 1.439 4285820763
-0.11961655 -0.0084297154 1.4380001 4285754971
-0.11703917 -0.0084238527 1.437 4285491799
-0.11454497 -0.0084238527 1.437 4285294679
-0.11205077 -0.0084238527 1.437 4285492315
-0.10955657 -0.0084238527 1.437 4285689694
-0.10683886 -0.0084062666 1.434 4285755487
-0.10442264 -0.0084121292 1.4350001 4285492315
-0.10193191 -0.0084121292 1.4350001 4285426008
-0.099441186 -0.0084121292 1.4350001 4285557338
-0.096950464 -0.0084121292 1.4350001 4285820510
-0.094459735 -0.0084121292 1.4350001 4285688924
-0.091840826 -0.0084004039 1.4330001 4285688924
-0.089166507 -0.0083828187 1.4300001 4285557338
-0.086623833 -0.0083769569 1.429 4285820510
-0.084143519 -0.0083769569 1.429 4285623131
-0.081663206 -0.0083769569 1.429 4285886557
-0.07923831 -0.0083828187 1.4300001 4286018143
-0.076756261 -0.0083828187 1.4300001 4285886557
-0.074274212 -0.0083828187 1.4300001 4285886303
-0.071741961 -0.0083769569 1.429 4285952096
-0.069164708 -0.0083652316 1.427 4286215268
-0.066641137 -0.0083593698 1.4260001 4286215268
-0.064166032 -0.0083593698 1.4260001 4286347624
-0.06177745 -0.0083710933 1.4280001 4286347626
-0.059381921 -0.0083828187 1.4300001 4286939510
-0.057098828 -0.0084121292 1.4350001 4287465602
-0.054912534 -0.008459026 1.4430001 4288189585
-0.052589513 -0.0084883366 1.4480001 4286479482
-0.25532857 -0.005802121 1.4020001 4290757568
-0.25289512 -0.005802121 1.4020001 4289638059
-0.25046167 -0.005802121 1.4020001 4290097835
-0.24820514 -0.0058062598 1.4030001 4290163880
-0.24647066 -0.0058228136 1.4070001 4290294952
-0.24454883 -0.0058352291 1.4100001 4290426022
-0.24313171 -0.00586006 1.416 4290426020
-0.24169376 -0.0058848904 1.4220001 4290031262
-0.23989855 -0.0059014442 1.4260001 4289374102
-0.23875539 -0.0059345518 1.434 4288781965
-0.23741975 -0.0059635211 1.4410001 4288057472
-0.23557068 -0.0059800749 1.4450001 4287202417
-0.23419164 -0.0060090441 1.452 4285754971
-0.23262873 -0.006033875 1.4580001 4285689178
-0.23072934 -0.0060504288 1.462 4285689692
-0.22912824 -0.0060752593 1.4680001 4285689692
-0.22750631 -0.0061000902 1.4740001 4285097555
-0.22525311 -0.0061083673 1.4760001 4285360729
-0.22314385 -0.0061207828 1.4790001 4285426524
-0.22117332 -0.0061373366 1.483 4285228890
-0.21874668 -0.0061414749 1.4840001 4285557857
-0.21602523 -0.0061373366 1.483 4286084201
-0.21258759 -0.0061125057 1.4770001 4287005304
-0.20945518 -0.0060959519 1.473 4294834671
-0.20577481 -0.0060628443 1.465 4291939779
-0.20212223 -0.0060297363 1.457 4284570961
-0.19808643 -0.0059842137 1.4460001 4285426524
-0.17095448 -0.0059138597 1.429 4288518278
-0.16870996 -0.0059221364 1.4310001 4287794555
-0.16680698 -0.005942829 1.4360001 4286346853
-0.16511549 -0.0059717977 1.4430001 4285689179
-0.16261087 -0.0059717977 1.4430001 4285820508
-0.16021721 -0.0059759365 1.4440001 4285952094
-0.15771087 -0.0059759365 1.4440001 4286017630
-0.15477459 -0.0059593827 1.4400001 4286083167
-0.15227519 -0.0059593827 1.4400001 4286346595
-0.14967178 -0.0059552444 1.439 4286215009
-0.14717411 -0.0059552444 1.439 4286215008
-0.14467643 -0.0059552444 1.439 4286215008
-0.14247517 -0.0059676599 1.442 4286215008
-0.1402635 -0.0059800749 1.4450001 4285886043
-0.13785075 -0.0059842137 1.4460001 4285886556
-0.13552813 -0.0059924908 1.4480001 4286083935
-0.13292296 -0.005988352 1.447 4285820762
-0.13032129 -0.0059842137 1.4460001 4285689175
-0.12736952 -0.0059635211 1.4410001 4285491798
-0.12452176 -0.0059469673 1.437 4285491799
-0.12194265 -0.005942829 1.4360001 4285557592
-0.11878473 -0.0059097214 1.4280001 4285623385
-0.11614325 -0.0059014442 1.4260001 4285491544
-0.11358844 -0.0058973054 1.4250001 4285623131
-0.11119304 -0.0059014442 1.4260001 4285754975
-0.10871793 -0.0059014442 1.4260001 4285754976
-0.10646634 -0.0059138597 1.429 4285754719
-0.10420433 -0.0059262747 1.432 4285491547
-0.10178985 -0.0059304135 1.4330001 4285623132
-0.099510483 -0.005942829 1.4360001 4285359960
-0.09708558 -0.0059469673 1.437 4285359960
-0.094525553 -0.005942829 1.4360001 4285425754
-0.091904916 -0.0059345518 1.434 4285754717
-0.089291207 -0.0059262747 1.432 4285754717
-0.086805694 -0.0059262747 1.432 4286017889
-0.084261291 -0.0059221364 1.4310001 4286149475
-0.081834652 -0.0059262747 1.432 4285952096
-0.079404548 -0.0059304135 1.4330001 4285952096
-0.076917291 -0.0059304135 1.4330001 4285886303
-0.074378088 -0.0059262747 1.432 4285886303
-0.071792163 -0.005917998 1.4300001 4286215269
-0.069213182 -0.0059097214 1.4280001 4286281063
-0.066734605 -0.0059097214 1.4280001 4286346856
-0.064256027 -0.0059097214 1.4280001 4286478442
-0.061820708 -0.0059138597 1.429 4286610798
-0.05942345 -0.0059221364 1.4310001 4287136888
-0.057138614 -0.005942829 1.4360001 4287663235
-0.054950587 -0.0059759365 1.4440001 4287926668
-0.052625831 -0.0059966287 1.4490001 4286545532
-0.25908193 -0.0033710746 1.396 4293718258
-0.25665891 -0.0033710746 1.396 4291941328
-0.25405377 -0.0033686596 1.3950001 4289967534
-0.25145209 -0.0033662447 1.3940001 4290229933
-0.24921116 -0.0033686596 1.3950001 4290295208
-0.24732058 -0.0033759039 1.3980001 4290426792
-0.24612029 -0.0033928077 1.4050001 4290426020
-0.24437539 -0.0034024669 1.409 4290360229
-0.24330343 -0.0034217853 1.4170001 4290294434
-0.24203372 -0.003438689 1.424 4289570711
-0.23989855 -0.0034435187 1.4260001 4288320644
-0.2385889 -0.0034604224 1.4330001 4287004784
-0.23725499 -0.0034773259 1.4400001 4287202163
-0.23524465 -0.0034845704 1.4430001 4285820764
-0.23403034 -0.0035038891 1.4510001 4285754971
-0.23262873 -0.0035207926 1.4580001 4286083936
-0.23057152 -0.0035280369 1.4610001 4285755485
-0.22912824 -0.0035449406 1.4680001 4285755485
-0.22750631 -0.0035594297 1.4740001 4285360727
-0.22525311 -0.0035642593 1.4760001 4285492315
-0.22299297 -0.0035690889 1.478 4285623901
-0.22072589 -0.0035739185 1.48 4285294938
-0.21830446 -0.0035763332 1.4810001 4285294683
-0.21558823 -0.0035739185 1.48 4286413164
-0.21244366 -0.0035642593 1.4760001 4287663231
-0.20931299 -0.0035545998 1.4720001 4291940033
-0.20563436 -0.0035352812 1.4640001 4291610811
-0.20128988 -0.0035038891 1.4510001 4284965974
-0.19781244 -0.0034869853 1.4440001 4285228887
-0.17083485 -0.0034483483 1.4280001 4288452225
-0.16847417 -0.0034507629 1.429 4287662709
-0.16669081 -0.003465252 1.4350001 4286215008
-0.16500106 -0.0034821557 1.442 4285886043
-0.16261087 -0.0034845704 1.4430001 4286017629
-0.16021721 -0.0034869853 1.4440001 4286214752
-0.15760165 -0.0034845704 1.4430001 4286017373
-0.15477459 -0.0034773259 1.4400001 4286017374
-0.15216945 -0.0034749112 1.439 4286148960
-0.14956775 -0.0034724963 1.4380001 4286280802
-0.14707182 -0.0034724963 1.4380001 4286280802
-0.14467643 -0.0034749112 1.439 4286215008
-0.14247517 -0.0034821557 1.442 4286412387
-0.14016643 -0.0034869853 1.4440001 4286215008
-0.13775542 -0.0034894 1.4450001 4285952093
-0.13543452 -0.0034942296 1.447 4286149728
-0.13283111 -0.0034918147 1.4460001 4285886556
-0.13023117 -0.0034894 1.4450001 4285557847
-0.12710434 -0.0034724963 1.4380001 4285360726
-0.1242618 -0.0034628371 1.434 4285360470
-0.12177281 -0.0034628371 1.434 4285623385
-0.11795289 -0.0034242002 1.4180001 4285754971
-0.11549167 -0.0034242002 1.4180001 4285557594
-0.11303046 -0.0034242002 1.4180001 4285754717
-0.11056924 -0.0034242002 1.4180001 4285754718
-0.10818426 -0.0034266151 1.419 4285952098
-0.10609382 -0.003438689 1.424 4285688925
-0.10398602 -0.0034507629 1.429 4285557338
-0.10171881 -0.0034580075 1.432 4285425754
-0.099441186 -0.003465252 1.4350001 4285491547
-0.09708558 -0.0034700814 1.437 4285557341
-0.094525553 -0.0034676667 1.4360001 4285491548
-0.091969006 -0.003465252 1.4350001 4285820512
-0.089353569 -0.0034604224 1.4330001 4285820510
-0.086805694 -0.0034580075 1.432 4285886046
-0.084320173 -0.0034580075 1.432 4285951838
-0.081834652 -0.0034580075 1.432 4286083423
-0.079404548 -0.0034604224 1.4330001 4286083425
-0.076809943 -0.0034555928 1.4310001 4286017632
-0.074274212 -0.0034531779 1.4300001 4286017378
-0.071741961 -0.0034507629 1.429 4286214757
-0.069213182 -0.0034483483 1.4280001 4286346856
-0.066687867 -0.0034459336 1.427 4286412649
-0.064256027 -0.0034483483 1.4280001 4286610028
-0.061820708 -0.0034507629 1.429 4286742384
-0.059381921 -0.0034531779 1.4300001 4286939509
-0.057138614 -0.0034676667 1.4360001 4287663235
-0.054950587 -0.0034869853 1.4440001 4287860875
-0.052589513 -0.0034966446 1.4480001 4286940290
-0.26169229 -0.00096554949 1.3970001 4293257965
-0.25871077 -0.00096347602 1.3940001 4291612621
-0.25592348 -0.00096209365 1.3920001 4289769899
-0.25314316 -0.00096071127 1.3900001 4290032811
-0.25091094 -0.00096140243 1.391 4290426537
-0.24867521 -0.00096209365 1.3920001 4290360999
-0.24696676 -0.00096485828 1.396 4290623399
-0.24594511 -0.00097038754 1.404 4290557606
-0.24420196 -0.00097315217 1.4080001 4290491556
-0.24330343 -0.00097937265 1.4170001 4289570454
-0.24203372 -0.00098421075 1.424 4288320644
-0.24006677 -0.00098628423 1.427 4286215268
-0.2385889 -0.00099043117 1.4330001 4286215268
-0.23709022 -0.00099457812 1.439 4285886303
-0.23524465 -0.00099734275 1.4430001 4285360213
-0.23403034 -0.001002872 1.4510001 4285426006
-0.23278828 -0.0010084013 1.4590001 4285820764
-0.23072934 -0.0010104747 1.462 4286018143
-0.22944042 -0.001016004 1.47 4285820764
-0.22766067 -0.0010194598 1.475 4285623385
-0.22525311 -0.0010201511 1.4760001 4285294936
-0.22284211 -0.0010208422 1.4770001 4285294936
-0.22042762 -0.0010215333 1.478 4285031764
-0.21786225 -0.0010215333 1.478 4285294937
-0.21515122 -0.0010208422 1.4770001 4287597692
-0.2121558 -0.0010187688 1.4740001 4288058243
-0.2091708 -0.0010166952 1.4710001 4287663486
-0.2054939 -0.0010111659 1.4630001 4285887074
-0.20101242 -0.0010014897 1.4490001 4285228373
-0.18344073 -0.00096209365 1.3920001 4289175694
-0.18076454 -0.00096071127 1.3900001 4290491553
-0.17822361 -0.00096002017 1.3890001 4290623139
-0.17619245 -0.00096209365 1.3920001 4290557346
-0.1739012 -0.0009627848 1.393 4290228382
-0.17222199 -0.00096693175 1.399 4290228894
-0.16611002 -0.00098835758 1.4300001 4286675558
-0.16477221 -0.00099526928 1.4400001 4286083422
-0.16238549 -0.00099596044 1.4410001 4286149215
-0.16021721 -0.00099803391 1.4440001 4286214751
-0.15760165 -0.00099734275 1.4430001 4286017373
-0.15477459 -0.00099526928 1.4400001 4286148703
-0.15227519 -0.00099526928 1.4400001 4286412131
-0.14956775 -0.00099388696 1.4380001 4286477925
-0.14717411 -0.00099457812 1.439 4286412388
-0.14467643 -0.00099457812 1.439 4286412388
-0.14247517 -0.00099665171 1.442 4286215008
-0.1402635 -0.00099872507 1.4450001 4286017630
-0.13785075 -0.00099941622 1.4460001 4285820507
-0.13543452 -0.0010001074 1.447 4285886556
-0.13264738 -0.00099803391 1.4440001 4285557592
-0.12996079 -0.00099665171 1.442 4285294933
-0.12692758 -0.00099250465 1.4360001 4285229141
-0.11931018 -0.00097107876 1.4050001 4285360213
-0.11662198 -0.00096900528 1.4020001 4286017888
-0.11418853 -0.00096900528 1.4020001 4286873198
-0.11175508 -0.00096900528 1.4020001 4286610026
-0.10939961 -0.00096969638 1.4030001 4286149475
-0.1071169 -0.00097107876 1.4050001 4285952096
-0.1056468 -0.00098006381 1.4180001 4285228373
-0.10362219 -0.00098421075 1.424 4285425752
-0.10143469 -0.00098697538 1.4280001 4285821025
-0.099510483 -0.00099250465 1.4360001 4285426268
-0.097288266 -0.00099526928 1.4400001 4285360731
-0.094723031 -0.00099457812 1.439 4285623903
-0.092097186 -0.0009931958 1.437 4285952868
-0.089478277 -0.00099181349 1.4350001 4285952096
-0.086987555 -0.00099181349 1.4350001 4285754717
-0.084437944 -0.00099112233 1.434 4286083681
-0.081891797 -0.00099043117 1.4330001 4286280804
-0.079404548 -0.00099043117 1.4330001 4286280804
-0.076863609 -0.00098974002 1.432 4286346342
-0.074326158 -0.00098904886 1.4310001 4286281063
-0.071842372 -0.00098904886 1.4310001 4285952098
-0.069310114 -0.00098835758 1.4300001 4286215270
-0.066828065 -0.00098835758 1.4300001 4286478442
-0.064346015 -0.00098835758 1.4300001 4286347626
-0.06195049 -0.00098974002 1.432 4286610796
-0.059464972 -0.00098974002 1.432 4286939509
-0.057178404 -0.0009931958 1.437 4287597440
-0.054988641 -0.00099872507 1.4450001 4288057739
-0.052625831 -0.0010014897 1.4490001 4286939518
-0.26169229 0.0014423903 1.3970001 4292467930
-0.25852516 0.0014382603 1.393 4289901485
-0.25573963 0.0014361953 1.391 4290361261
-0.25314316 0.0014351628 1.3900001 4290427051
-0.25073054 0.0014351628 1.3900001 4290492584
-0.24849656 0.0014361953 1.391 4290557606
-0.24714367 0.0014423903 1.3970001 4290557606
-0.24612029 0.0014506502 1.4050001 4290557606
-0.24454883 0.0014558126 1.4100001 4290294434
-0.24347514 0.0014640725 1.4180001 4289110160
-0.24220368 0.0014713 1.4250001 4287202163
-0.240235 0.0014743975 1.4280001 4286281061
-0.23875539 0.0014805924 1.434 4285754717
-0.23725499 0.0014867875 1.4400001 4285557338
-0.23540767 0.0014909174 1.4440001 4285426006
-0.23419164 0.0014991773 1.452 4285491799
-0.23294783 0.0015074372 1.46 4285754971
-0.23104499 0.0015115672 1.4640001 4285820764
-0.22944042 0.0015177622 1.47 4285228627
-0.22766067 0.0015229246 1.475 4285031248
-0.22525311 0.0015239571 1.4760001 4285030994
-0.22284211 0.0015249896 1.4770001 4285162580
-0.22027847 0.0015249896 1.4770001 4285228886
-0.21771485 0.0015249896 1.4770001 4286018403
-0.21500555 0.0015239571 1.4760001 4287597434
-0.21186793 0.0015198272 1.4720001 4287926398
-0.2088864 0.0015167296 1.4690001 4287334517
-0.18786715 0.0014341304 1.3890001 4285491288
-0.18532275 0.0014330979 1.388 4287465077
-0.18251826 0.0014300004 1.3850001 4290096796
-0.17985421 0.0014279354 1.383 4290228382
-0.17745374 0.0014279354 1.383 4290426018
-0.17543299 0.0014310328 1.386 4290360481
-0.17327701 0.0014330979 1.388 4290360481
-0.17148337 0.0014382603 1.393 4290492066
-0.16979375 0.0014444554 1.399 4290163101
-0.1677244 0.0014475527 1.4020001 4289965722
-0.16705941 0.0014630401 1.4170001 4289044363
-0.16408567 0.0014805924 1.434 4286280801
-0.16182205 0.0014826574 1.4360001 4286609766
-0.15977341 0.0014867875 1.4400001 4286675559
-0.15727399 0.0014867875 1.4400001 4286477924
-0.15466711 0.001485755 1.439 4286609254
-0.15216945 0.001485755 1.439 4286543461
-0.14956775 0.0014847225 1.4380001 4286609255
-0.14717411 0.001485755 1.439 4286609255
-0.14477697 0.0014867875 1.4400001 4286478182
-0.14257398 0.0014898849 1.4430001 4286543976
-0.1402635 0.0014919499 1.4450001 4286149217
-0.13785075 0.0014929824 1.4460001 4285886302
-0.13524733 0.0014919499 1.4450001 4285623131
-0.13246366 0.0014888523 1.442 4285294165
-0.12978053 0.0014867875 1.4400001 4285359959
-0.11812133 0.0014361953 1.391 4289504918
-0.11554059 0.0014341304 1.3890001 4290031262
-0.11312972 0.0014341304 1.3890001 4290623399
-0.11063912 0.0014330979 1.388 4290623399
-0.10838593 0.0014351628 1.3900001 4289768090
-0.10612578 0.0014372278 1.3920001 4290623399
-0.099510483 0.0014826574 1.4360001 4285031764
-0.097423382 0.0014888523 1.442 4285229143
-0.09485469 0.0014878198 1.4410001 4285558108
-0.092289455 0.0014867875 1.4400001 4285821280
-0.089665338 0.0014847225 1.4380001 4285558108
-0.087048166 0.0014826574 1.4360001 4285492315
-0.084496826 0.001481625 1.4350001 4285623901
-0.081948951 0.0014805924 1.434 4286017889
-0.079459958 0.0014805924 1.434 4285886305
-0.076917291 0.0014795599 1.4330001 4286083684
-0.074378088 0.0014785274 1.432 4286149477
-0.071892574 0.0014785274 1.432 4286149477
-0.069407053 0.0014785274 1.432 4285952611
-0.066874802 0.0014774951 1.4310001 4286150247
-0.064436011 0.0014785274 1.432 4286413417
-0.062037017 0.0014805924 1.434 4286545003
-0.059548028 0.0014805924 1.434 4287005556
-0.057218198 0.0014847225 1.4380001 4287729025
-0.054988641 0.0014919499 1.4450001 4287992200
-0.052625831 0.0014960798 1.4490001 4287202945
-0.26131767 0.0038448179 1.3950001 4290296500
-0.258154 0.0038337929 1.391 4290164653
-0.25555578 0.0038310371 1.3900001 4290229159
-0.25296107 0.0038282808 1.3890001 4290097826
-0.25091094 0.0038337929 1.391 4290097054
-0.24867521 0.0038365494 1.3920001 4290360481
-0.24732058 0.0038530859 1.3980001 4290360227
-0.24647066 0.0038778912 1.4070001 4290360227
-0.24454883 0.0038861597 1.4100001 4289570711
-0.24347514 0.003908209 1.4180001 4287333749
-0.24220368 0.0039275023 1.4250001 4285952096
-0.240235 0.0039357701 1.4280001 4286017889
-0.23875539 0.0039523076 1.434 4286083682
-0.2375845 0.0039743562 1.442 4286017889
-0.23557068 0.003982625 1.4450001 4285820510
-0.23419164 0.0040019178 1.452 4285623385
-0.23294783 0.0040239668 1.46 4285820251
-0.23088714 0.0040322356 1.4630001 4285688665
-0.22944042 0.0040515284 1.47 4285228116
-0.22766067 0.0040653092 1.475 4285228116
-0.22525311 0.004068065 1.4760001 4285228373
-0.22284211 0.0040708212 1.4770001 4285030994
-0.22027847 0.0040708212 1.4770001 4285228373
-0.21771485 0.0040708212 1.4770001 4286149729
-0.21485989 0.0040653092 1.475 4287794554
-0.21172401 0.0040542842 1.4710001 4287202417
-0.208602 0.0040432597 1.4670001 4287004781
-0.18746139 0.0038200126 1.386 4286807148
-0.18478869 0.0038145001 1.3840001 4290294177
-0.1821229 0.0038089878 1.3820001 4290491555
-0.17959413 0.0038062318 1.381 4290360225
-0.17706881 0.0038034755 1.3800001 4290426274
-0.17505327 0.003811744 1.383 4290557859
-0.17290248 0.0038172563 1.3850001 4290492066
-0.17136027 0.0038365494 1.3920001 4290228895
-0.16979375 0.0038558424 1.399 4289965722
-0.16784404 0.0038668667 1.4030001 4289636757
-0.16694151 0.0039026965 1.416 4288781448
-0.16339912 0.0039357701 1.4280001 4286807145
-0.16137129 0.0039467951 1.432 4287662454
-0.15921864 0.0039550634 1.4350001 4287728247
-0.15694635 0.0039605754 1.437 4288188541
-0.15445215 0.0039605754 1.437 4287793783
-0.15195794 0.0039605754 1.437 4287596405
-0.14946374 0.0039605754 1.437 4287727734
-0.14707182 0.0039633317 1.4380001 4287727735
-0.14467643 0.0039660879 1.439 4287464819
-0.14247517 0.0039743562 1.442 4287201906
-0.1402635 0.003982625 1.4450001 4287267699
-0.13775542 0.003982625 1.4450001 4286741612
-0.13515373 0.0039798687 1.4440001 4285952096
-0.13227995 0.0039688442 1.4400001 4285557338
-0.12960029 0.0039633317 1.4380001 4285557338
-0.11769672 0.0038200126 1.386 4290623399
-0.1151247 0.0038145001 1.3840001 4290426020
-0.11272249 0.0038145001 1.3840001 4290557606
-0.11032028 0.0038145001 1.3840001 4290557606
-0.10807402 0.0038200126 1.386 4290491813
-0.10582082 0.0038255248 1.388 4290426020
-0.099441186 0.0039550634 1.4350001 4284900178
-0.097423382 0.0039743562 1.442 4285294936
-0.094920509 0.0039743562 1.442 4285229143
-0.092289455 0.0039688442 1.4400001 4285689694
-0.089665338 0.0039633317 1.4380001 4285623901
-0.087108783 0.0039605754 1.437 4285558108
-0.084496826 0.0039550634 1.4350001 4286018659
-0.082006097 0.0039550634 1.4350001 4285755487
-0.079459958 0.0039523076 1.434 4285821282
-0.076917291 0.0039495509 1.4330001 4286018661
-0.074378088 0.0039467951 1.432 4286084200
-0.071892574 0.0039467951 1.432 4286281579
-0.069407053 0.0039467951 1.432 4286018407
-0.066874802 0.0039440389 1.4310001 4286084454
-0.064436011 0.0039467951 1.432 4286150247
-0.061993755 0.0039495509 1.4330001 4286676589
-0.059548028 0.0039523076 1.434 4287005556
-0.057218198 0.0039633317 1.4380001 4287465853
-0.054950587 0.0039798687 1.4440001 4287992457
-0.052625831 0.0039936495 1.4490001 4287598217
-0.26902217 0.0063165068 1.4100001 4293389293
-0.26506236 0.006280669 1.4020001 4290428089
-0.260943 0.0062403507 1.393 4289901483
-0.258154 0.0062313909 1.391 4289900709
-0.25573963 0.0062313909 1.391 4289768863
-0.25332528 0.0062313909 1.391 4290097825
-0.25127167 0.0062403507 1.393 4289834137
-0.24903251 0.0062448303 1.3940001 4289899930
-0.24767442 0.0062717092 1.4000001 4290097309
-0.24647066 0.0063030673 1.4070001 4289965469
-0.24454883 0.0063165068 1.4100001 4287728507
-0.24330343 0.0063478653 1.4170001 4286741612
-0.24220368 0.006383704 1.4250001 4285886303
-0.240235 0.006397143 1.4280001 4285425752
-0.23892191 0.0064285016 1.4350001 4285754460
-0.23774926 0.0064643403 1.4430001 4285688667
-0.23573373 0.0064777792 1.4460001 4285820253
-0.23435293 0.0065091378 1.4530001 4286017632
-0.23278828 0.0065360172 1.4590001 4285820253
-0.23072934 0.0065494562 1.462 4285951839
-0.22928432 0.0065808147 1.4690001 4285228116
-0.22766067 0.0066076936 1.475 4285293909
-0.22540574 0.0066166534 1.4770001 4285425752
-0.22314385 0.0066256127 1.4790001 4285162580
-0.22057675 0.0066256127 1.4790001 4285360216
-0.21786225 0.0066211326 1.478 4285557592
-0.21485989 0.0066076936 1.475 4286610023
-0.21129221 0.0065763351 1.4680001 4286477925
-0.20803322 0.0065539363 1.4630001 4286412131
-0.18931912 0.0061910725 1.3820001 4286017630
-0.18664986 0.0061821132 1.3800001 4289175696
-0.18398757 0.0061731534 1.378 4289965212
-0.18133222 0.0061641941 1.376 4290491556
-0.17894389 0.0061641941 1.376 4290491556
-0.17668387 0.0061686742 1.3770001 4290228895
-0.17480013 0.0061865933 1.381 4290294688
-0.17277765 0.0062000323 1.3840001 4290360481
-0.17123717 0.0062313909 1.391 4290426274
-0.16967238 0.0062627494 1.3980001 4290492066
-0.1677244 0.006280669 1.4020001 4288847241
-0.16635203 0.0063209869 1.411 4287926140
-0.1643676 0.006338906 1.4150001 4287202160
-0.16179717 0.0063344259 1.414 4287728248
-0.16035709 0.0063747442 1.4230001 4289044107
-0.15799814 0.0063792244 1.424 4288912521
-0.15585417 0.0063926638 1.427 4288846728
-0.15359229 0.0064016231 1.429 4288780678
-0.15111198 0.0064016231 1.429 4288780679
-0.14883968 0.0064105829 1.4310001 4288780678
-0.14656046 0.0064195422 1.4330001 4288977801
-0.14427426 0.0064285016 1.4350001 4288978315
-0.14207995 0.0064419415 1.4380001 4289241489
-0.13987522 0.0064553809 1.4410001 4289636247
-0.13727875 0.0064509008 1.4400001 4287991679
-0.13468575 0.0064464207 1.439 4286741613
-0.12197775 0.0061821132 1.3800001 4287596921
-0.11949583 0.0061776335 1.3790001 4290426020
-0.11701739 0.0061731534 1.378 4290557351
-0.11454241 0.0061686742 1.3770001 4290623142
-0.11215236 0.0061686742 1.3770001 4290623142
-0.10984201 0.0061731534 1.378 4290623654
-0.10776212 0.0061910725 1.3820001 4290492067
-0.10551587 0.0062000323 1.3840001 4290294688
-0.10385869 0.0062448303 1.3940001 4289900188
-0.10231236 0.0062985881 1.406 4289439637
-0.10029816 0.0063254666 1.4120001 4288387206
-0.09930259 0.0064195422 1.4330001 4284965971
-0.097355828 0.0064553809 1.4410001 4284834385
-0.094920509 0.0064598601 1.442 4284768592
-0.092353545 0.0064553809 1.4410001 4285031764
-0.089665338 0.0064419415 1.4380001 4285031764
-0.087169409 0.0064419415 1.4380001 4285163350
-0.08461459 0.0064374614 1.437 4285623901
-0.082063243 0.0064329817 1.4360001 4286018659
-0.079570778 0.0064329817 1.4360001 4286084454
-0.077024646 0.0064285016 1.4350001 4286216040
-0.074481972 0.0064240224 1.434 4286216040
-0.071942776 0.0064195422 1.4330001 4286150247
-0.069455519 0.0064195422 1.4330001 4286150247
-0.066968262 0.0064195422 1.4330001 4286347626
-0.064526007 0.0064240224 1.434 4286216040
-0.062080283 0.0064285016 1.4350001 4286545003
-0.059631076 0.0064329817 1.4360001 4287071347
-0.057257984 0.0064464207 1.439 4287400060
-0.054950587 0.0064688199 1.4440001 4287860871
-0.052589513 0.006486739 1.4480001 4287992976
-0.050491221 0.0065404964 1.46 4286808961
-0.26902217 0.008746855 1.4100001 4293257705
-0.26487333 0.008691024 1.401 4288059281
-0.26113033 0.0086475993 1.3940001 4289572260
-0.25833958 0.0086351931 1.3920001 4289966500
-0.25592348 0.0086351931 1.3920001 4289768861
-0.25350741 0.0086351931 1.3920001 4289834651
-0.25145209 0.0086475993 1.3940001 4289570965
-0.2493898 0.0086600063 1.396 4289307793
-0.24785133 0.008691024 1.401 4289242000
-0.24647066 0.0087282434 1.4070001 4288452230
-0.24454883 0.008746855 1.4100001 4287070577
-0.24330343 0.0087902779 1.4170001 4286412647
-0.24220368 0.0088399053 1.4250001 4285952096
-0.240235 0.0088585168 1.4280001 4285491545
-0.2390884 0.0089081442 1.4360001 4285425495
-0.23791401 0.0089577716 1.4440001 4285688667
-0.23589675 0.0089763813 1.447 4285754460
-0.23435293 0.0090136025 1.4530001 4285886046
-0.23278828 0.0090508228 1.4590001 4286215011
-0.23072934 0.0090694334 1.462 4286149218
-0.22928432 0.0091128573 1.4690001 4285754460
-0.22766067 0.0091500776 1.475 4285030737
-0.22555834 0.0091686882 1.478 4285096530
-0.22329473 0.0091810953 1.48 4285030994
-0.22102417 0.0091935024 1.4820001 4284702029
-0.21830446 0.0091872988 1.4810001 4284307525
-0.21515122 0.0091624847 1.4770001 4284768076
-0.21129221 0.0091066537 1.4680001 4284570184
-0.20760663 0.0090570264 1.46 4284964685
-0.18849717 0.0085359374 1.376 4288583559
-0.18597361 0.0085297339 1.3750001 4290096798
-0.1834535 0.0085235303 1.3740001 4290294177
-0.18106864 0.0085235303 1.3740001 4290623142
-0.1786838 0.0085235303 1.3740001 4290557348
-0.17655557 0.0085359374 1.376 4290228895
-0.17480013 0.0085669542 1.381 4290228895
-0.17277765 0.0085855648 1.3840001 4290294688
-0.17111406 0.0086227851 1.3900001 4290360481
-0.16942964 0.0086600063 1.396 4289768344
-0.16736551 0.008678616 1.399 4287794298
-0.16540885 0.0087034302 1.4030001 4287201904
-0.16332215 0.0087220399 1.406 4287004525
-0.16099618 0.0087282434 1.4070001 4288451971
-0.15877943 0.0087406514 1.409 4289636245
-0.1566667 0.0087592611 1.4120001 4289635988
-0.15432511 0.0087654646 1.4130001 4289373072
-0.15219502 0.0087840743 1.416 4289372816
-0.14994876 0.0087964823 1.4180001 4289767318
-0.14769556 0.0088088885 1.4200001 4289833366
-0.14523087 0.0088088885 1.4200001 4289833623
-0.1425651 0.0087964823 1.4180001 4290162588
-0.14109193 0.0088585168 1.4280001 4290557605
-0.13900161 0.00888333 1.432 4290426020
-0.13680209 0.0089019407 1.4350001 4289110160
-0.12162419 0.0085359374 1.376 4290228641
-0.11906256 0.0085235303 1.3740001 4290557606
-0.11642296 0.0085049197 1.3710001 4290491557
-0.11404331 0.0085049197 1.3710001 4290557349
-0.11174512 0.0085111232 1.3720001 4290689192
-0.10960288 0.0085297339 1.3750001 4290557606
-0.10760617 0.0085607506 1.3800001 4290294434
-0.10543963 0.0085793613 1.383 4289965982
-0.10363518 0.0086289886 1.391 4289768859
-0.10194851 0.008691024 1.401 4288781965
-0.099800929 0.0087158373 1.4050001 4287531898
-0.098540328 0.0088212956 1.4220001 4284834385
-0.097153142 0.0089205503 1.4380001 4283913283
-0.094723031 0.0089267539 1.439 4284242248
-0.092225358 0.0089267539 1.439 4284505420
-0.089602984 0.0089143477 1.437 4284834385
-0.087108783 0.0089143477 1.437 4285031764
-0.08461459 0.0089143477 1.437 4285294936
-0.082120389 0.0089143477 1.437 4285558108
-0.079626195 0.0089143477 1.437 4285952866
-0.077131994 0.0089143477 1.437 4286150245
-0.074585855 0.0089081442 1.4360001 4286216040
-0.072043188 0.0089019407 1.4350001 4286216040
-0.069503993 0.0088957362 1.434 4286216040
-0.067015 0.0088957362 1.434 4286347626
-0.064571008 0.0089019407 1.4350001 4286281833
-0.062123537 0.0089081442 1.4360001 4286216038
-0.059631076 0.0089081442 1.4360001 4286676589
-0.057257984 0.0089267539 1.439 4287334267
-0.054988641 0.0089639751 1.4450001 4287795078
-0.052589513 0.0089825848 1.4480001 4287729803
-0.050629552 0.0090818405 1.4640001 4286611836
-0.26864061 0.011161347 1.4080001 4293784049
-0.26506236 0.011113784 1.4020001 4288651931
-0.26113033 0.011050368 1.3940001 4287466884
-0.25852516 0.01104244 1.393 4288387468
-0.25610733 0.01104244 1.393 4288650125
-0.2536895 0.01104244 1.393 4288584586
-0.25163245 0.011058295 1.3950001 4288979085
-0.2493898 0.011066223 1.396 4288913035
-0.24785133 0.011105858 1.401 4288189058
-0.24629548 0.011145493 1.406 4287333749
-0.24420196 0.011161347 1.4080001 4286610026
-0.24296002 0.011216836 1.4150001 4286215011
-0.24169376 0.011272326 1.4220001 4286017632
-0.23973031 0.011296107 1.4250001 4286017632
-0.23875539 0.011367451 1.434 4285951839
-0.23774926 0.011438795 1.4430001 4285951839
-0.23573373 0.011462577 1.4460001 4286017119
-0.23419164 0.011510139 1.452 4285753947
-0.23278828 0.011565629 1.4590001 4286280291
-0.23072934 0.01158941 1.462 4286082912
-0.22928432 0.0116449 1.4690001 4285557081
-0.22781502 0.01170039 1.4760001 4285096530
-0.22555834 0.011716244 1.478 4285096530
-0.22344559 0.011740025 1.4810001 4284767822
-0.22087502 0.011740025 1.4810001 4284109892
-0.21830446 0.011740025 1.4810001 4283912513
-0.21515122 0.011708316 1.4770001 4284307012
-0.21100435 0.011621119 1.4660001 4284175427
-0.20746444 0.011565629 1.4590001 4284372806
-0.19157913 0.010947316 1.381 4287399285
-0.1882232 0.010891826 1.3740001 4290031005
-0.18583834 0.010891826 1.3740001 4290162591
-0.18331999 0.010883899 1.373 4290294177
-0.18093687 0.010883899 1.373 4290557349
-0.17855376 0.010883899 1.373 4290557348
-0.17642726 0.010899753 1.3750001 4290359968
-0.17467354 0.010939389 1.3800001 4290360224
-0.1726528 0.01096317 1.383 4290360224
-0.17111406 0.01101866 1.3900001 4289636502
-0.16930829 0.011058295 1.3950001 4288451971
-0.16712624 0.011074149 1.3970001 4287530869
-0.16505516 0.01109793 1.4000001 4287004526
-0.16262518 0.01109793 1.4000001 4287333492
-0.16042405 0.011113784 1.4020001 4288451973
-0.158216 0.011129639 1.404 4289635989
-0.15589002 0.011137567 1.4050001 4290030746
-0.1536698 0.01115342 1.4070001 4290359710
-0.15155013 0.011177202 1.4100001 4290096538
-0.14910279 0.011177202 1.4100001 4290162075
-0.14686348 0.011193056 1.4120001 4290425503
-0.14461721 0.01120891 1.414 4290228381
-0.14206241 0.011200983 1.4130001 4290360224
-0.1404991 0.011272326 1.4220001 4290360481
-0.13832214 0.011296107 1.4250001 4289702551
-0.1362301 0.011327816 1.429 4289176209
-0.12127064 0.010875972 1.3720001 4290294434
-0.11871595 0.010860117 1.3700001 4290491556
-0.1161682 0.010844263 1.368 4290557349
-0.11379377 0.010844263 1.368 4290491813
-0.11150078 0.010852191 1.3690001 4290623399
-0.10944346 0.010883899 1.373 4290294434
-0.10737225 0.010915607 1.3770001 4290031262
-0.10528714 0.010947316 1.381 4290229155
-0.10356069 0.01101866 1.3900001 4289242516
-0.10194851 0.011105858 1.401 4287597691
-0.099942997 0.01115342 1.4070001 4287202933
-0.098540328 0.011272326 1.4220001 4285492315
-0.096882895 0.011367451 1.434 4283847490
-0.094525553 0.011383306 1.4360001 4284044869
-0.092097186 0.011391234 1.437 4284768592
-0.089478277 0.011375379 1.4350001 4284900178
