# .PCD v0.7 - Point Cloud Data file format
VERSION 0.7
FIELDS x y z rgba
SIZE 4 4 4 4
TYPE F F F U
COUNT 1 1 1 1
WIDTH 1066
HEIGHT 1
VIEWPOINT 0 0 0 1 0 0 0
POINTS 1066
DATA ascii
-0.16110484 -0.021025488 1.452 4286280802
-0.15836617 -0.020996528 1.45 4286017886
-0.15574193 -0.020982046 1.4490001 4285754971
-0.15333265 -0.020996528 1.45 4285886302
-0.1509199 -0.021011006 1.4510001 4286017889
-0.14860594 -0.021039966 1.4530001 4285952096
-0.14628506 -0.021068929 1.455 4285754717
-0.143562 -0.021039966 1.4530001 4285754717
-0.14084591 -0.021011006 1.4510001 4285952096
-0.13823207 -0.020996528 1.45 4286149475
-0.13543452 -0.020953085 1.447 4286083681
-0.13273925 -0.020924125 1.4450001 4285952352
-0.13014103 -0.020909645 1.4440001 4286084195
-0.12736952 -0.020866202 1.4410001 4286413417
-0.12469508 -0.020837242 1.439 4286873968
-0.1221974 -0.020837242 1.439 4287400312
-0.11945019 -0.020793801 1.4360001 4287071347
-0.11671339 -0.020750361 1.4330001 4288716172
-0.11414641 -0.02073588 1.432 4289439895
-0.11095911 -0.020605557 1.4230001 4289834653
-0.10841298 -0.020591076 1.4220001 4290032032
-0.1057958 -0.020562114 1.4200001 4290295204
-0.10325835 -0.020547636 1.419 4290492584
-0.1007954 -0.020547636 1.419 4290426790
-0.098401725 -0.020562114 1.4200001 4290492584
-0.096072167 -0.020591076 1.4220001 4290558378
-0.093669824 -0.020605557 1.4230001 4290558379
-0.091328107 -0.020634517 1.4250001 4290558124
-0.088792384 -0.020620037 1.424 4290361260
-0.086260125 -0.020605557 1.4230001 4290164397
-0.29003572 -0.01854826 1.4540001 4292401366
-0.28652334 -0.018484477 1.4490001 4286875005
-0.28322428 -0.01843345 1.4450001 4287729283
-0.28052193 -0.018420693 1.4440001 4287860609
-0.27801558 -0.018420693 1.4440001 4288387205
-0.27589086 -0.018446207 1.4460001 4287466358
-0.27375913 -0.01847172 1.4480001 4287532151
-0.27143317 -0.018484477 1.4490001 4287268209
-0.26947492 -0.018522747 1.452 4287202415
-0.26769009 -0.018573774 1.4560001 4286741609
-0.26534501 -0.018586531 1.457 4286215009
-0.26353765 -0.018637557 1.4610001 4286083682
-0.26153773 -0.018675826 1.4640001 4286083936
-0.25935048 -0.018701341 1.4660001 4285754971
-0.25715628 -0.018726856 1.4680001 4285360213
-0.25530204 -0.018777881 1.4720001 4285294419
-0.25291881 -0.018790638 1.473 4285557591
-0.25121197 -0.018854422 1.478 4285886556
-0.24931954 -0.018905448 1.4820001 4285557591
-0.24674723 -0.018905448 1.4820001 4285886557
-0.24450444 -0.01893096 1.4840001 4286018143
-0.24192865 -0.01893096 1.4840001 4285689178
-0.23919159 -0.018918205 1.483 4285359959
-0.23581979 -0.018854422 1.478 4285359959
-0.21252324 -0.018178314 1.4250001 4285623131
-0.21049209 -0.018216586 1.4280001 4288649609
-0.2080135 -0.018216586 1.4280001 4290426533
-0.20524706 -0.018191073 1.4260001 4290624167
-0.19640474 -0.018765124 1.4710001 4285491798
-0.19451043 -0.018828908 1.4760001 4285688664
-0.19259878 -0.018892691 1.4810001 4286346594
-0.1901565 -0.018905448 1.4820001 4287465075
-0.18758421 -0.018905448 1.4820001 4288254848
-0.18413803 -0.018816151 1.475 4289044621
-0.18133166 -0.018790638 1.473 4289242000
-0.1782895 -0.018739611 1.4690001 4288386690
-0.1751416 -0.018675826 1.4640001 4285754970
-0.17248265 -0.018663071 1.4630001 4285952350
-0.16947868 -0.018612044 1.4590001 4285886557
-0.16683187 -0.018599287 1.4580001 4285952093
-0.16407584 -0.018573774 1.4560001 4286280801
-0.1612158 -0.018535502 1.4530001 4286149216
-0.15858461 -0.018522747 1.452 4285886044
-0.15606438 -0.018522747 1.452 4285886044
-0.15354414 -0.018522747 1.452 4285886301
-0.15112792 -0.018535502 1.4530001 4285886302
-0.14891277 -0.018573774 1.4560001 4285754717
-0.14648615 -0.018586531 1.457 4285557338
-0.14366083 -0.01854826 1.4540001 4285688924
-0.14094298 -0.018522747 1.452 4285952096
-0.13832742 -0.01850999 1.4510001 4286083682
-0.13562171 -0.018484477 1.4490001 4286017889
-0.13292296 -0.018458964 1.447 4286017889
-0.13032129 -0.018446207 1.4460001 4285952096
-0.12772308 -0.01843345 1.4450001 4286149988
-0.12495504 -0.01839518 1.442 4286150245
-0.12236723 -0.018382423 1.4410001 4286479210
-0.11961655 -0.018344153 1.4380001 4286150245
-0.11671339 -0.018280368 1.4330001 4286545003
-0.11406671 -0.018254856 1.4310001 4287334519
-0.11072519 -0.018114531 1.4200001 4289044880
-0.10818426 -0.018101776 1.419 4290031518
-0.10557229 -0.018076262 1.4170001 4290426533
-0.10304005 -0.018063506 1.416 4290426790
-0.10058229 -0.018063506 1.416 4290426789
-0.098193839 -0.018076262 1.4170001 4290492582
-0.09573435 -0.018076262 1.4170001 4290623911
-0.093274869 -0.018076262 1.4170001 4290689704
-0.090815388 -0.018076262 1.4170001 4290492582
-0.088293552 -0.018063506 1.416 4290558376
-0.085896417 -0.018076262 1.4170001 4290558379
-0.0835547 -0.018101776 1.419 4290558125
-0.081148885 -0.018114531 1.4200001 4290492592
-0.078961253 -0.018178314 1.4250001 4290164398
-0.076702587 -0.018229343 1.429 4290098866
-0.074274212 -0.018242098 1.4300001 4291217608
-0.29063416 -0.016075172 1.457 4292796381
-0.2873143 -0.016031038 1.4530001 4287072127
-0.2836163 -0.015964841 1.447 4287729283
-0.28091049 -0.015953807 1.4460001 4287663231
-0.27840066 -0.015953807 1.4460001 4287663483
-0.27589086 -0.015953807 1.4460001 4287071344
-0.27375913 -0.015975874 1.4480001 4286873966
-0.27124584 -0.015975874 1.4480001 4287005038
-0.26928931 -0.016008973 1.4510001 4286741865
-0.26732239 -0.016042072 1.4540001 4286609767
-0.26516291 -0.016064137 1.4560001 4286346597
-0.26353765 -0.016119303 1.4610001 4286083425
-0.26153773 -0.016152402 1.4640001 4286017886
-0.25917357 -0.016163437 1.465 4286083936
-0.25715628 -0.016196536 1.4680001 4286149728
-0.25530204 -0.016240668 1.4720001 4285886556
-0.25274709 -0.016240668 1.4720001 4285886554
-0.25104201 -0.016295834 1.4770001 4285754968
-0.24898306 -0.016328933 1.48 4285689175
-0.24641421 -0.016328933 1.48 4285754970
-0.24368063 -0.016317898 1.4790001 4285557591
-0.24095051 -0.016306866 1.478 4285623385
-0.23838516 -0.016306866 1.478 4286017889
-0.21839988 -0.015611783 1.4150001 4285162580
-0.21594387 -0.015611783 1.4150001 4285952096
-0.21318612 -0.015589717 1.4130001 4288715402
-0.21073358 -0.015589717 1.4130001 4289965469
-0.20828104 -0.015589717 1.4130001 4290097055
-0.20597416 -0.01560075 1.414 4290097055
-0.20366381 -0.015611783 1.4150001 4290294433
-0.20177658 -0.015655916 1.419 4290426274
-0.19987547 -0.015700048 1.4230001 4290294945
-0.19782174 -0.015733147 1.4260001 4290294687
-0.19573714 -0.016174469 1.4660001 4285886557
-0.1939833 -0.016240668 1.4720001 4286215522
-0.19246873 -0.016328933 1.48 4287202417
-0.19002821 -0.016339963 1.4810001 4289438866
-0.18745764 -0.016339963 1.4810001 4289965210
-0.18413803 -0.016273767 1.475 4289636757
-0.18133166 -0.016251702 1.473 4289636757
-0.1782895 -0.016207568 1.4690001 4288518276
-0.1751416 -0.016152402 1.4640001 4286083935
-0.17236476 -0.016130337 1.462 4286215521
-0.16947868 -0.016097238 1.4590001 4286149472
-0.16694631 -0.016097238 1.4590001 4286280802
-0.16407584 -0.016064137 1.4560001 4286412388
-0.16132677 -0.016042072 1.4540001 4286411874
-0.15869382 -0.016031038 1.4530001 4286214752
-0.15617186 -0.016031038 1.4530001 4286083166
-0.15375565 -0.016042072 1.4540001 4285820250
-0.15133594 -0.016053107 1.455 4285754458
-0.14901505 -0.016075172 1.457 4285688923
-0.14658669 -0.016086204 1.4580001 4285688924
-0.14375962 -0.016053107 1.455 4285557338
-0.14104004 -0.016031038 1.4530001 4285688924
-0.13842274 -0.016020007 1.452 4286017889
-0.13562171 -0.015986906 1.4490001 4286149475
-0.13301483 -0.015975874 1.4480001 4286017889
-0.13041142 -0.015964841 1.447 4285886303
-0.12763469 -0.015931742 1.4440001 4285820767
-0.12495504 -0.015909676 1.442 4286018659
-0.12236723 -0.015898643 1.4410001 4286084452
-0.11961655 -0.015865542 1.4380001 4285952866
-0.11671339 -0.015810378 1.4330001 4286018145
-0.11350872 -0.01571108 1.424 4285820510
-0.11064722 -0.015655916 1.419 4288452230
-0.10803178 -0.015633848 1.4170001 4290162848
-0.10549779 -0.015622816 1.416 4290689192
-0.10296727 -0.015611783 1.4150001 4290755240
-0.10051126 -0.015611783 1.4150001 4290557860
-0.098055243 -0.015611783 1.4150001 4290557860
-0.095531672 -0.01560075 1.414 4290557861
-0.093077391 -0.01560075 1.414 4290492068
-0.090559021 -0.015589717 1.4130001 4290623653
-0.088106483 -0.015589717 1.4130001 4290689960
-0.085775182 -0.015611783 1.4150001 4290426790
-0.083436929 -0.015633848 1.4170001 4290492327
-0.081034593 -0.015644882 1.4180001 4290426792
-0.078795023 -0.015689015 1.4220001 4290295210
-0.076487884 -0.015722113 1.4250001 4290361777
-0.074170336 -0.015755212 1.4280001 4290033072
-0.29103312 -0.013582432 1.4590001 4293125346
-0.28751203 -0.013535884 1.4540001 4287467144
-0.28400829 -0.013489338 1.4490001 4287861128
-0.28110474 -0.013470719 1.447 4287729025
-0.27859318 -0.013470719 1.447 4287400314
-0.27608165 -0.013470719 1.447 4287005553
-0.27375913 -0.013480028 1.4480001 4287005554
-0.27143317 -0.013489338 1.4490001 4287005297
-0.26928931 -0.013507956 1.4510001 4286939245
-0.26732239 -0.013535884 1.4540001 4286676073
-0.26498079 -0.013545194 1.455 4286610026
-0.26335725 -0.01359174 1.46 4286675562
-0.26135907 -0.013619669 1.4630001 4286609767
-0.25881973 -0.013619669 1.4630001 4286083936
-0.25698113 -0.013656907 1.4670001 4286018142
-0.25512862 -0.013694145 1.4710001 4285886554
-0.25274709 -0.013703454 1.4720001 4286215519
-0.25087205 -0.013740691 1.4760001 4286083933
-0.24847837 -0.013750001 1.4770001 4286018140
-0.24574825 -0.013740691 1.4760001 4285886554
-0.24269207 -0.013712763 1.473 4285754970
-0.21976332 -0.013107652 1.4080001 4285820510
-0.21716513 -0.013098342 1.4070001 4287399798
-0.21472299 -0.013098342 1.4070001 4289965469
-0.21243174 -0.013107652 1.4080001 4290426020
-0.20998788 -0.013107652 1.4080001 4290360227
-0.20769142 -0.01311696 1.409 4290491813
-0.20553716 -0.01313558 1.411 4290426019
-0.20337595 -0.013154198 1.4130001 4290426274
-0.20135 -0.013182127 1.416 4290162845
-0.19973502 -0.013237983 1.4220001 4290031258
-0.19796048 -0.01328453 1.427 4289899929
-0.19630557 -0.013340387 1.4330001 4289439122
-0.19181849 -0.013731383 1.475 4287596920
-0.18977158 -0.01376862 1.4790001 4288386691
-0.18695134 -0.013750001 1.4770001 4288715656
-0.18388835 -0.013712763 1.473 4289110413
-0.18108547 -0.013694145 1.4710001 4289439378
-0.17792541 -0.013647597 1.4660001 4288123518
-0.17502198 -0.013619669 1.4630001 4286347107
-0.17224686 -0.013601051 1.4610001 4286149729
-0.16936252 -0.013573122 1.4580001 4286280802
-0.16671744 -0.013563813 1.457 4286346339
-0.16385047 -0.013535884 1.4540001 4286609510
-0.1609939 -0.013507956 1.4510001 4286609253
-0.15836617 -0.013498647 1.45 4286477924
-0.15574193 -0.013489338 1.4490001 4286346338
-0.15333265 -0.013498647 1.45 4285688665
-0.15102391 -0.013517266 1.452 4285820251
-0.14870824 -0.013535884 1.4540001 4285623129
-0.14628506 -0.013545194 1.455 4285754715
-0.14366083 -0.013535884 1.4540001 4285623131
-0.14104004 -0.013526576 1.4530001 4285623131
-0.13832742 -0.013507956 1.4510001 4286017889
-0.13571531 -0.013498647 1.45 4286083682
-0.13310669 -0.013489338 1.4490001 4285886303
-0.13059166 -0.013489338 1.4490001 4285557338
-0.12789986 -0.013470719 1.447 4285820510
-0.12530164 -0.013461409 1.4460001 4286017889
-0.12270691 -0.0134521 1.4450001 4285820766
-0.1198661 -0.013414862 1.4410001 4286017632
-0.11687627 -0.013359006 1.4350001 4285952096
-0.11414641 -0.013331077 1.432 4286017632
-0.11088114 -0.013237983 1.4220001 4287991422
-0.10810802 -0.013200746 1.4180001 4289833883
-0.10549779 -0.013182127 1.416 4290097055
-0.10296727 -0.013172817 1.4150001 4290294433
-0.10051126 -0.013172817 1.4150001 4290623654
-0.097916648 -0.013154198 1.4130001 4290492067
-0.095396549 -0.013144889 1.4120001 4290492067
-0.092945747 -0.013144889 1.4120001 4290426274
-0.090430848 -0.01313558 1.411 4290689445
-0.087981775 -0.01313558 1.411 4290623653
-0.085593328 -0.013144889 1.4120001 4290491813
-0.083319165 -0.013172817 1.4150001 4290491813
-0.080920301 -0.013182127 1.416 4290097568
-0.078684196 -0.013219365 1.4200001 4289966243
-0.076487884 -0.013265911 1.4250001 4289703075
-0.074170336 -0.013293839 1.4280001 4289374628
-0.072043188 -0.013359006 1.4350001 4288519837
-0.29143205 -0.011082797 1.4610001 4293191397
-0.28810522 -0.011052454 1.457 4287598218
-0.28459632 -0.011014526 1.452 4287926666
-0.28149328 -0.010991768 1.4490001 4287597439
-0.27878574 -0.010984182 1.4480001 4287466106
-0.27627245 -0.010984182 1.4480001 4287070577
-0.27375913 -0.010984182 1.4480001 4287465335
-0.27124584 -0.010984182 1.4480001 4287333749
-0.26891816 -0.010991768 1.4490001 4287136370
-0.26677081 -0.011006939 1.4510001 4287070577
-0.26425231 -0.011006939 1.4510001 4287136370
-0.26227498 -0.011029697 1.4540001 4287925886
-0.2602872 -0.011052454 1.457 4287005038
-0.25793523 -0.01106004 1.4580001 4286215522
-0.25610524 -0.011090383 1.462 4286215521
-0.25460827 -0.011135898 1.4680001 4286215521
-0.25240371 -0.011151069 1.47 4286083933
-0.25053209 -0.011181411 1.4740001 4286018394
-0.24814191 -0.011188998 1.475 4285886808
-0.24524875 -0.011173826 1.473 4285754968
-0.24236256 -0.011158654 1.4710001 4285952347
-0.22204939 -0.010673166 1.4070001 4286149729
-0.21929508 -0.010657994 1.4050001 4289176207
-0.21670209 -0.010650408 1.404 4290031773
-0.21426517 -0.010650408 1.404 4290360227
-0.21212998 -0.010665581 1.406 4290426020
-0.20983875 -0.010673166 1.4070001 4290228641
-0.20754401 -0.010680752 1.4080001 4290360481
-0.20553716 -0.01070351 1.411 4290360481
-0.20323201 -0.010711095 1.4120001 4290426273
-0.20135 -0.010741438 1.416 4290031002
-0.19959454 -0.010779367 1.4210001 4289570451
-0.19768302 -0.01080971 1.4250001 4289373328
-0.19644256 -0.010877982 1.434 4288517763
-0.19116825 -0.011151069 1.47 4285820508
-0.18913002 -0.011181411 1.4740001 4287991934
-0.18657161 -0.011181411 1.4740001 4288386691
-0.18338899 -0.011143483 1.4690001 4288584069
-0.18071616 -0.011135898 1.4680001 4288255104
-0.17768267 -0.011105554 1.4640001 4287136623
-0.17478271 -0.011082797 1.4610001 4286544486
-0.17201106 -0.011067625 1.4590001 4286478437
-0.16901404 -0.011037283 1.455 4286215009
-0.16637418 -0.011029697 1.4540001 4286543717
-0.16351239 -0.011006939 1.4510001 4286740840
-0.16066104 -0.010984182 1.4480001 4286740327
-0.1579293 -0.01096901 1.4460001 4286543461
-0.155312 -0.010961425 1.4450001 4286411875
-0.15290967 -0.01096901 1.4460001 4286148703
-0.15050386 -0.010976597 1.447 4286083167
-0.14840141 -0.011006939 1.4510001 4286017630
-0.14608398 -0.011022111 1.4530001 4285688921
-0.14346321 -0.011014526 1.452 4285491544
-0.14094298 -0.011014526 1.452 4285623131
-0.13832742 -0.011006939 1.4510001 4286017889
-0.13571531 -0.010999354 1.45 4286017889
-0.13310669 -0.010991768 1.4490001 4285754717
-0.13059166 -0.010991768 1.4490001 4285425752
-0.12789986 -0.010976597 1.447 4286017889
-0.12530164 -0.01096901 1.4460001 4286149475
-0.12270691 -0.010961425 1.4450001 4286083682
-0.1198661 -0.010931082 1.4410001 4286149218
-0.11687627 -0.010885567 1.4350001 4286149218
-0.11414641 -0.01086281 1.432 4285951839
-0.11095911 -0.010794538 1.4230001 4286478183
-0.10833674 -0.010779367 1.4210001 4287465078
-0.1057213 -0.010764195 1.419 4288386437
-0.10318558 -0.010756609 1.4180001 4289241746
-0.10065332 -0.010749023 1.4170001 4289833882
-0.097985946 -0.010726266 1.414 4290360226
-0.09546411 -0.01071868 1.4130001 4290426275
-0.092945747 -0.010711095 1.4120001 4290492067
-0.090430848 -0.01070351 1.411 4290557860
-0.088044129 -0.010711095 1.4120001 4290623653
-0.085653938 -0.01071868 1.4130001 4290294433
-0.083378054 -0.010741438 1.416 4290360227
-0.081034593 -0.010756609 1.4180001 4289900446
-0.078739606 -0.010779367 1.4210001 4289637021
-0.076541558 -0.010817296 1.4260001 4288387215
-0.074170336 -0.010832466 1.4280001 4288387732
-0.072193801 -0.010908325 1.4380001 4287861649
-0.29222995 -0.0085879918 1.465 4293191399
-0.28869846 -0.0085586812 1.46 4287598476
-0.28498831 -0.0085235089 1.4540001 4287729546
-0.28188181 -0.0085059218 1.4510001 4287531648
-0.27917078 -0.0085000601 1.45 4287202937
-0.27646321 -0.0084941983 1.4490001 4287399543
-0.27394819 -0.0084941983 1.4490001 4287465335
-0.27124584 -0.0084883366 1.4480001 4287201906
-0.26854697 -0.0084824748 1.447 4287596664
-0.26603541 -0.0084824748 1.447 4288320385
-0.26352388 -0.0084824748 1.447 4288780936
-0.26119268 -0.0084883366 1.4480001 4289636245
-0.25903669 -0.0085000601 1.45 4288912522
-0.25669682 -0.0085059218 1.4510001 4286543974
-0.25487903 -0.0085293707 1.455 4286083422
-0.2532208 -0.0085586812 1.46 4286018142
-0.25120175 -0.0085762683 1.4630001 4285886555
-0.24934231 -0.0085997162 1.4670001 4286083933
-0.24679604 -0.0085997162 1.4670001 4286347105
-0.2437503 -0.0085821301 1.4640001 4286083933
-0.22822393 -0.0082948869 1.4150001 4285952349
-0.22465105 -0.0082538519 1.4080001 4288584070
-0.22126029 -0.0082186796 1.4020001 4290228895
-0.21867076 -0.0082128169 1.401 4290229409
-0.21623905 -0.0082128169 1.401 4290163616
-0.21395995 -0.0082186796 1.4020001 4290492067
-0.21197912 -0.0082362648 1.4050001 4290492067
-0.20968959 -0.0082421284 1.406 4290163102
-0.20769142 -0.0082597136 1.409 4290360481
-0.20568281 -0.0082773007 1.4120001 4290360480
-0.20337595 -0.0082831625 1.4130001 4290360480
-0.20149219 -0.0083066104 1.4170001 4289833622
-0.19959454 -0.0083300592 1.4210001 4288583810
-0.19754431 -0.0083476463 1.424 4288649603
-0.19603159 -0.0083886804 1.4310001 4287991673
-0.19012789 -0.0085704057 1.462 4284899151
-0.1875903 -0.0085704057 1.462 4285030737
-0.18517928 -0.0085762683 1.4630001 4286412389
-0.18251511 -0.0085704057 1.462 4286281315
-0.17985442 -0.0085645439 1.4610001 4286676073
-0.1771972 -0.0085586812 1.46 4286347108
-0.17418455 -0.0085352324 1.4560001 4287334003
-0.17142159 -0.0085235089 1.4540001 4287860091
-0.16831706 -0.0084941983 1.4490001 4287465076
-0.16522992 -0.0084648877 1.4440001 4286938476
-0.16238549 -0.0084473016 1.4410001 4286740840
-0.15966246 -0.0084355772 1.439 4286608997
-0.15672791 -0.0084121292 1.4350001 4286477668
-0.14789003 -0.0084766122 1.4460001 4286083423
-0.14517912 -0.0084648877 1.4440001 4285623128
-0.14296919 -0.0084824748 1.447 4285491286
-0.14084591 -0.0085059218 1.4510001 4285228114
-0.13832742 -0.0085059218 1.4510001 4285689180
-0.13590251 -0.0085117854 1.452 4285952096
-0.13338228 -0.0085117854 1.452 4285821023
-0.13077192 -0.0085059218 1.4510001 4285886560
-0.12816502 -0.0085000601 1.45 4286017889
-0.12547496 -0.0084883366 1.4480001 4285886303
-0.12287674 -0.0084824748 1.447 4286017632
-0.12003246 -0.008459026 1.4430001 4285820253
-0.11712061 -0.0084297154 1.4380001 4286017632
-0.11438555 -0.0084121292 1.4350001 4285951839
-0.11111507 -0.0083535081 1.4250001 4285754460
-0.10856546 -0.0083476463 1.424 4286083425
-0.10601932 -0.0083417837 1.4230001 4286609769
-0.10347665 -0.008335921 1.4220001 4286543976
-0.10093746 -0.0083300592 1.4210001 4287070320
-0.098263137 -0.0083124731 1.4180001 4288320644
-0.095599234 -0.0082948869 1.4150001 4289307539
-0.093077391 -0.0082890242 1.414 4290491813
-0.090559021 -0.0082831625 1.4130001 4290492069
-0.088168837 -0.0082890242 1.414 4290491813
-0.085775182 -0.0082948869 1.4150001 4290426020
-0.083495818 -0.0083124731 1.4180001 4290557606
-0.081148885 -0.0083241975 1.4200001 4289702297
-0.078961253 -0.0083535081 1.4250001 4288321161
-0.076702587 -0.0083769569 1.429 4287597442
-0.074326158 -0.0083886804 1.4310001 4287795081
-0.072394617 -0.0084531633 1.442 4287664013
-0.29242942 -0.0060669826 1.4660001 4293520878
-0.28909394 -0.0060504288 1.462 4287927442
-0.28538033 -0.0060255979 1.4560001 4287532425
-0.28227034 -0.0060131829 1.4530001 4287663493
-0.27955586 -0.0060090441 1.452 4286939510
-0.2768448 -0.0060049058 1.4510001 4287071094
-0.27394819 -0.0059966287 1.4490001 4287662716
-0.27124584 -0.0059924908 1.4480001 4287530871
-0.26854697 -0.005988352 1.447 4288123008
-0.26585156 -0.0059842137 1.4460001 4289373073
-0.2631596 -0.0059800749 1.4450001 4290031003
-0.26065153 -0.0059800749 1.4450001 4289702038
-0.25832212 -0.0059842137 1.4460001 4289767831
-0.25598919 -0.005988352 1.447 4288254592
-0.25417832 -0.0060049058 1.4510001 4286543974
-0.25252703 -0.0060255979 1.4560001 4285426005
-0.25034326 -0.006033875 1.4580001 4285623384
-0.24866244 -0.0060545672 1.4630001 4285886554
-0.24528198 -0.006033875 1.4580001 4285557589
-0.2385889 -0.0059304135 1.4330001 4285754968
-0.23494834 -0.0059014442 1.4260001 4286083933
-0.23149508 -0.0058766133 1.4200001 4286281312
-0.22774008 -0.0058435057 1.4120001 4289439377
-0.22433195 -0.0058186748 1.406 4290163101
-0.22157593 -0.0058103981 1.404 4290426273
-0.21882685 -0.005802121 1.4020001 4290492066
-0.21623905 -0.0057979827 1.401 4290229664
-0.21411255 -0.0058062598 1.4030001 4290360481
-0.21212998 -0.0058186748 1.406 4290492067
-0.20983875 -0.0058228136 1.4070001 4290228895
-0.20783882 -0.0058352291 1.4100001 4290163102
-0.20582849 -0.0058476441 1.4130001 4290097308
-0.20366381 -0.0058559212 1.4150001 4289373585
-0.20163438 -0.0058683362 1.4180001 4288057466
-0.19959454 -0.0058807521 1.4210001 4287860087
-0.19726685 -0.0058848904 1.4220001 4287136363
-0.19507267 -0.0058931671 1.424 4287202157
-0.19327728 -0.0059138597 1.429 4286807145
-0.19106402 -0.0059221364 1.4310001 4286280801
-0.1888438 -0.0059304135 1.4330001 4286017630
-0.18778704 -0.0059759365 1.4440001 4284833357
-0.18476745 -0.0059593827 1.4400001 4284109634
-0.18391353 -0.0060131829 1.4530001 4284438599
-0.18114188 -0.0060049058 1.4510001 4284175939
-0.17862339 -0.0060049058 1.4510001 4284504904
-0.17598352 -0.006000767 1.45 4286478437
-0.14036056 -0.0059842137 1.4460001 4285031248
-0.13823207 -0.006000767 1.45 4285689435
-0.1359961 -0.0060131829 1.4530001 4286018402
-0.13356601 -0.0060173213 1.4540001 4285821280
-0.1310423 -0.0060173213 1.4540001 4285952866
-0.12834181 -0.0060090441 1.452 4286149730
-0.12564826 -0.006000767 1.45 4285886558
-0.12304658 -0.0059966287 1.4490001 4285952350
-0.12019883 -0.0059800749 1.4450001 4285754971
-0.11728351 -0.0059593827 1.4400001 4285886046
-0.11454497 -0.0059469673 1.437 4285820253
-0.11134899 -0.0059097214 1.4280001 4285754460
-0.10879418 -0.0059055826 1.427 4286083425
-0.10631733 -0.0059055826 1.427 4286412390
-0.10376772 -0.0059014442 1.4260001 4286346597
-0.10115055 -0.0058931671 1.424 4286412390
-0.098471031 -0.0058807521 1.4210001 4286741355
-0.09580192 -0.0058683362 1.4180001 4286807405
-0.093209051 -0.00586006 1.416 4287531128
-0.090687208 -0.0058559212 1.4150001 4288583816
-0.088293552 -0.00586006 1.416 4289307539
-0.085896417 -0.0058641983 1.4170001 4288583816
-0.083672464 -0.0058807521 1.4210001 4288649609
-0.081320331 -0.0058890292 1.4230001 4288781195
-0.079127491 -0.0059097214 1.4280001 4286347372
-0.076863609 -0.0059262747 1.432 4286281582
-0.074481972 -0.0059345518 1.434 4287926668
-0.072495028 -0.0059759365 1.4440001 4287335048
-0.29282835 -0.0035449406 1.4680001 4293389294
-0.28948942 -0.0035352812 1.4640001 4287861651
-0.28577235 -0.0035207926 1.4580001 4287598218
-0.28265887 -0.0035135481 1.455 4287795082
-0.2799409 -0.0035111334 1.4540001 4287137148
-0.27703562 -0.0035063035 1.452 4287202682
-0.27432629 -0.0035038891 1.4510001 4288320646
-0.27143317 -0.0034990592 1.4490001 4289702297
-0.26836139 -0.0034918147 1.4460001 4289570711
-0.26511616 -0.0034821557 1.442 4289768346
-0.26243117 -0.0034797408 1.4410001 4290031516
-0.25956923 -0.0034749112 1.439 4290294175
-0.25707155 -0.0034749112 1.439 4290491554
-0.25492772 -0.0034797408 1.4410001 4290359968
-0.2529521 -0.0034869853 1.4440001 4289899417
-0.2506192 -0.0034894 1.4450001 4288781448
-0.24862623 -0.0034966446 1.4480001 4286741865
-0.24611294 -0.0034966446 1.4480001 4285162831
-0.24343142 -0.0034942296 1.447 4285294417
-0.23842241 -0.0034580075 1.432 4285754968
-0.23461881 -0.003438689 1.424 4285886554
-0.23133206 -0.0034266151 1.419 4287070828
-0.22774008 -0.0034097114 1.4120001 4289505169
-0.22449151 -0.0033976373 1.4070001 4290031513
-0.22157593 -0.0033903928 1.404 4289899927
-0.21898292 -0.0033879781 1.4030001 4290294685
-0.2163934 -0.0033855634 1.4020001 4290360480
-0.21411255 -0.0033879781 1.4030001 4290228895
-0.21212998 -0.0033952224 1.406 4290360481
-0.20983875 -0.0033976373 1.4070001 4290031515
-0.20783882 -0.0034048818 1.4100001 4289702807
-0.20582849 -0.0034121261 1.4130001 4288386690
-0.20366381 -0.0034169557 1.4150001 4287794552
-0.20135 -0.0034193706 1.416 4287531122
-0.19931363 -0.0034266151 1.419 4287596915
-0.19685067 -0.0034266151 1.419 4286872935
-0.19466169 -0.0034314445 1.4210001 4286872936
-0.19260104 -0.003438689 1.424 4287136110
-0.19052996 -0.0034459336 1.427 4287201903
-0.18831666 -0.0034507629 1.429 4288517764
-0.18674669 -0.0034676667 1.4360001 4288583813
-0.1839976 -0.0034628371 1.434 4287004781
-0.18315408 -0.0034942296 1.447 4284965198
-0.18014316 -0.0034845704 1.4430001 4284439111
-0.17776166 -0.0034869853 1.4440001 4287662967
-0.17513394 -0.0034845704 1.4430001 4289241999
-0.1399723 -0.0034821557 1.442 4285097041
-0.13794607 -0.0034942296 1.447 4285360470
-0.1359961 -0.0035087185 1.4530001 4285689179
-0.13356601 -0.0035111334 1.4540001 4285820765
-0.1310423 -0.0035111334 1.4540001 4285755228
-0.12834181 -0.0035063035 1.452 4285820764
-0.12564826 -0.0035014742 1.45 4285754971
-0.12296167 -0.0034966446 1.4480001 4285886557
-0.12019883 -0.0034894 1.4450001 4285820764
-0.11720207 -0.0034749112 1.439 4285886301
-0.11446527 -0.0034676667 1.4360001 4285820253
-0.11134899 -0.0034483483 1.4280001 4285951839
-0.10879418 -0.0034459336 1.427 4286346084
-0.10631733 -0.0034459336 1.427 4286346084
-0.10376772 -0.0034435187 1.4260001 4286346340
-0.10122159 -0.003441104 1.4250001 4286083170
-0.098540328 -0.0034338594 1.4220001 4286215269
-0.09580192 -0.0034242002 1.4180001 4286807405
-0.093209051 -0.0034193706 1.416 4286675819
-0.090687208 -0.0034169557 1.4150001 4286610026
-0.088293552 -0.0034193706 1.416 4287004784
-0.085896417 -0.0034217853 1.4170001 4287465850
-0.083672464 -0.0034314445 1.4210001 4287794815
-0.081377476 -0.003438689 1.424 4288320646
-0.079072073 -0.0034459336 1.427 4287597439
-0.076863609 -0.0034580075 1.432 4287334269
-0.074481972 -0.0034628371 1.434 4287926665
-0.072495028 -0.0034869853 1.4440001 4288190357
-0.29322734 -0.001016004 1.47 4293520880
-0.28968716 -0.0010125483 1.465 4287533199
-0.28616434 -0.0010090924 1.46 4287664524
-0.28304741 -0.0010070191 1.457 4287795080
-0.28032598 -0.0010063278 1.4560001 4287597442
-0.27760801 -0.0010056366 1.455 4287268474
-0.27451539 -0.0010035632 1.452 4287662715
-0.27180782 -0.001002872 1.4510001 4289175953
-0.26836139 -0.00099941622 1.4460001 4289636504
-0.26511616 -0.00099665171 1.442 4289833883
-0.26224905 -0.00099526928 1.4400001 4289899676
-0.25938886 -0.00099388696 1.4380001 4290228895
-0.25653565 -0.00099250465 1.4360001 4290360481
-0.25386629 -0.00099181349 1.4350001 4290557860
-0.25137556 -0.00099181349 1.4350001 4290228895
-0.24888483 -0.00099181349 1.4350001 4290228894
-0.2467375 -0.0009931958 1.437 4290360480
-0.24424329 -0.0009931958 1.437 4290163099
-0.24158087 -0.00099250465 1.4360001 4289044618
-0.23808943 -0.00098835758 1.4300001 4287005035
-0.23428927 -0.00098282832 1.4220001 4285097038
-0.23149508 -0.00098144612 1.4200001 4286873449
-0.22822393 -0.00097799033 1.4150001 4289044618
-0.22512971 -0.00097522564 1.411 4289439377
-0.22204939 -0.00097246101 1.4070001 4289307792
-0.21929508 -0.00097107876 1.4050001 4289373585
-0.21685643 -0.00097107876 1.4050001 4290031515
-0.21457037 -0.0009717698 1.406 4290031515
-0.21243174 -0.00097315217 1.4080001 4290163101
-0.21013701 -0.00097384339 1.409 4288715655
-0.20798622 -0.00097522564 1.411 4287991932
-0.20582849 -0.00097660802 1.4130001 4287465588
-0.20351988 -0.00097729906 1.414 4287334002
-0.20135 -0.00097868149 1.416 4287267950
-0.19903271 -0.00097937265 1.4170001 4287202157
-0.19657321 -0.00097937265 1.4170001 4287004778
-0.19425072 -0.00098006381 1.4180001 4287201644
-0.19192477 -0.00098075496 1.419 4287661941
-0.18946181 -0.00098075496 1.419 4288846472
-0.1873942 -0.00098282832 1.4220001 4289504659
-0.18518613 -0.00098421075 1.424 4289504915
-0.18271449 -0.00098421075 1.424 4290031259
-0.18049601 -0.00098559307 1.4260001 4290031259
-0.17814575 -0.00098628423 1.427 4289044621
-0.17566891 -0.00098628423 1.427 4289439378
-0.17246383 -0.00098213728 1.4210001 4289636501
-0.16216055 -0.00096485828 1.396 4289899416
-0.15973751 -0.00096485828 1.396 4289504659
-0.1570891 -0.00096347602 1.3940001 4289701782
-0.15455858 -0.0009627848 1.393 4290491042
-0.1518131 -0.00096071127 1.3900001 4290622885
-0.14940047 -0.00096071127 1.3900001 4290491556
-0.14709359 -0.00096140243 1.391 4290491556
-0.14509529 -0.00096416712 1.3950001 4290426020
-0.14349219 -0.00096969638 1.4030001 4290294434
-0.14135863 -0.0009717698 1.406 4290689192
-0.13987522 -0.00099596044 1.4410001 4285754971
-0.13775542 -0.00099872507 1.4450001 4285491799
-0.13590251 -0.0010035632 1.452 4285952350
-0.13365786 -0.0010056366 1.455 4285952350
-0.13113241 -0.0010056366 1.455 4285820764
-0.12843019 -0.0010042543 1.4530001 4285754971
-0.12573493 -0.001002872 1.4510001 4285689178
-0.1231315 -0.001002181 1.45 4285820764
-0.12028201 -0.00099941622 1.4460001 4285886302
-0.11736495 -0.00099596044 1.4410001 4286149475
-0.1147044 -0.00099457812 1.439 4286149218
-0.11173887 -0.00099043117 1.4330001 4285886046
-0.10894665 -0.00098766654 1.429 4286083425
-0.10646634 -0.00098766654 1.429 4286215011
-0.10391326 -0.00098697538 1.4280001 4286149218
-0.10136365 -0.00098628423 1.427 4286083425
-0.098678917 -0.00098421075 1.424 4286281061
-0.095937036 -0.00098144612 1.4200001 4286412647
-0.093340695 -0.00098006381 1.4180001 4286478954
-0.090815388 -0.00097937265 1.4170001 4286479210
-0.088418253 -0.00098006381 1.4180001 4286676589
-0.086017653 -0.00098075496 1.419 4287071348
-0.083790228 -0.0009835196 1.4230001 4287926658
-0.081606068 -0.00098697538 1.4280001 4288321161
-0.0791829 -0.00098766654 1.429 4288321163
-0.076970965 -0.00099112233 1.434 4287531649
-0.074585855 -0.00099250465 1.4360001 4287729288
-0.07254523 -0.00099872507 1.4450001 4287795599
-0.29342681 0.0015187947 1.4710001 4293389294
-0.2898849 0.0015136321 1.4660001 4287664785
-0.28636035 0.0015084697 1.4610001 4287861903
-0.28343597 0.0015064047 1.4590001 4287729287
-0.28071105 0.0015053722 1.4580001 4287860612
-0.2777988 0.0015033073 1.4560001 4287531645
-0.27489349 0.0015012424 1.4540001 4287795072
-0.27199516 0.0014991773 1.452 4288518023
-0.26873255 0.0014950474 1.4480001 4288781195
-0.26530001 0.0014898849 1.4430001 4289110160
-0.26261327 0.0014888523 1.442 4289307793
-0.25920847 0.0014836899 1.437 4289636504
-0.25653565 0.0014826574 1.4360001 4289899676
-0.25368935 0.0014805924 1.434 4290228641
-0.25102517 0.0014795599 1.4330001 4290360226
-0.24836449 0.0014785274 1.432 4290360481
-0.24605067 0.0014795599 1.4330001 4290228895
-0.24356341 0.0014795599 1.4330001 4289899929
-0.24107616 0.0014795599 1.4330001 4289637527
-0.23792294 0.00147543 1.429 4290031516
-0.23445407 0.0014692351 1.4230001 4289307793
-0.2316581 0.0014671701 1.4210001 4287926139
-0.22838522 0.0014620076 1.416 4287794553
-0.22544883 0.0014589102 1.4130001 4287860346
-0.22252283 0.0014558126 1.4100001 4288255104
-0.21976332 0.0014537477 1.4080001 4288584069
-0.21731946 0.0014537477 1.4080001 4289241999
-0.21487561 0.0014537477 1.4080001 4289570451
-0.2125826 0.0014547801 1.409 4288386177
-0.21013701 0.0014547801 1.409 4287465588
-0.20798622 0.0014568452 1.411 4287268209
-0.20582849 0.0014589102 1.4130001 4287202416
-0.20337595 0.0014589102 1.4130001 4287136364
-0.2010656 0.0014599427 1.414 4287136364
-0.19875178 0.0014609752 1.4150001 4287202157
-0.19629577 0.0014609752 1.4150001 4287399282
-0.19383976 0.0014609752 1.4150001 4287727990
-0.19124849 0.0014599427 1.414 4289372559
-0.18879421 0.0014599427 1.414 4289701525
-0.18620816 0.0014589102 1.4130001 4289964954
-0.18388566 0.0014599427 1.414 4289833624
-0.18130307 0.0014589102 1.4130001 4290096796
-0.17872395 0.0014578777 1.4120001 4290228639
-0.17627314 0.0014578777 1.4120001 4290097309
-0.17394546 0.0014589102 1.4130001 4289834136
-0.16364041 0.0014330979 1.388 4290359967
-0.16157974 0.0014361953 1.391 4290162588
-0.1588221 0.0014330979 1.388 4290294174
-0.15618758 0.0014310328 1.386 4290557090
-0.15378189 0.0014310328 1.386 4290754470
-0.15126701 0.0014300004 1.3850001 4290557090
-0.14907803 0.0014320654 1.3870001 4290491555
-0.14677636 0.0014330979 1.388 4290557349
-0.14478324 0.0014372278 1.3920001 4290491813
-0.14298083 0.0014434229 1.3980001 4290229154
-0.14085594 0.0014465202 1.401 4290163618
-0.13951105 0.0014578777 1.4120001 4290229152
-0.13571531 0.0014971122 1.45 4285952350
-0.13374971 0.0015033073 1.4560001 4285820764
-0.13122253 0.0015033073 1.4560001 4285623385
-0.1285186 0.0015012424 1.4540001 4285491544
-0.12564826 0.0014971122 1.45 4285623131
-0.12304658 0.0014960798 1.4490001 4285820510
-0.12028201 0.0014929824 1.4460001 4285688924
-0.11752785 0.0014898849 1.4430001 4285754460
-0.11478411 0.0014867875 1.4400001 4285886046
-0.11189482 0.001481625 1.4350001 4285886046
-0.10902289 0.0014764626 1.4300001 4286280804
-0.10646634 0.00147543 1.429 4286478183
-0.10391326 0.0014743975 1.4280001 4286281061
-0.10136365 0.001473365 1.427 4286149475
-0.098748215 0.0014713 1.4250001 4286478440
-0.096072167 0.0014682026 1.4220001 4286610539
-0.093472347 0.0014661376 1.4200001 4286742382
-0.090943567 0.0014651051 1.419 4286808175
-0.088480614 0.0014651051 1.419 4287005555
-0.086078271 0.0014661376 1.4200001 4287071349
-0.08384911 0.0014702675 1.424 4287531900
-0.081663206 0.00147543 1.429 4287992197
-0.07923831 0.0014764626 1.4300001 4288057991
-0.076970965 0.0014805924 1.434 4286281582
-0.074585855 0.0014826574 1.4360001 4287202944
-0.07254523 0.0014919499 1.4450001 4287992978
-0.29322734 0.0040515284 1.47 4293389294
-0.2898849 0.0040405039 1.4660001 4287862164
-0.28636035 0.0040267231 1.4610001 4287796110
-0.28363022 0.0040239668 1.46 4288058252
-0.28090358 0.0040212111 1.4590001 4287992198
-0.27818039 0.0040184548 1.4580001 4287663232
-0.27508256 0.0040101861 1.455 4287729279
-0.2723698 0.0040074303 1.4540001 4287926401
-0.26910374 0.0039964058 1.45 4288057472
-0.26585156 0.0039853808 1.4460001 4288057472
-0.2631596 0.003982625 1.4450001 4288715402
-0.26011041 0.0039743562 1.442 4289175953
-0.25707155 0.0039660879 1.439 4288978574
-0.25386629 0.0039550634 1.4350001 4289175953
-0.25085002 0.0039467951 1.432 4289307539
-0.24819106 0.0039440389 1.4310001 4289899676
-0.24553557 0.0039412826 1.4300001 4290163102
-0.24305353 0.0039412826 1.4300001 4290163102
-0.24057148 0.0039412826 1.4300001 4290097309
-0.23758993 0.0039330143 1.427 4289834137
-0.23445407 0.0039219894 1.4230001 4290097309
-0.23182112 0.0039192336 1.4220001 4288847242
-0.22870782 0.003908209 1.4180001 4287794554
-0.22576793 0.0038999405 1.4150001 4287399796
-0.22268064 0.0038889162 1.411 4287662968
-0.21976332 0.0038806475 1.4080001 4287926139
-0.21731946 0.0038806475 1.4080001 4288320897
-0.21472299 0.0038778912 1.4070001 4287465588
-0.21243174 0.0038806475 1.4080001 4287268209
-0.21013701 0.003883404 1.409 4287334002
-0.20798622 0.0038889162 1.411 4287268209
-0.20568281 0.003891672 1.4120001 4287596661
-0.20323201 0.003891672 1.4120001 4287136108
-0.20092341 0.0038944283 1.4130001 4287465329
-0.1983304 0.003891672 1.4120001 4287530865
-0.19587959 0.003891672 1.4120001 4288846471
-0.19342878 0.003891672 1.4120001 4289570194
-0.19084273 0.0038889162 1.411 4289832854
-0.18826015 0.0038861597 1.4100001 4290096283
-0.18581282 0.0038861597 1.4100001 4290162076
-0.18323542 0.003883404 1.409 4290359968
-0.18066151 0.0038806475 1.4080001 4290491554
-0.17783792 0.003872379 1.4050001 4290425760
-0.17564896 0.0038778912 1.4070001 4290228638
-0.16316882 0.0038145001 1.3840001 4290162588
-0.16088277 0.0038172563 1.3850001 4290491810
-0.15836442 0.0038145001 1.3840001 4290689189
-0.1558495 0.003811744 1.383 4290557603
-0.15356 0.0038145001 1.3840001 4290557604
-0.15126701 0.0038172563 1.3850001 4290492067
-0.14907803 0.0038227686 1.3870001 4290426019
-0.14677636 0.0038255248 1.388 4290294434
-0.14478324 0.0038365494 1.3920001 4290162848
-0.14287853 0.0038503301 1.3970001 4289834396
-0.14075539 0.0038585986 1.4000001 4289439895
-0.13931346 0.0038861597 1.4100001 4288847244
-0.13562171 0.0039936495 1.4490001 4285426006
-0.13374971 0.0040129423 1.4560001 4285031248
-0.13113241 0.0040101861 1.455 4284965455
-0.12843019 0.004004674 1.4530001 4284965457
-0.12564826 0.0039964058 1.45 4285359959
-0.12304658 0.0039936495 1.4490001 4285359959
-0.12028201 0.0039853808 1.4460001 4285425752
-0.11752785 0.0039771125 1.4430001 4285623131
-0.11478411 0.0039688442 1.4400001 4285820253
-0.11189482 0.0039550634 1.4350001 4285688667
-0.10902289 0.0039412826 1.4300001 4286017632
-0.10646634 0.0039385268 1.429 4286215268
-0.10384049 0.0039330143 1.427 4286346854
-0.10136365 0.0039330143 1.427 4286478440
-0.098748215 0.0039275023 1.4250001 4286346854
-0.096072167 0.0039192336 1.4220001 4286675819
-0.093472347 0.0039137215 1.4200001 4286610541
-0.090879478 0.003908209 1.4180001 4286939763
-0.088480614 0.0039109653 1.419 4287137142
-0.086078271 0.0039137215 1.4200001 4287071349
-0.08384911 0.0039247461 1.424 4287466107
-0.081606068 0.0039357701 1.4280001 4287663233
-0.07923831 0.0039412826 1.4300001 4287860611
-0.076970965 0.0039523076 1.434 4286018410
-0.074533917 0.0039550634 1.4350001 4286808186
-0.072444819 0.0039771125 1.4430001 4287992975
-0.29342681 0.006589774 1.4710001 4293455087
-0.2898849 0.0065673757 1.4660001 4289046437
-0.28655633 0.0065494562 1.462 4287927695
-0.28363022 0.0065404964 1.46 4287992459
-0.2810961 0.0065404964 1.46 4287861125
-0.27837119 0.0065360172 1.4590001 4287729025
-0.27546066 0.0065270574 1.457 4287992451
-0.27274445 0.0065225773 1.4560001 4287926658
-0.2696605 0.0065091378 1.4530001 4287925888
-0.26658696 0.0064956988 1.45 4287662716
-0.26370597 0.006486739 1.4480001 4287860095
-0.26083192 0.0064777792 1.4460001 4287992449
-0.25760752 0.0064598601 1.442 4288452230
-0.25457391 0.0064464207 1.439 4288452230
-0.2515507 0.0064329817 1.4360001 4288518023
-0.24871136 0.0064240224 1.434 4288781195
-0.24587896 0.0064150626 1.432 4288978574
-0.24305353 0.0064061028 1.4300001 4289110415
-0.24057148 0.0064061028 1.4300001 4289570966
-0.23775642 0.006397143 1.4280001 4289702551
-0.23478357 0.006383704 1.4250001 4289702551
-0.23214719 0.0063792244 1.424 4288847242
-0.22919168 0.0063657844 1.4210001 4287860347
-0.22624658 0.0063523455 1.4180001 4287465846
-0.22283846 0.0063254666 1.4120001 4287597175
-0.21991941 0.0063120276 1.409 4287662967
-0.2174738 0.0063120276 1.409 4287597174
-0.21487561 0.0063075474 1.4080001 4287531381
-0.21243174 0.0063075474 1.4080001 4287334003
-0.21013701 0.0063120276 1.409 4287399795
-0.20783882 0.0063165068 1.4100001 4287070574
-0.2053915 0.0063165068 1.4100001 4287070317
-0.20294416 0.0063165068 1.4100001 4287267696
-0.20049682 0.0063165068 1.4100001 4288451970
-0.19790901 0.0063120276 1.409 4289570194
-0.19532469 0.0063075474 1.4080001 4289898903
-0.19274385 0.0063030673 1.4070001 4289898903
-0.19016646 0.0062985881 1.406 4289964184
-0.18759255 0.006294108 1.4050001 4290227869
-0.18489033 0.0062851482 1.4030001 4290556834
-0.18180493 0.0062627494 1.3980001 4290688933
-0.17873687 0.0062403507 1.393 4290425761
-0.17581272 0.0062224311 1.3890001 4290294175
-0.17315216 0.0062134718 1.3870001 4290359967
-0.17037544 0.0062000323 1.3840001 4290031002
-0.16760914 0.0061865933 1.381 4290228381
-0.16497287 0.0061776335 1.3790001 4290294431
-0.16234355 0.0061686742 1.3770001 4290623396
-0.15995349 0.0061686742 1.3770001 4290557859
-0.15756343 0.0061686742 1.3770001 4290623653
-0.15551144 0.0061821132 1.3800001 4290623653
-0.15322714 0.0061865933 1.381 4290426274
-0.1511578 0.0062000323 1.3840001 4290360483
-0.14907803 0.0062134718 1.3870001 4290426020
-0.1468821 0.0062224311 1.3890001 4290228641
-0.14478324 0.006235871 1.3920001 4289899676
-0.14287853 0.0062582698 1.3970001 4289176466
-0.14065485 0.0062672296 1.399 4288518793
-0.13921463 0.0063120276 1.409 4288057728
-0.138128 0.0063747442 1.4230001 4287202163
-0.13642076 0.0064105829 1.4310001 4285426007
-0.13543452 0.0064822594 1.447 4284768076
-0.13374971 0.0065225773 1.4560001 4284570697
-0.13122253 0.0065225773 1.4560001 4284373318
-0.1285186 0.0065136179 1.4540001 4284702028
-0.12573493 0.0065001785 1.4510001 4285030994
-0.1231315 0.0064956988 1.45 4285096787
-0.12044838 0.006486739 1.4480001 4285228373
-0.11760929 0.0064688199 1.4440001 4285623131
-0.11502324 0.0064643403 1.4430001 4285754460
-0.11205077 0.0064374614 1.437 4285754460
-0.10909913 0.0064105829 1.4310001 4286280804
-0.10654084 0.0064061028 1.4300001 4286280804
-0.10391326 0.006397143 1.4280001 4286478183
-0.10143469 0.006397143 1.4280001 4286478440
-0.098748215 0.006383704 1.4250001 4286281061
-0.096072167 0.0063702646 1.4220001 4286281061
-0.093538173 0.0063657844 1.4210001 4286610540
-0.091007657 0.0063613052 1.4200001 4286610796
-0.088605322 0.0063657844 1.4210001 4286873970
-0.086199515 0.0063702646 1.4220001 4287071349
-0.083907999 0.006383704 1.4250001 4287597693
-0.08172036 0.0064061028 1.4300001 4287795072
-0.07929372 0.0064105829 1.4310001 4287663232
-0.076970965 0.0064240224 1.434 4286018410
-0.074585855 0.0064329817 1.4360001 4287005309
-0.072444819 0.0064643403 1.4430001 4287729804
-0.29362628 0.0091314679 1.4720001 4293455087
-0.29028037 0.0091066537 1.4680001 4289835954
-0.28675234 0.009075637 1.4630001 4287730317
-0.28382447 0.0090632299 1.4610001 4288057995
-0.28128862 0.0090632299 1.4610001 4287992200
-0.27856198 0.0090570264 1.46 4287794819
-0.27564976 0.0090446193 1.4580001 4287860865
-0.27293175 0.0090384157 1.457 4288058244
-0.27003166 0.0090260096 1.455 4288058244
-0.26695469 0.009007398 1.452 4287795072
-0.26407021 0.0089949919 1.45 4287729279
-0.26119268 0.0089825848 1.4480001 4287926658
-0.25832212 0.0089701787 1.4460001 4287926658
-0.25510463 0.0089453645 1.442 4287992449
-0.25190106 0.0089205503 1.4380001 4288057472
-0.24905826 0.0089081442 1.4360001 4288451973
-0.24605067 0.0088895336 1.4330001 4288846988
-0.24339345 0.00888333 1.432 4288912781
-0.2407397 0.0088771265 1.4310001 4289241489
-0.23792294 0.0088647194 1.429 4289373332
-0.23511308 0.0088523133 1.427 4289570711
-0.23247322 0.0088461088 1.4260001 4288584073
-0.22951427 0.0088274991 1.4230001 4287729277
-0.22640614 0.0088026859 1.419 4287531898
-0.22299628 0.0087654646 1.4130001 4287729275
-0.2200755 0.008746855 1.4100001 4287794555
-0.21762817 0.008746855 1.4100001 4287531383
-0.21502821 0.0087406514 1.409 4287465589
-0.2125826 0.0087406514 1.409 4287268210
-0.21028616 0.008746855 1.4100001 4287136367
-0.20783882 0.008746855 1.4100001 4287070317
-0.20524581 0.0087406514 1.409 4287333489
-0.20265628 0.008734447 1.4080001 4287596661
-0.20021242 0.008734447 1.4080001 4289175693
-0.19762811 0.0087282434 1.4070001 4289570195
-0.19504724 0.0087220399 1.406 4290162333
-0.19246987 0.0087158373 1.4050001 4290425505
-0.18989596 0.0087096337 1.404 4290622883
-0.18719201 0.0086972266 1.4020001 4290622883
-0.18344073 0.0086351931 1.3920001 4290623140
-0.1806345 0.0086165816 1.3890001 4290491554
-0.17758206 0.0085855648 1.3840001 4290228639
-0.17467354 0.0085607506 1.3800001 4290360224
-0.17202862 0.0085483445 1.378 4290360224
-0.1693906 0.0085359374 1.376 4290426017
-0.16675955 0.0085235303 1.3740001 4290623652
-0.16425507 0.0085173268 1.373 4290492067
-0.16187195 0.0085173268 1.373 4290426274
-0.159605 0.0085235303 1.3740001 4290557859
-0.15733458 0.0085297339 1.3750001 4290557860
-0.15528607 0.0085483445 1.378 4290426274
-0.15344903 0.0085793613 1.383 4290360481
-0.1511578 0.0085855648 1.3840001 4290097310
-0.14918551 0.008610378 1.388 4290097055
-0.14698786 0.0086227851 1.3900001 4289636504
-0.14488727 0.0086413957 1.393 4288518023
-0.14277627 0.0086600063 1.396 4287597178
-0.14065485 0.008678616 1.399 4287202419
-0.13901705 0.0087282434 1.4070001 4287070577
-0.13374971 0.0090322131 1.4560001 4284373320
-0.13131267 0.0090384157 1.457 4284241478
-0.12869535 0.0090322131 1.4560001 4284438857
-0.12590823 0.0090136025 1.4530001 4284504650
-0.12338625 0.0090136025 1.4530001 4284767822
-0.12061474 0.0089949919 1.45 4285228373
-0.11785363 0.0089763813 1.447 4285425752
-0.11518266 0.0089639751 1.4450001 4285557338
-0.1122847 0.0089329574 1.4400001 4285886046
-0.10925161 0.0088895336 1.4330001 4286149218
-0.10661535 0.0088771265 1.4310001 4286412647
-0.10398602 0.0088647194 1.429 4286215268
-0.10143469 0.0088585168 1.4280001 4286281061
-0.098748215 0.0088399053 1.4250001 4286412647
-0.096139722 0.0088274991 1.4230001 4286346854
-0.093603998 0.0088212956 1.4220001 4286610026
-0.091071747 0.008815092 1.4210001 4286873455
-0.088667676 0.0088212956 1.4220001 4287005554
-0.086260125 0.0088274991 1.4230001 4287202934
-0.084025763 0.0088523133 1.427 4287334521
-0.081777506 0.0088771265 1.4310001 4287663486
-0.07934913 0.00888333 1.432 4288057990
-0.077078313 0.0089081442 1.4360001 4286281582
-0.074637793 0.0089143477 1.437 4286873980
-0.072444819 0.0089515671 1.4430001 4287927183
-0.29382575 0.011676609 1.473 4292797157
-0.29047808 0.0116449 1.4690001 4289967539
-0.28694835 0.011605265 1.4640001 4287730316
-0.28382447 0.011581482 1.4610001 4288124045
-0.28128862 0.011581482 1.4610001 4288123784
-0.27856198 0.011573557 1.46 4287794818
-0.27583879 0.011565629 1.4590001 4287795072
-0.27330643 0.011565629 1.4590001 4287992451
-0.27021727 0.011541848 1.4560001 4287992451
-0.26732239 0.011525993 1.4540001 4287926658
-0.26443446 0.011510139 1.452 4287860865
-0.26173383 0.011502213 1.4510001 4288058244
-0.25885803 0.011486358 1.4490001 4287926656
-0.25563535 0.01145465 1.4450001 4287729277
-0.25242659 0.011422941 1.4410001 4287728507
-0.24957857 0.011407087 1.439 4287859836
-0.24656579 0.011383306 1.4360001 4288123265
-0.24373338 0.011367451 1.434 4288320644
-0.24107616 0.011359525 1.4330001 4288583559
-0.23825592 0.01134367 1.4310001 4288912783
-0.23544262 0.011327816 1.429 4288847758
-0.23279926 0.01131989 1.4280001 4287992449
-0.22983684 0.011296107 1.4250001 4287992449
-0.22656569 0.011256472 1.4200001 4287334519
-0.2231541 0.01120891 1.414 4287531898
-0.2200755 0.011177202 1.4100001 4287663484
-0.21762817 0.011177202 1.4100001 4287466105
-0.21487561 0.011161347 1.4080001 4287333749
-0.21243174 0.011161347 1.4080001 4287267956
-0.21013701 0.011169274 1.409 4287070319
-0.20769142 0.011169274 1.409 4287267698
-0.20510015 0.011161347 1.4080001 4287859834
-0.20251235 0.01115342 1.4070001 4288517764
-0.19992803 0.011145493 1.406 4288649350
-0.19734718 0.011137567 1.4050001 4288320385
-0.19490853 0.011137567 1.4050001 4289833624
-0.19233288 0.011129639 1.404 4290228639
-0.18962546 0.011113784 1.4020001 4290425762
-0.18679145 0.011090003 1.399 4290491813
-0.18317717 0.01101866 1.3900001 4290491813
-0.18037441 0.010994879 1.3870001 4290360227
-0.17719713 0.010947316 1.381 4290031518
-0.17416725 0.01090768 1.376 4290360225
-0.17165409 0.010899753 1.3750001 4290492067
-0.16902129 0.010883899 1.373 4290557860
-0.16651683 0.010875972 1.3720001 4290623653
-0.16413544 0.010875972 1.3720001 4290557860
-0.16175407 0.010875972 1.3720001 4290294688
-0.159605 0.010891826 1.3740001 4290097566
-0.15733458 0.010899753 1.3750001 4290163617
-0.15528607 0.010923535 1.378 4290097824
-0.15333809 0.010955243 1.3820001 4290295202
-0.1511578 0.010971096 1.3840001 4289834652
-0.14918551 0.011002805 1.388 4289308052
-0.1468821 0.011010733 1.3890001 4287662714
-0.14478324 0.011034514 1.3920001 4287399542
-0.142674 0.011058295 1.3950001 4287202163
-0.14045377 0.011074149 1.3970001 4287202163
-0.13881943 0.011137567 1.4050001 4287267956
-0.13356601 0.011525993 1.4540001 4284570443
-0.13122253 0.011541848 1.4560001 4284767822
-0.12869535 0.011541848 1.4560001 4284373064
-0.12590823 0.011518066 1.4530001 4284438857
-0.12338625 0.011518066 1.4530001 4284373834
-0.12061474 0.011494285 1.45 4284637006
-0.11785363 0.011470503 1.447 4285162837
-0.11518266 0.01145465 1.4450001 4285359959
-0.1122847 0.011415014 1.4400001 4285886303
-0.10925161 0.011359525 1.4330001 4286017889
-0.10654084 0.011335743 1.4300001 4286083682
-0.10391326 0.01131989 1.4280001 4286215268
