# .PCD v0.7 - Point Cloud Data file format
VERSION 0.7
FIELDS x y z rgba
SIZE 4 4 4 4
TYPE F F F U
COUNT 1 1 1 1
WIDTH 872
HEIGHT 1
VIEWPOINT 0 0 0 1 0 0 0
POINTS 872
DATA ascii
-0.16043913 0.021432171 1.4460001 4289837243
-0.15782009 0.02141735 1.4450001 4288455077
-0.15498956 0.021372885 1.442 4288323234
-0.15248668 0.021372885 1.442 4289507506
-0.14987978 0.021358063 1.4410001 4288454047
-0.1475832 0.021387707 1.4430001 4289572015
-0.14507858 0.021387707 1.4430001 4289242793
-0.14227757 0.021343241 1.4400001 4290755520
-0.1396811 0.021328419 1.439 4284965737
-0.13746943 0.021372885 1.442 4282531909
-0.13506013 0.021387707 1.4430001 4287795605
-0.13255553 0.021387707 1.4430001 4292203737
-0.13014103 0.021402529 1.4440001 4286808711
-0.12772308 0.02141735 1.4450001 4287401104
-0.12521499 0.02141735 1.4450001 4287730324
-0.12262199 0.021402529 1.4440001 4292007127
-0.1198661 0.021358063 1.4410001 4293323245
-0.15944055 0.023775661 1.437 4288719019
-0.15694635 0.023775661 1.437 4288455847
-0.15445215 0.023775661 1.437 4288587175
-0.15195794 0.023775661 1.437 4288455331
-0.14925572 0.023742571 1.4350001 4289375660
-0.14666273 0.023726026 1.434 4288651167
-0.14417374 0.023726026 1.434 4290887617
-0.14138833 0.02367639 1.4310001 4286873732
-0.13880749 0.023659846 1.4300001 4281347120
-0.1362301 0.023643298 1.429 4281215534
-0.13384339 0.023659846 1.4300001 4281873463
-0.1314532 0.02367639 1.4310001 4285426286
-0.12896942 0.02367639 1.4310001 4284242525
-0.12657401 0.023692934 1.432 4284374367
-0.12408849 0.023692934 1.432 4284834917
-0.12151806 0.02367639 1.4310001 4292335320
-0.11911745 0.023692934 1.432 4294046196
-0.11687627 0.023742571 1.4350001 4292533471
-0.11454497 0.023775661 1.437 4290165694
-0.11197279 0.023759115 1.4360001 4285362806
-0.16170935 0.02621601 1.4350001 4287534231
-0.15899673 0.026179472 1.4330001 4288719020
-0.15661868 0.026197741 1.434 4287205780
-0.1541297 0.026197741 1.434 4289048237
-0.15153496 0.026179472 1.4330001 4289311409
-0.14904772 0.026179472 1.4330001 4289047983
-0.14645816 0.026161201 1.432 4288981927
-0.14387211 0.026142934 1.4310001 4289572783
-0.14119072 0.026106395 1.429 4282662983
-0.13851628 0.026069857 1.427 4281017645
-0.1359441 0.026051588 1.4260001 4281281331
-0.13346899 0.026051588 1.4260001 4280821548
-0.13117762 0.026088126 1.4280001 4289111720
-0.12878916 0.026106395 1.429 4291610568
-0.12639724 0.026124666 1.4300001 4284900450
-0.12382853 0.026106395 1.429 4284636253
-0.1212633 0.026088126 1.4280001 4287070850
-0.1188679 0.026106395 1.429 4294176494
-0.11646905 0.026124666 1.4300001 4293651434
-0.11406671 0.026142934 1.4310001 4293389548
-0.11166089 0.026161201 1.432 4287862939
-0.16397125 0.028649461 1.4330001 4288586664
-0.16092055 0.0285495 1.4280001 4288849836
-0.15844196 0.0285495 1.4280001 4288981933
-0.15596339 0.0285495 1.4280001 4288915883
-0.15348481 0.0285495 1.4280001 4288259236
-0.15100624 0.0285495 1.4280001 4289116082
-0.14852765 0.0285495 1.4280001 4287930270
-0.14604908 0.0285495 1.4280001 4289309608
-0.14346996 0.028529506 1.427 4288648853
-0.14079551 0.028489523 1.4250001 4287660421
-0.13803093 0.028429544 1.4220001 4285161316
-0.13546742 0.02840955 1.4210001 4287070088
-0.13309461 0.028429544 1.4220001 4289374124
-0.13081017 0.028469529 1.424 4285822324
-0.12842865 0.028489523 1.4250001 4294769146
-0.12595528 0.028489523 1.4250001 4289570215
-0.12348192 0.028489523 1.4250001 4283386442
-0.12100855 0.028489523 1.4250001 4283254855
-0.118452 0.028469529 1.424 4290163120
-0.11598036 0.028469529 1.424 4290361528
-0.11366814 0.028509516 1.4260001 4290033592
-0.11127102 0.028529506 1.427 4289112492
-0.10879418 0.028529506 1.427 4288981935
-0.10624283 0.028509516 1.4260001 4288917168
-0.10376772 0.028509516 1.4260001 4288390567
-0.10136365 0.028529506 1.427 4288916143
-0.099025398 0.028569493 1.429 4288456106
-0.096612647 0.028589483 1.4300001 4289705914
-0.093998954 0.0285495 1.4280001 4287929503
-0.091840826 0.028649461 1.4330001 4289245363
-0.089540631 0.02870944 1.4360001 4288323490
-0.086805694 0.028629471 1.432 4289508278
-0.16374239 0.031076021 1.4310001 4287797148
-0.16080785 0.030989155 1.427 4288784557
-0.15822005 0.03096744 1.4260001 4288653223
-0.15574494 0.03096744 1.4260001 4287995035
-0.15305488 0.030924007 1.424 4288851625
-0.15068899 0.030945724 1.4250001 4288192668
-0.14831963 0.03096744 1.4260001 4285889141
-0.14584452 0.03096744 1.4260001 4287005052
-0.14316835 0.030924007 1.424 4287791226
-0.1404991 0.030880576 1.4220001 4288250489
-0.1378368 0.030837141 1.4200001 4287922553
-0.13527678 0.030815426 1.419 4288911256
-0.13290741 0.030837141 1.4200001 4292465113
-0.13053457 0.030858858 1.4210001 4285821302
-0.12806815 0.030858858 1.4210001 4288255127
-0.12569012 0.030880576 1.4220001 4283319366
-0.12322196 0.030880576 1.4220001 4286082155
-0.12075379 0.030880576 1.4220001 4286213741
-0.11820244 0.030858858 1.4210001 4286477685
-0.11581746 0.030880576 1.4220001 4290623930
-0.11342901 0.030902289 1.4230001 4288453790
-0.11095911 0.030902289 1.4230001 4289507249
-0.10848922 0.030902289 1.4230001 4287403156
-0.10587031 0.030858858 1.4210001 4289706169
-0.10318558 0.03079371 1.4180001 4288850861
-0.10072435 0.03079371 1.4180001 4288653483
-0.098332435 0.030815426 1.419 4288522924
-0.096004598 0.030858858 1.4210001 4287798430
-0.093603998 0.030880576 1.4220001 4289113006
-0.09119992 0.030902289 1.4230001 4288455846
-0.088730022 0.030902289 1.4230001 4289310639
-0.086260125 0.030902289 1.4230001 4288125084
-0.083790228 0.030902289 1.4230001 4289770679
-0.081377476 0.030924007 1.424 4287796377
-0.078905843 0.030924007 1.424 4290032569
-0.076326862 0.030880576 1.4220001 4288190365
-0.073702879 0.030815426 1.419 4289967289
-0.1658777 0.033472244 1.4280001 4288849578
-0.16328469 0.033448804 1.427 4288915370
-0.16046979 0.033378486 1.424 4288322976
-0.15788719 0.033355042 1.4230001 4288980136
-0.15541729 0.033355042 1.4230001 4288323229
-0.1529474 0.033355042 1.4230001 4289574574
-0.15058325 0.033378486 1.424 4288257176
-0.14811161 0.033378486 1.424 4284966757
-0.14563999 0.033378486 1.424 4285229153
-0.14306779 0.033355042 1.4230001 4286346092
-0.1404991 0.033331607 1.4220001 4287069552
-0.1378368 0.033284724 1.4200001 4287464567
-0.13527678 0.033261288 1.419 4287334536
-0.13281383 0.033261288 1.419 4287466644
-0.13035086 0.033261288 1.419 4282400065
-0.1278879 0.033261288 1.419 4282398007
-0.12551333 0.033284724 1.4200001 4284370514
-0.12313529 0.033308167 1.4210001 4287462784
-0.12049904 0.033261288 1.419 4287135870
-0.11803608 0.033261288 1.419 4289373093
-0.11557313 0.033261288 1.419 4289636780
-0.11326959 0.033308167 1.4210001 4289702830
-0.11080316 0.033308167 1.4210001 4288321432
-0.10833674 0.033308167 1.4210001 4290230712
-0.1057213 0.033261288 1.419 4288126366
-0.10311281 0.033214405 1.4170001 4290034108
-0.10065332 0.033214405 1.4170001 4287600537
-0.098193839 0.033214405 1.4170001 4289837497
-0.095869482 0.033261288 1.419 4287337106
-0.093472347 0.033284724 1.4200001 4289508530
-0.091007657 0.033284724 1.4200001 4288652966
-0.088480614 0.033261288 1.419 4288981674
-0.086017653 0.033261288 1.419 4288522150
-0.0835547 0.033261288 1.419 4288916140
-0.081034593 0.033237845 1.4180001 4288850088
-0.078573376 0.033237845 1.4180001 4288257440
-0.076004803 0.033190966 1.416 4289573300
-0.073391229 0.033120643 1.4130001 4287994013
-0.16835627 0.035933618 1.4280001 4289310644
-0.16552921 0.035858128 1.4250001 4289047721
-0.16294143 0.035832964 1.424 4289112744
-0.16035709 0.0358078 1.4230001 4289375406
-0.15777624 0.035782639 1.4220001 4288715425
-0.15519884 0.035757471 1.4210001 4289307303
-0.15262495 0.035732307 1.4200001 4288849054
-0.15037175 0.035782639 1.4220001 4289506984
-0.14790359 0.035782639 1.4220001 4288650650
-0.14553769 0.0358078 1.4230001 4289111716
-0.14306779 0.0358078 1.4230001 4285953657
-0.1404991 0.035782639 1.4220001 4285954419
-0.1378368 0.035732307 1.4200001 4288191631
-0.13518143 0.035681982 1.4180001 4286744709
-0.13253303 0.035631657 1.416 4289178795
-0.12998341 0.035606492 1.4150001 4287796369
-0.1275274 0.035606492 1.4150001 4287135104
-0.12515979 0.035631657 1.416 4287200383
-0.12278868 0.035656817 1.4170001 4287662988
-0.12024429 0.035631657 1.416 4287663244
-0.11770335 0.035606492 1.4150001 4289769390
-0.11532879 0.035631657 1.416 4288980134
-0.11287104 0.035631657 1.416 4289769395
-0.11049126 0.035656817 1.4170001 4288914855
-0.10810802 0.035681982 1.4180001 4289638322
-0.10549779 0.035631657 1.416 4289770423
-0.1028945 0.035581328 1.414 4288387743
-0.10044023 0.035581328 1.414 4289704370
-0.097985946 0.035581328 1.414 4287994525
-0.095599234 0.035606492 1.4150001 4290230716
-0.093143217 0.035606492 1.4150001 4288652196
-0.090687208 0.035606492 1.4150001 4289705910
-0.088168837 0.035581328 1.414 4287600021
-0.085714564 0.035581328 1.414 4289706167
-0.083201401 0.035556164 1.4130001 4288455332
-0.08069171 0.035531003 1.4120001 4289770677
-0.078185491 0.035505835 1.411 4288718248
-0.075736426 0.035505835 1.411 4288784811
-0.073287353 0.035505835 1.411 4288060318
-0.07083828 0.035505835 1.411 4289310128
-0.068486147 0.035556164 1.4130001 4289310640
-0.066033609 0.035556164 1.4130001 4287798681
-0.063581064 0.035556164 1.4130001 4289706424
-0.061171785 0.035581328 1.414 4287732123
-0.05863446 0.035531003 1.4120001 4290099901
-0.17155264 0.038556315 1.434 4291218135
-0.16788469 0.038287442 1.424 4288126376
-0.16506456 0.038206778 1.4210001 4288916141
-0.16248371 0.038179893 1.4200001 4289113002
-0.15990633 0.038153008 1.419 4289704625
-0.15744337 0.038153008 1.419 4289045929
-0.1548712 0.038126118 1.4180001 4289044137
-0.15240997 0.038126118 1.4180001 4289504939
-0.14994876 0.038126118 1.4180001 4289111204
-0.14748754 0.038126118 1.4180001 4289900464
-0.14512859 0.038153008 1.419 4288321691
-0.14266564 0.038153008 1.419 4288058780
-0.14000508 0.038099229 1.4170001 4287401357
-0.13715732 0.03799168 1.4130001 4289836715
-0.13460945 0.037964795 1.4120001 4288651677
-0.13187784 0.037884135 1.409 4289704880
-0.1293404 0.037857246 1.4080001 4288850081
-0.1271669 0.037937906 1.411 4287927186
-0.12489461 0.03799168 1.4130001 4288584602
-0.12235541 0.037964795 1.4120001 4289177512
-0.11981969 0.037937906 1.411 4290295481
-0.11728744 0.03791102 1.4100001 4288125593
-0.11484011 0.03791102 1.4100001 4289771190
-0.11247248 0.037937906 1.411 4288718248
-0.11002341 0.037937906 1.411 4289507505
-0.10780305 0.038018569 1.414 4287796887
-0.10527427 0.03799168 1.4130001 4289966005
-0.1026762 0.037937906 1.411 4288914342
-0.10015609 0.03791102 1.4100001 4290559679
-0.097639464 0.037884135 1.409 4289243821
-0.095261425 0.03791102 1.4100001 4289112749
-0.092814088 0.03791102 1.4100001 4289704371
-0.090366751 0.03791102 1.4100001 4287795862
-0.087919421 0.03791102 1.4100001 4290296251
-0.085472085 0.03791102 1.4100001 4288915111
-0.082965873 0.037884135 1.409 4289705143
-0.080577418 0.03791102 1.4100001 4287600534
-0.078130081 0.03791102 1.4100001 4290034621
-0.075575396 0.037857246 1.4080001 4287468181
-0.073131531 0.037857246 1.4080001 4289441971
-0.070637465 0.037830357 1.4070001 4288784041
-0.068195336 0.037830357 1.4070001 4289903289
-0.065659747 0.037776586 1.4050001 4287535766
-0.063176088 0.037749697 1.404 4289772217
-0.060739171 0.037749697 1.404 4288521123
-0.058343776 0.037776586 1.4050001 4289244590
-0.056024492 0.037857246 1.4080001 4288916138
-0.053656738 0.03791102 1.4100001 4288259234
-0.051318359 0.03799168 1.4130001 4289707450
-0.048934985 0.038045458 1.4150001 4288126881
-0.046511818 0.038072344 1.416 4289704886
-0.044116292 0.038126118 1.4180001 4288323491
-0.041684445 0.038153008 1.419 4289507765
-0.03913857 0.038072344 1.416 4287863967
-0.17167227 0.04105664 1.4350001 4289046197
-0.1676489 0.0406847 1.4220001 4288256423
-0.16483225 0.040598866 1.419 4288650411
-0.16225486 0.040570255 1.4180001 4289308339
-0.15968095 0.040541641 1.4170001 4288848809
-0.15722147 0.040541641 1.4170001 4289574073
-0.15476198 0.040541641 1.4170001 4288651437
-0.15219502 0.040513035 1.416 4289767350
-0.14963152 0.040484421 1.4150001 4289768369
-0.14717551 0.040484421 1.4150001 4289505710
-0.1447195 0.040484421 1.4150001 4289637550
-0.14226347 0.040484421 1.4150001 4288584352
-0.13951105 0.04039859 1.4120001 4289835441
-0.13667198 0.040284146 1.4080001 4288981153
-0.13413279 0.040255535 1.4070001 4289375144
-0.13140987 0.040169701 1.404 4288059541
-0.12915666 0.040226925 1.406 4289836465
-0.12689653 0.040284146 1.4080001 4288980389
-0.12462945 0.040341366 1.4100001 4288585887
-0.12218211 0.040341366 1.4100001 4288981674
-0.11964985 0.04031276 1.409 4289310641
-0.11712107 0.040284146 1.4080001 4289179567
-0.11467721 0.040284146 1.4080001 4288455076
-0.11223335 0.040284146 1.4080001 4288850604
-0.10978948 0.040284146 1.4080001 4288521894
-0.10734562 0.040284146 1.4080001 4289771703
-0.10475275 0.040226925 1.406 4287534230
-0.10216682 0.040169701 1.404 4289902520
-0.099658869 0.040141094 1.4030001 4288520610
-0.097154386 0.040112481 1.4020001 4289704116
-0.094720937 0.040112481 1.4020001 4287862682
-0.092221662 0.04008387 1.401 4290231485
-0.089854039 0.040112481 1.4020001 4287862682
-0.087482944 0.040141094 1.4030001 4289311409
-0.084987141 0.040112481 1.4020001 4289441712
-0.082553692 0.040112481 1.4020001 4289243565
-0.080177389 0.040141094 1.4030001 4289308329
-0.077742204 0.040141094 1.4030001 4288453022
-0.075307019 0.040141094 1.4030001 4289507507
-0.072767951 0.04008387 1.401 4288849834
-0.070286036 0.040055256 1.4000001 4289638323
-0.067856058 0.040055256 1.4000001 4287533972
-0.065332614 0.039998036 1.3980001 4290363581
-0.062906109 0.039998036 1.3980001 4287600537
-0.060522866 0.04002665 1.399 4290099642
-0.058136143 0.040055256 1.4000001 4287732375
-0.055785753 0.040112481 1.4020001 4289771701
-0.053352304 0.040112481 1.4020001 4287862934
-0.050955169 0.040141094 1.4030001 4290429375
-0.048554566 0.040169701 1.404 4288257951
-0.046347581 0.04036998 1.411 4289113260
-0.043929622 0.04039859 1.4120001 4288785065
-0.041449439 0.04036998 1.411 4289178797
-0.038917448 0.040284146 1.4080001 4288981677
-0.16776678 0.043166064 1.4230001 4288978863
-0.1649484 0.043075059 1.4200001 4288846254
-0.1623693 0.043044727 1.419 4289109170
-0.15968095 0.042984057 1.4170001 4288716714
-0.15722147 0.042984057 1.4170001 4289048755
-0.15465277 0.042953722 1.416 4289244596
-0.15208752 0.042923387 1.4150001 4288912555
-0.14952578 0.042893052 1.414 4289833399
-0.1470715 0.042893052 1.414 4288124059
-0.14461721 0.042893052 1.414 4290034104
-0.14216295 0.042893052 1.414 4288650915
-0.13941225 0.042802051 1.411 4289308076
-0.13667198 0.042711046 1.4080001 4289638318
-0.13403745 0.042650379 1.406 4289177768
-0.13131626 0.042559374 1.4030001 4289046439
-0.12897295 0.042589705 1.404 4288717987
-0.12680641 0.042680711 1.4070001 4289770420
-0.12462945 0.042771712 1.4100001 4288191646
-0.12218211 0.042771712 1.4100001 4290100155
-0.11973478 0.042771712 1.4100001 4287797145
-0.11720425 0.042741381 1.409 4290034362
-0.11467721 0.042711046 1.4080001 4288191645
-0.11215363 0.042680711 1.4070001 4289113003
-0.10971151 0.042680711 1.4070001 4288653477
-0.10726938 0.042680711 1.4070001 4289311666
-0.10475275 0.042650379 1.406 4288456102
-0.10216682 0.042589705 1.404 4288915625
-0.099587835 0.042529039 1.4020001 4289770935
-0.097085088 0.042498704 1.401 4288061345
-0.094585806 0.042468369 1.4000001 4289311411
-0.092155829 0.042468369 1.4000001 4287864220
-0.089725852 0.042468369 1.4000001 4289838011
-0.087358236 0.042498704 1.401 4288258721
-0.084926516 0.042498704 1.401 4289574324
-0.082494803 0.042498704 1.401 4287467412
-0.080120243 0.042529039 1.4020001 4290165180
-0.077686794 0.042529039 1.4020001 4288322977
-0.075253345 0.042529039 1.4020001 4289968315
-0.072767951 0.042498704 1.401 4289047213
-0.070235834 0.042438034 1.399 4288783784
-0.067759119 0.042407699 1.3980001 4287797400
-0.065285876 0.042377364 1.3970001 4289113774
-0.062906109 0.042407699 1.3980001 4289046956
-0.060522866 0.042438034 1.399 4288060059
-0.058136143 0.042468369 1.4000001 4290492090
-0.055745959 0.042498704 1.401 4288387740
-0.053352304 0.042529039 1.4020001 4289836983
-0.050955169 0.042559374 1.4030001 4287731093
-0.04845082 0.042498704 1.401 4289770677
-0.046019107 0.042498704 1.401 4287732377
-0.04355628 0.042468369 1.4000001 4290164408
-0.041126303 0.042468369 1.4000001 4288058773
-0.038696326 0.042468369 1.4000001 4290296249
-0.036266349 0.042468369 1.4000001 4287664531
-0.033884708 0.042529039 1.4020001 4289375921
-0.031473693 0.042559374 1.4030001 4288126111
-0.029162692 0.042741381 1.409 4290691012
-0.026830863 0.042923387 1.4150001 4286743946
-0.024460981 0.043075059 1.4200001 4289704633
-0.16776678 0.045618817 1.4230001 4288977583
-0.16483225 0.045490585 1.419 4288977327
-0.16225486 0.045458529 1.4180001 4289174701
-0.15956827 0.045394413 1.416 4289440433
-0.15699956 0.045362353 1.4150001 4288983724
-0.15454355 0.045362353 1.4150001 4289048239
-0.15187258 0.045298234 1.4130001 4288979376
-0.14931427 0.045266178 1.4120001 4288780714
-0.14686348 0.045266178 1.4120001 4289637555
-0.1443104 0.045234121 1.411 4289311403
-0.14186132 0.045234121 1.411 4289769907
-0.13921463 0.045170005 1.409 4288517539
-0.13647784 0.04507383 1.406 4289638068
-0.13375145 0.044977657 1.4030001 4288388514
-0.13131626 0.044977657 1.4030001 4289704116
-0.12888108 0.044977657 1.4030001 4289177769
-0.12662615 0.04504177 1.4050001 4289572783
-0.12436428 0.045105886 1.4070001 4289310122
-0.12192215 0.045105886 1.4070001 4288979623
-0.11948002 0.045105886 1.4070001 4288781988
-0.11695471 0.04507383 1.406 4288848805
-0.11435143 0.045009714 1.404 4289968311
-0.11183479 0.044977657 1.4030001 4287929244
-0.10939961 0.044977657 1.4030001 4289639855
-0.10696442 0.044977657 1.4030001 4288981669
-0.10452924 0.044977657 1.4030001 4289771189
-0.10194851 0.044913538 1.401 4287600024
-0.099374734 0.044849422 1.399 4289639354
-0.096877195 0.044817362 1.3980001 4287994784
-0.094383128 0.044785306 1.3970001 4290100157
-0.091958359 0.044785306 1.3970001 4288587172
-0.08966177 0.044849422 1.399 4288981929
-0.087295875 0.044881478 1.4000001 4289179569
-0.084805287 0.044849422 1.399 4287666586
-0.082318157 0.044817362 1.3980001 4290099389
-0.079891652 0.044817362 1.3980001 4288784041
-0.077465147 0.044817362 1.3980001 4289836472
-0.075038642 0.044817362 1.3980001 4287533716
-0.072560191 0.044785306 1.3970001 4289968829
-0.07008522 0.04475325 1.396 4287797916
-0.067613713 0.04472119 1.3950001 4289574068
-0.065145679 0.04468913 1.3940001 4288324256
-0.062771119 0.04472119 1.3950001 4290297023
-0.06039308 0.04475325 1.396 4288651426
-0.058053095 0.044817362 1.3980001 4290032054
-0.05566638 0.044849422 1.399 4287467665
-0.053200081 0.044817362 1.3980001 4289836472
-0.050773576 0.044817362 1.3980001 4289309358
-0.048381656 0.044849422 1.399 4289375145
-0.045953412 0.044849422 1.399 4289837749
-0.04355628 0.044881478 1.4000001 4288454048
-0.041096929 0.044849422 1.399 4289902006
-0.038668688 0.044849422 1.399 4288191640
-0.036214538 0.044817362 1.3980001 4289442221
-0.033836372 0.044881478 1.4000001 4287861910
-0.031451259 0.044945598 1.4020001 4291347658
-0.029141996 0.045137946 1.4080001 4287005833
-0.026868789 0.045426469 1.4170001 4289113007
-0.024495432 0.045586761 1.4220001 4287862431
-0.16776678 0.048071571 1.4230001 4287859870
-0.16483225 0.047936447 1.419 4288779688
-0.16225486 0.047902662 1.4180001 4288978601
-0.15968095 0.047868881 1.4170001 4289046949
-0.15711051 0.0478351 1.416 4289050020
-0.15454355 0.04780132 1.4150001 4288916387
-0.15187258 0.047733754 1.4130001 4289701812
-0.14920853 0.047666192 1.411 4289042605
-0.14665546 0.047632407 1.4100001 4289176753
-0.14410584 0.04759863 1.409 4288653988
-0.14166024 0.04759863 1.409 4289114288
-0.13901705 0.047531061 1.4070001 4288322472
-0.13638078 0.047463499 1.4050001 4288782765
-0.13394211 0.047463499 1.4050001 4290295742
-0.13140987 0.047429718 1.404 4289242798
-0.12888108 0.047395937 1.4030001 4290032827
-0.12653603 0.047429718 1.404 4288189595
-0.12409911 0.047429718 1.404 4290032821
-0.12166218 0.047429718 1.404 4289177514
-0.11922527 0.047429718 1.404 4289439148
-0.11662198 0.047362156 1.4020001 4289110693
-0.11402563 0.047294591 1.4000001 4289704625
-0.11143623 0.047227025 1.3980001 4289047211
-0.10908771 0.04726081 1.399 4288784034
-0.10665946 0.04726081 1.399 4289113001
-0.10423122 0.04726081 1.399 4288521123
-0.10173021 0.047227025 1.3980001 4290231487
-0.09916164 0.047159463 1.396 4288125083
-0.096669301 0.047125682 1.3950001 4290165437
-0.094315566 0.047159463 1.396 4288389026
-0.091892533 0.047159463 1.396 4289835702
-0.08959768 0.047227025 1.3980001 4287665560
-0.087233528 0.04726081 1.399 4289903033
-0.084623426 0.047159463 1.396 4288060318
-0.082141511 0.047125682 1.3950001 4288981676
-0.079720214 0.047125682 1.3950001 4289376177
-0.077298909 0.047125682 1.3950001 4289114034
-0.074877612 0.047125682 1.3950001 4288127650
-0.072456315 0.047125682 1.3950001 4288455333
-0.069984809 0.047091898 1.3940001 4289771193
-0.067516781 0.04705812 1.393 4289310385
-0.065098956 0.04705812 1.393 4289508018
-0.062771119 0.047125682 1.3950001 4287994268
-0.060349818 0.047125682 1.3950001 4290165694
-0.057928517 0.047125682 1.3950001 4287994525
-0.05550722 0.047125682 1.3950001 4289969339
-0.053085919 0.047125682 1.3950001 4288586148
-0.050664622 0.047125682 1.3950001 4289836472
-0.048277907 0.047159463 1.396 4288125854
-0.045887716 0.047193244 1.3970001 4289442741
-0.043462947 0.047193244 1.3970001 4288191900
-0.041038178 0.047193244 1.3970001 4289114794
-0.038585767 0.047159463 1.396 4288192924
-0.036162734 0.047159463 1.396 4288982440
-0.033788033 0.047227025 1.3980001 4289181617
-0.031406395 0.047294591 1.4000001 4289246643
-0.029121298 0.047531061 1.4070001 4287533717
-0.02688775 0.047902662 1.4180001 4289704887
-0.02451266 0.048071571 1.4230001 4286021506
-0.16506456 0.050453316 1.4210001 4288979371
-0.16248371 0.050417811 1.4200001 4289178793
-0.15979363 0.050346799 1.4180001 4288917410
-0.15722147 0.050311293 1.4170001 4289444264
-0.15465277 0.050275791 1.416 4289376167
-0.15187258 0.05016927 1.4130001 4289372077
-0.14920853 0.050098263 1.411 4289108142
-0.14665546 0.050062753 1.4100001 4288452774
-0.1439013 0.04995624 1.4070001 4289180331
-0.14145917 0.04995624 1.4070001 4288982438
-0.13901705 0.04995624 1.4070001 4289308594
-0.13647784 0.049920734 1.406 4288651181
-0.13403745 0.049920734 1.406 4289375667
-0.13140987 0.049849723 1.404 4289047465
-0.12888108 0.049814221 1.4030001 4288783526
-0.12653603 0.049849723 1.404 4288321188
-0.12409911 0.049849723 1.404 4288652197
-0.12157553 0.049814221 1.4030001 4289771955
-0.11905543 0.049778711 1.4020001 4288454305
-0.11645561 0.0497077 1.4000001 4289703862
-0.11386275 0.049636692 1.3980001 4288126110
-0.11135652 0.049601182 1.3970001 4289968311
-0.10893175 0.049601182 1.3970001 4288323483
-0.10658322 0.049636692 1.3980001 4289442225
-0.10415672 0.049636692 1.3980001 4288784295
-0.10165744 0.049601182 1.3970001 4290165687
-0.09916164 0.04956568 1.396 4288518048
-0.096669301 0.049530175 1.3950001 4288783014
-0.094315566 0.04956568 1.396 4289771189
-0.091892533 0.04956568 1.396 4288783009
-0.08959768 0.049636692 1.3980001 4289638320
-0.087233528 0.049672198 1.399 4288849063
-0.084623426 0.04956568 1.396 4289835959
-0.082082622 0.049494669 1.3940001 4287599765
-0.079663061 0.049494669 1.3940001 4289968828
-0.077298909 0.049530175 1.3950001 4287402646
-0.074877612 0.049530175 1.3950001 4290758088
-0.072456315 0.049530175 1.3950001 4287929502
-0.069984809 0.049494669 1.3940001 4289902776
-0.067565247 0.049494669 1.3940001 4288849834
-0.065145679 0.049494669 1.3940001 4289244592
-0.062726118 0.049494669 1.3940001 4287665301
-0.060349818 0.049530175 1.3950001 4289507507
-0.057928517 0.049530175 1.3950001 4289112493
-0.055467431 0.049494669 1.3940001 4288060572
-0.053047866 0.049494669 1.3940001 4289640118
-0.050628304 0.049494669 1.3940001 4287470746
-0.048243321 0.049530175 1.3950001 4289246646
-0.045822021 0.049530175 1.3950001 4287401880
-0.043431837 0.04956568 1.396 4289706167
-0.0410088 0.04956568 1.396 4288260257
-0.038558125 0.049530175 1.3950001 4288588197
-0.036136825 0.049530175 1.3950001 4287074958
-0.033788033 0.049636692 1.3980001 4290759879
-0.031406395 0.0497077 1.4000001 4286877582
-0.029141996 0.049991746 1.4080001 4290297281
-0.026868789 0.050311293 1.4170001 4287073683
-0.15990633 0.052828167 1.419 4287337359
-0.15733242 0.052790936 1.4180001 4287402897
-0.15476198 0.052753706 1.4170001 4288717732
-0.15187258 0.052604791 1.4130001 4288846504
-0.14910279 0.052493103 1.4100001 4289174445
-0.14644744 0.052418645 1.4080001 4288979625
-0.14379901 0.052344188 1.406 4289837231
-0.14135863 0.052344188 1.406 4289836717
-0.13891824 0.052344188 1.406 4289372591
-0.13647784 0.052344188 1.406 4289240495
-0.13403745 0.052344188 1.406 4288583840
-0.13140987 0.052269727 1.404 4289573033
-0.12888108 0.0522325 1.4030001 4288981665
-0.12635577 0.05219527 1.4020001 4289637048
-0.12383394 0.052158039 1.401 4288059555
-0.12131556 0.052120812 1.4000001 4289115061
-0.11871576 0.052046355 1.3980001 4288522666
-0.11620606 0.052009124 1.3970001 4288060838
-0.1136184 0.051934667 1.3950001 4288586410
-0.11111739 0.051897436 1.3940001 4289047726
-0.10869782 0.051897436 1.3940001 4290034873
-0.10620202 0.05186021 1.393 4288257440
-0.10385869 0.051897436 1.3940001 4289047979
-0.10143913 0.051897436 1.3940001 4288719266
-0.099019572 0.051897436 1.3940001 4289572787
-0.096600004 0.051897436 1.3940001 4288058522
-0.094248004 0.051934667 1.3950001 4290428095
-0.091892533 0.051971897 1.396 4288257437
-0.089533582 0.052009124 1.3970001 4290163893
-0.086984105 0.051934667 1.3950001 4289176741
-0.084380955 0.051822979 1.3920001 4289046182
-0.081905976 0.051785748 1.391 4289637809
-0.079434477 0.051748518 1.3900001 4288848294
-0.077077262 0.051785748 1.391 4289310126
-0.074716583 0.051822979 1.3920001 4289376430
-0.072352439 0.05186021 1.393 4288981163
-0.069934607 0.05186021 1.393 4287532945
-0.067468308 0.051822979 1.3920001 4289705143
-0.065052219 0.051822979 1.3920001 4287994779
-0.062636122 0.051822979 1.3920001 4289769906
-0.060220033 0.051822979 1.3920001 4288191130
-0.057762414 0.051785748 1.391 4289835189
-0.055308267 0.051748518 1.3900001 4287664788
-0.052895647 0.051748518 1.3900001 4289903032
-0.050446708 0.051711291 1.3890001 4287402384
-0.048070405 0.051748518 1.3900001 4290035385
-0.045657784 0.051748518 1.3900001 4288914344
-0.043245163 0.051748518 1.3900001 4288782506
-0.040861923 0.051785748 1.391 4288981676
-0.038447566 0.051785748 1.391 4288455072
-0.036085017 0.05186021 1.393 4289113515
-0.033763867 0.052009124 1.3970001 4288653994
-0.031406395 0.052120812 1.4000001 4289639606
-0.029162692 0.052455876 1.409 4288323490
-0.15198006 0.055079263 1.414 4288190367
-0.14920853 0.054962404 1.411 4288650662
-0.14665546 0.054923449 1.4100001 4289178030
-0.14400357 0.054845545 1.4080001 4288454815
-0.14145917 0.05480659 1.4070001 4289376173
-0.13901705 0.05480659 1.4070001 4288716200
-0.13638078 0.054728687 1.4050001 4289174957
-0.13384679 0.054689731 1.404 4289044903
-0.13131626 0.054650784 1.4030001 4288915872
-0.12888108 0.054650784 1.4030001 4289441704
-0.12644589 0.054650784 1.4030001 4289504178
-0.12383394 0.054572877 1.401 4289045419
-0.12122891 0.05449497 1.399 4288785060
-0.11863083 0.054417063 1.3970001 4289639599
-0.11612289 0.054378111 1.396 4288125861
-0.1136184 0.054339159 1.3950001 4289441466
-0.11103768 0.054261256 1.393 4287600281
-0.10854188 0.054222301 1.3920001 4289706931
-0.10612578 0.054222301 1.3920001 4288257696
-0.10370969 0.054222301 1.3920001 4288521639
-0.1012936 0.054222301 1.3920001 4288852142
-0.098877504 0.054222301 1.3920001 4288916656
-0.096600004 0.054300204 1.3940001 4288784046
-0.094248004 0.054339159 1.3950001 4288191649
-0.091892533 0.054378111 1.396 4289441716
-0.0894695 0.054378111 1.396 4288454561
-0.086859405 0.054261256 1.393 4290098359
-0.084259719 0.054144394 1.3900001 4287796629
-0.081670448 0.054027535 1.3870001 4290560707
-0.079205886 0.053988583 1.386 4288124317
-0.076855622 0.054027535 1.3870001 4289373868
-0.07450188 0.05406649 1.388 4289244332
-0.072092734 0.05406649 1.388 4289704115
-0.069733791 0.054105442 1.3890001 4288913828
-0.067274436 0.05406649 1.388 4289506736
-0.064865284 0.05406649 1.388 4288915881
-0.062456135 0.05406649 1.388 4289111722
-0.060046986 0.05406649 1.388 4289505195
-0.057637837 0.05406649 1.388 4288255644
-0.055188898 0.054027535 1.3870001 4290559930
-0.052743431 0.053988583 1.386 4288058257
-0.050337754 0.053988583 1.386 4290097845
-0.047932077 0.053988583 1.386 4288521372
-0.045493547 0.053949632 1.3850001 4289572783
-0.043120719 0.053988583 1.386 4287464851
-0.040744416 0.054027535 1.3870001 4289967285
-0.038337003 0.054027535 1.3870001 4288257949
-0.036033209 0.054183345 1.391 4289771960
-0.033788033 0.054456018 1.3980001 4287402642
-0.031406395 0.054533921 1.4000001 4290165437
-0.029162692 0.054884497 1.409 4287073424
-0.14420812 0.057353798 1.4100001 4287467669
-0.14166024 0.057313122 1.409 4289112495
-0.13911584 0.057272449 1.4080001 4289111983
-0.13647784 0.057191093 1.406 4288914604
-0.13384679 0.05710974 1.404 4289835703
-0.13140987 0.05710974 1.404 4289177512
-0.12897295 0.05710974 1.404 4289834931
-0.12653603 0.05710974 1.404 4288056988
-0.12392233 0.057028383 1.4020001 4288452253
-0.12140223 0.05698771 1.401 4289114019
-0.11880067 0.056906354 1.399 4289574058
-0.11612289 0.056784324 1.396 4289636531
-0.11369985 0.056784324 1.396 4289437875
-0.1111971 0.056743652 1.3950001 4288980394
-0.10861985 0.056662295 1.393 4288720289
-0.10620202 0.056662295 1.393 4289705654
-0.10370969 0.056621622 1.3920001 4287797407
-0.1012936 0.056621622 1.3920001 4289444284
-0.098948538 0.056662295 1.393 4287536285
-0.096600004 0.056702979 1.3940001 4289377206
-0.094248004 0.056743652 1.3950001 4287797408
-0.091826707 0.056743652 1.3950001 4288785068
-0.0894695 0.056784324 1.396 4289311660
-0.086859405 0.056662295 1.393 4288980906
-0.084199101 0.056499593 1.3890001 4288981421
-0.081552684 0.056336887 1.3850001 4288918446
-0.07914874 0.056336887 1.3850001 4289573557
-0.076689392 0.056296211 1.3840001 4287861149
-0.074340858 0.056336887 1.3850001 4290100414
-0.071988851 0.056377564 1.386 4288652200
-0.06963338 0.056418236 1.3870001 4289573816
-0.067177497 0.056377564 1.386 4288454819
-0.064771824 0.056377564 1.386 4290297534
-0.062411141 0.056418236 1.3870001 4288059542
-0.060003728 0.056418236 1.3870001 4290361016
-0.057596315 0.056418236 1.3870001 4287598482
-0.055149108 0.056377564 1.386 4290298297
-0.052743431 0.056377564 1.386 4288716705
-0.050337754 0.056377564 1.386 4288978596
-0.047897492 0.056336887 1.3850001 4289441448
-0.045493547 0.056336887 1.3850001 4288914087
-0.043089606 0.056336887 1.3850001 4288714403
-0.040715043 0.056377564 1.386 4289046184
-0.038337003 0.056418236 1.3870001 4290493630
-0.036007304 0.056540266 1.3900001 4288586662
-0.033763867 0.056825005 1.3970001 4287665814
-0.031428825 0.05698771 1.401 4287928220
-0.13657491 0.059656944 1.4070001 4287007119
-0.13394211 0.059572142 1.4050001 4288783271
-0.13150346 0.059572142 1.4050001 4288387488
-0.12906481 0.059572142 1.4050001 4288914345
-0.12671627 0.059614547 1.406 4289045671
-0.12418749 0.059572142 1.4050001 4288650656
-0.12157553 0.059487347 1.4030001 4289967789
-0.11905543 0.059444942 1.4020001 4289506471
-0.11645561 0.059360147 1.4000001 4289831860
-0.11402563 0.059360147 1.4000001 4288383646
-0.11143623 0.059275344 1.3980001 4289243052
-0.10885378 0.059190542 1.396 4288851107
-0.1063545 0.059148144 1.3950001 4289704885
-0.1037842 0.059063341 1.393 4288913324
-0.10136637 0.059063341 1.393 4289178287
-0.098877504 0.059020944 1.3920001 4289180334
-0.096530713 0.059063341 1.393 4288060573
-0.094180442 0.059105746 1.3940001 4290098877
-0.091760881 0.059105746 1.3940001 4287929504
-0.08921314 0.059020944 1.3920001 4289970868
-0.08673469 0.058978546 1.391 4288060569
-0.084077865 0.058808941 1.3870001 4288849578
-0.081376031 0.058596939 1.3820001 4288063394
-0.078977302 0.058596939 1.3820001 4289509817
-0.076523148 0.058554541 1.381 4288191910
-0.074179828 0.058596939 1.3820001 4288981937
-0.071833037 0.058639344 1.383 4289046958
-0.069432564 0.058639344 1.383 4289376692
-0.066983625 0.058596939 1.3820001 4288718249
-0.064584889 0.058596939 1.3820001 4288257951
-0.062186152 0.058596939 1.3820001 4289772468
-0.059787419 0.058596939 1.3820001 4288257436
-0.057471737 0.058681741 1.3840001 4289573300
-0.055069529 0.058681741 1.3840001 4288982439
-0.052667323 0.058681741 1.3840001 4289901752
-0.050265115 0.058681741 1.3840001 4287728794
-0.047828328 0.058639344 1.383 4290165689
-0.045395005 0.058596939 1.3820001 4288849316
-0.042996272 0.058596939 1.3820001 4289571250
-0.040685665 0.058724146 1.3850001 4288388768
-0.03828172 0.058724146 1.3850001 4290954183
-0.036007304 0.058936141 1.3900001 4287204752
-0.033788033 0.059275344 1.3980001 4289771190
-0.031428825 0.059402544 1.401 4286349701
-0.11426997 0.061905626 1.4030001 4288650663
-0.11167537 0.061817378 1.401 4289310126
-0.10908771 0.061729129 1.399 4290230971
-0.10650698 0.061640885 1.3970001 4288979112
-0.10400771 0.061596759 1.396 4289241006
-0.1015119 0.061552636 1.3950001 4287664532
-0.099019572 0.061508514 1.3940001 4289706159
-0.096600004 0.061508514 1.3940001 4289111978
-0.094180442 0.061508514 1.3940001 4289175977
-0.091760881 0.061508514 1.3940001 4288586147
-0.089149043 0.061376143 1.391 4289312679
-0.086609982 0.061287895 1.3890001 4289311144
-0.084017247 0.061155524 1.386 4288190622
-0.08143492 0.061023153 1.383 4288981929
-0.078977302 0.060979024 1.3820001 4288259997
-0.076578565 0.060979024 1.3820001 4289309358
-0.074126147 0.060934901 1.381 4288323492
-0.071781091 0.060979024 1.3820001 4289641148
-0.069332153 0.060934901 1.381 4287732637
-0.066886686 0.060890783 1.3800001 4289573817
-0.064491421 0.060890783 1.3800001 4287534741
-0.06209616 0.060890783 1.3800001 4290100921
-0.059700895 0.060890783 1.3800001 4288717989
-0.057388682 0.060979024 1.3820001 4288718249
-0.055029739 0.061023153 1.383 4288390303
-0.05262927 0.061023153 1.383 4288981934
-0.050228797 0.061023153 1.383 4287992224
-0.047793742 0.060979024 1.3820001 4289048750
-0.04536216 0.060934901 1.381 4289772980
-0.042965163 0.060934901 1.381 4288586662
-0.040626913 0.061023153 1.383 4289903289
-0.036007304 0.061332017 1.3900001 4288587175
-0.033788033 0.061685007 1.3980001 4287469205
-0.10665946 0.064140514 1.399 4286742923
-0.10408221 0.064048827 1.3970001 4288585380
-0.10165744 0.064048827 1.3970001 4288914344
-0.09916164 0.064002976 1.396 4290099896
-0.096738607 0.064002976 1.396 4289835448
-0.094248004 0.063957125 1.3950001 4288583590
-0.091826707 0.063957125 1.3950001 4289177765
-0.089149043 0.063773744 1.391 4288456342
-0.086672343 0.063727893 1.3900001 4289836976
-0.084138475 0.063636199 1.388 4288124315
-0.081552684 0.063498661 1.3850001 4289704114
-0.079091594 0.063452803 1.3840001 4289245352
-0.076633975 0.063406959 1.383 4289373100
-0.074233502 0.063406959 1.383 4287992474
-0.071833037 0.063406959 1.383 4288851110
-0.069382355 0.063361108 1.3820001 4289047724
-0.066935152 0.063315265 1.381 4288650920
-0.064491421 0.063269421 1.3800001 4289704884
-0.06209616 0.063269421 1.3800001 4288783520
-0.059700895 0.063269421 1.3800001 4289572783
-0.057388682 0.063361108 1.3820001 4287532950
-0.055029739 0.063406959 1.383 4290035640
-0.05262927 0.063406959 1.383 4288653733
-0.050228797 0.063406959 1.383 4289638328
-0.04775916 0.063315265 1.381 4287667093
-0.045329314 0.063269421 1.3800001 4289905588
-0.042965163 0.063315265 1.381 4287271055
-0.040656291 0.063452803 1.3840001 4290823874
-0.036033209 0.063773744 1.391 4289180335
-0.091826707 0.066361621 1.3950001 4289177771
-0.089149043 0.066171341 1.391 4289112232
-0.08673469 0.066171341 1.391 4289702835
-0.084199101 0.066076197 1.3890001 4289045163
-0.08172933 0.066028625 1.388 4288191645
-0.079263039 0.065981053 1.3870001 4289968563
-0.076855622 0.065981053 1.3870001 4288518817
-0.074394532 0.065933481 1.386 4289175976
-0.071936913 0.065885916 1.3850001 4288980384
-0.069432564 0.065790772 1.383 4289967029
-0.066983625 0.065743193 1.3820001 4288452257
-0.064538151 0.065695629 1.381 4289046183
-0.06209616 0.065648057 1.3800001 4288980898
-0.059700895 0.065648057 1.3800001 4289637037
-0.057388682 0.065743193 1.3820001 4288649891
-0.055029739 0.065790772 1.383 4289967540
-0.052591212 0.065743193 1.3820001 4289309867
-0.050192475 0.065743193 1.3820001 4289178023
-0.04775916 0.065695629 1.381 4288915361
-0.045329314 0.065648057 1.3800001 4288258201
-0.040626913 0.065790772 1.383 4290429114
-0.036033209 0.066171341 1.391 4287666839
-0.084320337 0.068568937 1.391 4288190879
-0.081847101 0.068519637 1.3900001 4286874760
-0.079434477 0.068519637 1.3900001 4289835444
-0.07702186 0.068519637 1.3900001 4288848807
-0.074609235 0.068519637 1.3900001 4289308588
-0.072144672 0.068470344 1.3890001 4289045926
-0.069583178 0.068322465 1.386 4288717734
-0.067080565 0.068223871 1.3840001 4288123291
-0.064584889 0.068125278 1.3820001 4288256412
-0.062141154 0.068075985 1.381 4290230453
-0.059744153 0.068075985 1.381 4289043365
-0.057347156 0.068075985 1.381 4289636781
-0.054989949 0.068125278 1.3820001 4289045921
-0.052591212 0.068125278 1.3820001 4289637033
-0.050156161 0.068075985 1.381 4287992717
-0.04775916 0.068075985 1.381 4290822840
-0.045329314 0.068026692 1.3800001 4288124818
-0.042965163 0.068075985 1.381 4290823356
-0.040685665 0.068273172 1.3850001 4286414970
-0.06963338 0.070762455 1.3870001 4287863196
-0.067129031 0.070660427 1.3850001 4288651686
-0.064631626 0.070558384 1.383 4287862424
-0.062141154 0.070456348 1.381 4288719273
-0.059744153 0.070456348 1.381 4287665304
-0.057388682 0.070507362 1.3820001 4288848037
-0.054989949 0.070507362 1.3820001 4288585114
-0.052591212 0.070507362 1.3820001 4289834152
-0.050192475 0.070507362 1.3820001 4288913561
-0.04775916 0.070456348 1.381 4290032814
-0.04536216 0.070456348 1.381 4287598728
-0.042965163 0.070456348 1.381 4289704107
-0.040656291 0.070609406 1.3840001 4287072646
-0.038309366 0.070711441 1.386 4287205002
-0.062231153 0.072942197 1.383 4287863196
-0.05983068 0.072942197 1.383 4288061858
-0.05262927 0.072942197 1.383 4287072130
-0.050192475 0.072889447 1.3820001 4287269000
-0.047793742 0.072889447 1.3820001 4287663246
-0.045395005 0.072889447 1.3820001 4288585112
-0.043027386 0.072942197 1.383 4286743171
