# .PCD v0.7 - Point Cloud Data file format
VERSION 0.7
FIELDS x y z rgba
SIZE 4 4 4 4
TYPE F F F U
COUNT 1 1 1 1
WIDTH 761
HEIGHT 1
VIEWPOINT 0 0 0 1 0 0 0
POINTS 761
DATA ascii
0.097650945 -0.16446957 1.7540001 4291548631
0.092084132 -0.16236673 1.7640001 4279640098
0.094444714 -0.16117015 1.751 4279837477
0.097316906 -0.16089402 1.748 4279640098
0.20196387 -0.1620906 1.761 4280626992
0.20502043 -0.1620906 1.761 4280890164
0.091927528 -0.15905525 1.761 4280232492
0.094768345 -0.15869397 1.7570001 4280495664
0.097428255 -0.15806173 1.7500001 4280429871
0.094121091 -0.15159458 1.7450001 4280364078
0.097316906 -0.1518552 1.748 4280363821
0.093905345 -0.14824621 1.7410001 4280429614
0.097038545 -0.14841652 1.743 4280626993
-0.029594341 -0.14332652 1.7180001 4280693300
-0.026565941 -0.14307624 1.715 4280561459
-0.023616729 -0.1432431 1.7170001 4280495922
0.093581714 -0.14474477 1.7350001 4280429614
0.096593149 -0.14474477 1.7350001 4280561200
0.099719405 -0.14491163 1.7370001 4280429614
-0.03274693 -0.14110062 1.7270001 4280561459
-0.029577117 -0.14028358 1.7170001 4280430641
-0.026612412 -0.14036529 1.7180001 4280430643
-0.023685502 -0.14069211 1.7220001 4280496436
0.093365967 -0.14142743 1.7310001 4280495407
0.096314788 -0.14134572 1.7300001 4280561200
0.099374957 -0.14142743 1.7310001 4280495664
-0.032784849 -0.13828383 1.7290001 4280692788
-0.029628795 -0.13756402 1.72 4280561971
-0.026643394 -0.13756402 1.72 4280496434
-0.023671746 -0.13764399 1.7210001 4280496435
-0.14049587 -0.13201733 1.725 4279245599
-0.13734236 -0.13186426 1.723 4280627508
-0.13419582 -0.13171118 1.7210001 4280430641
-0.13992575 -0.12852037 1.7180001 4279048220
-0.13678439 -0.12837076 1.7160001 4280561715
-0.13396189 -0.12852037 1.7180001 4280430642
-0.13911127 -0.12482829 1.7080001 4279311136
-0.13606699 -0.12475521 1.7070001 4280627252
-0.13341606 -0.12504755 1.7110001 4280561457
-0.13886693 -0.12167021 1.705 4279639844
-0.13590756 -0.12167021 1.705 4280824118
-0.13302617 -0.12174157 1.7060001 4280758579
-0.26983652 -0.099200994 1.6730001 4282469199
-0.26725179 -0.099319592 1.6750001 4280298029
-0.18403995 -0.01391757 1.4950001 4293258736
-0.18193054 -0.013954808 1.4990001 4292666342
-0.17932872 -0.013954808 1.4990001 4290363073
-0.17613745 -0.013908261 1.4940001 4290034109
-0.17319582 -0.013880333 1.4910001 4288389284
-0.17015019 -0.013843095 1.4870001 4288652455
-0.18342443 -0.011302784 1.4900001 4289179570
-0.18120234 -0.011325542 1.493 4288521383
-0.17837168 -0.01131037 1.4910001 4288389539
-0.17566586 -0.011302784 1.4900001 4288981419
-0.17261502 -0.011272441 1.4860001 4288060317
-0.1696925 -0.011249684 1.483 4288981162
-0.19428939 -0.0087579936 1.4940001 4292534758
-0.19156793 -0.0087521318 1.493 4290232001
-0.18884996 -0.0087462692 1.4920001 4289441972
-0.18576095 -0.0087228213 1.488 4287666073
-0.18280891 -0.0087052342 1.485 4288981676
-0.18035276 -0.0087110968 1.4860001 4288126109
-0.17765388 -0.0087052342 1.485 4289178795
-0.17495847 -0.0086993724 1.4840001 4288323486
-0.17191806 -0.0086759236 1.48 4289770675
-0.1692348 -0.0086700618 1.4790001 4288651683
-0.16689308 -0.0086817862 1.4810001 4288848805
-0.19960916 -0.006186998 1.4950001 4292600552
-0.19661894 -0.0061745825 1.4920001 4291481813
-0.19337904 -0.0061538904 1.4870001 4287402389
-0.19028482 -0.0061373366 1.483 4288981420
-0.18758421 -0.0061331978 1.4820001 4287204494
-0.18488707 -0.0061290595 1.4810001 4289902004
-0.1823165 -0.0061290595 1.4810001 4288059800
-0.17998867 -0.0061373366 1.483 4289244072
-0.17729498 -0.0061331978 1.4820001 4289046693
-0.17460479 -0.0061290595 1.4810001 4289638573
-0.17156957 -0.0061125057 1.4770001 4286941061
-0.16866268 -0.0061000902 1.4740001 4282795591
-0.16599156 -0.0060959519 1.473 4285164139
-0.16387869 -0.0061125057 1.4770001 4289374891
-0.16164273 -0.0061249211 1.48 4290295993
-0.19867454 -0.0035932369 1.488 4289245108
-0.19582826 -0.0035884071 1.4860001 4287797660
-0.19272882 -0.0035787479 1.4820001 4288915370
-0.18977158 -0.0035715036 1.4790001 4288257182
-0.18707791 -0.0035690889 1.478 4288585887
-0.18463738 -0.0035715036 1.4790001 4287927441
-0.18207029 -0.0035715036 1.4790001 4288979615
-0.17974593 -0.0035763332 1.4810001 4288585368
-0.17705573 -0.0035739185 1.48 4286612091
-0.17436899 -0.0035715036 1.4790001 4282203705
-0.17133725 -0.0035618441 1.475 4280032280
-0.1683194 -0.0035521854 1.4710001 4279834644
-0.16576619 -0.0035521854 1.4710001 4286676859
-0.16343488 -0.0035570145 1.473 4290164145
-0.16109663 -0.0035618441 1.475 4287927186
-0.20683888 -0.0010305183 1.4910001 4292205792
-0.20383997 -0.001028445 1.488 4289376694
-0.20044573 -0.001024298 1.4820001 4288126370
-0.19747287 -0.0010222244 1.4790001 4288586406
-0.19477399 -0.0010215333 1.478 4287928476
-0.19194853 -0.0010201511 1.4760001 4288586147
-0.18913002 -0.0010187688 1.4740001 4288454046
-0.18657161 -0.0010187688 1.4740001 4285690480
-0.18413803 -0.0010194598 1.475 4285228129
-0.18157788 -0.0010194598 1.475 4287792513
-0.17913908 -0.0010201511 1.4760001 4287003509
-0.1765772 -0.0010201511 1.4760001 4285229411
-0.1740153 -0.0010201511 1.4760001 4281218091
-0.17110492 -0.0010180776 1.473 4282270523
-0.16809055 -0.001015313 1.4690001 4285230695
-0.1655408 -0.001015313 1.4690001 4283650891
-0.16288011 -0.0010146217 1.4680001 4284440152
-0.16033211 -0.0010146217 1.4680001 4286347897
-0.15810655 -0.0010166952 1.4710001 4290624958
-0.20900542 0.001536347 1.488 4291218385
-0.20545161 0.0015291196 1.4810001 4289113007
-0.20260707 0.0015270546 1.4790001 4287533975
-0.19976947 0.0015249896 1.4770001 4289836730
-0.19707231 0.0015239571 1.4760001 4287928476
-0.19437864 0.0015229246 1.475 4289178285
-0.19155839 0.0015208595 1.473 4287861910
-0.18887341 0.0015198272 1.4720001 4289572269
-0.18619189 0.0015187947 1.4710001 4285097571
-0.18363868 0.0015187947 1.4710001 4285488988
-0.18108547 0.0015187947 1.4710001 4287658353
-0.17853224 0.0015187947 1.4710001 4287462774
-0.17597903 0.0015187947 1.4710001 4289834920
-0.17342582 0.0015187947 1.4710001 4287732367
-0.17075644 0.0015177622 1.47 4289310375
-0.16797613 0.0015156972 1.4680001 4291019966
-0.16520274 0.0015136321 1.4660001 4283387978
-0.16243629 0.0015115672 1.4640001 4285098085
-0.15989523 0.0015115672 1.4640001 4292466903
-0.15767661 0.0015146647 1.4670001 4293914351
-0.20844357 0.0040901145 1.4840001 4288126113
-0.20503543 0.0040735775 1.478 4287205010
-0.20219609 0.004068065 1.4760001 4289178800
-0.19936371 0.0040625529 1.4740001 4287599768
-0.19667175 0.0040597972 1.473 4289375921
-0.1939833 0.0040570404 1.4720001 4288060060
-0.19129831 0.0040542842 1.4710001 4289506991
-0.18861678 0.0040515284 1.47 4287664785
-0.18593873 0.0040487722 1.4690001 4287006081
-0.18338899 0.0040487722 1.4690001 4284964183
-0.18083926 0.0040487722 1.4690001 4287134323
-0.17816815 0.0040460164 1.4680001 4286938485
-0.1755005 0.0040432597 1.4670001 4288059278
-0.17307213 0.0040460164 1.4680001 4286876290
-0.17029181 0.0040405039 1.4660001 4288848540
-0.16763285 0.0040377476 1.465 4285426536
-0.16497736 0.0040349918 1.4640001 4282861123
-0.1622144 0.0040294789 1.462 4290888127
-0.15956758 0.0040267231 1.4610001 4293849071
-0.15713921 0.0040294789 1.462 4293125605
-0.21517837 0.0066972892 1.4950001 4293784312
-0.21158813 0.0066659306 1.488 4288060321
-0.20774126 0.0066256127 1.4790001 4287928734
-0.20434181 0.0065987343 1.473 4288784042
-0.20164815 0.0065942542 1.4720001 4288455077
-0.19868743 0.0065808147 1.4690001 4288850091
-0.1961377 0.0065808147 1.4690001 4288323745
-0.19345617 0.0065763351 1.4680001 4288521123
-0.19077812 0.0065718549 1.4670001 4288586402
-0.18810354 0.0065673757 1.4660001 4288586144
-0.18543243 0.0065628956 1.465 4289046693
-0.18288964 0.0065628956 1.465 4288058771
-0.18034685 0.0065628956 1.465 4288519063
-0.17768267 0.0065584159 1.4640001 4285821035
-0.17478271 0.0065449765 1.4610001 4282202420
-0.17224686 0.0065449765 1.4610001 4282795327
-0.16959484 0.0065404964 1.46 4284374616
-0.16694631 0.0065360172 1.4590001 4283321930
-0.16430122 0.006531537 1.4580001 4287467403
-0.16154866 0.0065225773 1.4560001 4290559675
-0.15891227 0.0065180976 1.455 4291744207
-0.15627936 0.0065136179 1.4540001 4289704882
-0.15386139 0.0065180976 1.455 4287862937
-0.15143995 0.0065225773 1.4560001 4285494390
-0.21187252 0.0092431298 1.4900001 4288849837
-0.2076008 0.0091686882 1.478 4287007632
-0.20406437 0.0091252644 1.4710001 4289178800
-0.20123717 0.0091128573 1.4690001 4287862939
-0.19841692 0.0091004502 1.4670001 4289376177
-0.19573714 0.0090942467 1.4660001 4287994779
-0.19306083 0.0090880441 1.465 4289705397
-0.19038798 0.0090818405 1.4640001 4288125851
-0.1875903 0.0090694334 1.462 4289046953
-0.18492612 0.0090632299 1.4610001 4287665043
-0.18251511 0.0090694334 1.462 4289112231
-0.17973132 0.0090570264 1.46 4287203462
-0.17707583 0.0090508228 1.4590001 4286742653
-0.17442381 0.0090446193 1.4580001 4285294950
-0.17165737 0.0090322131 1.4560001 4286282101
-0.16901404 0.0090260096 1.455 4287006083
-0.16637418 0.009019806 1.4540001 4288322201
-0.16362508 0.009007398 1.452 4288454043
-0.16088293 0.0089949919 1.45 4288980644
-0.15836617 0.0089949919 1.45 4289309868
-0.15574193 0.0089887884 1.4490001 4288454817
-0.1534384 0.0090011954 1.4510001 4289705141
-0.15112792 0.0090136025 1.4530001 4288586662
-0.14860594 0.0090136025 1.4530001 4288915628
-0.20731987 0.01170039 1.4760001 4289244336
-0.20378692 0.0116449 1.4690001 4287665561
-0.2009632 0.011629046 1.4670001 4289639349
-0.19814643 0.011613192 1.465 4287336593
-0.19547009 0.011605265 1.4640001 4289244846
-0.19279726 0.011597337 1.4630001 4287731351
-0.18999784 0.011581482 1.4610001 4289573555
-0.18733367 0.011573557 1.46 4288389025
-0.1845464 0.011557702 1.4580001 4289441713
-0.18201576 0.011557702 1.4580001 4288257181
-0.17948511 0.011557702 1.4580001 4288519839
-0.17695446 0.011557702 1.4580001 4287664528
-0.17418455 0.011541848 1.4560001 4288651422
-0.17153947 0.011533921 1.455 4288519580
-0.16878171 0.011518066 1.4530001 4288782752
-0.1660309 0.011502213 1.4510001 4289967284
-0.1633997 0.011494285 1.45 4288191130
-0.16066104 0.011478431 1.4480001 4288915109
-0.15803853 0.011470503 1.447 4287928216
-0.15552697 0.011470503 1.447 4289244589
-0.15312116 0.011478431 1.4480001 4288257695
-0.1509199 0.011502213 1.4510001 4289902521
-0.20703897 0.014225196 1.4740001 4287073424
-0.20337075 0.01414799 1.4660001 4289047214
-0.20055223 0.014128689 1.4640001 4288389539
-0.19747016 0.014090086 1.46 4289047467
-0.19480252 0.014080435 1.4590001 4288521122
-0.19213834 0.014070785 1.4580001 4288455329
-0.18921757 0.014041833 1.455 4288257951
-0.18669212 0.014041833 1.455 4288389538
-0.18404011 0.014032181 1.4540001 4288849833
-0.18151641 0.014032181 1.4540001 4288389281
-0.1789927 0.014032181 1.4540001 4289244333
-0.176469 0.014032181 1.4540001 4288060059
-0.17382565 0.01402253 1.4530001 4289375918
-0.17118578 0.01401288 1.452 4287599506
-0.16831706 0.013983928 1.4490001 4289112744
-0.16557318 0.013964626 1.447 4288126106
-0.16283627 0.013945324 1.4450001 4289836724
-0.16021721 0.013935674 1.4440001 4288126106
-0.15771087 0.013935674 1.4440001 4289244844
-0.15520452 0.013935674 1.4440001 4288257950
-0.15290967 0.013954976 1.4460001 4288850086
-0.15050386 0.013964626 1.447 4288521123
-0.14829913 0.013993578 1.45 4289047212
-0.1458829 0.014003229 1.4510001 4288718248
-0.20703897 0.016765857 1.4740001 4286416007
-0.20323202 0.016663486 1.465 4288915628
-0.19986729 0.016595241 1.4590001 4287731352
-0.1970644 0.016572492 1.457 4289310638
-0.19426845 0.016549744 1.455 4287797398
-0.19147943 0.016526995 1.4530001 4289179052
-0.18882743 0.01651562 1.452 4287731607
-0.18617888 0.016504247 1.4510001 4289047467
-0.18366039 0.016504247 1.4510001 4287534229
-0.18101704 0.016492872 1.45 4289113260
-0.17837718 0.016481496 1.4490001 4287994779
-0.17574078 0.016470123 1.4480001 4289179053
-0.17322749 0.016470123 1.4480001 4287863193
-0.1704784 0.016447375 1.4460001 4289047467
-0.16773626 0.016424624 1.4440001 4288323743
-0.16511549 0.016413251 1.4430001 4289113259
-0.16238549 0.016390502 1.4410001 4288586915
-0.15988435 0.016390502 1.4410001 4288915880
-0.15760165 0.016413251 1.4430001 4288455328
-0.15498956 0.016401876 1.442 4288784293
-0.15259242 0.016413251 1.4430001 4288784293
-0.15008782 0.016413251 1.4430001 4288126364
-0.14778775 0.016435999 1.4450001 4289178797
-0.14558129 0.016470123 1.4480001 4288126111
-0.20309329 0.019175537 1.4640001 4287139217
-0.1994563 0.019070754 1.4560001 4289310641
-0.19665864 0.019044558 1.4540001 4287994779
-0.19413494 0.019044558 1.4540001 4289376430
-0.19134766 0.019018361 1.452 4287665812
-0.18869738 0.019005263 1.4510001 4289244845
-0.18605056 0.018992163 1.45 4287928986
-0.18340723 0.018979067 1.4490001 4289508018
-0.18051769 0.018939773 1.4460001 4288126365
-0.17800787 0.018939773 1.4460001 4289113260
-0.17537668 0.018926675 1.4450001 4288586916
-0.17274895 0.018913576 1.4440001 4288586916
-0.17012471 0.018900478 1.4430001 4288586916
-0.16750395 0.01888738 1.442 4288389537
-0.16488664 0.018874282 1.4410001 4289047467
-0.16227281 0.018861184 1.4400001 4288586916
-0.15977341 0.018861184 1.4400001 4289442225
-0.15727399 0.018861184 1.4400001 4287994778
-0.15477459 0.018861184 1.4400001 4289179052
-0.15227519 0.018861184 1.4400001 4287863192
-0.14977579 0.018861184 1.4400001 4289442225
-0.14737865 0.018874282 1.4410001 4287994781
-0.14507858 0.018900478 1.4430001 4289441971
-0.20309329 0.021698961 1.4640001 4287862940
-0.19904535 0.021535924 1.4530001 4288126110
-0.19625287 0.02150628 1.4510001 4288850088
-0.19360085 0.021491457 1.45 4288652708
-0.19095232 0.021476636 1.4490001 4288652707
-0.18830724 0.021461815 1.4480001 4288718501
-0.18566564 0.021446992 1.447 4288257951
-0.18290094 0.02141735 1.4450001 4289113260
-0.18001834 0.021372885 1.442 4288060572
-0.17726925 0.021343241 1.4400001 4289113260
-0.17452709 0.021313598 1.4380001 4288126365
-0.17203116 0.021313598 1.4380001 4289310639
-0.16941734 0.021298775 1.437 4288060572
-0.16692314 0.021298775 1.437 4289442225
-0.16420008 0.021269133 1.4350001 4287797400
-0.16159667 0.02125431 1.434 4289442225
-0.15921864 0.021269133 1.4350001 4288126365
-0.15672791 0.021269133 1.4350001 4289442225
-0.15423718 0.021269133 1.4350001 4288060572
-0.15174645 0.021269133 1.4350001 4289047467
-0.14915171 0.02125431 1.434 4288323744
-0.14666273 0.02125431 1.434 4289376432
-0.14417374 0.02125431 1.434 4288784295
-0.14178354 0.021269133 1.4350001 4288981677
-0.20323202 0.024238931 1.465 4287995040
-0.19890836 0.024023842 1.452 4287139217
-0.19598237 0.023974206 1.4490001 4288981420
-0.19333382 0.02395766 1.4480001 4287994779
-0.19082053 0.02395766 1.4480001 4289179053
-0.18817718 0.023941115 1.447 4287797399
-0.18553732 0.023924571 1.4460001 4289113259
-0.18277435 0.023891479 1.4440001 4287600021
-0.17951897 0.023792207 1.4380001 4289244846
-0.17677684 0.023759115 1.4360001 4287928986
-0.17404163 0.023726026 1.434 4289442225
-0.17155264 0.023726026 1.434 4288060572
-0.16882785 0.023692934 1.432 4289376432
-0.16622618 0.02367639 1.4310001 4287797400
-0.16351354 0.023643298 1.429 4289047467
-0.16092055 0.023626754 1.4280001 4288126365
-0.15855291 0.023643298 1.429 4289047467
-0.1560726 0.023643298 1.429 4288652709
-0.15369977 0.023659846 1.4300001 4288850088
-0.15121773 0.023659846 1.4300001 4288652709
-0.14863166 0.023643298 1.429 4288784295
-0.14604908 0.023626754 1.4280001 4288586916
-0.1435705 0.023626754 1.4280001 4288323744
-0.14128953 0.023659846 1.4300001 4288784298
-0.19849738 0.026471775 1.4490001 4288060576
-0.19530609 0.026380431 1.4440001 4286809995
-0.19279975 0.026380431 1.4440001 4289376177
-0.19016162 0.026362162 1.4430001 4287533972
-0.18752696 0.026343891 1.442 4289508017
-0.18489577 0.026325624 1.4410001 4288455328
-0.1820149 0.026270816 1.4380001 4288981674
-0.17914444 0.02621601 1.4350001 4288257951
-0.17640753 0.026179472 1.4330001 4288915881
-0.17379889 0.026161201 1.432 4288060572
-0.17131338 0.026161201 1.432 4288915881
-0.16870996 0.026142934 1.4310001 4288652709
-0.1658777 0.026088126 1.4280001 4288652709
-0.16328469 0.026069857 1.427 4289113004
-0.16058247 0.02603332 1.4250001 4287928985
-0.1581091 0.02603332 1.4250001 4288784293
-0.15574494 0.026051588 1.4260001 4287863193
-0.15337732 0.026069857 1.427 4288981674
-0.15079473 0.026051588 1.4260001 4287994781
-0.14831963 0.026051588 1.4260001 4289836729
-0.14563999 0.026015051 1.424 4288191904
-0.14306779 0.025996782 1.4230001 4289770936
-0.14089431 0.026051588 1.4260001 4287599767
-0.19849738 0.028969347 1.4490001 4288455078
-0.19490033 0.028809404 1.4410001 4287797147
-0.19226567 0.02878941 1.4400001 4288257441
-0.1895027 0.028749427 1.4380001 4288060060
-0.18687673 0.028729433 1.437 4288520609
-0.18425423 0.02870944 1.4360001 4288323231
-0.18138203 0.028649461 1.4330001 4288850088
-0.17852026 0.028589483 1.4300001 4288389537
-0.17591511 0.028569493 1.429 4289376432
-0.17343479 0.028569493 1.429 4288192158
-0.17107412 0.028589483 1.4300001 4289113260
-0.16859207 0.028589483 1.4300001 4287731607
-0.16552921 0.028489523 1.4250001 4289244846
-0.16282699 0.028449535 1.4230001 4288257951
-0.16013171 0.02840955 1.4210001 4289376431
-0.15755433 0.028389556 1.4200001 4288126363
-0.15519884 0.02840955 1.4210001 4289705397
-0.15273242 0.02840955 1.4210001 4287863193
-0.15026599 0.02840955 1.4210001 4289573811
-0.14769556 0.028389556 1.4200001 4287533972
-0.14512859 0.028369566 1.419 4289046954
-0.14266564 0.028369566 1.419 4287994267
-0.14040029 0.02840955 1.4210001 4289441969
-0.1384192 0.028509516 1.4260001 4288060318
-0.1362301 0.028569493 1.429 4289047213
-0.19849738 0.031466916 1.4490001 4287468441
-0.19476508 0.031271465 1.4400001 4288915373
-0.19213216 0.031249752 1.439 4287533463
-0.18937093 0.031206319 1.437 4289573300
-0.18674669 0.031184601 1.4360001 4287862680
-0.1839976 0.031141169 1.434 4289178284
-0.18112887 0.031076021 1.4310001 4288059804
-0.17839542 0.03103259 1.429 4289178542
-0.17579201 0.031010872 1.4280001 4287599510
-0.17343479 0.03103259 1.429 4289770936
-0.17107412 0.031054303 1.4300001 4287994525
-0.16823837 0.030989155 1.427 4289573555
-0.16541305 0.030924007 1.424 4287928986
-0.16271256 0.030880576 1.4220001 4289179053
-0.15990633 0.030815426 1.419 4287863192
-0.15744337 0.030815426 1.419 4289244844
-0.15498042 0.030815426 1.419 4288126364
-0.15240997 0.03079371 1.4180001 4289113260
-0.14994876 0.03079371 1.4180001 4288455330
-0.14748754 0.03079371 1.4180001 4289179053
-0.14492404 0.030771991 1.4170001 4288586916
-0.14236403 0.030750278 1.416 4288323744
-0.14010388 0.03079371 1.4180001 4288652709
-0.13793387 0.030858858 1.4210001 4288718502
-0.13556278 0.030880576 1.4220001 4289244591
-0.13356259 0.030989155 1.427 4288981420
-0.1983604 0.033941045 1.4480001 4288060836
-0.19476508 0.033753525 1.4400001 4287205269
-0.19186513 0.033683203 1.437 4288652201
-0.1888438 0.033589445 1.4330001 4287994012
-0.18583636 0.033495687 1.429 4289507251
-0.18322773 0.033472244 1.4280001 4288585892
-0.18049601 0.033425368 1.4260001 4289506737
-0.17789607 0.033401925 1.4250001 4288454050
-0.1754227 0.033401925 1.4250001 4288651686
-0.17307068 0.033425368 1.4260001 4288454307
-0.17047594 0.033401925 1.4250001 4288651942
-0.16776678 0.033355042 1.4230001 4288455076
-0.1649484 0.033284724 1.4200001 4288784296
-0.1623693 0.033261288 1.419 4288915880
-0.15956827 0.033190966 1.416 4288718500
-0.15699956 0.033167526 1.4150001 4289113258
-0.15454355 0.033167526 1.4150001 4287928985
-0.15219502 0.033190966 1.416 4288981674
-0.14973727 0.033190966 1.416 4287665814
-0.14717551 0.033167526 1.4150001 4289310384
-0.1447195 0.033167526 1.4150001 4288191903
-0.14216295 0.033144087 1.414 4289441970
-0.13990627 0.033190966 1.416 4287863193
-0.13764265 0.033237845 1.4180001 4289573811
-0.13518143 0.033237845 1.4180001 4287928731
-0.13309461 0.033331607 1.4220001 4289573557
-0.19449458 0.036185253 1.4380001 4287336856
-0.19146457 0.0360846 1.434 4288652457
-0.18831666 0.035958782 1.429 4287731097
-0.18505608 0.0358078 1.4230001 4288191391
-0.18245786 0.035782639 1.4220001 4288257184
-0.17986313 0.035757471 1.4210001 4288848809
-0.1773967 0.035757471 1.4210001 4288190622
-0.17505339 0.035782639 1.4220001 4289375152
-0.17246383 0.035757471 1.4210001 4288125342
-0.16999741 0.035757471 1.4210001 4289178286
-0.1672952 0.035707146 1.419 4287994524
-0.16459993 0.035656817 1.4170001 4289113004
-0.16202602 0.035631657 1.416 4287665813
-0.15934289 0.035581328 1.414 4289310637
-0.1566667 0.035531003 1.4120001 4287994778
-0.15421589 0.035531003 1.4120001 4289442225
-0.15165761 0.035505835 1.411 4287731607
-0.14931427 0.035531003 1.4120001 4289310385
-0.14686348 0.035531003 1.4120001 4287599767
-0.14441267 0.035531003 1.4120001 4289441971
-0.14186132 0.035505835 1.411 4287796889
-0.13941225 0.035505835 1.411 4289507762
-0.13696319 0.035505835 1.411 4288060572
-0.13451411 0.035505835 1.411 4289442225
-0.13225225 0.035556164 1.4130001 4288060317
-0.13025899 0.035681982 1.4180001 4289638580
-0.12797803 0.035732307 1.4200001 4288322976
-0.18818489 0.038394991 1.4280001 4289046958
-0.18479598 0.038206778 1.4210001 4287270547
-0.18220125 0.038179893 1.4200001 4289704631
-0.1794834 0.038126118 1.4180001 4287664791
-0.17702217 0.038126118 1.4180001 4289243566
-0.17443787 0.038099229 1.4170001 4287532948
-0.17173563 0.038045458 1.4150001 4289441459
-0.16915999 0.038018569 1.414 4287730840
-0.16646992 0.037964795 1.4120001 4289704886
-0.16390295 0.037937906 1.411 4287797401
-0.16122504 0.037884135 1.409 4289442225
-0.15855406 0.037830357 1.4070001 4287863193
-0.15589002 0.037776586 1.4050001 4289179053
-0.15345137 0.037776586 1.4050001 4288192158
-0.15090524 0.037749697 1.404 4289442225
-0.14857405 0.037776586 1.4050001 4288257696
-0.1461354 0.037776586 1.4050001 4289244592
-0.14369674 0.037776586 1.4050001 4287599767
-0.14115755 0.037749697 1.404 4288981420
-0.13862182 0.037722811 1.4030001 4287731607
-0.13608956 0.037695922 1.4020001 4288850088
-0.13365611 0.037695922 1.4020001 4287665814
-0.13140987 0.037749697 1.404 4289046954
-0.12906481 0.037776586 1.4050001 4288585634
-0.12671627 0.037803471 1.406 4289243565
-0.18831666 0.040884975 1.429 4287665562
-0.18505608 0.040713307 1.4230001 4288520870
-0.18220125 0.040627476 1.4200001 4288257698
-0.17923026 0.040513035 1.416 4288915628
-0.17652282 0.040455811 1.414 4288586149
-0.17394546 0.0404272 1.4130001 4288652198
-0.17125016 0.04036998 1.411 4288389026
-0.16868147 0.040341366 1.4100001 4288323233
-0.16588044 0.040255535 1.4070001 4288389026
-0.16332215 0.040226925 1.406 4288389026
-0.16076733 0.040198315 1.4050001 4288981163
-0.1579906 0.040112481 1.4020001 4288257952
-0.15533525 0.040055256 1.4000001 4288784295
-0.15279606 0.04002665 1.399 4288323744
-0.15036781 0.04002665 1.399 4288981674
-0.14793958 0.04002665 1.399 4288126367
-0.14551133 0.04002665 1.399 4289178799
-0.1430831 0.04002665 1.399 4287533974
-0.14055431 0.039998036 1.3980001 4289310385
-0.13802899 0.039969426 1.3970001 4288521123
-0.13560423 0.039969426 1.3970001 4289047467
-0.13327479 0.039998036 1.3980001 4287863194
-0.13094188 0.04002665 1.399 4289178797
-0.1286055 0.040055256 1.4000001 4287994266
-0.12626566 0.04008387 1.401 4289111977
-0.12409911 0.040169701 1.404 4288980393
-0.12174883 0.040198315 1.4050001 4289440688
-0.18844846 0.043378405 1.4300001 4287139734
-0.18531618 0.043226734 1.4250001 4288586921
-0.18245786 0.043135729 1.4220001 4287599768
-0.17935683 0.042984057 1.4170001 4289244593
-0.17639799 0.042862717 1.4130001 4287731353
-0.17382234 0.042832386 1.4120001 4289441714
-0.17112881 0.042771712 1.4100001 4287796889
-0.1684422 0.042711046 1.4080001 4289310128
-0.16576254 0.042650379 1.406 4287599510
-0.163206 0.04262004 1.4050001 4289244335
-0.16065292 0.042589705 1.404 4287731353
-0.15787792 0.042498704 1.401 4289573556
-0.15522431 0.042438034 1.399 4287994779
-0.15268685 0.042407699 1.3980001 4289508018
-0.15026034 0.042407699 1.3980001 4287402642
-0.14783384 0.042407699 1.3980001 4289244846
-0.14540733 0.042407699 1.3980001 4287534229
-0.14287853 0.042377364 1.3970001 4289507764
-0.14035323 0.042347033 1.396 4287665560
-0.1379302 0.042347033 1.396 4289902522
-0.13550717 0.042347033 1.396 4287731353
-0.13317946 0.042377364 1.3970001 4289705143
-0.13075468 0.042377364 1.3970001 4287994525
-0.12832992 0.042377364 1.3970001 4289639604
-0.1260854 0.042438034 1.399 4287270543
-0.12392233 0.042529039 1.4020001 4289638066
-0.12166218 0.042589705 1.404 4288781731
-0.1829711 0.045714993 1.4260001 4288586663
-0.17859738 0.045234121 1.411 4287402388
-0.17589863 0.045170005 1.409 4289113006
-0.17332993 0.045137946 1.4080001 4287599767
-0.17064333 0.04507383 1.406 4289639350
-0.16808331 0.04504177 1.4050001 4287994525
-0.16529095 0.044945598 1.4020001 4289507507
-0.16262518 0.044881478 1.4000001 4287994525
-0.16008079 0.044849422 1.399 4288652455
-0.15731448 0.04475325 1.396 4288126367
-0.15466952 0.04468913 1.3940001 4288849834
-0.15224996 0.04468913 1.3940001 4287731352
-0.1498304 0.04468913 1.3940001 4289244847
-0.14741084 0.04468913 1.3940001 4288718247
-0.14499128 0.04468913 1.3940001 4289179055
-0.14246944 0.044657074 1.393 4288060573
-0.13985053 0.044592954 1.391 4289244592
-0.13743618 0.044592954 1.391 4287468180
-0.13492475 0.044560898 1.3900001 4289507761
-0.13260746 0.044592954 1.391 4287665560
-0.1303803 0.044657074 1.393 4289441714
-0.12805434 0.04468913 1.3940001 4287336595
-0.12581502 0.04475325 1.396 4289704629
-0.12365716 0.044849422 1.399 4288256667
-0.12131556 0.044881478 1.4000001 4290229437
-0.17834422 0.04759863 1.409 4287731354
-0.17564896 0.047531061 1.4070001 4288718249
-0.17283751 0.047429718 1.404 4287928732
-0.17015785 0.047362156 1.4020001 4288915627
-0.16760477 0.047328372 1.401 4288520869
-0.16481937 0.047227025 1.3980001 4289244592
-0.16216055 0.047159463 1.396 4288586662
-0.15962309 0.047125682 1.3950001 4289047213
-0.1569764 0.04705812 1.393 4287994524
-0.15444762 0.047024336 1.3920001 4288784041
-0.15203153 0.047024336 1.3920001 4287862938
-0.14950795 0.046990555 1.391 4289113260
-0.14709359 0.046990555 1.391 4287731609
-0.14467925 0.046990555 1.391 4288981418
-0.14206032 0.046922989 1.3890001 4287468434
-0.13944837 0.046855424 1.3870001 4289376176
-0.13704096 0.046855424 1.3870001 4287994779
-0.13463356 0.046855424 1.3870001 4288850088
-0.13232146 0.046889208 1.388 4288258211
-0.1301931 0.046990555 1.391 4288652455
-0.1278706 0.047024336 1.3920001 4288257440
-0.1257249 0.047125682 1.3950001 4287997094
-0.12348037 0.047193244 1.3970001 4288326572
-0.12114227 0.047227025 1.3980001 4289374645
-0.11931018 0.047463499 1.4050001 4289110198
-0.17847081 0.050062753 1.4100001 4289113007
-0.17577378 0.049991746 1.4080001 4287533975
-0.17283751 0.049849723 1.404 4289376179
-0.17003649 0.049743205 1.401 4287205009
-0.16748513 0.0497077 1.4000001 4289441971
-0.16470148 0.049601182 1.3970001 4287270802
-0.16192822 0.049494669 1.3940001 4289507764
-0.15950866 0.049494669 1.3940001 4287928732
-0.1569764 0.049459163 1.393 4289770936
-0.15444762 0.049423657 1.3920001 4287797145
-0.15203153 0.049423657 1.3920001 4290100156
-0.14961544 0.049423657 1.3920001 4287468435
-0.14709359 0.049388152 1.391 4289310639
-0.14436722 0.049281634 1.388 4287271056
-0.14185579 0.049246129 1.3870001 4289442225
-0.13934782 0.049210627 1.386 4286678919
-0.13694215 0.049210627 1.386 4289705657
-0.13453647 0.049210627 1.386 4287732379
-0.13232146 0.049281634 1.388 4289903549
-0.1301931 0.049388152 1.391 4288060062
-0.12796247 0.049459163 1.393 4289835961
-0.1257249 0.049530175 1.3950001 4287009172
-0.12356877 0.049636692 1.3980001 4289379517
-0.12122891 0.049672198 1.399 4288191399
-0.11922527 0.049849723 1.404 4289175225
-0.17872395 0.052567564 1.4120001 4287862941
-0.17602347 0.052493103 1.4100001 4288126112
-0.17271441 0.0522325 1.4030001 4288586663
-0.16967238 0.052046355 1.3980001 4289113007
-0.16724588 0.052046355 1.3980001 4288455076
-0.1644657 0.051934667 1.3950001 4288652455
-0.1616959 0.051822979 1.3920001 4288257697
-0.15927981 0.051822979 1.3920001 4288389283
-0.15675102 0.051785748 1.391 4288586662
-0.15422572 0.051748518 1.3900001 4288784039
-0.1518131 0.051748518 1.3900001 4288784295
-0.14940047 0.051748518 1.3900001 4288586917
-0.1468821 0.051711291 1.3890001 4288455329
-0.14415918 0.051599603 1.386 4288587429
-0.14175351 0.051599603 1.386 4288193186
-0.13914676 0.051525146 1.3840001 4288456614
-0.13684335 0.051562376 1.3850001 4288193187
-0.13443941 0.051562376 1.3850001 4289443254
-0.13241678 0.051711291 1.3890001 4287797918
-0.13028669 0.051822979 1.3920001 4289179057
-0.12805434 0.051897436 1.3940001 4289507253
-0.12590514 0.052009124 1.3970001 4289309102
-0.12365716 0.052083585 1.399 4288916139
-0.12122891 0.052083585 1.399 4287466902
-0.11914034 0.0522325 1.4030001 4287267991
-0.11712107 0.052418645 1.4080001 4286478990
-0.11508445 0.052604791 1.4130001 4286611345
-0.17639799 0.055040307 1.4130001 4288323492
-0.17283751 0.054689731 1.404 4286941839
-0.16967238 0.054456018 1.3980001 4289573558
-0.16724588 0.054456018 1.3980001 4287731354
-0.16434778 0.054300204 1.3940001 4289770936
-0.16157974 0.054183345 1.391 4287731353
-0.15905096 0.054144394 1.3900001 4289507764
-0.15652564 0.054105442 1.3890001 4287731353
-0.15389286 0.054027535 1.3870001 4289639349
-0.15148544 0.054027535 1.3870001 4287139215
-0.14907803 0.054027535 1.3870001 4289573557
-0.14677636 0.05406649 1.388 4287336594
-0.14415918 0.053988583 1.386 4290100670
-0.14165124 0.053949632 1.3850001 4288062114
-0.1392473 0.053949632 1.3850001 4289839294
-0.13694215 0.053988583 1.386 4287076245
-0.13463356 0.054027535 1.3870001 4289248699
-0.13260746 0.054183345 1.391 4287734691
-0.13056751 0.054339159 1.3950001 4289770936
-0.12832992 0.054417063 1.3970001 4287466643
-0.1260854 0.05449497 1.399 4287073424
-0.12374554 0.054533921 1.4000001 4286481541
-0.12131556 0.054533921 1.4000001 4286743177
-0.11905543 0.054611828 1.4020001 4286940047
-0.11712107 0.054845545 1.4080001 4287006351
-0.17320682 0.057231769 1.4070001 4287468183
-0.16991511 0.056947034 1.4000001 4287205010
-0.16736551 0.056906354 1.399 4288981421
-0.1644657 0.056743652 1.3950001 4287665560
-0.16157974 0.05658095 1.391 4289310385
-0.15916538 0.05658095 1.391 4288717991
-0.15641296 0.056458917 1.388 4289573300
-0.15378189 0.056377564 1.386 4288126111
-0.15148544 0.056418236 1.3870001 4289507507
-0.14907803 0.056418236 1.3870001 4288191647
-0.14677636 0.056458917 1.388 4289507764
-0.14426321 0.056418236 1.3870001 4288850604
-0.14175351 0.056377564 1.386 4288983216
-0.13934782 0.056377564 1.386 4288392106
-0.13704096 0.056418236 1.3870001 4289512385
-0.13482767 0.056499593 1.3890001 4287737257
-0.13279814 0.056662295 1.393 4286945688
-0.13075468 0.056825005 1.3970001 4285823100
-0.12851363 0.056906354 1.399 4286676615
-0.12617552 0.056947034 1.4000001 4287401619
-0.12383394 0.05698771 1.401 4287073424
-0.12140223 0.05698771 1.401 4286875022
-0.11914034 0.057069063 1.4030001 4286282371
-0.11703789 0.057231769 1.4070001 4286677385
-0.17027922 0.059487347 1.4030001 4287402389
-0.16760477 0.059402544 1.401 4289047213
-0.1644657 0.059148144 1.3950001 4287599767
-0.16146359 0.058936141 1.3900001 4289573300
-0.15893653 0.058893744 1.3890001 4287994268
-0.15630028 0.058808941 1.3870001 4289507764
-0.15378189 0.058766544 1.386 4287533974
-0.15137622 0.058766544 1.386 4289968058
-0.14907803 0.058808941 1.3870001 4287994268
-0.14677636 0.058851346 1.388 4289638837
-0.14436722 0.058851346 1.388 4287994782
-0.14195806 0.058851346 1.388 4289706684
-0.13954891 0.058851346 1.388 4287339676
-0.13733737 0.058936141 1.3900001 4287079328
-0.13502182 0.058978546 1.391 4284119157
-0.13308413 0.059190542 1.396 4286550675
-0.13112909 0.059402544 1.401 4286745486
-0.12878922 0.059444942 1.4020001 4286942094
-0.12644589 0.059487347 1.4030001 4286217603
-0.12392233 0.059444942 1.4020001 4286283910
-0.12140223 0.059402544 1.401 4286941582
-0.11905543 0.059444942 1.4020001 4286809994
-0.1644657 0.061552636 1.3950001 4289244591
-0.16146359 0.061332017 1.3900001 4287336593
-0.15893653 0.061287895 1.3890001 4289770677
-0.15630028 0.061199646 1.3870001 4287796889
-0.15378189 0.061155524 1.386 4289376179
-0.15137622 0.061155524 1.386 4288257185
-0.14907803 0.061199646 1.3870001 4288914601
-0.14677636 0.061243773 1.388 4288980137
-0.14447121 0.061287895 1.3890001 4289441202
-0.14216262 0.061332017 1.3900001 4286613900
-0.13985053 0.061376143 1.391 4285759874
-0.13773258 0.061508514 1.3940001 4285631628
-0.1354101 0.061552636 1.3950001 4285895569
-0.13337013 0.061729129 1.399 4286352271
-0.16458358 0.064002976 1.396 4288586659
-0.16157974 0.063773744 1.391 4287797143
-0.15905096 0.063727893 1.3900001 4289573555
-0.15641296 0.063636199 1.388 4288586406
-0.15389286 0.063590348 1.3870001 4288652200
-0.15148544 0.063590348 1.3870001 4287533718
-0.14918551 0.063636199 1.388 4289572788
-0.14698786 0.063727893 1.3900001 4287137934
-0.14457524 0.063727893 1.3900001 4286480262
-0.14226489 0.063773744 1.391 4286218373
-0.14005162 0.063865431 1.393 4287404186
-0.1379302 0.064002976 1.396 4285234049
-0.16157974 0.066171341 1.391 4287468435
-0.15905096 0.066123761 1.3900001 4287994779
-0.15652564 0.066076197 1.3890001 4287665560
-0.15411475 0.066076197 1.3890001 4287468439
-0.15170388 0.066076197 1.3890001 4288718249
-0.14940047 0.066123761 1.3900001 4285494136
-0.14719935 0.066218905 1.3920001 4287270289
-0.14478324 0.066218905 1.3920001 4286743947
-0.14246944 0.066266477 1.393 4286481289
-0.15663834 0.068519637 1.3900001 4287403159
-0.15422572 0.068519637 1.3900001 4287600538
