# .PCD v0.7 - Point Cloud Data file format
VERSION 0.7
FIELDS x y z rgba
SIZE 4 4 4 4
TYPE F F F U
COUNT 1 1 1 1
WIDTH 1094
HEIGHT 1
VIEWPOINT 0 0 0 1 0 0 0
POINTS 1094
DATA ascii
0.030756764 -0.11475631 1.2570001 4282918551
0.034221247 -0.1148476 1.258 4283247515
0.037601385 -0.11466502 1.256 4283313308
0.040937912 -0.11439113 1.253 4283904675
0.044222627 -0.11402596 1.2490001 4283838883
0.04756175 -0.11384337 1.2470001 4283444125
0.050971683 -0.11384337 1.2470001 4283246746
0.054294396 -0.11366078 1.245 4283246748
0.057698861 -0.11366078 1.245 4283246746
0.060956087 -0.11338691 1.2420001 4283312539
0.064248718 -0.11320432 1.24 4283246746
0.067584969 -0.11311303 1.2390001 4283378332
0.071030304 -0.11320432 1.24 4283641506
0.0744211 -0.11320432 1.24 4283115162
0.077686384 -0.11302173 1.238 4283378334
0.081071712 -0.11302173 1.238 4283246494
0.084320597 -0.11283914 1.2360001 4283575202
0.087487578 -0.11256526 1.233 4283837863
0.090711847 -0.11238267 1.2310001 4283837863
0.094154455 -0.11247396 1.2320001 4283772070
0.097681686 -0.11265656 1.2340001 4284297644
0.10130175 -0.11293043 1.2370001 4284889779
0.1048536 -0.11311303 1.2390001 4284955572
0.10859111 -0.1134782 1.243 4285086645
0.11208019 -0.11356949 1.2440001 4285218485
0.1156676 -0.11375208 1.2460001 4284757166
0.11936149 -0.11402596 1.2490001 4285480889
0.12326839 -0.11448243 1.2540001 4285809341
0.1271016 -0.1148476 1.258 4285875134
0.13116424 -0.11539537 1.2640001 4285414583
0.13536619 -0.11603443 1.271 4285809341
0.14004335 -0.11703866 1.2820001 4285480376
0.14522859 -0.11840806 1.2970001 4285480887
0.1495782 -0.11904711 1.304 4285941436
0.15326144 -0.11913841 1.3050001 4287258068
0.15670979 -0.11904711 1.304 4284823986
0.16064434 -0.119321 1.307 4283574691
0.16434398 -0.11941229 1.3080001 4284232881
0.16830586 -0.11968618 1.3110001 4283377572
0.17202193 -0.11977746 1.312 4283903916
0.17574345 -0.11986876 1.3130001 4283574440
0.17933385 -0.11986876 1.3130001 4283442084
0.1830636 -0.11996005 1.314 4283902122
0.18679878 -0.12005135 1.3150001 4284427696
0.19082902 -0.12032523 1.3180001 4284691638
0.19517072 -0.1207817 1.3230001 4285021368
0.19999053 -0.12151206 1.3310001 4285088437
0.20974976 -0.12516381 1.3710001 4284432541
-0.0074460879 -0.11751819 1.327 4282789508
-0.0037656128 -0.11592411 1.309 4284300712
-0.00018500201 -0.11521564 1.3010001 4285550520
0.0033674105 -0.11503853 1.299 4285418419
0.0068822508 -0.1144186 1.2920001 4284233379
0.010366869 -0.11388726 1.286 4283904414
0.013797082 -0.11317877 1.2780001 4285154485
0.017251194 -0.1129131 1.2750001 4284694191
0.020688901 -0.11264742 1.2720001 4283904675
0.0241102 -0.11238175 1.2690001 4283379101
0.027515091 -0.11211606 1.266 4283050136
0.030879105 -0.11176182 1.2620001 4283444894
0.034302853 -0.11167327 1.261 4283379101
0.037631322 -0.11131903 1.2570001 4283576480
0.041003253 -0.11114191 1.2550001 4284167847
0.044364255 -0.11096479 1.253 4283575710
0.047714312 -0.11078768 1.251 4283444125
0.051094308 -0.11069912 1.25 4283180953
0.054425225 -0.110522 1.248 4283312539
0.05779155 -0.11043344 1.2470001 4283378332
0.061103325 -0.11025632 1.245 4283246746
0.064455971 -0.11016776 1.2440001 4283180953
0.067748614 -0.10999064 1.2420001 4283246748
0.071087584 -0.10990208 1.2410001 4283246748
0.0744211 -0.10981352 1.24 4283180955
0.077749141 -0.10972497 1.2390001 4282983576
0.081137195 -0.10972497 1.2390001 4283246748
0.084388815 -0.10954785 1.2370001 4283641252
0.08762949 -0.10937073 1.235 4283640741
0.090859234 -0.10919361 1.233 4283771815
0.094307303 -0.10928217 1.2340001 4283640484
0.097840011 -0.10945928 1.2360001 4284034470
0.10130175 -0.10954785 1.2370001 4284626861
0.10476897 -0.10963641 1.238 4285350071
0.10859111 -0.11007921 1.243 4285481657
0.11226039 -0.11034488 1.2460001 4285218485
0.11594608 -0.11061055 1.2490001 4284955313
0.11955262 -0.11078768 1.251 4285415096
0.12356329 -0.11131903 1.2570001 4285678268
0.12760678 -0.11185039 1.263 4285349303
0.13168307 -0.11238175 1.2690001 4285151924
0.1357922 -0.1129131 1.2750001 4285611962
0.14026184 -0.11371014 1.284 4285940927
0.14522859 -0.11486141 1.2970001 4286072511
0.1495782 -0.11548132 1.304 4286204610
0.15361376 -0.11583555 1.3080001 4287257298
0.1571905 -0.11583555 1.3080001 4285810368
0.16089016 -0.11592411 1.309 4284429228
0.16459528 -0.11601268 1.3100001 4284363952
0.16830586 -0.11610124 1.3110001 4283574436
0.17228414 -0.11636692 1.314 4283969196
0.17601115 -0.11645547 1.3150001 4283442852
0.17960702 -0.11645547 1.3150001 4283245475
0.18320291 -0.11645547 1.3150001 4283771047
0.18722494 -0.11672115 1.3180001 4283638948
0.1909738 -0.11680971 1.319 4284230571
0.19502318 -0.11707538 1.322 4285481405
0.19908898 -0.11734106 1.325 4285284537
0.20408913 -0.1181381 1.3340001 4284759474
0.21163008 -0.12035207 1.3590001 4285419446
-0.014747798 -0.11423279 1.3310001 4278190080
-0.010966288 -0.11277377 1.314 4284169130
-0.0073226411 -0.11200134 1.3050001 4283971239
-0.0037368457 -0.1114864 1.299 4283773608
-0.000184291 -0.11122892 1.296 4284628399
0.0033544491 -0.11105727 1.294 4284694191
0.0068609435 -0.11054232 1.2880001 4284431020
0.010350747 -0.11019902 1.284 4283707296
0.013807878 -0.1097699 1.279 4283575710
0.017264726 -0.10951243 1.276 4284036261
0.020705165 -0.10925496 1.273 4283641503
0.024129197 -0.10899747 1.2700001 4283050136
0.027558558 -0.10882583 1.268 4283379101
0.030976981 -0.10865417 1.266 4283642273
0.034384463 -0.10848253 1.2640001 4283313308
0.037691195 -0.1080534 1.2590001 4283379101
0.041068599 -0.10788175 1.2570001 4283839136
0.044435065 -0.10771011 1.2550001 4283839136
0.047828734 -0.10762428 1.2540001 4283641503
0.05117606 -0.10745264 1.2520001 4283312538
0.054468833 -0.10719515 1.2490001 4283312538
0.05779155 -0.10702351 1.2470001 4283312538
0.061054241 -0.10676603 1.2440001 4283378332
0.06440416 -0.10668021 1.243 4283444125
0.067694061 -0.10650855 1.2410001 4283312539
0.071087584 -0.10650855 1.2410001 4283312539
0.0744211 -0.10642273 1.24 4283115162
0.077811889 -0.10642273 1.24 4283049369
0.081006221 -0.10616526 1.2370001 4283246748
0.084320597 -0.10607943 1.2360001 4283509920
0.087558538 -0.10590778 1.2340001 4283312287
0.090859234 -0.10582196 1.233 4283707045
0.094383731 -0.10599361 1.235 4283575202
0.097840011 -0.10607943 1.2360001 4283706275
0.10121986 -0.10607943 1.2360001 4284363689
0.10476897 -0.10625108 1.238 4285087412
0.10859111 -0.10668021 1.243 4285218998
0.11226039 -0.10693768 1.2460001 4285416377
0.11594608 -0.10719515 1.2490001 4285152692
0.11955262 -0.10736681 1.251 4285284024
0.12366159 -0.10796758 1.258 4285217717
0.12760678 -0.1083967 1.263 4284888750
0.13157931 -0.10882583 1.268 4285020338
0.13568568 -0.10934077 1.274 4285349303
0.13993412 -0.10994155 1.281 4286467782
0.14466873 -0.11088562 1.2920001 4286270403
0.14900467 -0.1114864 1.299 4286533575
0.153144 -0.11191551 1.304 4287059919
0.15695016 -0.11208717 1.3060001 4286205380
0.16052143 -0.11208717 1.3060001 4285020852
0.16434398 -0.11225881 1.3080001 4284363437
0.16817749 -0.11243047 1.3100001 4283706022
0.17215304 -0.11268794 1.3130001 4284034987
0.17587729 -0.11277377 1.314 4283640229
0.17960702 -0.11285959 1.3150001 4283574436
0.18348154 -0.11303124 1.317 4283968680
0.18736698 -0.11320289 1.319 4283639202
0.19126338 -0.11337454 1.3210001 4284231338
0.19502318 -0.11346036 1.322 4285810370
0.19893873 -0.11363202 1.3240001 4285416377
0.20332417 -0.11406115 1.3290001 4284627890
0.20867132 -0.11500521 1.34 4285485493
-0.018276913 -0.10992844 1.3230001 4278190080
-0.014481872 -0.10859899 1.307 4285090230
-0.010841102 -0.10793427 1.299 4283839399
-0.0072665289 -0.1076019 1.2950001 4283905192
-0.003725339 -0.1076019 1.2950001 4283444895
-0.0001841488 -0.1076019 1.2950001 4283247262
0.0033570414 -0.1076019 1.2950001 4283905192
0.0068662707 -0.10710336 1.289 4284102571
0.010366869 -0.1068541 1.286 4283642273
0.013840266 -0.10652174 1.2820001 4283313309
0.017318847 -0.10635556 1.2800001 4283510688
0.020786488 -0.10618936 1.2780001 4283576738
0.024243195 -0.10602319 1.276 4283445407
0.027688961 -0.10585701 1.274 4283445407
0.031099319 -0.10560774 1.271 4283510685
0.034493275 -0.10535847 1.268 4283773857
0.037810944 -0.10494301 1.263 4283773857
0.041199289 -0.10477683 1.261 4284036515
0.04457669 -0.10461066 1.2590001 4283839136
0.047943156 -0.10444447 1.2570001 4283707550
0.051257808 -0.1041952 1.2540001 4283773343
0.054599669 -0.10402903 1.2520001 4284102054
0.057930585 -0.10386284 1.25 4283707296
0.061201483 -0.10361358 1.2470001 4283641503
0.06450779 -0.10344739 1.245 4283444894
0.067803159 -0.10328121 1.243 4283115929
0.071259432 -0.1033643 1.2440001 4283247515
0.074601151 -0.10328121 1.243 4283115930
0.078062892 -0.1033643 1.2440001 4282852758
0.081268169 -0.10311503 1.2410001 4283050137
0.084593475 -0.10303193 1.24 4283115676
0.087842353 -0.10286576 1.238 4283246748
0.09122768 -0.10286576 1.238 4283509920
0.094765842 -0.10303193 1.24 4283772066
0.098156638 -0.10303193 1.24 4284035238
0.10146555 -0.10294885 1.2390001 4284692654
0.10502286 -0.10311503 1.2410001 4285021617
0.10876583 -0.10344739 1.245 4285218996
0.11253069 -0.10377975 1.2490001 4285416377
0.11613175 -0.10394593 1.251 4285087412
0.11993488 -0.1042783 1.2550001 4285153205
0.12415309 -0.10494301 1.263 4285218998
0.12811196 -0.10535847 1.268 4285020852
0.13220192 -0.10585701 1.274 4284888237
0.13611171 -0.10618936 1.2780001 4285151409
0.14037107 -0.10677101 1.2850001 4286467782
0.1447807 -0.10743573 1.2930001 4286599368
0.14946349 -0.10826663 1.3030001 4286994128
0.15361376 -0.10868207 1.3080001 4286796747
0.15731068 -0.10876517 1.309 4287059919
0.16089016 -0.10876517 1.309 4285217715
0.16459528 -0.10884826 1.3100001 4284495021
0.16830586 -0.10893136 1.3110001 4284034472
0.17228414 -0.10918062 1.314 4283706277
0.17627883 -0.10942989 1.317 4284561586
0.18001677 -0.10951298 1.3180001 4284101035
0.18376017 -0.10959607 1.319 4284561586
0.1876511 -0.10976225 1.3210001 4284166058
0.19169775 -0.11001153 1.3240001 4284166058
0.19590831 -0.11034389 1.3280001 4285811135
0.19984026 -0.11051006 1.33 4284890031
0.2043951 -0.11100861 1.3360001 4284233128
0.20944992 -0.11175642 1.345 4285156275
0.21883239 -0.11474767 1.381 4289962952
-0.021795372 -0.10582854 1.317 4278190080
-0.017931543 -0.10430179 1.2980001 4284629428
-0.014315668 -0.10381965 1.2920001 4284168364
-0.010757645 -0.10357858 1.289 4283642020
-0.0072328616 -0.10357858 1.289 4283642281
-0.0037080788 -0.10357858 1.289 4283510949
-0.00018358001 -0.10373929 1.291 4283050398
0.0033440797 -0.10365894 1.2900001 4283313570
0.0068556168 -0.10341787 1.2870001 4284037291
0.010358809 -0.10325716 1.2850001 4283510947
0.013829471 -0.10293574 1.281 4283445154
0.017318847 -0.10285538 1.2800001 4283774117
0.020786488 -0.10269466 1.2780001 4283905958
0.024262194 -0.10261431 1.2770001 4283642784
0.027732428 -0.10253396 1.276 4284102822
0.031148259 -0.1022929 1.273 4283905443
0.034547679 -0.10205182 1.2700001 4283905697
0.037870821 -0.10165004 1.2650001 4284037283
0.041264631 -0.10148933 1.263 4284628652
0.044647504 -0.10132861 1.261 4284365480
0.048019439 -0.10116791 1.2590001 4283707548
0.051339559 -0.10092685 1.256 4284365478
0.054643277 -0.10068577 1.253 4284431273
0.057976928 -0.10052507 1.251 4284233892
0.06125056 -0.100284 1.248 4284102306
0.064559601 -0.10012329 1.2460001 4283575964
0.067912251 -0.10004292 1.245 4283510171
0.071373999 -0.10012329 1.2460001 4283444378
0.07472118 -0.10004292 1.245 4283181206
0.078125648 -0.10004292 1.245 4283050134
0.081399143 -0.099882223 1.243 4283115929
0.084661692 -0.099721506 1.2410001 4283050136
0.087913312 -0.099560797 1.2390001 4283180953
0.091375053 -0.099641144 1.24 4283378332
0.094918698 -0.099801861 1.2420001 4283509407
0.098394126 -0.099882223 1.243 4284166824
0.10179312 -0.099882223 1.243 4284692652
0.10527673 -0.09996257 1.2440001 4284890031
0.10894055 -0.10020364 1.2470001 4284956594
0.11262077 -0.1004447 1.25 4285350584
0.11622458 -0.10060542 1.2520001 4285218744
0.12003045 -0.10092685 1.256 4284955826
0.12425139 -0.10156969 1.2640001 4285480117
0.12821297 -0.10197147 1.2690001 4285807785
0.13220192 -0.10237324 1.274 4285016452
0.1357922 -0.1024536 1.2750001 4284887978
0.14004335 -0.10301609 1.2820001 4286006718
0.14444478 -0.10365894 1.2900001 4286270144
0.1495782 -0.10478391 1.304 4286928333
0.15361376 -0.10510533 1.3080001 4287388625
0.15731068 -0.10518569 1.309 4287454675
0.16076724 -0.10510533 1.3080001 4285415094
0.16472092 -0.10534641 1.3110001 4284955313
0.16843425 -0.10542676 1.312 4284231849
0.17254637 -0.10574819 1.3160001 4284232619
0.17668039 -0.10606962 1.3200001 4284758963
0.18056309 -0.10623032 1.322 4284364203
0.18417811 -0.10623032 1.322 4284890547
0.1879352 -0.10631068 1.3230001 4284890033
0.19198732 -0.10655174 1.3260001 4285350584
0.19620337 -0.10687316 1.33 4285153719
0.20059155 -0.10727494 1.335 4284627628
0.20516005 -0.10775708 1.3410001 4284299687
0.21038426 -0.10856064 1.3510001 4284170401
-0.025396721 -0.10222719 1.317 4278190080
-0.021497488 -0.10083002 1.299 4284433070
-0.017848656 -0.10028666 1.2920001 4283905707
-0.014293508 -0.10013142 1.2900001 4283839910
-0.01076599 -0.10013142 1.2900001 4283117212
-0.0072328616 -0.1000538 1.289 4283248291
-0.0037052019 -0.099976175 1.2880001 4282919326
-0.00018343781 -0.10013142 1.2900001 4283050912
0.003346672 -0.10020903 1.291 4283050398
0.0068769241 -0.10020903 1.291 4283379361
0.010391054 -0.1000538 1.289 4283379361
0.013872654 -0.099743314 1.2850001 4283313055
0.017359437 -0.099588066 1.2830001 4283773860
0.020835284 -0.099432833 1.281 4283971239
0.024319191 -0.099355206 1.2800001 4284102822
0.027754163 -0.099122345 1.2770001 4284103076
0.031172728 -0.098889478 1.274 4284103076
0.034574881 -0.098656617 1.271 4283971490
0.03799057 -0.098501377 1.2690001 4284102306
0.041395318 -0.098346129 1.2670001 4284168099
0.044824537 -0.098268509 1.266 4284299685
0.048210144 -0.098113269 1.2640001 4284167840
0.05154394 -0.097880401 1.261 4284365219
0.054861326 -0.09764754 1.258 4284760489
0.058162306 -0.09741468 1.2550001 4284497062
0.061397798 -0.097104192 1.251 4284299683
0.064715043 -0.096948944 1.2490001 4283904929
0.068130441 -0.096948944 1.2490001 4283575962
0.071545847 -0.096948944 1.2490001 4283575964
0.074961253 -0.096948944 1.2490001 4283444378
0.078439407 -0.097026572 1.25 4283312792
0.081792057 -0.096948944 1.2490001 4283378585
0.085002795 -0.096716084 1.2460001 4283246999
0.088339046 -0.096638463 1.245 4283181206
0.0918172 -0.096716084 1.2460001 4283509917
0.095377244 -0.096871331 1.248 4283180695
0.098789908 -0.096871331 1.248 4283509660
0.10212068 -0.096793711 1.2470001 4284035492
0.10561525 -0.096871331 1.248 4284496043
0.10920264 -0.097026572 1.25 4284824238
0.11289106 -0.097259432 1.253 4284890800
0.11659591 -0.0974923 1.256 4284824754
0.12050828 -0.097880401 1.261 4284757932
0.12474289 -0.098501377 1.2690001 4284822187
0.1288192 -0.098967098 1.2750001 4286000528
0.13251323 -0.099122345 1.2770001 4288427147
0.13600519 -0.099122345 1.2770001 4285409696
0.1401526 -0.099588066 1.2830001 4286204610
0.1447807 -0.10036428 1.2930001 4286403270
0.15015174 -0.10160622 1.309 4287059657
0.15443586 -0.10207196 1.3150001 4287322831
0.15815192 -0.10214958 1.3160001 4286665414
0.1613818 -0.10191671 1.3130001 4285546678
0.16522349 -0.10207196 1.3150001 4285086899
0.16907613 -0.10222719 1.317 4284561068
0.17320195 -0.10253768 1.3210001 4284627375
0.17748348 -0.10292578 1.3260001 4284429996
0.1813826 -0.10308103 1.3280001 4284824754
0.18501402 -0.10308103 1.3280001 4284956594
0.18864545 -0.10308103 1.3280001 4285153973
0.19285604 -0.10339151 1.332 4285350581
0.19738354 -0.10385723 1.3380001 4284430507
0.20194384 -0.10432297 1.3440001 4284036261
0.20668995 -0.10486631 1.3510001 4284761263
0.21303159 -0.10618588 1.368 4294304767
-0.028976053 -0.09855096 1.3160001 4278190080
-0.024856776 -0.096529014 1.289 4284499112
-0.021315444 -0.096454129 1.2880001 4284366507
-0.017779581 -0.096379235 1.2870001 4283905453
-0.014249187 -0.096304357 1.286 4284168879
-0.010740953 -0.096379235 1.2870001 4283051166
-0.0072216392 -0.096379235 1.2870001 4282920093
-0.0037080788 -0.096529014 1.289 4282788253
-0.0001831534 -0.096454129 1.2880001 4283051166
0.003338895 -0.096454129 1.2880001 4283050396
0.0068556168 -0.096379235 1.2870001 4283773606
0.010391054 -0.096529014 1.289 4284102571
0.013915837 -0.096529014 1.289 4284233641
0.017454149 -0.096603908 1.2900001 4283838883
0.020949138 -0.096454129 1.2880001 4284102824
0.024433186 -0.096304357 1.286 4284037542
0.027884565 -0.096079692 1.2830001 4283971236
0.031197194 -0.095480599 1.2750001 4283971490
0.034629289 -0.095330834 1.273 4283774111
0.038050443 -0.095181055 1.271 4284167586
0.041493334 -0.095106162 1.2700001 4284365480
0.044859942 -0.094881505 1.2670001 4284760238
0.048248284 -0.094731741 1.2650001 4284431271
0.051625691 -0.094581962 1.263 4284167578
0.054992154 -0.094432183 1.261 4284167059
0.058254991 -0.094132632 1.2570001 4285089199
0.061545033 -0.093907975 1.2540001 4284628137
0.064922296 -0.093833089 1.253 4283904929
0.06823954 -0.093683317 1.251 4284036513
0.071603134 -0.093608432 1.25 4284167075
0.074961253 -0.093533546 1.2490001 4283838623
0.078376651 -0.093533546 1.2490001 4283509658
0.081792057 -0.093533546 1.2490001 4283641244
0.085139237 -0.093458667 1.248 4283444378
0.088480957 -0.093383774 1.2470001 4283641757
0.092038266 -0.093533546 1.2490001 4283509917
0.095530085 -0.093608432 1.25 4283641503
0.098948225 -0.093608432 1.25 4283970469
0.10228448 -0.093533546 1.2490001 4283838370
0.1057845 -0.093608432 1.25 4284364457
0.10937737 -0.093758211 1.2520001 4284496042
0.11307126 -0.093982868 1.2550001 4285021619
0.11678156 -0.094207525 1.258 4285021617
0.1206994 -0.094581962 1.263 4284822955
0.12474289 -0.095031284 1.2690001 4285871774
0.12871815 -0.095405713 1.274 4288223600
0.1323057 -0.095480599 1.2750001 4289667194
0.13589869 -0.095555484 1.276 4286193042
0.1401526 -0.096079692 1.2830001 4284559015
0.14500464 -0.096978329 1.2950001 4286140098
0.15061057 -0.098326296 1.3130001 4287059659
0.15502307 -0.098850511 1.3200001 4287652309
0.1587528 -0.098925389 1.3210001 4286665159
0.16199635 -0.098700732 1.3180001 4285481657
0.16585173 -0.098850511 1.3200001 4284889518
0.16984643 -0.099075168 1.3230001 4284824758
0.17425087 -0.099524491 1.3290001 4285087412
0.17842041 -0.099824034 1.3330001 4285088180
0.18220212 -0.099898912 1.3340001 4285220023
0.18571062 -0.099824034 1.3330001 4285022387
0.18949778 -0.099898912 1.3340001 4285350835
0.19386955 -0.10027335 1.3390001 4285615034
0.19841617 -0.10072268 1.345 4284957615
0.20344639 -0.10139666 1.3540001 4283774360
0.20883182 -0.10222041 1.365 4293583099
0.22206365 -0.1067885 1.4260001 4294966778
-0.040255446 -0.096106783 1.332 4278190080
-0.035870921 -0.094158664 1.3050001 4278190080
-0.03205486 -0.093437143 1.2950001 4292331519
-0.028469633 -0.09329284 1.2930001 4284301746
-0.024895346 -0.09314853 1.291 4284169647
-0.021348543 -0.093076386 1.2900001 4284037291
-0.01783484 -0.09314853 1.291 4283708326
-0.014315668 -0.093220688 1.2920001 4283380131
-0.010799374 -0.093364999 1.294 4283380131
-0.0072553065 -0.09329284 1.2930001 4283380131
-0.003725339 -0.093437143 1.2950001 4282985373
-0.0001841488 -0.093437143 1.2950001 4283247775
0.0033544491 -0.093364999 1.294 4283313568
0.0068822508 -0.093220688 1.2920001 4283707813
0.010415237 -0.093220688 1.2920001 4284365743
0.01395902 -0.09329284 1.2930001 4284628399
0.017508272 -0.093364999 1.294 4284365227
0.021030463 -0.09329284 1.2930001 4284037031
0.024509186 -0.093076386 1.2900001 4283708064
0.027971501 -0.092859924 1.2870001 4283839650
0.031441879 -0.092715628 1.2850001 4283642271
0.034901317 -0.092571318 1.2830001 4283839650
0.038349818 -0.092427015 1.281 4283904929
0.041754708 -0.092210554 1.2780001 4284431273
0.04500157 -0.091705494 1.271 4284430758
0.048324566 -0.09141688 1.2670001 4284694184
0.051707439 -0.091272585 1.2650001 4285348511
0.055079374 -0.091128275 1.263 4286592902
0.058533061 -0.091128275 1.263 4284423802
0.06188859 -0.090983965 1.261 4285416877
0.065181367 -0.09076751 1.258 4284628137
0.068457738 -0.090551056 1.2550001 4284299172
0.071717702 -0.090334602 1.2520001 4284167588
0.075081281 -0.09026245 1.251 4284364967
0.078564912 -0.090334602 1.2520001 4284299174
0.082054004 -0.090406746 1.253 4283969696
0.08548034 -0.090406746 1.253 4283772830
0.088835731 -0.090334602 1.2520001 4283970209
0.092333019 -0.090406746 1.253 4284036004
0.095759362 -0.090406746 1.253 4284036004
0.099185698 -0.090406746 1.253 4284167590
0.10253015 -0.090334602 1.2520001 4283838370
0.10612301 -0.090478905 1.2540001 4284167078
0.10972682 -0.090623215 1.256 4284560553
0.11334155 -0.09076751 1.258 4285088439
0.11706006 -0.090983965 1.261 4285021617
0.1209861 -0.091344729 1.266 4285020328
0.12493949 -0.091705494 1.271 4286198675
0.12871815 -0.09192194 1.274 4289798255
0.13251323 -0.09213841 1.2770001 4289863543
0.1363247 -0.092354864 1.2800001 4286127500
0.14058955 -0.092859924 1.2870001 4285217202
0.14556451 -0.0937979 1.3000001 4286468550
0.15106939 -0.095024489 1.317 4287191758
0.15584515 -0.095746018 1.327 4287651794
0.15983438 -0.095962472 1.33 4287454926
0.16334838 -0.095890328 1.3290001 4285087409
0.16723382 -0.096034624 1.3310001 4285087926
0.17151535 -0.096395388 1.3360001 4283969958
0.17595536 -0.096828297 1.342 4284431790
0.18016046 -0.097116917 1.3460001 4284628648
0.18384111 -0.097116917 1.3460001 4283904929
0.18766107 -0.097189061 1.3470001 4283773089
0.19148651 -0.097261213 1.348 4285878206
0.19604135 -0.097694129 1.3540001 4285878970
0.20077653 -0.098199196 1.3610001 4284432541
0.20690228 -0.099353626 1.3770001 4294965247
0.21801125 -0.10281694 1.4250001 4294966526
-0.04409555 -0.092880912 1.3380001 4278190080
-0.039439458 -0.090590134 1.3050001 4278190080
-0.03559605 -0.089895949 1.2950001 4278190080
-0.031955849 -0.089618281 1.291 4284369069
-0.028425597 -0.089618281 1.291 4284565429
-0.024895346 -0.089618281 1.291 4283972014
-0.021381641 -0.089687698 1.2920001 4283511463
-0.017876284 -0.089826539 1.294 4283380131
-0.014359989 -0.089965373 1.296 4283445924
-0.01082441 -0.09003479 1.2970001 4283708326
-0.0072721401 -0.089965373 1.296 4284036778
-0.0037310924 -0.09003479 1.2970001 4283510947
-0.0001844332 -0.09003479 1.2970001 4283642020
0.0033622258 -0.09003479 1.2970001 4284167850
0.0068982313 -0.089895949 1.2950001 4283970471
0.010423299 -0.089757122 1.2930001 4284102055
0.01395902 -0.089757122 1.2930001 4284233641
0.017494742 -0.089757122 1.2930001 4284628399
0.021014197 -0.089687698 1.2920001 4284168617
0.024528183 -0.089618281 1.291 4283971238
0.027971501 -0.089340612 1.2870001 4284037029
0.031441879 -0.089201778 1.2850001 4283708064
0.034901317 -0.089062944 1.2830001 4284036515
0.038379759 -0.088993527 1.2820001 4284233894
0.041787382 -0.088785268 1.279 4284497066
0.045249414 -0.088715851 1.2780001 4284628391
0.048553411 -0.088368766 1.273 4284890280
0.051789191 -0.087952256 1.2670001 4286068384
0.054992154 -0.087535754 1.261 4288686209
0.058533061 -0.087674588 1.263 4288556415
0.062035825 -0.087744005 1.2640001 4287372137
0.06538862 -0.087605171 1.2620001 4285346963
0.068621382 -0.087327495 1.258 4284890535
0.071889542 -0.087119244 1.2550001 4284496040
0.075201318 -0.08698041 1.253 4284364967
0.078564912 -0.086910993 1.2520001 4284167588
0.082054004 -0.08698041 1.253 4284167588
0.08548034 -0.08698041 1.253 4284167588
0.088906683 -0.08698041 1.253 4284167590
0.092406712 -0.087049827 1.2540001 4284167590
0.095912211 -0.087119244 1.2550001 4284101797
0.099344023 -0.087119244 1.2550001 4284101797
0.10269394 -0.087049827 1.2540001 4283970211
0.10620764 -0.087119244 1.2550001 4284233128
0.10981417 -0.087258086 1.2570001 4284496300
0.11352174 -0.087466329 1.2600001 4285218995
0.11733855 -0.087744005 1.2640001 4285218738
0.12108167 -0.087952256 1.2670001 4286462107
0.12493949 -0.088229932 1.271 4288485992
0.12851608 -0.088299349 1.2720001 4290255724
0.13240945 -0.088577017 1.276 4289994870
0.13643122 -0.08892411 1.281 4286523539
0.14080803 -0.089479446 1.289 4284954284
0.14590043 -0.0904513 1.3030001 4287059917
0.15095469 -0.091353729 1.3160001 4287586516
0.15608005 -0.092256166 1.3290001 4287389907
0.16055544 -0.092742085 1.3360001 4287391433
0.16482329 -0.093089171 1.3410001 4291078871
0.16962108 -0.093713932 1.35 4294965759
0.17485322 -0.094546944 1.3620001 4294966015
0.17988878 -0.095241114 1.3720001 4294966015
0.18404208 -0.095449373 1.3750001 4294966527
0.18752885 -0.095310539 1.373 4294966015
0.19114402 -0.095241114 1.3720001 4294966015
0.19517986 -0.095379956 1.3740001 4294965759
0.20009539 -0.0959353 1.3820001 4294965759
0.20638233 -0.097115397 1.399 4294967039
0.21681917 -0.10016978 1.4430001 4294835707
-0.043172777 -0.08735501 1.3100001 4278190080
-0.039258126 -0.086621501 1.299 4278190080
-0.03559605 -0.086354762 1.2950001 4284170920
-0.03205486 -0.086354762 1.2950001 4284630962
-0.02851367 -0.086354762 1.2950001 4284236204
-0.025011046 -0.086488128 1.2970001 4283775148
-0.021447839 -0.086421445 1.296 4283840682
-0.017945359 -0.086621501 1.299 4283511717
-0.01441539 -0.086754866 1.3010001 4283510947
-0.010874485 -0.086888231 1.3030001 4283905446
-0.0073114187 -0.086888231 1.3030001 4283905446
-0.0037454758 -0.086821549 1.302 4284234411
-0.00018514421 -0.086821549 1.302 4284102825
0.0033803722 -0.086954914 1.304 4284299434
0.0069355192 -0.086821549 1.302 4284167848
0.010471667 -0.086621501 1.299 4284431020
0.013991407 -0.086421445 1.296 4284036262
0.017535333 -0.086421445 1.296 4284431020
0.021079257 -0.086421445 1.296 4284365996
0.024585182 -0.08628808 1.294 4284168615
0.028036704 -0.086021349 1.2900001 4284365994
0.031490814 -0.085821301 1.2870001 4284365994
0.034955725 -0.085687935 1.2850001 4283905697
0.038439631 -0.085621253 1.284 4284036513
0.041918069 -0.08555457 1.2830001 4284233894
0.045391042 -0.08548788 1.2820001 4284562855
0.048744116 -0.085221149 1.2780001 4284694181
0.052075319 -0.084954418 1.274 4286002074
0.055341035 -0.084620997 1.2690001 4289143671
0.058672097 -0.084420957 1.266 4290125680
0.062084902 -0.084354267 1.2650001 4289994860
0.065492243 -0.084287591 1.2640001 4286386275
0.068894118 -0.084220901 1.263 4285611934
0.07211867 -0.08395417 1.2590001 4285153194
0.075501405 -0.083887488 1.258 4284365478
0.07894142 -0.083887488 1.258 4284299176
0.082315944 -0.083820805 1.2570001 4284299683
0.085753225 -0.083820805 1.2570001 4284168615
0.089119546 -0.083754115 1.256 4284101797
0.092627779 -0.083820805 1.2570001 4284364969
0.096141487 -0.083887488 1.258 4284299176
0.099581495 -0.083887488 1.258 4284167590
0.10293961 -0.083820805 1.2570001 4284167335
0.10646152 -0.083887488 1.258 4284233128
0.11016362 -0.084087536 1.261 4284561582
0.11406232 -0.084420957 1.266 4284759466
0.11789554 -0.084687687 1.2700001 4285810606
0.12146393 -0.08475437 1.271 4285212279
0.12503779 -0.084821053 1.2720001 4289208685
0.12861712 -0.084887736 1.273 4290255722
0.132617 -0.085221149 1.2780001 4289995646
0.13675073 -0.085621253 1.284 4286458272
0.14113574 -0.086154714 1.2920001 4284888237
0.1460124 -0.086954914 1.304 4285940927
0.15106939 -0.087821797 1.317 4287586514
0.15654981 -0.088888727 1.3330001 4287653075
0.1617572 -0.089755617 1.3460001 4287063492
0.16765025 -0.090955906 1.3640001 4291869921
0.1757777 -0.093289815 1.399 4294966782
0.1833263 -0.095223628 1.4280001 4294966782
0.18906678 -0.096157201 1.442 4294966782
0.19341148 -0.096357241 1.4450001 4294966782
0.19667993 -0.096023828 1.4400001 4294901502
0.20047832 -0.095957153 1.439 4294901503
0.20441328 -0.095957153 1.439 4294901503
0.20950651 -0.096490614 1.447 4294901503
-0.053603344 -0.089208446 1.3950001 4294965503
-0.046933439 -0.08409255 1.3150001 4278190080
-0.042777296 -0.083005421 1.2980001 4278190080
-0.03913724 -0.082813576 1.2950001 4285093041
-0.035568565 -0.082749628 1.294 4284696755
-0.03205486 -0.082813576 1.2950001 4284104364
-0.02851367 -0.082813576 1.2950001 4283578274
-0.02503033 -0.083005421 1.2980001 4283709607
-0.021497488 -0.083069369 1.299 4283841193
-0.017972987 -0.083197266 1.3010001 4283708324
-0.014437552 -0.083325163 1.3030001 4283576738
-0.010891177 -0.083453059 1.3050001 4284037032
-0.0073282523 -0.083517015 1.3060001 4284497582
-0.0037598594 -0.083580956 1.307 4284825778
-0.000185713 -0.083517015 1.3060001 4284562606
0.0033907413 -0.083644912 1.3080001 4284825778
0.0069568264 -0.083517015 1.3060001 4284759985
0.010503912 -0.083325163 1.3030001 4284562606
0.014012999 -0.083005421 1.2980001 4284299434
0.017535333 -0.082877524 1.296 4284694192
0.021062991 -0.082813576 1.2950001 4284759984
0.024566185 -0.082685679 1.2930001 4284562859
0.028036704 -0.082493827 1.2900001 4284365994
0.031515282 -0.08236593 1.2880001 4284431787
0.034955725 -0.082174093 1.2850001 4284037029
0.038439631 -0.082110137 1.284 4284102308
0.041852728 -0.081918299 1.281 4284431273
0.045320228 -0.081854343 1.2800001 4284366248
0.048705976 -0.081662498 1.2770001 4284759723
0.052116193 -0.081534602 1.2750001 4285477276
0.055471864 -0.081342757 1.2720001 4288815224
0.058811128 -0.081150904 1.2690001 4290321774
0.062084902 -0.080895111 1.2650001 4290058345
0.065440431 -0.080767214 1.263 4289536108
0.068894118 -0.080767214 1.263 4287115388
0.072462365 -0.080895111 1.2650001 4284955287
0.07574147 -0.080703266 1.2620001 4285351603
0.079066917 -0.080575369 1.2600001 4284628648
0.082381435 -0.080447473 1.258 4284562605
0.085753225 -0.080383524 1.2570001 4284496300
0.089119546 -0.080319576 1.256 4284233640
0.092701472 -0.080447473 1.258 4284364969
0.096141487 -0.080447473 1.258 4284364969
0.099739812 -0.080575369 1.2600001 4284167590
0.10302151 -0.080447473 1.258 4283970211
0.10654616 -0.080511421 1.2590001 4283575453
0.11033835 -0.080767214 1.263 4284167077
0.11433261 -0.081150904 1.2690001 4284824489
0.11817403 -0.081406705 1.273 4285218972
0.12155949 -0.081342757 1.2720001 4292911325
0.12503779 -0.081342757 1.2720001 4289602153
0.12861712 -0.081406705 1.273 4289992037
0.132617 -0.081726447 1.2780001 4289276034
0.13675073 -0.082110137 1.284 4285609383
0.14113574 -0.082621723 1.2920001 4284954541
0.14590043 -0.083325163 1.3030001 4285152945
0.15106939 -0.084220447 1.317 4286862278
0.15666725 -0.085307576 1.3340001 4287784915
0.16199756 -0.086202852 1.348 4287195848
0.17072302 -0.088824756 1.3890001 4294965503
-0.051374678 -0.081843376 1.337 4278190080
-0.04664791 -0.080006957 1.307 4278190080
-0.042744342 -0.07939481 1.2970001 4285816247
-0.039197683 -0.07939481 1.2970001 4284828852
-0.035651024 -0.07939481 1.2970001 4283972779
-0.032178625 -0.079578459 1.3000001 4283906985
-0.028623762 -0.079578459 1.3000001 4283446688
-0.025146034 -0.079823315 1.304 4283577508
-0.021580232 -0.079823315 1.304 4283511715
-0.018055877 -0.080006957 1.307 4283905446
-0.014504032 -0.080129385 1.309 4284233640
-0.010941251 -0.080251813 1.3110001 4284825777
-0.0073675308 -0.080374241 1.3130001 4284957363
-0.0037857499 -0.080557883 1.3160001 4285088949
-0.000187135 -0.080557883 1.3160001 4285088950
0.0034140721 -0.080619097 1.317 4284694192
0.006999441 -0.080435455 1.314 4284759985
0.010560341 -0.080190599 1.3100001 4284891571
0.014077774 -0.079823315 1.304 4284628398
0.017602984 -0.079639666 1.3010001 4284957363
0.021111786 -0.079456031 1.2980001 4285089203
0.024623182 -0.079333596 1.296 4284694445
0.028145371 -0.079272382 1.2950001 4284497066
0.031637628 -0.079149954 1.2930001 4284431787
0.035091739 -0.078966312 1.2900001 4284102822
0.038559381 -0.078843884 1.2880001 4283970722
0.041983414 -0.078660242 1.2850001 4284562859
0.045461856 -0.078599028 1.284 4284825516
0.048896682 -0.0784766 1.2820001 4284759212
0.05232057 -0.078354172 1.2800001 4285085092
0.055689916 -0.07817053 1.2770001 4287438217
0.05895016 -0.077864461 1.2720001 4290190960
0.062232144 -0.077619605 1.268 4290451563
0.065544054 -0.077435955 1.2650001 4290188900
0.068894118 -0.077313527 1.263 4289143395
0.072347805 -0.077313527 1.263 4285216089
0.075921521 -0.077435955 1.2650001 4285091200
0.079380676 -0.077435955 1.2650001 4284958367
0.082774349 -0.077374749 1.2640001 4285023148
0.086094327 -0.077252313 1.2620001 4284627886
0.089403361 -0.077129886 1.2600001 4284561835
0.092922539 -0.0771911 1.261 4284496042
0.096294329 -0.077129886 1.2600001 4284167077
0.099818975 -0.0771911 1.261 4284298663
0.1031853 -0.077129886 1.2600001 4283838112
0.10696929 -0.077374749 1.2640001 4283904163
0.11086252 -0.077680811 1.2690001 4283904418
0.11496329 -0.078109317 1.276 4285415327
0.1183597 -0.078048103 1.2750001 4283441747
0.12175063 -0.077986889 1.274 4287646837
0.12513609 -0.077925675 1.273 4289602921
0.1291223 -0.078231744 1.2780001 4289994092
0.13313584 -0.078537814 1.2830001 4288554885
0.13717675 -0.078843884 1.2880001 4285545640
0.1415727 -0.079333596 1.296 4284757164
0.14634833 -0.080006957 1.307 4284757932
0.15141352 -0.080802739 1.3200001 4286664899
0.15701957 -0.081843376 1.337 4288114392
0.16259843 -0.082822807 1.353 4287130054
0.17244378 -0.085883513 1.4030001 4294966015
-0.056347832 -0.080058686 1.3690001 4278190080
-0.050644595 -0.077076226 1.3180001 4278190080
-0.046433765 -0.076082073 1.3010001 4278190080
-0.042711385 -0.075789675 1.296 4284434092
-0.03916746 -0.075789675 1.296 4283973292
-0.035623536 -0.075789675 1.296 4283512487
-0.032153871 -0.075965114 1.299 4283578021
-0.028689817 -0.076199032 1.3030001 4283578021
-0.025165316 -0.076315992 1.3050001 4283840680
-0.021646431 -0.07649143 1.3080001 4283839910
-0.018111136 -0.076666869 1.3110001 4284234410
-0.014570515 -0.076900788 1.3150001 4285023156
-0.010999671 -0.077076226 1.3180001 4285088949
-0.0074180318 -0.077310145 1.322 4285088949
-0.0038173937 -0.077602543 1.327 4285023156
-0.0001886992 -0.077602543 1.327 4285089203
0.0034296259 -0.077368625 1.3230001 4285220536
0.0070207482 -0.077076226 1.3180001 4284825780
0.010592586 -0.076842308 1.314 4285154742
0.014131754 -0.07654991 1.309 4284694192
0.017643575 -0.076257512 1.304 4284825778
0.021160582 -0.076082073 1.3010001 4284825777
0.024661181 -0.075906634 1.2980001 4284299433
0.028167106 -0.075789675 1.296 4284694959
0.031662092 -0.075672716 1.294 4284431787
0.035118941 -0.075497277 1.291 4284102822
0.038559381 -0.075321838 1.2880001 4284102308
0.042016085 -0.075204879 1.286 4284102308
0.045426443 -0.07502944 1.2830001 4284891311
0.048858538 -0.074912481 1.281 4285285042
0.052279696 -0.074795514 1.279 4284691620
0.055777136 -0.074795514 1.279 4286393742
0.059089191 -0.074561596 1.2750001 4289337192
0.062428456 -0.074386165 1.2720001 4290254443
0.065751314 -0.074210726 1.2690001 4290123107
0.069112308 -0.074093767 1.2670001 4289535331
0.072462365 -0.073976807 1.2650001 4285017433
0.075921521 -0.073976807 1.2650001 4293051365
0.079506181 -0.074093767 1.2670001 4282852195
0.083101779 -0.074210726 1.2690001 4284626584
0.08623077 -0.073918328 1.2640001 4285416367
0.08947432 -0.073742889 1.261 4284759723
0.092996232 -0.073801361 1.2620001 4284759214
0.096370757 -0.073742889 1.261 4284232870
0.099898137 -0.073801361 1.2620001 4284825008
0.10334909 -0.073801361 1.2620001 4283969699
0.10705392 -0.073976807 1.2650001 4283904418
0.11086252 -0.074210726 1.2690001 4285020064
0.11469299 -0.074444637 1.273 4284749673
0.11817403 -0.074444637 1.273 4288494452
0.12175063 -0.074503124 1.274 4283762229
0.1252344 -0.074503124 1.274 4289340775
0.12932436 -0.074854001 1.2800001 4289274995
0.13323961 -0.07508792 1.284 4286392204
0.13738975 -0.075438797 1.2900001 4285153444
0.1415727 -0.075789675 1.296 4284955566
0.14657226 -0.07654991 1.309 4284560555
0.15164293 -0.077310145 1.322 4286929865
0.15737189 -0.078362778 1.34 4287719632
0.16319932 -0.079415411 1.358 4287261640
0.17428742 -0.082924195 1.4180001 4294965247
-0.055483468 -0.0751445 1.348 4278190080
-0.050567739 -0.073360652 1.3160001 4278190080
-0.046540838 -0.072691716 1.304 4278190080
-0.042876169 -0.072524473 1.3010001 4284302254
-0.039288349 -0.072468735 1.3000001 4283710119
-0.035760973 -0.072524473 1.3010001 4283775910
-0.032277636 -0.072691716 1.304 4283775912
-0.028821925 -0.072970435 1.309 4284104364
-0.025300303 -0.073137671 1.312 4284234923
-0.021762276 -0.073304914 1.3150001 4283840165
-0.018221654 -0.073527887 1.319 4285023410
-0.014681316 -0.073862359 1.325 4285089203
-0.011108166 -0.07419683 1.3310001 4285483961
-0.007524645 -0.074754283 1.3410001 4285286582
-0.0038720511 -0.075033009 1.3460001 4285417914
-0.0001908322 -0.074810028 1.342 4285352121
0.0034529567 -0.074252576 1.332 4285549500
0.0070633627 -0.073918104 1.3260001 4284891570
0.010649016 -0.073639378 1.3210001 4284891571
0.014218121 -0.073416397 1.317 4285154743
0.017751819 -0.073137671 1.312 4285220536
0.02125817 -0.072858945 1.307 4285286329
0.024756176 -0.072635964 1.3030001 4284891570
0.028254041 -0.072468735 1.3000001 4284957363
0.031735498 -0.072301492 1.2970001 4284629168
0.035200547 -0.072134256 1.294 4284037029
0.03867913 -0.072022766 1.2920001 4285023410
0.042146776 -0.071911275 1.2900001 4284826031
0.045568075 -0.071744047 1.2870001 4284891309
0.049011104 -0.071632557 1.2850001 4285022638
0.052443195 -0.071521066 1.2830001 4284824742
0.055864353 -0.071409576 1.281 4284759964
0.059228227 -0.07124234 1.2780001 4285671298
0.062624767 -0.071130849 1.276 4289076848
0.066010378 -0.071019359 1.274 4290059626
0.069385052 -0.070907868 1.2720001 4289731170
0.07274878 -0.070796378 1.2700001 4289274728
0.076161593 -0.070740633 1.2690001 4285139262
0.079694435 -0.070796378 1.2700001 4289671283
0.083167262 -0.070796378 1.2700001 4288949114
0.086708315 -0.070852116 1.271 4283897460
0.090183876 -0.070852116 1.271 4285350573
0.093217298 -0.070517652 1.2650001 4285219247
0.096676454 -0.070517652 1.2650001 4284890798
0.10021476 -0.070573397 1.266 4284430760
0.10367665 -0.070573397 1.266 4284232871
0.10713854 -0.070573397 1.266 4284167326
0.11060043 -0.070573397 1.266 4284618873
0.11433261 -0.070740633 1.2690001 4288553844
0.11798837 -0.070852116 1.271 4289341293
0.12175063 -0.071019359 1.274 4289474167
0.12552929 -0.071186587 1.2770001 4288816764
0.12982954 -0.071632557 1.2850001 4287051670
0.13386223 -0.071911275 1.2900001 4285025933
0.13802877 -0.072245747 1.296 4292328959
0.14222813 -0.072580226 1.302 4284825777
0.14735608 -0.073360652 1.3160001 4284298921
0.15256058 -0.074141085 1.33 4287521491
0.15831144 -0.0751445 1.348 4287456460
0.16404055 -0.076092169 1.365 4288313561
0.17404161 -0.078935169 1.416 4283447928
-0.06228609 -0.075222135 1.419 4278190080
-0.055195354 -0.071087301 1.3410001 4278190080
-0.05049089 -0.069656014 1.314 4278190080
-0.046612218 -0.069231935 1.3060001 4284632753
-0.042975038 -0.069125913 1.304 4284368049
-0.039379016 -0.069072902 1.3030001 4283775910
-0.035870921 -0.069178917 1.3050001 4283907498
-0.032376647 -0.069337957 1.3080001 4283709607
-0.028909998 -0.069603011 1.3130001 4283840165
-0.025377439 -0.069762036 1.3160001 4283774372
-0.02187812 -0.070080101 1.322 4284563375
-0.018345986 -0.070398167 1.3280001 4285089203
-0.01484752 -0.071034297 1.34 4285352375
-0.0113335 -0.071988486 1.358 4285747133
-0.0077603161 -0.073313758 1.383 4283839904
-0.0039698593 -0.073154718 1.3800001 4285748152
-0.00019282299 -0.071882464 1.3560001 4289761271
0.0034685107 -0.070928276 1.3380001 4285287096
0.0070793433 -0.070451178 1.3290001 4285154743
0.010681261 -0.070239134 1.325 4284891570
0.014272099 -0.070080101 1.322 4284891570
0.01780594 -0.069762036 1.3160001 4285417914
0.021306966 -0.069443978 1.3100001 4285549500
0.024794176 -0.069178917 1.3050001 4285220535
0.028275777 -0.06896688 1.3010001 4284825777
0.03175997 -0.068807848 1.2980001 4284825777
0.035254955 -0.068701826 1.296 4284365480
0.038739003 -0.068595804 1.294 4282851987
0.042212117 -0.068489783 1.2920001 4284102308
0.045603476 -0.068277739 1.2880001 4284760236
0.049011104 -0.068118706 1.2850001 4285220528
0.052402325 -0.067959674 1.2820001 4285286318
0.055820744 -0.067853652 1.2800001 4283247751
0.059274573 -0.067800641 1.279 4286599082
0.062722929 -0.06774763 1.2780001 4286455162
0.066217631 -0.06774763 1.2780001 4288813415
0.069657788 -0.067694619 1.2770001 4289731949
0.073092476 -0.067641616 1.276 4289798769
0.07646168 -0.067535594 1.274 4289930859
0.079882689 -0.067482576 1.273 4289667948
0.083232753 -0.067376554 1.271 4288225908
0.086776532 -0.067429572 1.2720001 4286331296
0.090254821 -0.067429572 1.2720001 4285285293
0.093733117 -0.067429572 1.2720001 4284956075
0.097287841 -0.067482576 1.273 4284957104
0.10037308 -0.067217529 1.268 4284365480
0.10392233 -0.06727054 1.2690001 4283970718
0.10713854 -0.067111507 1.266 4283708316
0.11033835 -0.066952474 1.263 4285086370
0.11379203 -0.066952474 1.263 4287114131
0.11761704 -0.067164518 1.2670001 4288224384
0.12155949 -0.067429572 1.2720001 4288421252
0.12562759 -0.06774763 1.2780001 4287705500
0.12982954 -0.068118706 1.2850001 4286074271
0.13386223 -0.068383761 1.2900001 4294765567
0.13802877 -0.068701826 1.296 4284433806
0.14244659 -0.069125913 1.304 4285746107
0.14769199 -0.069921069 1.319 4286075072
0.15324883 -0.070822254 1.3360001 4287718352
0.15878122 -0.07167042 1.3520001 4287522253
0.16392037 -0.072306551 1.3640001 4287852245
0.17146048 -0.073949881 1.3950001 4282526579
-0.05560695 -0.067923091 1.3510001 4278190080
-0.050875146 -0.066565633 1.3240001 4278190080
-0.046862058 -0.066012599 1.3130001 4285289401
-0.043205731 -0.065912038 1.3110001 4284499376
-0.039590567 -0.065861769 1.3100001 4283907239
-0.036063332 -0.065962322 1.312 4284236204
-0.032574669 -0.066163421 1.3160001 4283643813
-0.029086145 -0.066414803 1.3210001 4283774372
-0.025570277 -0.066666186 1.3260001 4283905958
-0.022093261 -0.067118667 1.335 4284365994
-0.018663727 -0.067923091 1.3510001 4285023156
-0.01531289 -0.069481649 1.3820001 4284498345
-0.011775824 -0.07093966 1.411 4284368263
-0.004041777 -0.070638001 1.4050001 4294966015
-0.00019467159 -0.068828061 1.3690001 4278190080
0.0034866568 -0.067621432 1.345 4284894122
0.007111304 -0.067118667 1.335 4285616315
0.010721568 -0.066867292 1.33 4285550270
0.014315283 -0.066666186 1.3260001 4285417914
0.017860061 -0.066364527 1.3200001 4285812672
0.021388289 -0.066113152 1.3150001 4285681086
0.024870174 -0.065811485 1.309 4285483707
0.028362712 -0.065610386 1.3050001 4284957363
0.031906776 -0.06556011 1.304 4284694191
0.035418171 -0.065459557 1.302 4284759984
0.038918629 -0.065359004 1.3000001 4285154742
0.042310134 -0.065107621 1.2950001 4284562859
0.04578051 -0.065007076 1.2930001 4284957615
0.049278088 -0.064956792 1.2920001 4285089199
0.05268845 -0.06480597 1.289 4285220785
0.056038793 -0.064604864 1.2850001 4284367511
0.059367258 -0.064403757 1.281 4293450751
0.06282109 -0.064353481 1.2800001 4289699279
0.066321261 -0.064353481 1.2800001 4285283472
0.069821432 -0.064353481 1.2800001 4286133139
0.073321603 -0.064353481 1.2800001 4286064526
0.076821782 -0.064353481 1.2800001 4286325906
0.080321953 -0.064353481 1.2800001 4286460575
0.083822124 -0.064353481 1.2800001 4286071727
0.087254077 -0.064303204 1.279 4285481906
0.090751506 -0.064303204 1.279 4285023149
0.09424895 -0.064303204 1.279 4284891311
0.097669967 -0.064252928 1.2780001 4284760238
0.10116467 -0.064252928 1.2780001 4284431273
0.10416801 -0.063951276 1.2720001 4284036515
0.10739242 -0.063800447 1.2690001 4284234919
0.11051308 -0.063599341 1.2650001 4284891824
0.11406232 -0.063649617 1.266 4285153970
0.11798837 -0.063900992 1.271 4285680568
0.12203732 -0.064202651 1.2770001 4286010295
0.12611909 -0.06450431 1.2830001 4284698768
0.13013265 -0.064755693 1.2880001 4290623441
0.13438107 -0.065107621 1.2950001 4294306559
0.13866779 -0.065459557 1.302 4284300188
0.14342974 -0.066012599 1.3130001 4286271935
0.14881173 -0.066817015 1.3290001 4286534594
0.15416649 -0.067571156 1.3440001 4286996426
0.15913354 -0.068124197 1.355 4287193035
0.16392037 -0.068576679 1.3640001 4284036000
0.16961682 -0.069381095 1.3800001 4283248781
-0.056471311 -0.065227143 1.3720001 4278190080
-0.051105697 -0.063230395 1.33 4278190080
-0.047040511 -0.062659889 1.3180001 4285222838
-0.043370511 -0.062564805 1.3160001 4284695724
-0.0397719 -0.062564805 1.3160001 4284892849
-0.036228258 -0.062659889 1.3180001 4284498093
-0.032723185 -0.062850058 1.322 4284234921
-0.029262291 -0.063182853 1.3290001 4284168615
-0.025801681 -0.063610725 1.3380001 4284168618
-0.022490442 -0.064609103 1.3590001 4284958131
-0.019313019 -0.066463225 1.3980001 4285748661
-0.00019467159 -0.065084517 1.3690001 4278190080
0.0034892492 -0.063991055 1.3460001 4278190080
0.0071166311 -0.063515641 1.3360001 4286011583
0.010737691 -0.06332548 1.332 4285945280
0.014326078 -0.063087769 1.327 4285615547
0.017887121 -0.062850058 1.322 4285878719
0.021437084 -0.062659889 1.3180001 4285681340
0.024927171 -0.062374644 1.312 4285746879
0.028406179 -0.062136933 1.307 4285483450
0.031955715 -0.062089395 1.3060001 4285351864
0.035472579 -0.06199431 1.304 4284693932
0.038978502 -0.061899226 1.302 4284760238
0.042342804 -0.061613973 1.296 4284891824
0.04578051 -0.06147135 1.2930001 4285023408
0.049239948 -0.06137627 1.291 4285220787
0.052729327 -0.061328724 1.2900001 4284892589
0.056126017 -0.061186101 1.2870001 4284762534
0.059459947 -0.060995936 1.2830001 4282135143
0.06282109 -0.06085331 1.2800001 4294374655
0.066321261 -0.06085331 1.2800001 4293911807
0.069766887 -0.060805764 1.279 4286472362
0.073264323 -0.060805764 1.279 4284890775
0.076701745 -0.060758226 1.2780001 4285942184
0.080259204 -0.060805764 1.279 4286006959
0.083756641 -0.060805764 1.279 4285481389
0.087254077 -0.060805764 1.279 4285219245
0.090680562 -0.060758226 1.2780001 4285482419
0.094101571 -0.060710683 1.2770001 4285220014
0.097593538 -0.060710683 1.2770001 4284760234
0.10108551 -0.060710683 1.2770001 4284694443
0.10465938 -0.060758226 1.2780001 4284431273
0.10832333 -0.06085331 1.2800001 4284431787
0.11129933 -0.060568061 1.274 4285286580
0.1148732 -0.060615599 1.2750001 4285155761
0.11863819 -0.060758226 1.2780001 4285615543
0.12261072 -0.060995936 1.2830001 4285947821
0.12661059 -0.06123364 1.2880001 4293519103
0.13063781 -0.06147135 1.2930001 4291873761
0.13469239 -0.061709061 1.2980001 4293514751
0.1390938 -0.062089395 1.3060001 4286207935
0.14419441 -0.062754974 1.3200001 4286535877
0.14948356 -0.063468099 1.335 4286930632
0.15462533 -0.064086139 1.348 4286798027
0.15913354 -0.064418934 1.355 4286996677
0.1633195 -0.064609103 1.3590001 4283904414
0.16838771 -0.065132059 1.3700001 4283511186
0.17665723 -0.066843554 1.406 4283448433
-0.057212189 -0.062281922 1.3900001 4278190080
-0.05206633 -0.060713675 1.355 4278190080
-0.047647253 -0.05981753 1.335 4285684151
-0.0438319 -0.059593495 1.33 4286143937
-0.040104337 -0.059459072 1.327 4285814204
-0.036503132 -0.059503883 1.3280001 4284563627
-0.033020221 -0.059772726 1.3340001 4284629166
-0.029614583 -0.060265604 1.345 4284825518
-0.02641876 -0.061385781 1.3700001 4284827058
-0.00019452939 -0.061296165 1.368 4278190080
0.0034892492 -0.060310408 1.3460001 4278190080
0.0071219578 -0.059907142 1.337 4286603721
0.010745752 -0.059727915 1.3330001 4286471621
0.014347671 -0.059548687 1.3290001 4285878717
0.017954772 -0.059459072 1.327 4285681340
0.021518407 -0.059279844 1.3230001 4286076098
0.025041167 -0.059055809 1.3180001 4285878206
0.028558318 -0.058876578 1.314 4285615034
0.032078058 -0.058742154 1.3110001 4285482935
0.035581391 -0.058607738 1.3080001 4285022897
0.039038379 -0.058428511 1.304 4285154483
0.042473491 -0.058249284 1.3000001 4284957615
0.045957543 -0.058159668 1.2980001 4285220787
0.049392514 -0.058025245 1.2950001 4285023408
0.052892826 -0.057980433 1.294 4285023410
0.056344062 -0.057890821 1.2920001 4284761006
0.059691671 -0.057711594 1.2880001 4283973530
0.062968321 -0.057487562 1.2830001 4291477220
0.066424891 -0.057442751 1.2820001 4294044159
0.069821432 -0.057353139 1.2800001 4291084758
0.073207043 -0.057263523 1.2780001 4294506239
0.076581709 -0.057173908 1.276 4293651967
0.080070943 -0.057173908 1.276 4285884049
0.08369115 -0.057263523 1.2780001 4284630154
0.087185852 -0.057263523 1.2780001 4284039834
0.090680562 -0.057263523 1.2780001 4285549740
0.094101571 -0.057218712 1.2770001 4286009266
0.097593538 -0.057218712 1.2770001 4285812401
0.10108551 -0.057218712 1.2770001 4285419183
0.10474126 -0.057308327 1.279 4285025706
0.10849258 -0.057442751 1.2820001 4284302495
