# .PCD v0.7 - Point Cloud Data file format
VERSION 0.7
FIELDS x y z rgba
SIZE 4 4 4 4
TYPE F F F U
COUNT 1 1 1 1
WIDTH 1105
HEIGHT 1
VIEWPOINT 0 0 0 1 0 0 0
POINTS 1105
DATA ascii
0.11773687 -0.14953203 1.2320001 4283113889
0.12110578 -0.14953203 1.2320001 4283311779
0.1247778 -0.14989617 1.235 4283903916
0.12888131 -0.15074578 1.2420001 4281601159
0.13344911 -0.15208088 1.253 4283311519
0.13862325 -0.15402286 1.2690001 4284890020
0.1460124 -0.15827093 1.304 4284304754
-0.056070291 -0.18638171 1.5710001 4278190080
-0.036538165 -0.14343444 1.2090001 4284565410
-0.033122193 -0.14295988 1.205 4284563884
-0.029851863 -0.14307851 1.2060001 4284102824
-0.026576063 -0.14319715 1.207 4284300716
-0.023410495 -0.14402762 1.2140001 4284169130
-0.02027284 -0.14533265 1.225 4284760238
-0.017185546 -0.14758679 1.2440001 4284957613
-0.013961101 -0.14948502 1.2600001 4286275510
-0.010565693 -0.15019685 1.266 4294039807
-0.0071262484 -0.15067141 1.2700001 4288249290
-0.0036562979 -0.15079004 1.271 4286470854
-0.00018045161 -0.15055276 1.2690001 4284431269
0.0032766797 -0.14995958 1.2640001 4283510167
0.0066958121 -0.14912909 1.2570001 4282851726
0.010084723 -0.14841726 1.251 4284233379
0.013376044 -0.14699361 1.2390001 4286404550
0.016574677 -0.14533265 1.225 4286273477
0.019761803 -0.14414626 1.215 4284629679
0.023008235 -0.14367171 1.2110001 4282525071
0.026276259 -0.14343444 1.2090001 4282263693
0.029508874 -0.14307851 1.2060001 4282132107
0.032779492 -0.14295988 1.205 4282132107
0.036104511 -0.14307851 1.2060001 4281868681
0.039402332 -0.14307851 1.2060001 4281802892
0.04259393 -0.14272259 1.2030001 4281670537
0.045807261 -0.14248532 1.2010001 4282262163
0.049132288 -0.14260396 1.202 4282985371
0.052506391 -0.14284123 1.2040001 4282853787
0.055891424 -0.14307851 1.2060001 4282393236
0.059140164 -0.14295988 1.205 4282130575
0.062538877 -0.14319715 1.207 4281604230
0.065839432 -0.14319715 1.207 4281735304
0.069197267 -0.14331579 1.2080001 4281931402
0.072500557 -0.14331579 1.2080001 4284101544
0.075866587 -0.14343444 1.2090001 4286205639
0.079303585 -0.14367171 1.2110001 4285941956
0.08275152 -0.14390899 1.2130001 4286468298
0.086139433 -0.14402762 1.2140001 4285547963
0.089606509 -0.14426491 1.2160001 4282390924
0.093313791 -0.14485811 1.2210001 4282258827
0.097206734 -0.14568856 1.228 4283048856
0.10089229 -0.14616312 1.2320001 4285482686
0.10417657 -0.14604448 1.2310001 4284560304
0.10736804 -0.14580721 1.2290001 4283309983
0.11072875 -0.14580721 1.2290001 4282718107
0.11408946 -0.14580721 1.2290001 4283113635
0.11745017 -0.14580721 1.2290001 4283771567
0.12100748 -0.14604448 1.2310001 4284297911
0.12457574 -0.14628176 1.233 4284495288
0.12877753 -0.14723088 1.2410001 4284166577
0.13323611 -0.14841726 1.251 4282193296
0.13851403 -0.15043412 1.268 4286470584
0.14735608 -0.15612879 1.3160001 4283778923
0.15496944 -0.16028115 1.3510001 4282600791
0.29789159 -0.18744947 1.58 4278190080
-0.0552494 -0.17942001 1.5480001 4278190080
-0.036659051 -0.14059202 1.2130001 4285551785
-0.033177167 -0.1398966 1.207 4284169631
-0.029777603 -0.13943298 1.2030001 4284037542
-0.026465969 -0.13931708 1.202 4284037029
-0.023198374 -0.13943298 1.2030001 4284037289
-0.019991504 -0.1400125 1.2080001 4284102573
-0.016771104 -0.14070792 1.2140001 4284628149
-0.013551133 -0.14175107 1.223 4284168368
-0.010332013 -0.14348964 1.238 4283772581
-0.0070308577 -0.14522819 1.253 4285220025
-0.0036361609 -0.14650315 1.2640001 4286403786
-0.00018059381 -0.14719857 1.2700001 4286468552
0.0032922335 -0.14719857 1.2700001 4283770269
0.0067330999 -0.14650315 1.2640001 4286598855
0.010092785 -0.14511231 1.2520001 4286928333
0.013386841 -0.14372145 1.24 4286730956
0.016615268 -0.14233059 1.228 4285022387
0.019875657 -0.14163516 1.222 4284036261
0.023141231 -0.14117156 1.2180001 4283182233
0.026406661 -0.14082383 1.215 4282197130
0.029631216 -0.14036022 1.2110001 4282001033
0.032833897 -0.1398966 1.207 4281803654
0.036164388 -0.1400125 1.2080001 4281869445
0.039435003 -0.1398966 1.207 4281538948
0.042664744 -0.1396648 1.205 4281933196
0.045883548 -0.13943298 1.2030001 4282523543
0.049173161 -0.13943298 1.2030001 4283180450
0.052506391 -0.13954888 1.2040001 4283114661
0.055845082 -0.1396648 1.205 4283443365
0.059091087 -0.13954888 1.2040001 4283509158
0.062435251 -0.1396648 1.205 4283574949
0.065675788 -0.13954888 1.2040001 4283771817
0.0690827 -0.13978069 1.2060001 4284955062
0.072440535 -0.1398966 1.207 4286467018
0.075992092 -0.14036022 1.2110001 4286598347
0.079434559 -0.14059202 1.2130001 4286664140
0.082887962 -0.14082383 1.215 4287189713
0.086139433 -0.14070792 1.2140001 4287189967
0.089532822 -0.14082383 1.215 4286401476
0.09323737 -0.14140336 1.22 4285743546
0.097206734 -0.14233059 1.228 4283901855
0.10064661 -0.1424465 1.2290001 4285678782
0.10392269 -0.14233059 1.228 4285480636
0.10728067 -0.14233059 1.228 4284296878
0.11072875 -0.1424465 1.2290001 4282454935
0.11408946 -0.1424465 1.2290001 4282389914
0.11754574 -0.1425624 1.23 4282718879
0.12110578 -0.14279421 1.2320001 4283771567
0.1247778 -0.14314193 1.235 4284297141
0.12898508 -0.14406916 1.243 4284889017
0.13334261 -0.14511231 1.2520001 4283508129
0.13884175 -0.14731447 1.271 4288117199
0.14713213 -0.15229838 1.314 4282793822
0.15737829 -0.15902083 1.3720001 4282863192
-0.055178016 -0.17496064 1.5460001 4278190080
-0.040569227 -0.13931212 1.2310001 4278190080
-0.036840383 -0.13795409 1.2190001 4278190080
-0.033259626 -0.13693555 1.21 4284892839
-0.029752849 -0.1360302 1.202 4284301482
-0.026421933 -0.13580386 1.2 4284037540
-0.023140522 -0.13580386 1.2 4283971236
-0.019908758 -0.13614337 1.2030001 4284497583
-0.016632957 -0.13625655 1.2040001 4284233641
-0.013362768 -0.13648288 1.2060001 4283904426
-0.010106678 -0.13704872 1.2110001 4284101033
-0.0068400763 -0.13795409 1.2190001 4284495793
-0.0035325994 -0.13897261 1.228 4285218234
-0.00017604341 -0.14010431 1.238 4285086647
0.0032300181 -0.14100967 1.2460001 4286928335
0.0066425442 -0.14112285 1.2470001 4287125199
0.0099960482 -0.14033064 1.24 4286730441
0.013289677 -0.13931212 1.2310001 4285218483
0.016534086 -0.13829359 1.222 4284166310
0.019826861 -0.13795409 1.2190001 4283180440
0.023122232 -0.13772775 1.217 4282589583
0.026384927 -0.13738823 1.2140001 4282393996
0.02960675 -0.13693555 1.21 4281539969
0.032806695 -0.13648288 1.2060001 4281539969
0.036074575 -0.13636971 1.205 4281342590
0.039336987 -0.13625655 1.2040001 4281538691
0.04259393 -0.13614337 1.2030001 4282195087
0.045807261 -0.13591704 1.2010001 4282720150
0.04909141 -0.13591704 1.2010001 4282982562
0.052419167 -0.1360302 1.202 4283376809
0.05570605 -0.1360302 1.202 4283376037
0.059042007 -0.13614337 1.2030001 4283376291
0.062279809 -0.1360302 1.202 4284099760
0.065512143 -0.13591704 1.2010001 4284362934
0.068910852 -0.13614337 1.2030001 4285019833
0.072320506 -0.13636971 1.205 4286269643
0.075803839 -0.13670921 1.2080001 4286532300
0.079107128 -0.13670921 1.2080001 4286729163
0.08254686 -0.13693555 1.21 4287189713
0.08592657 -0.13704872 1.2110001 4287255506
0.089385442 -0.13727507 1.2130001 4286664650
0.092931673 -0.13761458 1.2160001 4286401991
0.096810952 -0.13840677 1.223 4286335172
0.10031904 -0.1386331 1.225 4286270151
0.10375344 -0.13874628 1.2260001 4286797012
0.10710595 -0.13874628 1.2260001 4284032681
0.11054856 -0.13885944 1.2270001 4284362421
0.11399662 -0.13897261 1.228 4283704491
0.11745017 -0.13908578 1.2290001 4282520730
0.12100748 -0.13931212 1.2310001 4283310246
0.12467676 -0.13965164 1.2340001 4284099762
0.12867376 -0.14033064 1.24 4284889017
0.1331296 -0.14146236 1.25 4283706277
0.13895097 -0.14395209 1.2720001 4288182216
0.14836383 -0.14995009 1.325 4282731612
0.15772241 -0.15560859 1.3750001 4282666071
0.17205212 -0.16579388 1.465 4278190080
0.18519157 -0.17439479 1.5410001 4282798169
-0.055285089 -0.17106439 1.549 4278190080
-0.041063573 -0.13760248 1.2460001 4278190080
-0.037112378 -0.13561463 1.228 4278190080
-0.033452041 -0.13439985 1.217 4278190080
-0.029926119 -0.13351637 1.2090001 4285287347
-0.026554044 -0.13318506 1.2060001 4284563627
-0.02323694 -0.13307463 1.205 4284432041
-0.019958405 -0.13318506 1.2060001 4283642273
-0.016646771 -0.13307463 1.205 4283444895
-0.013351687 -0.13307463 1.205 4283904424
-0.010056604 -0.13307463 1.205 4283707045
-0.0067671305 -0.13318506 1.2060001 4283969706
-0.0034750651 -0.13340592 1.2080001 4284034989
-0.00017248842 -0.13395812 1.2130001 4283969709
0.0031600257 -0.13462071 1.2190001 4284232366
0.0065147006 -0.13506246 1.223 4284889782
0.0098590059 -0.13506246 1.223 4286073540
0.013192516 -0.13495202 1.222 4286336712
0.016479965 -0.13451029 1.2180001 4286270919
0.019794334 -0.13439985 1.217 4283969447
0.023103232 -0.13428941 1.2160001 4283970469
0.026406661 -0.13417898 1.215 4282721684
0.029680155 -0.13395812 1.2130001 4281736068
0.032915507 -0.13362679 1.21 4281604482
0.036134452 -0.13329549 1.207 4281868167
0.039369661 -0.13307463 1.205 4282984856
0.042629339 -0.13296419 1.2040001 4282852504
0.045921691 -0.13296419 1.2040001 4283048605
0.049050536 -0.13252245 1.2 4283508645
0.052375555 -0.13263288 1.2010001 4283706275
0.05570605 -0.13274331 1.202 4290483940
0.059091087 -0.13296419 1.2040001 4293575167
0.062331621 -0.13285375 1.2030001 4284428468
0.065512143 -0.13263288 1.2010001 4284361652
0.068910852 -0.13285375 1.2030001 4285019065
0.072260492 -0.13296419 1.2040001 4285874885
0.07574109 -0.13329549 1.207 4286334921
0.078910671 -0.13307463 1.205 4286334407
0.082410417 -0.13340592 1.2080001 4286992334
0.085855618 -0.13362679 1.21 4287256276
0.089532822 -0.13417898 1.215 4287322067
0.093008101 -0.13439985 1.217 4286993615
0.096652627 -0.13484159 1.2210001 4286533064
0.10007336 -0.13495202 1.222 4286664652
0.10358419 -0.13517289 1.2240001 4286862291
0.10710595 -0.13539377 1.2260001 4284427696
0.11063865 -0.13561463 1.228 4283309219
0.11408946 -0.13572507 1.2290001 4283441319
0.11754574 -0.13583551 1.23 4283901870
0.12120409 -0.13616681 1.233 4283178660
0.12497987 -0.13660856 1.2370001 4283639209
0.12908885 -0.1373816 1.2440001 4283902122
0.13366212 -0.1385964 1.2550001 4284493479
0.13960642 -0.14113641 1.2780001 4287590328
0.1501554 -0.14809383 1.3410001 4282601309
0.17240444 -0.16211912 1.4680001 4278190080
0.18507138 -0.17007047 1.5400001 4278190080
-0.037475042 -0.13354906 1.24 4278190080
-0.033699427 -0.13204126 1.2260001 4278190080
-0.03009939 -0.13096425 1.2160001 4286011837
-0.026664134 -0.13042574 1.2110001 4284695977
-0.023275509 -0.12999494 1.207 4283642784
-0.019958405 -0.12988724 1.2060001 4283708064
-0.016632957 -0.12967184 1.2040001 4284234410
-0.013340607 -0.12967184 1.2040001 4283839399
-0.010039912 -0.12956414 1.2030001 4283904678
-0.0067502968 -0.12956414 1.2030001 4283641252
-0.0034635584 -0.12967184 1.2040001 4283707047
-0.00017149301 -0.12988724 1.2060001 4283641255
0.0031289181 -0.12999494 1.207 4283706535
0.0064347982 -0.13010265 1.2080001 4283772328
0.0097542088 -0.13031805 1.21 4283969449
0.013106149 -0.13074884 1.2140001 4284692402
0.016398782 -0.13053344 1.212 4285022135
0.019713009 -0.13053344 1.212 4284166826
0.022970237 -0.13021034 1.2090001 4284167850
0.026297994 -0.13031805 1.21 4283379102
0.029582281 -0.13021034 1.2090001 4282326671
0.032806695 -0.12988724 1.2060001 4282195085
0.036014698 -0.12956414 1.2030001 4283115676
0.039271645 -0.12945643 1.202 4283575713
0.04252312 -0.12934874 1.2010001 4283246494
0.045807261 -0.12934874 1.2010001 4283377570
0.049009662 -0.12913333 1.199 4283837610
0.052288339 -0.12913333 1.199 4283903654
0.055613358 -0.12924103 1.2 4287785926
0.05899293 -0.12945643 1.202 4284232350
0.062279809 -0.12945643 1.202 4284560054
0.065512143 -0.12934874 1.2010001 4284690870
0.068739004 -0.12924103 1.2 4285414082
0.072140455 -0.12945643 1.202 4285545920
0.07549008 -0.12956414 1.2030001 4286335436
0.078779697 -0.12956414 1.2030001 4286269641
0.082205757 -0.12977955 1.205 4286532554
0.085713707 -0.13010265 1.2080001 4286861518
0.089385442 -0.13064115 1.2130001 4286862031
0.092855245 -0.13085654 1.215 4286862031
0.096336 -0.13107195 1.217 4286795725
0.099827677 -0.13128735 1.2190001 4286269382
0.10341493 -0.13161045 1.222 4286138053
0.10693123 -0.13182585 1.2240001 4286401229
0.11045846 -0.13204126 1.2260001 4284756150
0.11381097 -0.13204126 1.2260001 4283177631
0.1173546 -0.13225666 1.228 4283507366
0.12110578 -0.13268746 1.2320001 4283705256
0.12508091 -0.13333367 1.238 4283836840
0.12940015 -0.13430297 1.2470001 4284297645
0.13387512 -0.13537998 1.2570001 4284888490
0.13993412 -0.1379648 1.281 4287195309
-0.038381696 -0.13330726 1.2700001 4278190080
-0.034111734 -0.13026324 1.2410001 4278190080
-0.030421175 -0.12900364 1.2290001 4278190080
-0.026906338 -0.12826888 1.222 4284631209
-0.023429779 -0.12753412 1.215 4284826027
-0.020024603 -0.12700929 1.21 4284365478
-0.016660586 -0.12658942 1.2060001 4284365994
-0.013351687 -0.12648445 1.205 4283839653
-0.010048258 -0.12637949 1.2040001 4283379102
-0.006755908 -0.12637949 1.2040001 4283444641
-0.003466435 -0.12648445 1.205 4283116191
-0.00017135081 -0.12648445 1.205 4283116191
0.0031237334 -0.12648445 1.205 4283049885
0.0064188177 -0.12648445 1.205 4283181473
0.0097219637 -0.12658942 1.2060001 4283378082
0.013062965 -0.12700929 1.21 4283707047
0.016385252 -0.12711425 1.2110001 4284035500
0.019696742 -0.12711425 1.2110001 4284035500
0.023008235 -0.12711425 1.2110001 4284101292
0.026319725 -0.12711425 1.2110001 4284035499
0.02960675 -0.12700929 1.21 4283245983
0.032861099 -0.12679936 1.2080001 4282983324
0.036044639 -0.12637949 1.2040001 4283378082
0.039304316 -0.12627453 1.2030001 4283509668
0.042558525 -0.12616955 1.202 4283772327
0.045845408 -0.12616955 1.202 4283640744
0.04909141 -0.1260646 1.2010001 4283640490
0.052375555 -0.1260646 1.2010001 4283640492
0.0556597 -0.1260646 1.2010001 4284100530
0.059042007 -0.12627453 1.2030001 4284231348
0.062279809 -0.12616955 1.202 4284164528
0.065512143 -0.1260646 1.2010001 4285019324
0.068681724 -0.12585466 1.199 4285808840
0.072080433 -0.1260646 1.2010001 4285545920
0.075364575 -0.1260646 1.2010001 4286269641
0.078845188 -0.12637949 1.2040001 4286598606
0.082273975 -0.12658942 1.2060001 4286335432
0.085784659 -0.12690432 1.2090001 4286137795
0.089385442 -0.12732419 1.2130001 4286400967
0.092778832 -0.12742914 1.2140001 4286664139
0.096256837 -0.12763909 1.2160001 4286335175
0.099663898 -0.12774405 1.217 4285808831
0.1033303 -0.12816392 1.2210001 4286137542
0.1067565 -0.12826888 1.222 4286137544
0.11018817 -0.12837385 1.223 4286730190
0.11371814 -0.12858379 1.225 4282981018
0.11754574 -0.12910862 1.23 4283442084
0.12149899 -0.12973841 1.2360001 4283771049
0.12568711 -0.13057815 1.2440001 4284560563
0.13012654 -0.1316278 1.2540001 4284560303
0.13483365 -0.13288739 1.266 4284428951
0.14135422 -0.13582647 1.294 4294500095
-0.034798916 -0.12942551 1.266 4278190080
-0.030767715 -0.12707418 1.243 4278190080
-0.027126519 -0.12594962 1.2320001 4278190080
-0.023545479 -0.12482508 1.2210001 4278190080
-0.02007425 -0.12400723 1.2130001 4284761517
-0.016674401 -0.12339383 1.207 4284103333
-0.013340607 -0.12308714 1.2040001 4283642786
-0.010031566 -0.12288267 1.202 4283576481
-0.0067446856 -0.12288267 1.202 4283115676
-0.0034606815 -0.12298491 1.2030001 4282984603
-0.00017120861 -0.12308714 1.2040001 4282918810
0.0031211411 -0.12308714 1.2040001 4282853017
0.0064081638 -0.12298491 1.2030001 4282721431
0.0096977791 -0.12298491 1.2030001 4282984092
0.012998191 -0.12308714 1.2040001 4283509668
0.016331131 -0.12339383 1.207 4283378083
0.019631684 -0.12339383 1.207 4283509669
0.022951236 -0.12349607 1.2080001 4283903914
0.026254525 -0.12349607 1.2080001 4283838121
0.029533343 -0.12339383 1.207 4283509156
0.03275229 -0.12308714 1.2040001 4283706535
0.035954826 -0.12278045 1.2010001 4283706535
0.0392063 -0.12267821 1.2 4283640741
0.042452306 -0.12257598 1.199 4283509155
0.045769125 -0.12267821 1.2 4283509156
0.049009662 -0.12257598 1.199 4283311779
0.052244727 -0.12247375 1.1980001 4283706283
0.055567015 -0.12257598 1.199 4284166323
0.058845695 -0.12257598 1.199 4283968176
0.062124372 -0.12257598 1.199 4284296114
0.065348499 -0.12247375 1.1980001 4284821945
0.068567157 -0.12237151 1.197 4285677252
0.071900383 -0.12247375 1.1980001 4285282746
0.075176321 -0.12247375 1.1980001 4285348539
0.078648724 -0.12278045 1.2010001 4286203848
0.08213754 -0.12308714 1.2040001 4286532813
0.085571796 -0.1232916 1.2060001 4286203846
0.089090683 -0.1235983 1.2090001 4286138308
0.092549555 -0.12380276 1.2110001 4286532554
0.096019365 -0.12400723 1.2130001 4286335175
0.099500105 -0.12421168 1.215 4286137796
0.10316104 -0.12462062 1.2190001 4286598347
0.10666914 -0.12482508 1.2210001 4286664397
0.11009807 -0.12492732 1.222 4286467018
0.11353248 -0.12502953 1.223 4285481152
0.11745017 -0.12564294 1.2290001 4283441569
0.12149899 -0.12635855 1.2360001 4283705254
0.12578815 -0.12727864 1.245 4284692403
0.13023031 -0.12830096 1.2550001 4284101293
0.13515316 -0.12973221 1.2690001 4282524041
0.14353898 -0.13433264 1.314 4294966015
-0.031609308 -0.1270581 1.2770001 4278190080
-0.027434776 -0.12397368 1.2460001 4278190080
-0.023719035 -0.12238172 1.23 4278190080
-0.020173546 -0.12128725 1.2190001 4285090482
-0.016743476 -0.12059077 1.212 4283905954
-0.013396008 -0.12029228 1.2090001 4283774370
-0.010073295 -0.12009328 1.207 4283510687
-0.0067615192 -0.11989429 1.205 4283313566
-0.0034635584 -0.11979479 1.2040001 4283050394
-0.00017120861 -0.11979479 1.2040001 4282787222
0.0031237334 -0.11989429 1.205 4282655636
0.006413491 -0.11979479 1.2040001 4282984603
0.0097058406 -0.11979479 1.2040001 4283313057
0.012998191 -0.11979479 1.2040001 4283181471
0.016344661 -0.12019278 1.2080001 4283246496
0.019664215 -0.12029228 1.2090001 4283114910
0.022989238 -0.12039177 1.21 4283312290
0.026276259 -0.12029228 1.2090001 4284035500
0.029557813 -0.12019278 1.2080001 4283969707
0.032806695 -0.11999378 1.2060001 4283969707
0.036044639 -0.11979479 1.2040001 4283772327
0.039304316 -0.11969529 1.2030001 4283575202
0.042558525 -0.11959579 1.202 4283180701
0.045807261 -0.1194963 1.2010001 4283049117
0.049009662 -0.1192973 1.199 4283180704
0.052288339 -0.1192973 1.199 4283246243
0.055613358 -0.11939681 1.2 4283574440
0.058894772 -0.11939681 1.2 4284231346
0.062124372 -0.1192973 1.199 4284428468
0.065403044 -0.1192973 1.199 4284822456
0.068681724 -0.1192973 1.199 4284953529
0.071960405 -0.1192973 1.199 4285151162
0.075176321 -0.1191978 1.1980001 4284887990
0.078583241 -0.11939681 1.2 4285545918
0.082069315 -0.11969529 1.2030001 4285940676
0.085571796 -0.11999378 1.2060001 4285940674
0.088943303 -0.12009328 1.207 4285874881
0.092473127 -0.12039177 1.21 4286598859
0.095940202 -0.12059077 1.212 4286598859
0.099418215 -0.12078976 1.2140001 4286467273
0.10307641 -0.12118775 1.2180001 4286664652
0.10666914 -0.12148625 1.2210001 4286993617
0.11018817 -0.12168524 1.223 4286862031
0.11381097 -0.12198374 1.2260001 4286138566
0.11773687 -0.12258071 1.2320001 4284362155
0.12179389 -0.1232772 1.2390001 4283507616
0.12609126 -0.12417268 1.248 4283573922
0.13064539 -0.12526715 1.2590001 4284298923
0.13600519 -0.1270581 1.2770001 4283643528
-0.027831104 -0.12230821 1.2640001 4278190080
-0.023892589 -0.11988914 1.2390001 4278190080
-0.020256292 -0.11843769 1.2240001 4278190080
-0.016812548 -0.11776036 1.217 4284432300
-0.013440329 -0.11737331 1.2130001 4283971236
-0.010106678 -0.11717977 1.2110001 4283839650
-0.0067671305 -0.11669596 1.2060001 4283248028
-0.0034635584 -0.11650244 1.2040001 4282984601
-0.00017106642 -0.11640567 1.2030001 4282984856
0.0031211411 -0.11650244 1.2040001 4282853015
0.0064188177 -0.11659921 1.205 4282853017
0.0096977791 -0.11640567 1.2030001 4282918810
0.012998191 -0.11650244 1.2040001 4283115676
0.01630407 -0.11659921 1.205 4282983322
0.019631684 -0.11679272 1.207 4283114908
0.022913236 -0.11669596 1.2060001 4283180704
0.026189324 -0.11659921 1.205 4283969707
0.029484408 -0.11659921 1.205 4283640742
0.03275229 -0.11650244 1.2040001 4283969706
0.036014698 -0.11640567 1.2030001 4283706277
0.039304316 -0.11640567 1.2030001 4283509409
0.042558525 -0.11630891 1.202 4283246494
0.045769125 -0.11611539 1.2 4283114910
0.048968785 -0.11592186 1.1980001 4283180704
0.052244727 -0.11592186 1.1980001 4283114911
0.055520669 -0.11592186 1.1980001 4283508904
0.058747534 -0.11582509 1.197 4283574440
0.062020741 -0.11582509 1.197 4284428468
0.065348499 -0.11592186 1.1980001 4284361905
0.068624437 -0.11592186 1.1980001 4284625077
0.071840368 -0.11582509 1.197 4284822454
0.075050823 -0.11572834 1.1960001 4284690868
0.078452267 -0.11592186 1.1980001 4285085626
0.081932873 -0.11621216 1.2010001 4285414332
0.085287973 -0.11630891 1.202 4285677502
0.088722236 -0.11650244 1.2040001 4286006467
0.092243858 -0.11679272 1.207 4286203846
0.095702723 -0.11698626 1.2090001 4286138053
0.099254422 -0.11727654 1.212 4286138308
0.10282253 -0.11756683 1.215 4286138308
0.10658178 -0.11805064 1.22 4286204101
0.11018817 -0.11834093 1.223 4286796238
0.11390381 -0.11872798 1.2270001 4286796238
0.1176413 -0.11911503 1.2310001 4286664652
0.12169559 -0.11979238 1.238 4284230569
0.12609126 -0.12076001 1.248 4283968167
0.13074915 -0.12192116 1.2600001 4284363686
0.1363247 -0.12385641 1.2800001 4283907965
0.17008653 -0.14698273 1.5190001 4278190080
-0.024181847 -0.1179115 1.2540001 4278190080
-0.020454884 -0.11621899 1.2360001 4278190080
-0.016923066 -0.11518469 1.225 4278190080
-0.013540052 -0.1149026 1.222 4284367275
-0.010173444 -0.11462051 1.2190001 4283905956
-0.0068120202 -0.11415037 1.2140001 4283576993
-0.0034808186 -0.11377425 1.21 4283445405
-0.00017163521 -0.11349218 1.207 4282984854
0.0031263258 -0.11339814 1.2060001 4282984856
0.0064241444 -0.11339814 1.2060001 4282853015
0.0097139021 -0.11330412 1.205 4282589845
0.013030577 -0.11349218 1.207 4282655638
0.016344661 -0.1135862 1.2080001 4282524052
0.019664215 -0.11368024 1.2090001 4282918812
0.022951236 -0.1135862 1.2080001 4282984094
0.02623279 -0.11349218 1.207 4283312289
0.029533343 -0.11349218 1.207 4283641254
0.032833897 -0.11349218 1.207 4283509669
0.036104511 -0.11339814 1.2060001 4283378082
0.039369661 -0.11330412 1.205 4283378080
0.04259393 -0.11311606 1.2030001 4283114908
0.045807261 -0.11292801 1.2010001 4283312287
0.049050536 -0.11283398 1.2 4283378082
0.052331947 -0.11283398 1.2 4283312289
0.055567015 -0.11273995 1.199 4283509415
0.058796611 -0.11264592 1.1980001 4283706537
0.062072553 -0.11264592 1.1980001 4283902635
0.065348499 -0.11264592 1.1980001 4284296880
0.068681724 -0.11273995 1.199 4284494259
0.071960405 -0.11273995 1.199 4284428466
0.075301826 -0.11283398 1.2 4284889017
0.078583241 -0.11283398 1.2 4284690868
0.082001098 -0.11302203 1.202 4285414845
0.085287973 -0.11302203 1.202 4285480125
0.088722236 -0.11321009 1.2040001 4285809088
0.092091002 -0.11330412 1.205 4285874881
0.09562356 -0.1135862 1.2080001 4285743295
0.099008746 -0.11368024 1.2090001 4286137796
0.10273791 -0.11415037 1.2140001 4286006210
0.10649441 -0.11462051 1.2190001 4286137795
0.11036836 -0.11518469 1.225 4286400967
0.11408946 -0.1155608 1.2290001 4287058895
0.11783244 -0.11593691 1.233 4286729930
0.12199049 -0.11668914 1.2410001 4286533066
0.12659642 -0.11781748 1.253 4284756400
0.13168307 -0.11932193 1.2690001 4284428199
0.13749625 -0.12139055 1.291 4294629375
-0.020719672 -0.11429985 1.2520001 4278190080
-0.017088844 -0.11293043 1.2370001 4278190080
-0.013617612 -0.11220009 1.2290001 4284893619
-0.010215173 -0.11174361 1.2240001 4284168615
-0.0068344651 -0.11119585 1.2180001 4283971238
-0.0034865721 -0.11064809 1.212 4283576480
-0.00017191962 -0.11037421 1.2090001 4283050647
0.0031315105 -0.11028291 1.2080001 4282787477
0.0064294711 -0.11019162 1.207 4282787477
0.0097219637 -0.11010032 1.2060001 4282655636
0.013030577 -0.11019162 1.207 4282524820
0.016331131 -0.11019162 1.207 4282524052
0.019631684 -0.11019162 1.207 4282524052
0.022913236 -0.11010032 1.2060001 4282983576
0.026211055 -0.11010032 1.2060001 4283180701
0.029508874 -0.11010032 1.2060001 4283443873
0.032806695 -0.11010032 1.2060001 4283443875
0.036074575 -0.11000904 1.205 4283378080
0.039336987 -0.10991774 1.2040001 4283246494
0.04252312 -0.10964386 1.2010001 4283378080
0.045769125 -0.10955257 1.2 4283246494
0.049009662 -0.10946127 1.199 4283114910
0.052288339 -0.10946127 1.199 4283312289
0.055474326 -0.10927868 1.197 4283509669
0.058747534 -0.10927868 1.197 4283574949
0.061968926 -0.10918739 1.1960001 4283771817
0.0652394 -0.10918739 1.1960001 4284165805
0.068567157 -0.10927868 1.197 4284231598
0.071900383 -0.10936998 1.1980001 4284363186
0.075239077 -0.10946127 1.199 4284625845
0.078517757 -0.10946127 1.199 4284560052
0.08179643 -0.10946127 1.199 4285020601
0.085146062 -0.10955257 1.2 4285217466
0.088574857 -0.10973515 1.202 4285809603
0.092014588 -0.10991774 1.2040001 4285480123
0.095386088 -0.11000904 1.205 4285677502
0.098844968 -0.11019162 1.207 4285611452
0.10256865 -0.11064809 1.212 4285743038
0.10640705 -0.11119585 1.2180001 4286202818
0.11018817 -0.11165231 1.223 4286203072
0.11381097 -0.11192621 1.2260001 4287190735
0.11773687 -0.11247396 1.2320001 4287322319
0.12189218 -0.11320432 1.24 4287387860
0.12669747 -0.11448243 1.2540001 4284887986
0.13189061 -0.11603443 1.271 4284757166
0.13728324 -0.11767771 1.289 4285020334
0.14200965 -0.11868194 1.3000001 4284691112
0.14914764 -0.12160335 1.332 4285023400
-0.021282347 -0.11388726 1.286 4278190080
-0.017296065 -0.11087624 1.2520001 4278190080
-0.013728417 -0.10972497 1.2390001 4278190080
-0.010273593 -0.10901649 1.2310001 4283905443
-0.0068737436 -0.10848514 1.225 4283576478
-0.0035067089 -0.10795378 1.2190001 4283444374
-0.00017277281 -0.10759954 1.215 4283050134
0.0031470642 -0.10751098 1.2140001 4282918548
0.0064561055 -0.10733387 1.212 4282787477
0.0097542088 -0.10715674 1.21 4282458512
0.013062965 -0.10715674 1.21 4282787222
0.016385252 -0.1072453 1.2110001 4282458257
0.019696742 -0.1072453 1.2110001 4282721172
0.022989238 -0.10715674 1.21 4282983576
0.026276259 -0.10706819 1.2090001 4282983576
0.029582281 -0.10706819 1.2090001 4283115162
0.032888304 -0.10706819 1.2090001 4283509920
0.036134452 -0.10689107 1.207 4283378080
0.039369661 -0.10671395 1.205 4283378080
0.042558525 -0.10644827 1.202 4283246494
0.045845408 -0.10644827 1.202 4283312289
0.04909141 -0.10635972 1.2010001 4283246496
0.052331947 -0.10627116 1.2 4283114910
0.055567015 -0.1061826 1.199 4283377569
0.058943849 -0.10635972 1.2010001 4283574949
0.062124372 -0.1061826 1.199 4283838123
0.065403044 -0.1061826 1.199 4284034989
0.068681724 -0.1061826 1.199 4284165805
0.072080433 -0.10635972 1.2010001 4284692151
0.075364575 -0.10635972 1.2010001 4284494772
0.078583241 -0.10627116 1.2 4284363186
0.081864655 -0.10627116 1.2 4284889528
0.085217014 -0.10635972 1.2010001 4285481152
0.088648543 -0.10653683 1.2030001 4285612738
0.092091002 -0.10671395 1.205 4285349052
0.095386088 -0.10671395 1.205 4285414332
0.098844968 -0.10689107 1.207 4285743295
0.10256865 -0.10733387 1.212 4285808831
0.10640705 -0.10786522 1.2180001 4286335174
0.11009807 -0.10821946 1.222 4286466244
0.11381097 -0.1085737 1.2260001 4287059149
0.117928 -0.10928217 1.2340001 4287124942
0.12228539 -0.11016776 1.2440001 4287388114
0.1271016 -0.11140759 1.258 4285940416
0.13209815 -0.11273599 1.273 4285348792
0.13685723 -0.11379869 1.2850001 4284032677
0.14058955 -0.11397581 1.2870001 4284164524
0.14466873 -0.1144186 1.2920001 4284758193
0.14934878 -0.1153042 1.302 4284363437
0.15420099 -0.11627835 1.3130001 4284823735
0.15971421 -0.11769531 1.3290001 4285087675
-0.017475655 -0.10856836 1.2650001 4278190080
-0.013783817 -0.10676603 1.2440001 4278190080
-0.010298629 -0.10590778 1.2340001 4285089199
-0.0068905773 -0.10539284 1.228 4284299687
-0.0035153392 -0.10487789 1.222 4283970722
-0.00017305721 -0.10444877 1.217 4283444378
0.0031522489 -0.10436293 1.2160001 4283049620
0.0064667589 -0.10419128 1.2140001 4282786964
0.009770331 -0.10401964 1.212 4282852757
0.01307376 -0.10393381 1.2110001 4282787477
0.016385252 -0.10393381 1.2110001 4282524305
0.01968048 -0.10384799 1.21 4282918550
0.022951236 -0.10367634 1.2080001 4282786965
0.026254525 -0.10367634 1.2080001 4282917783
0.029557813 -0.10367634 1.2080001 4283049369
0.032861099 -0.10367634 1.2080001 4282917783
0.036104511 -0.10350469 1.2060001 4283312541
0.039336987 -0.10333304 1.2040001 4283246494
0.042629339 -0.10333304 1.2040001 4283246494
0.045883548 -0.10324722 1.2030001 4283312287
0.04909141 -0.10307557 1.2010001 4283312289
0.052288339 -0.10290392 1.199 4283049117
0.055520669 -0.10281809 1.1980001 4283180703
0.058845695 -0.10290392 1.199 4283246496
0.062124372 -0.10290392 1.199 4283640742
0.065403044 -0.10290392 1.199 4283245471
0.068681724 -0.10290392 1.199 4283573922
0.072020419 -0.10298974 1.2 4284034219
0.075239077 -0.10290392 1.199 4283902633
0.078517757 -0.10290392 1.199 4284297391
0.081728213 -0.10281809 1.1980001 4284165805
0.085217014 -0.10307557 1.2010001 4285283773
0.088648543 -0.10324722 1.2030001 4285481152
0.092014588 -0.10333304 1.2040001 4284889269
0.095306933 -0.10333304 1.2040001 4285283259
0.098763071 -0.10350469 1.2060001 4285480123
0.10231477 -0.10376216 1.2090001 4286072260
0.10605761 -0.10419128 1.2140001 4286138308
0.10964759 -0.10444877 1.217 4286269892
0.11353248 -0.1049637 1.223 4286730441
0.1176413 -0.10565031 1.2310001 4286927820
0.12218709 -0.10668021 1.243 4287585493
0.12700057 -0.10788175 1.2570001 4287388114
0.13189061 -0.1090833 1.271 4285743548
0.1363247 -0.10985573 1.2800001 4284559274
0.13960642 -0.10968407 1.2780001 4283572641
0.14332506 -0.10985573 1.2800001 4284033192
0.14739875 -0.11028485 1.2850001 4284165294
0.15138237 -0.11062815 1.289 4284098735
0.15562822 -0.11114309 1.2950001 4284625077
0.15953813 -0.11140057 1.2980001 4285020601
0.16396704 -0.11200134 1.3050001 4284955321
0.16856262 -0.11268794 1.3130001 4284627636
0.17556201 -0.11491939 1.3390001 4283509918
-0.017530914 -0.10544156 1.2690001 4278190080
-0.013817059 -0.10361358 1.2470001 4278190080
-0.010332013 -0.10286576 1.238 4284957613
-0.0069186334 -0.10245031 1.233 4283970722
-0.0035325994 -0.10203485 1.228 4283707546
-0.00017405261 -0.1017025 1.2240001 4283312792
0.003170395 -0.1016194 1.223 4283115413
0.00649872 -0.10137013 1.22 4282984343
0.0098267607 -0.10128704 1.2190001 4282918550
0.01312774 -0.10103777 1.2160001 4283115929
0.016439373 -0.10095468 1.215 4282787477
0.019729273 -0.1007885 1.2130001 4282590098
0.023008235 -0.10062232 1.2110001 4282852758
0.026297994 -0.10053923 1.21 4282852504
0.02960675 -0.10053923 1.21 4282720404
0.032915507 -0.10053923 1.21 4282720404
0.036194324 -0.10045615 1.2090001 4283114908
0.039435003 -0.10028996 1.207 4283049115
0.042700149 -0.10020687 1.2060001 4283246494
0.04599797 -0.10020687 1.2060001 4283312287
0.049214039 -0.10004069 1.2040001 4283180701
0.052419167 -0.099874504 1.202 4283312287
0.0556597 -0.099791422 1.2010001 4283246496
0.05899293 -0.099874504 1.202 4283180703
0.062279809 -0.099874504 1.202 4283640741
0.065621234 -0.0999576 1.2030001 4283377570
0.068853572 -0.099874504 1.202 4283442850
0.07220047 -0.0999576 1.2030001 4283179680
0.075427331 -0.099874504 1.202 4283442852
0.078648724 -0.099791422 1.2010001 4283969196
0.081932873 -0.099791422 1.2010001 4284297391
0.085287973 -0.099874504 1.202 4284758196
0.088795923 -0.10012379 1.205 4285415613
0.09216743 -0.10020687 1.2060001 4285284027
0.09546525 -0.10020687 1.2060001 4285480636
0.099008746 -0.10045615 1.2090001 4285216951
0.10248403 -0.10062232 1.2110001 4285217206
0.10614496 -0.10095468 1.215 4286204099
0.10964759 -0.10112087 1.217 4286335683
0.11353248 -0.1016194 1.223 4286796234
0.1176413 -0.10228413 1.2310001 4287059406
0.12228539 -0.1033643 1.2440001 4287125199
0.12720264 -0.10461066 1.2590001 4286664648
0.13199438 -0.10569083 1.2720001 4287322832
0.13621821 -0.10627246 1.279 4287388632
0.13960642 -0.10618936 1.2780001 4283112604
0.14321308 -0.10627246 1.279 4283244190
0.14693993 -0.10643864 1.281 4283638950
0.15067773 -0.10660482 1.2830001 4284033706
0.15478699 -0.10702027 1.2880001 4284099499
0.15867777 -0.10726954 1.291 4284494007
0.1624593 -0.10743573 1.2930001 4284428466
0.16638017 -0.10768499 1.296 4284626358
0.17057966 -0.10810044 1.3010001 4284166575
0.17574345 -0.10909753 1.3130001 4284825528
-0.017544731 -0.10205182 1.2700001 4278190080
-0.013839218 -0.10036435 1.2490001 4278190080
-0.010348704 -0.099641144 1.24 4285681336
-0.0069298558 -0.099239372 1.235 4284891824
-0.0035383527 -0.098837592 1.23 4284365226
-0.00017447921 -0.098596521 1.2270001 4283378585
0.0031755797 -0.098435812 1.225 4283247513
0.0065093734 -0.098194748 1.222 4283247515
0.0098348223 -0.098034032 1.22 4283050136
0.01312774 -0.097712614 1.2160001 4282721171
0.016439373 -0.097632252 1.215 4282853270
0.019713009 -0.097391188 1.212 4282655891
0.023008235 -0.097310826 1.2110001 4282787222
0.026297994 -0.097230472 1.21 4282589586
0.029631216 -0.097310826 1.2110001 4282589332
0.032915507 -0.097230472 1.21 4282918297
0.036224265 -0.097230472 1.21 4283049369
0.039467677 -0.097069763 1.2080001 4283115162
0.042735558 -0.096989408 1.207 4283114908
0.04595983 -0.096828699 1.205 4283246494
0.049173161 -0.096667983 1.2030001 4283378334
0.052375555 -0.096507281 1.2010001 4283312541
0.0556597 -0.096507281 1.2010001 4283115162
0.05899293 -0.096587628 1.202 4283114908
0.062279809 -0.096587628 1.202 4283180701
0.065621234 -0.096667983 1.2030001 4283377569
0.068910852 -0.096667983 1.2030001 4283245726
0.07220047 -0.096667983 1.2030001 4283442850
0.075427331 -0.096587628 1.202 4283574438
0.078648724 -0.096507281 1.2010001 4283771817
0.081932873 -0.096507281 1.2010001 4283903403
0.085146062 -0.096426919 1.2 4284428718
0.088574857 -0.096587628 1.202 4285349820
0.092014588 -0.096748345 1.2040001 4285547198
0.09546525 -0.096909046 1.2060001 4285349819
0.099008746 -0.097150125 1.2090001 4285020084
0.10256865 -0.097391188 1.212 4285020084
0.10614496 -0.097632252 1.215 4285217717
0.10964759 -0.097792968 1.217 4285941440
0.11362531 -0.098355457 1.2240001 4286401476
0.11754574 -0.098837592 1.23 4286862027
0.12208879 -0.099801861 1.2420001 4286598855
0.12689954 -0.10092685 1.256 4286533062
0.13189061 -0.10213218 1.271 4287190992
0.13589869 -0.10253396 1.276 4287191505
0.13949718 -0.10261431 1.2770001 4283573408
0.14310111 -0.10269466 1.2780001 4283047578
0.14682522 -0.10285538 1.2800001 4283771301
0.1503254 -0.10285538 1.2800001 4283968426
0.15430628 -0.1031768 1.284 4284165805
0.15818612 -0.10341787 1.2870001 4284033708
0.16195673 -0.10357858 1.289 4283704743
0.1656099 -0.10365894 1.2900001 4284363184
0.16953075 -0.10390001 1.2930001 4284297391
0.17373571 -0.10430179 1.2980001 4284626358
0.17851436 -0.10502499 1.307 4285285307
0.18417811 -0.10623032 1.322 4285417917
-0.017627619 -0.099044725 1.276 4278190080
-0.0139057 -0.09741468 1.2550001 4285222570
-0.010398778 -0.096716084 1.2460001 4285089969
-0.0069635231 -0.096327975 1.2410001 4285154994
-0.0035527362 -0.095862255 1.235 4284365480
-0.0001754746 -0.095784634 1.2340001 4283773343
0.0031937258 -0.095629387 1.2320001 4283904675
0.0065466613 -0.095396526 1.2290001 4283510688
0.009875128 -0.095086038 1.225 4283050137
0.013170924 -0.09469793 1.22 4282918551
0.016479965 -0.094542697 1.2180001 4282853270
0.019761803 -0.094309822 1.215 4283182235
0.023084233 -0.094309822 1.215 4283050136
0.026363194 -0.094154589 1.2130001 4282721171
0.029704621 -0.094232202 1.2140001 4282721172
0.032969911 -0.094076961 1.212 4282786965
0.036284138 -0.094076961 1.212 4283115162
0.039533019 -0.093921714 1.21 4283312541
0.042806372 -0.093844101 1.2090001 4283180955
0.046074253 -0.093766481 1.2080001 4283180955
0.049254913 -0.09353362 1.205 4283180955
0.052462775 -0.093378372 1.2030001 4283115162
0.055752393 -0.093378372 1.2030001 4283246748
0.059140164 -0.09353362 1.205 4283049369
0.062435251 -0.09353362 1.205 4283444127
0.065730333 -0.09353362 1.205 4283312287
0.06902542 -0.09353362 1.205 4283509409
0.072260492 -0.093455993 1.2040001 4283509155
0.075552836 -0.093455993 1.2040001 4283640484
0.078779697 -0.093378372 1.2030001 4283706022
0.082069315 -0.093378372 1.2030001 4284100266
0.085217014 -0.093223132 1.2010001 4284231339
0.088574857 -0.093300745 1.202 4284889269
0.092091002 -0.09353362 1.205 4285086647
0.09562356 -0.093766481 1.2080001 4285086645
0.099254422 -0.094076961 1.212 4285415096
0.10273791 -0.094232202 1.2140001 4285283510
0.1063197 -0.094465069 1.217 4285086129
0.10991788 -0.09469793 1.22 4286073026
0.11381097 -0.095163666 1.2260001 4286270405
0.11783244 -0.095707007 1.233 4286467269
0.12218709 -0.096483223 1.243 4286072511
0.12689954 -0.0974923 1.256 4286335683
0.13168307 -0.098501377 1.2690001 4286269890
0.13589869 -0.099044725 1.276 4286664648
0.13949718 -0.099122345 1.2770001 4288178400
0.14321308 -0.099277586 1.279 4284428715
0.14693993 -0.099432833 1.281 4285086647
0.15056027 -0.099510454 1.2820001 4283968680
0.15442646 -0.099743314 1.2850001 4284495024
0.15830904 -0.099976175 1.2880001 4283705508
0.16195673 -0.1000538 1.289 4283639461
0.16573827 -0.10020903 1.291 4283968426
0.16953075 -0.10036428 1.2930001 4284034473
0.17360187 -0.10067477 1.2970001 4284494770
0.17769486 -0.10098525 1.3010001 4285745090
0.18222769 -0.1015286 1.3080001 4285219766
0.1879352 -0.10269292 1.3230001 4285287098
-0.021282347 -0.096304357 1.286 4278190080
-0.017503288 -0.094881505 1.2670001 4278190080
-0.01391678 -0.094057754 1.256 4285024938
-0.010448853 -0.093758211 1.2520001 4284958383
-0.0070028016 -0.093458667 1.248 4284891820
-0.0035815034 -0.093233995 1.245 4284497066
-0.00017647001 -0.092934452 1.2410001 4284036515
0.0032092796 -0.092709795 1.238 4284496812
0.0065839491 -0.092560016 1.2360001 4284365226
0.0099234963 -0.092185579 1.2310001 4284036262
0.01325729 -0.091960922 1.228 4282786195
0.016588207 -0.09181115 1.2260001 4282852757
0.019940717 -0.09181115 1.2260001 4282984343
0.023274226 -0.091736265 1.225 4282786964
0.026558798 -0.091511607 1.222 4282786962
0.029729091 -0.090987392 1.215 4282786964
0.032969911 -0.090762734 1.212 4282786964
0.036254201 -0.090687849 1.2110001 4283246746
0.039533019 -0.090612955 1.21 4283312539
0.042841777 -0.090612955 1.21 4283115160
0.046074253 -0.090463191 1.2080001 4283378332
0.049254913 -0.090238534 1.205 4283180953
0.052462775 -0.090088755 1.2030001 4282983576
0.055752393 -0.090088755 1.2030001 4282720404
0.059140164 -0.090238534 1.205 4283312541
0.062383439 -0.090163641 1.2040001 4283444127
0.065675788 -0.090163641 1.2040001 4283115162
0.06896814 -0.090163641 1.2040001 4283180955
0.07220047 -0.090088755 1.2030001 4283115162
0.07549008 -0.090088755 1.2030001 4283706277
0.078714214 -0.090013862 1.202 4284034472
0.081932873 -0.089938983 1.2010001 4283771300
0.08507511 -0.089789212 1.199 4283968679
0.08835379 -0.089789212 1.199 4284495023
0.091785312 -0.089938983 1.2010001 4284955059
0.095386088 -0.090238534 1.205 4285284024
0.099008746 -0.090538077 1.2090001 4285744059
0.10265328 -0.090837628 1.2130001 4285678266
0.10623233 -0.091062285 1.2160001 4285151922
0.10982778 -0.091286942 1.2190001 4285875645
0.11381097 -0.09181115 1.2260001 4286072002
0.11783244 -0.092335358 1.233 4286400967
0.12218709 -0.093084231 1.243 4286006718
0.12659642 -0.093833089 1.253 4286335426
0.13157931 -0.094956398 1.268 4287257039
0.1357922 -0.095480599 1.2750001 4287059660
0.13938792 -0.095555484 1.276 4287717849
0.14287716 -0.095555484 1.276 4285152692
0.14682522 -0.095855035 1.2800001 4284955059
0.15056027 -0.096004814 1.2820001 4284231851
0.15430628 -0.096154578 1.284 4284560816
0.1580632 -0.096304357 1.286 4284166059
0.16183108 -0.096454129 1.2880001 4283837094
0.16573827 -0.096678786 1.291 4284034473
0.16966186 -0.096903451 1.294 4283837094
0.17360187 -0.097128108 1.2970001 4284297642
0.17755827 -0.097352766 1.3000001 4286008260
0.18180974 -0.097727202 1.3050001 4285416895
0.18694083 -0.09855096 1.3160001 4284627888
0.19444869 -0.1005729 1.3430001 4284631704
-0.024683222 -0.092354864 1.2800001 4278190080
-0.020934811 -0.091272585 1.2650001 4278190080
-0.017392769 -0.090839669 1.2590001 4278190080
-0.013894619 -0.090478905 1.2540001 4286208703
-0.010448853 -0.090334602 1.2520001 4285155247
-0.0069971904 -0.089973837 1.2470001 4283773339
-0.0035872569 -0.089973837 1.2470001 4284365478
-0.0001768966 -0.089757375 1.2440001 4284102308
0.0032170566 -0.089540921 1.2410001 4284562859
0.0065946025 -0.089324467 1.238 4284628398
0.0099476809 -0.089035861 1.2340001 4283838883
0.013311271 -0.08896371 1.233 4282917781
0.016669389 -0.088891551 1.2320001 4282721171
0.02002204 -0.088819399 1.2310001 4282853270
0.023369221 -0.088747248 1.23 4282590096
0.026667468 -0.088530794 1.2270001 4283115927
0.029949307 -0.088314332 1.2240001 4283575964
0.033187535 -0.088025726 1.22 4283904929
0.036433827 -0.087809272 1.217 4283575710
0.039761722 -0.087809272 1.217 4283246746
0.042947996 -0.087520659 1.2130001 4283049367
0.046226811 -0.087448508 1.212 4283115160
0.04945929 -0.087304205 1.21 4282983574
0.052637219 -0.08708775 1.207 4283049367
0.055891424 -0.087015599 1.2060001 4282851988
0.059238326 -0.08708775 1.207 4283378332
0.062487062 -0.087015599 1.2060001 4283246748
0.065839432 -0.08708775 1.207 4282983576
0.069139987 -0.08708775 1.207 4283115162
0.07238052 -0.087015599 1.2060001 4283115162
0.075615585 -0.08694344 1.205 4283575202
0.078779697 -0.086799137 1.2030001 4283837861
0.082001098 -0.086726993 1.202 4283837863
0.08507511 -0.086510532 1.199 4283837093
0.088427477 -0.086582683 1.2 4284034470
0.092014588 -0.086871296 1.2040001 4284757934
0.095702723 -0.087232053 1.2090001 4285350071
0.09917254 -0.087376356 1.2110001 4285809852
0.10282253 -0.087664962 1.215 4285941438
0.1063197 -0.087809272 1.217 4285809852
0.11009807 -0.088170029 1.222 4285809852
0.11390381 -0.088530794 1.2270001 4285940927
0.11802357 -0.089108013 1.235 4285743548
0.12228539 -0.089757375 1.2440001 4285414581
0.12669747 -0.090478905 1.2540001 4286072511
0.13168307 -0.091561191 1.2690001 4287454418
0.13600519 -0.09213841 1.2770001 4287520211
0.13960642 -0.092210554 1.2780001 4287717847
0.14310111 -0.092210554 1.2780001 4285678266
0.14705464 -0.092499174 1.2820001 4285152692
0.1509126 -0.092715628 1.2850001 4284297642
0.15466681 -0.092859924 1.2870001 4284363435
0.15843193 -0.093004234 1.289 4284560814
0.16233365 -0.093220688 1.2920001 4284363435
0.16625178 -0.093437143 1.2950001 4284298414
0.17018631 -0.093653604 1.2980001 4284298414
0.17400341 -0.0937979 1.3000001 4284363437
0.17796803 -0.094014369 1.3030001 4285943237
0.18250631 -0.094519429 1.3100001 4285285305
0.18779314 -0.095385253 1.322 4284759985
0.19459347 -0.096972607 1.3440001 4284697493
-0.032153871 -0.090173632 1.299 4294965247
-0.027963214 -0.088160515 1.2700001 4278190080
-0.024278264 -0.08739692 1.2590001 4278190080
-0.020736219 -0.08698041 1.253 4278190080
-0.017296065 -0.086910993 1.2520001 4283379863
-0.013839218 -0.086702742 1.2490001 4285813173
-0.010432161 -0.086772159 1.25 4285418419
-0.0069971904 -0.0865639 1.2470001 4283575960
-0.0035815034 -0.086425066 1.245 4283246995
-0.00017675442 -0.086286232 1.243 4284431271
0.0032144643 -0.086077981 1.24 4284562859
0.0065892758 -0.08586973 1.2370001 4284102054
0.0099476809 -0.085661478 1.2340001 4283444894
0.013311271 -0.085592054 1.233 4283247515
0.016669389 -0.085522637 1.2320001 4282853270
0.02002204 -0.08545322 1.2310001 4282590098
0.023350224 -0.085314386 1.2290001 4283115927
0.026667468 -0.085175551 1.2270001 4283181720
0.029973775 -0.085036717 1.225 4283641757
0.033241939 -0.084828459 1.222 4283575964
0.0364937 -0.084620208 1.2190001 4283444124
0.039794397 -0.08455079 1.2180001 4283312538
0.043089621 -0.084481373 1.217 4282984343
0.046303097 -0.084273122 1.2140001 4282786965
0.049541038 -0.084134288 1.212 4283115930
0.052724436 -0.08392603 1.2090001 4282917780
0.055984113 -0.083856612 1.2080001 4283312539
0.059287403 -0.083856612 1.2080001 4283246746
0.062487062 -0.083717778 1.2060001 4283115160
0.065839432 -0.083787195 1.207 4282917781
0.069139987 -0.083787195 1.207 4282917783
0.07238052 -0.083717778 1.2060001 4283180955
0.075615585 -0.083648361 1.205 4283378334
0.078714214 -0.08344011 1.202 4283443614
0.082001098 -0.08344011 1.202 4283575200
0.08507511 -0.083231851 1.199 4284166310
0.088427477 -0.083301276 1.2 4283837345
0.09193816 -0.083509527 1.2030001 4284363689
0.095544413 -0.083787195 1.207 4285284791
0.09917254 -0.084064864 1.2110001 4285350071
0.10282253 -0.084342532 1.215 4286007231
0.1063197 -0.084481373 1.217 4285612473
0.11009807 -0.084828459 1.222 4285743546
0.11390381 -0.085175551 1.2270001 4285677755
0.11811914 -0.085800312 1.2360001 4285480117
0.12218709 -0.086286232 1.243 4285610933
0.12639436 -0.086841576 1.251 4286006461
0.13137177 -0.087882847 1.266 4287323344
0.13589869 -0.088577017 1.276 4287389137
0.13971564 -0.088785268 1.279 4287783640
0.14321308 -0.088785268 1.279 4285941436
0.14716935 -0.089062944 1.2830001 4285284278
0.15103005 -0.089271195 1.286 4284561068
0.15478699 -0.089410029 1.2880001 4284495275
0.15855485 -0.089548863 1.2900001 4285153205
0.16258496 -0.089826539 1.294 4284693168
0.16663693 -0.090104207 1.2980001 4285285305
0.17057966 -0.090312459 1.3010001 4285416891
0.17453881 -0.09052071 1.304 4285417145
0.17865093 -0.090798378 1.3080001 4285351351
0.18334222 -0.091353729 1.3160001 4284694191
0.18850341 -0.092117324 1.327 4285156526
0.19618614 -0.094061017 1.355 4290357973
-0.035651024 -0.086488128 1.2970001 4278190080
-0.031361781 -0.084487632 1.2670001 4278190080
-0.027632939 -0.08368744 1.2550001 4278190080
-0.024123995 -0.083420709 1.251 4283775140
-0.020670023 -0.083287343 1.2490001 4283642273
-0.017268436 -0.083354019 1.25 4283444125
-0.013839218 -0.083287343 1.2490001 4283904675
-0.010432161 -0.083354019 1.25 4284562857
-0.0070084129 -0.083287343 1.2490001 4283839902
-0.0035872569 -0.083153971 1.2470001 4283050388
-0.0001770388 -0.083020605 1.245 4283050388
0.003219649 -0.082820557 1.2420001 4283971490
0.0066052563 -0.082687192 1.24 4284234408
0.009979926 -0.082553826 1.238 4283379614
0.013354453 -0.082487136 1.2370001 4283248028
0.016723512 -0.082420461 1.2360001 4282787222
0.020087101 -0.082353771 1.235 4283050649
0.023445223 -0.082287088 1.2340001 4283050647
0.026797872 -0.082220405 1.233 4282984341
0.030096116 -0.082020357 1.23 4283312792
0.033350755 -0.081753619 1.2260001 4283509658
0.036643386 -0.081620254 1.2240001 4283181720
0.039892413 -0.081420206 1.2210001 4283379099
0.04319584 -0.081353523 1.22 4283115929
0.046417519 -0.081153475 1.217 4282852757
0.04966367 -0.081020102 1.215 4283050136
0.052942485 -0.080953427 1.2140001 4283246745
0.05626218 -0.080953427 1.2140001 4283378331
0.059287403 -0.080553323 1.2080001 4283509917
0.062590688 -0.080553323 1.2080001 4283246745
0.065948524 -0.080620006 1.2090001 4283049366
0.069311835 -0.080686696 1.21 4282917781
0.072560571 -0.080620006 1.2090001 4282917781
0.075803839 -0.080553323 1.2080001 4283049367
0.078910671 -0.080353275 1.205 4283246748
0.082273975 -0.080419958 1.2060001 4283443614
0.085500836 -0.080353275 1.205 4283837859
0.088869609 -0.080419958 1.2060001 4283903652
0.092320271 -0.080553323 1.2080001 4284692654
0.095861048 -0.080753371 1.2110001 4285152692
0.099500105 -0.081020102 1.215 4285415864
0.10307641 -0.081220157 1.2180001 4285613243
0.10666914 -0.081420206 1.2210001 4285679036
0.11036836 -0.081686944 1.225 4286008001
0.11427512 -0.08208704 1.2310001 4286007233
0.11850139 -0.082687192 1.24 4285874103
0.12258028 -0.083153971 1.2470001 4285277850
0.12669747 -0.083620749 1.2540001 4285545138
0.13168307 -0.084620997 1.2690001 4286665159
0.1363247 -0.085354514 1.2800001 4287520468
0.14026184 -0.085621253 1.284 4287783895
0.14388491 -0.085687935 1.2850001 4285875643
0.14762817 -0.085821301 1.2870001 4285941438
0.15161726 -0.086088032 1.291 4284955824
0.15538786 -0.086221397 1.2930001 4284890547
0.15916941 -0.086354762 1.2950001 4284890547
0.16321318 -0.086621501 1.299 4285022899
0.16715044 -0.086821549 1.302 4285417402
0.17110412 -0.087021597 1.3050001 4285351352
0.17520805 -0.087288328 1.309 4285482684
0.1798802 -0.087821797 1.317 4284956853
0.18459608 -0.088355266 1.325 4284497580
0.19049214 -0.089422189 1.3410001 4287461054
0.2032807 -0.093623236 1.404 4294966527
-0.034826405 -0.081023008 1.2670001 4278190080
