# .PCD v0.7 - Point Cloud Data file format
VERSION 0.7
FIELDS x y z rgba
SIZE 4 4 4 4
TYPE F F F U
COUNT 1 1 1 1
WIDTH 827
HEIGHT 1
VIEWPOINT 0 0 0 1 0 0 0
POINTS 827
DATA ascii
-0.23914427 -0.06645222 1.4070001 4293126898
-0.23670214 -0.06645222 1.4070001 4293192691
-0.23426002 -0.06645222 1.4070001 4293192691
-0.23181789 -0.06645222 1.4070001 4293192691
-0.22937576 -0.06645222 1.4070001 4293126128
-0.2275788 -0.066641137 1.411 4292599784
-0.23812447 -0.063754007 1.401 4293258482
-0.23602921 -0.063845016 1.4030001 4293126896
-0.23359403 -0.063845016 1.4030001 4292666345
-0.23099409 -0.063799515 1.4020001 4292600295
-0.22872366 -0.063845016 1.4030001 4290560455
-0.22693363 -0.064027041 1.4070001 4287270805
-0.24749748 -0.061251611 1.399 4293192688
-0.24524444 -0.061295386 1.4000001 4293192943
-0.242641 -0.061251611 1.399 4293127150
-0.24004106 -0.061207823 1.3980001 4293061357
-0.23761456 -0.061207823 1.3980001 4292863978
-0.23501982 -0.06116404 1.3970001 4292337634
-0.23276155 -0.061207823 1.3980001 4292271071
-0.23049979 -0.061251611 1.399 4292271071
-0.22823459 -0.061295386 1.4000001 4290626246
-0.22628847 -0.061426736 1.4030001 4285889150
-0.26983726 -0.058419634 1.3890001 4293257973
-0.26819646 -0.058587871 1.393 4293257714
-0.26577863 -0.058587871 1.393 4293257714
-0.26336083 -0.058587871 1.393 4293257714
-0.26075566 -0.058545809 1.3920001 4293257969
-0.2579684 -0.058461692 1.3900001 4293192689
-0.25555578 -0.058461692 1.3900001 4293192944
-0.25332528 -0.058503747 1.391 4293193199
-0.25073054 -0.058461692 1.3900001 4293127151
-0.24831793 -0.058461692 1.3900001 4293192687
-0.24625912 -0.058545809 1.3920001 4293126380
-0.2440182 -0.058587871 1.393 4292863208
-0.24177383 -0.058629923 1.3940001 4292665829
-0.23952596 -0.058671985 1.3950001 4292534243
-0.23727463 -0.058714047 1.396 4292337120
-0.23501982 -0.058756102 1.3970001 4292140254
-0.23292804 -0.058840223 1.399 4292402657
-0.23082933 -0.05892434 1.401 4292468450
-0.22839761 -0.05892434 1.401 4291678934
-0.22644977 -0.059050515 1.404 4287139217
-0.27786779 -0.056186821 1.393 4293126643
-0.27465901 -0.056025483 1.3890001 4292797677
-0.27126813 -0.055823807 1.3840001 4292665577
-0.26867166 -0.055783469 1.383 4292468197
-0.2664637 -0.055823807 1.3840001 4292600038
-0.26425228 -0.05586414 1.3850001 4293126382
-0.26165929 -0.055823807 1.3840001 4293192175
-0.25944442 -0.05586414 1.3850001 4293126382
-0.25722605 -0.055904474 1.386 4293126380
-0.25500423 -0.055944812 1.3870001 4292995307
-0.25277895 -0.055985149 1.388 4292863721
-0.25055018 -0.056025483 1.3890001 4292600292
-0.24831793 -0.05606582 1.3900001 4292665828
-0.24643603 -0.056186821 1.393 4292468450
-0.24454373 -0.056307826 1.396 4292336863
-0.24246757 -0.056388497 1.3980001 4292337118
-0.24038449 -0.056469169 1.4000001 4292336862
-0.23829444 -0.056549843 1.4020001 4292402911
-0.23586099 -0.056549843 1.4020001 4292534496
-0.23376052 -0.056630511 1.404 4292600035
-0.23165314 -0.056711178 1.406 4292402656
-0.22921275 -0.056711178 1.406 4292271070
-0.22709492 -0.056791846 1.4080001 4291876312
-0.27746883 -0.053708557 1.391 4293192434
-0.27406579 -0.053515498 1.386 4289639354
-0.27048409 -0.053283826 1.3800001 4287665563
-0.26789457 -0.053245217 1.3790001 4288191906
-0.26569358 -0.053283826 1.3800001 4290428867
-0.2634891 -0.053322442 1.381 4292402657
-0.26128119 -0.053361051 1.3820001 4292468449
-0.25925708 -0.053438276 1.3840001 4292402656
-0.25741163 -0.05355411 1.3870001 4292468449
-0.25518808 -0.053592719 1.388 4292402655
-0.25314316 -0.053669944 1.3900001 4292468448
-0.2510913 -0.053747166 1.3920001 4292402910
-0.24903251 -0.053824391 1.3940001 4292402910
-0.24732058 -0.053978834 1.3980001 4292402910
-0.24541961 -0.054094668 1.401 4292468703
-0.24316134 -0.054133281 1.4020001 4292534496
-0.24124297 -0.054249115 1.4050001 4292534496
-0.2389743 -0.054287724 1.406 4292534496
-0.23670214 -0.054326341 1.4070001 4292402910
-0.23442651 -0.054364949 1.4080001 4292271324
-0.23198265 -0.054364949 1.4080001 4292205531
-0.2297018 -0.054403558 1.409 4292073946
-0.2274175 -0.054442175 1.4100001 4292205277
-0.27806729 -0.05142162 1.3940001 4293586936
-0.27465901 -0.051237181 1.3890001 4293586934
-0.27048409 -0.05090519 1.3800001 4293060589
-0.26808882 -0.05090519 1.3800001 4292534244
-0.2658861 -0.050942078 1.381 4292402657
-0.26367992 -0.050978966 1.3820001 4292336864
-0.26147023 -0.051015854 1.383 4292271070
-0.25944442 -0.05108963 1.3850001 4292271325
-0.25741163 -0.051163405 1.3870001 4292402910
-0.25537193 -0.051237181 1.3890001 4292402910
-0.25332528 -0.051310956 1.391 4292666081
-0.25127167 -0.051384732 1.393 4292600287
-0.24921116 -0.051458508 1.3950001 4292600287
-0.24749748 -0.051606059 1.399 4292666080
-0.24559478 -0.051716723 1.4020001 4292600287
-0.24333477 -0.05175361 1.4030001 4292468703
-0.24124297 -0.051827386 1.4050001 4292468703
-0.23914427 -0.051901162 1.4070001 4292271324
-0.23687038 -0.051938049 1.4080001 4292139738
-0.23442651 -0.051938049 1.4080001 4292139738
-0.2321474 -0.051974937 1.409 4292139738
-0.2297018 -0.051974937 1.409 4292205531
-0.22725621 -0.051974937 1.409 4292139484
-0.27866569 -0.049124345 1.3970001 4293192177
-0.27544996 -0.048983686 1.393 4292929003
-0.2718561 -0.048772704 1.3870001 4292929002
-0.26886591 -0.048667211 1.3840001 4292929001
-0.2664637 -0.048667211 1.3840001 4292863208
-0.26406151 -0.048667211 1.3840001 4292863206
-0.26184836 -0.048702374 1.3850001 4292797668
-0.25981903 -0.048772704 1.3870001 4292666081
-0.2579684 -0.048878197 1.3900001 4292731873
-0.25592348 -0.048948523 1.3920001 4292666080
-0.25405377 -0.049054015 1.3950001 4292797666
-0.25199321 -0.049124345 1.3970001 4292666080
-0.24992573 -0.049194671 1.399 4292534494
-0.24802823 -0.049300164 1.4020001 4292139736
-0.24594511 -0.049370494 1.404 4291744978
-0.24368162 -0.049405657 1.4050001 4291679187
-0.2415864 -0.049475987 1.4070001 4292139738
-0.23931423 -0.04951115 1.4080001 4292139484
-0.2370386 -0.049546313 1.409 4292205277
-0.234593 -0.049546313 1.409 4292205277
-0.23231216 -0.049581479 1.4100001 4292139484
-0.2297018 -0.049546313 1.409 4292007898
-0.2275788 -0.049616642 1.411 4292007898
-0.27846622 -0.046682961 1.396 4293060846
-0.27544996 -0.046582639 1.393 4292337121
-0.27244413 -0.046482321 1.3900001 4292534242
-0.26925445 -0.046348557 1.386 4292666084
-0.2670413 -0.046381999 1.3870001 4292731877
-0.26463386 -0.046381999 1.3870001 4292600290
-0.26260459 -0.046448879 1.3890001 4292666080
-0.26075566 -0.046549201 1.3920001 4292666080
-0.25889635 -0.046649523 1.3950001 4292534494
-0.25665891 -0.046682961 1.396 4292271322
-0.2547822 -0.046783283 1.399 4292073943
-0.25271475 -0.046850167 1.401 4291613392
-0.25046167 -0.046883605 1.4020001 4291744978
-0.24838203 -0.046950489 1.404 4291218634
-0.24629548 -0.047017369 1.406 4291152843
-0.24385509 -0.047017369 1.406 4291152844
-0.2415864 -0.047050811 1.4070001 4292205277
-0.23931423 -0.04708425 1.4080001 4292205277
-0.23687038 -0.04708425 1.4080001 4292007899
-0.234593 -0.047117688 1.409 4291744726
-0.23231216 -0.047151133 1.4100001 4291086796
-0.22986482 -0.047151133 1.4100001 4290428866
-0.22774008 -0.04721801 1.4120001 4291152589
-0.22624658 -0.047418654 1.4180001 4292073692
-0.22473228 -0.047619298 1.424 4292402657
-0.27303213 -0.044181596 1.393 4292007898
-0.26964298 -0.044023015 1.388 4292139482
-0.26723385 -0.044023015 1.388 4292337117
-0.26501548 -0.044054728 1.3890001 4292205530
-0.26279366 -0.044086449 1.3900001 4292205529
-0.260943 -0.044181596 1.393 4292139736
-0.25908193 -0.044276748 1.396 4292008150
-0.25684276 -0.044308465 1.3970001 4290363325
-0.2547822 -0.044371899 1.399 4289639345
-0.25271475 -0.044435333 1.401 4290429118
-0.25028303 -0.044435333 1.401 4291679186
-0.24820514 -0.044498764 1.4030001 4291547601
-0.24612029 -0.044562198 1.4050001 4291876567
-0.24368162 -0.044562198 1.4050001 4291942105
-0.24124297 -0.044562198 1.4050001 4291481555
-0.23914427 -0.044625632 1.4070001 4291086797
-0.23670214 -0.044625632 1.4070001 4290560453
-0.234593 -0.044689067 1.409 4290494660
-0.23231216 -0.044720784 1.4100001 4290363073
-0.22986482 -0.044720784 1.4100001 4290494659
-0.22774008 -0.044784218 1.4120001 4291284175
-0.22592749 -0.044911083 1.416 4292007899
-0.22425881 -0.045069668 1.4210001 4292271071
-0.27362016 -0.041870531 1.396 4292073692
-0.27022576 -0.041720565 1.391 4291942105
-0.26781142 -0.041720565 1.391 4292008152
-0.26558787 -0.041750558 1.3920001 4292139738
-0.26336083 -0.04178055 1.393 4292073945
-0.26169229 -0.041900527 1.3970001 4292073944
-0.25982431 -0.041990507 1.4000001 4292139480
-0.25757816 -0.0420205 1.401 4291415500
-0.25532857 -0.042050492 1.4020001 4291546829
-0.25289512 -0.042050492 1.4020001 4291744467
-0.25046167 -0.042050492 1.4020001 4291612881
-0.24838203 -0.042110477 1.404 4291218125
-0.24594511 -0.042110477 1.404 4291020491
-0.24368162 -0.042140469 1.4050001 4290165695
-0.2414147 -0.042170461 1.406 4290099902
-0.23914427 -0.042200457 1.4070001 4290231488
-0.23687038 -0.04223045 1.4080001 4290626246
-0.23475949 -0.042290438 1.4100001 4290757832
-0.2326417 -0.042350423 1.4120001 4290889418
-0.23019089 -0.042350423 1.4120001 4290626245
-0.22822393 -0.042440403 1.4150001 4291218382
-0.27381614 -0.039492585 1.3970001 4292073692
-0.27042004 -0.039351236 1.3920001 4292007899
-0.26800394 -0.039351236 1.3920001 4292007899
-0.26635104 -0.039464314 1.396 4291942105
-0.26411706 -0.039492585 1.3970001 4292008153
-0.26225427 -0.039577395 1.4000001 4291876566
-0.26038104 -0.039662201 1.4030001 4291876567
-0.25812972 -0.039690472 1.404 4291020746
-0.25569281 -0.039690472 1.404 4291218125
-0.25325587 -0.039690472 1.404 4290494402
-0.25046167 -0.039633933 1.4020001 4290099644
-0.24820514 -0.039662201 1.4030001 4290231231
-0.24612029 -0.03971874 1.4050001 4290494147
-0.24385509 -0.039747011 1.406 4290362561
-0.2415864 -0.039775282 1.4070001 4290428867
-0.23931423 -0.03980355 1.4080001 4290494660
-0.2370386 -0.039831817 1.409 4290560453
-0.23492602 -0.03988836 1.411 4290428867
-0.23297121 -0.03997317 1.414 4290757832
-0.23067994 -0.040001437 1.4150001 4291678933
-0.2288691 -0.040114515 1.419 4291744726
-0.22784211 -0.040368941 1.4280001 4292139484
-0.2267839 -0.040623367 1.437 4292271071
-0.27420816 -0.037137736 1.399 4292271071
-0.2706143 -0.036978461 1.393 4292007899
-0.26819646 -0.036978461 1.393 4292007899
-0.26635104 -0.0370581 1.396 4291678933
-0.26411706 -0.037084647 1.3970001 4290560452
-0.26225427 -0.037164286 1.4000001 4290428866
-0.26038104 -0.037243918 1.4030001 4290626245
-0.25812972 -0.037270468 1.404 4289902267
-0.25551069 -0.037243918 1.4030001 4290691526
-0.25289512 -0.037217375 1.4020001 4290691525
-0.25046167 -0.037217375 1.4020001 4290494147
-0.24802823 -0.037217375 1.4020001 4290494147
-0.24594511 -0.037270468 1.404 4290625733
-0.24385509 -0.037323557 1.406 4290362561
-0.2415864 -0.037350107 1.4070001 4290428354
-0.23931423 -0.03737665 1.4080001 4290626246
-0.2370386 -0.037403196 1.409 4290560453
-0.23492602 -0.037456289 1.411 4290363073
-0.23297121 -0.037535928 1.414 4290494659
-0.23084296 -0.037589017 1.416 4290757831
-0.22903039 -0.037695203 1.4200001 4291086796
-0.22800168 -0.037934113 1.429 4292139484
-0.22662608 -0.038119938 1.4360001 4292271071
-0.27499217 -0.034825638 1.4030001 4292468450
-0.27119711 -0.034651883 1.396 4292073692
-0.26858154 -0.034627061 1.3950001 4291942106
-0.26673263 -0.03470153 1.3980001 4291613141
-0.26430613 -0.03470153 1.3980001 4289968316
-0.26225427 -0.034751173 1.4000001 4290165695
-0.26019546 -0.034800816 1.4020001 4290626246
-0.25794587 -0.034825638 1.4030001 4290692039
-0.25569281 -0.034850463 1.404 4290560453
-0.25307551 -0.034825638 1.4030001 4290625989
-0.2506403 -0.034825638 1.4030001 4290428354
-0.24820514 -0.034825638 1.4030001 4290494147
-0.24612029 -0.034875285 1.4050001 4290428354
-0.24402852 -0.034924928 1.4070001 4290494147
-0.24175809 -0.03494975 1.4080001 4290428354
-0.23948419 -0.034974571 1.409 4290165695
-0.23720683 -0.034999397 1.4100001 4290428867
-0.23509251 -0.03504904 1.4120001 4290428867
-0.23313597 -0.035123505 1.4150001 4290626246
-0.23100601 -0.035173152 1.4170001 4290428866
-0.22919168 -0.035272442 1.4210001 4291349968
-0.22816123 -0.03549584 1.4300001 4292139485
-0.22662608 -0.035644777 1.4360001 4292271071
-0.2755802 -0.032476652 1.406 4292600293
-0.27158564 -0.032291863 1.3980001 4292073692
-0.26877409 -0.032245666 1.396 4292139485
-0.26692343 -0.032314964 1.399 4291876313
-0.26430613 -0.032291863 1.3980001 4291021004
-0.26225427 -0.032338064 1.4000001 4290626246
-0.26038104 -0.032407355 1.4030001 4290692039
-0.25812972 -0.032430455 1.404 4290757832
-0.2558749 -0.032453556 1.4050001 4290363074
-0.25325587 -0.032430455 1.404 4290494660
-0.25081897 -0.032430455 1.404 4290297281
-0.24855894 -0.032453556 1.4050001 4290428354
-0.24647066 -0.032499753 1.4070001 4290362561
-0.24437539 -0.032545947 1.409 4290362561
-0.24210149 -0.032569051 1.4100001 4290363074
-0.23965415 -0.032569051 1.4100001 4290165695
-0.23720683 -0.032569051 1.4100001 4290889418
-0.23509251 -0.032615244 1.4120001 4291415762
-0.23313597 -0.032684542 1.4150001 4291942106
-0.23116903 -0.032753836 1.4180001 4292007899
-0.22935295 -0.032846231 1.4220001 4291942106
-0.22800168 -0.03300792 1.429 4292073692
-0.22646827 -0.033146512 1.4350001 4292139485
-0.2755802 -0.0300532 1.406 4292666599
-0.27197421 -0.029924953 1.4000001 4292008156
-0.26877409 -0.02983945 1.396 4292205278
-0.26654184 -0.029860828 1.3970001 4292073692
-0.26411706 -0.029860828 1.3970001 4291481555
-0.26206693 -0.029903576 1.399 4290428867
-0.26019546 -0.029967701 1.4020001 4290626246
-0.25794587 -0.029989075 1.4030001 4290626246
-0.25569281 -0.030010452 1.404 4290165438
-0.25307551 -0.029989075 1.4030001 4290888905
-0.2506403 -0.029989075 1.4030001 4290823112
-0.24838203 -0.030010452 1.404 4290559940
-0.24647066 -0.030074576 1.4070001 4290954698
-0.24420196 -0.030095952 1.4080001 4291152590
-0.24210149 -0.030138701 1.4100001 4291876313
-0.23965415 -0.030138701 1.4100001 4292139485
-0.23737508 -0.030160075 1.411 4291876313
-0.23509251 -0.030181451 1.4120001 4291678934
-0.23313597 -0.030245574 1.4150001 4290889418
-0.23100601 -0.030288326 1.4170001 4290692039
-0.22935295 -0.030395199 1.4220001 4290494660
-0.22752301 -0.030480698 1.4260001 4291415762
-0.22583699 -0.030587574 1.4310001 4292205280
-0.27216846 -0.027531492 1.401 4292007899
-0.26896662 -0.027452886 1.3970001 4292139485
-0.26654184 -0.027452886 1.3970001 4292007899
-0.26430613 -0.027472537 1.3980001 4291744727
-0.26225427 -0.027511841 1.4000001 4290494660
-0.26019546 -0.027551142 1.4020001 4290560197
-0.25794587 -0.027570795 1.4030001 4290494147
-0.25551069 -0.027570795 1.4030001 4290362047
-0.25307551 -0.027570795 1.4030001 4290757319
-0.25081897 -0.027590446 1.404 4291481042
-0.24855894 -0.027610097 1.4050001 4291810263
-0.24664582 -0.027669052 1.4080001 4291942106
-0.24454883 -0.027708353 1.4100001 4291481555
-0.24227323 -0.027728004 1.411 4291349969
-0.23982415 -0.027728004 1.411 4290692039
-0.23754331 -0.027747655 1.4120001 4290297281
-0.23509251 -0.027747655 1.4120001 4290363074
-0.23313597 -0.02780661 1.4150001 4290363074
-0.23084296 -0.027826261 1.416 4290823625
-0.22935295 -0.02794417 1.4220001 4290494660
-0.27255699 -0.025152512 1.4030001 4292139485
-0.26915914 -0.025062874 1.3980001 4292073692
-0.26673263 -0.025062874 1.3980001 4292139485
-0.26449516 -0.025080804 1.399 4291942106
-0.26225427 -0.02509873 1.4000001 4290889418
-0.26019546 -0.025134584 1.4020001 4290691526
-0.25794587 -0.025152512 1.4030001 4290362561
-0.25569281 -0.025170442 1.404 4290493633
-0.25343627 -0.025188368 1.4050001 4290494147
-0.2509976 -0.025188368 1.4050001 4291152077
-0.24891278 -0.025224222 1.4070001 4290889418
-0.24699616 -0.025278006 1.4100001 4290494660
-0.24472229 -0.025295934 1.411 4290297281
-0.24261662 -0.02533179 1.4130001 4290560453
-0.24016407 -0.02533179 1.4130001 4290494660
-0.23771153 -0.02533179 1.4130001 4290428867
-0.23509251 -0.025313862 1.4120001 4290494661
-0.23313597 -0.025367644 1.4150001 4291152592
-0.23116903 -0.025421428 1.4180001 4290889418
-0.22967555 -0.025528993 1.424 4290626248
-0.27294549 -0.022766639 1.4050001 4292205278
-0.26935166 -0.022669416 1.399 4292139485
-0.26692343 -0.022669416 1.399 4292139485
-0.26449516 -0.022669416 1.399 4292139485
-0.26225427 -0.022685619 1.4000001 4291218383
-0.26000988 -0.022701824 1.401 4289836217
-0.25776201 -0.022718027 1.4020001 4290362561
-0.25551069 -0.02273423 1.4030001 4290428354
-0.25325587 -0.022750435 1.404 4290494147
-0.25081897 -0.022750435 1.404 4290230975
-0.24891278 -0.022799047 1.4070001 4290560453
-0.24699616 -0.022847658 1.4100001 4290692039
-0.24472229 -0.022863863 1.411 4290494660
-0.24261662 -0.022896271 1.4130001 4290692039
-0.23999411 -0.022880066 1.4120001 4290692039
-0.23754331 -0.022880066 1.4120001 4290560453
-0.23509251 -0.022880066 1.4120001 4290560455
-0.23313597 -0.022928679 1.4150001 4290692041
-0.23116903 -0.022977291 1.4180001 4290626248
-0.22983684 -0.023090718 1.4250001 4290428869
-0.27352831 -0.020388352 1.4080001 4292336864
-0.26973674 -0.020286988 1.401 4292139485
-0.26711425 -0.020272508 1.4000001 4292139485
-0.26468426 -0.020272508 1.4000001 4292073692
-0.26244161 -0.020286988 1.401 4291021004
-0.26019546 -0.020301469 1.4020001 4290099902
-0.25776201 -0.020301469 1.4020001 4290428355
-0.25551069 -0.020315949 1.4030001 4290493893
-0.25325587 -0.020330431 1.404 4290494149
-0.2509976 -0.020344909 1.4050001 4290362563
-0.24891278 -0.02037387 1.4070001 4290625991
-0.24699616 -0.020417312 1.4100001 4290692041
-0.24454883 -0.020417312 1.4100001 4290626248
-0.24244492 -0.020446273 1.4120001 4290494662
-0.23999411 -0.020446273 1.4120001 4290757834
-0.23754331 -0.020446273 1.4120001 4290692041
-0.23509251 -0.020446273 1.4120001 4290494662
-0.23313597 -0.020489713 1.4150001 4290363076
-0.23116903 -0.020533156 1.4180001 4290494662
-0.2301594 -0.020663479 1.427 4290428869
-0.27411112 -0.017999722 1.411 4292402657
-0.26992926 -0.01788491 1.4020001 4292205278
-0.26749581 -0.01788491 1.4020001 4292139485
-0.26506236 -0.01788491 1.4020001 4291942106
-0.26281625 -0.017897667 1.4030001 4290626246
-0.26056665 -0.017910425 1.404 4290626246
-0.25812972 -0.017910425 1.404 4290692039
-0.2558749 -0.01792318 1.4050001 4290560197
-0.25361666 -0.017935939 1.406 4290560199
-0.25117627 -0.017935939 1.406 4290494662
-0.24908969 -0.017961452 1.4080001 4290494662
-0.24699616 -0.017986964 1.4100001 4290560455
-0.24472229 -0.017999722 1.411 4290231490
-0.24244492 -0.018012477 1.4120001 4290494662
-0.24016407 -0.018025234 1.4130001 4290626248
-0.23771153 -0.018025234 1.4130001 4290626248
-0.23542549 -0.018037992 1.414 4290428869
-0.23346551 -0.018076262 1.4170001 4290297283
-0.23133206 -0.018101776 1.419 4290560455
-0.23032069 -0.018216586 1.4280001 4290494662
-0.27508244 -0.015622816 1.416 4292534245
-0.27166206 -0.015567651 1.411 4292139486
-0.2678774 -0.01549042 1.404 4292007899
-0.26544049 -0.01549042 1.404 4292007899
-0.2631909 -0.015501452 1.4050001 4290692039
-0.26093784 -0.015512486 1.406 4290626246
-0.25849745 -0.015512486 1.406 4290626246
-0.2558749 -0.015501452 1.4050001 4290560454
-0.25343627 -0.015501452 1.4050001 4290692039
-0.25117627 -0.015512486 1.406 4290494661
-0.24908969 -0.015534552 1.4080001 4290099904
-0.246821 -0.015545585 1.409 4290231490
-0.24454883 -0.015556618 1.4100001 4290428869
-0.24244492 -0.015578683 1.4120001 4290494662
-0.24016407 -0.015589717 1.4130001 4290297283
-0.23787977 -0.01560075 1.414 4290494662
-0.23559198 -0.015611783 1.4150001 4290494662
-0.23363025 -0.015644882 1.4180001 4290692041
-0.23149508 -0.015666949 1.4200001 4290823627
-0.23032069 -0.015755212 1.4280001 4290363076
-0.26844981 -0.013098342 1.4070001 4292139487
-0.26600766 -0.013098342 1.4070001 4292007899
-0.26356554 -0.013098342 1.4070001 4290757832
-0.261309 -0.013107652 1.4080001 4290231488
-0.2586813 -0.013098342 1.4070001 4290231490
-0.25623918 -0.013098342 1.4070001 4290494662
-0.25379702 -0.013098342 1.4070001 4290757832
-0.2513549 -0.013098342 1.4070001 4290692039
-0.24908969 -0.013107652 1.4080001 4290099902
-0.24717136 -0.01313558 1.411 4290626248
-0.24472229 -0.01313558 1.411 4290757834
-0.24261662 -0.013154198 1.4130001 4290823627
-0.240504 -0.013172817 1.4150001 4290626248
-0.23821622 -0.013182127 1.416 4290165697
-0.23625797 -0.013210054 1.419 4290099904
-0.23445407 -0.013247292 1.4230001 4290231490
-0.23247322 -0.013275221 1.4260001 4290363076
-0.23128842 -0.013349697 1.434 4290297029
-0.26864061 -0.010680752 1.4080001 4292205280
-0.26619673 -0.010680752 1.4080001 4292139487
-0.26356554 -0.010673166 1.4070001 4291349971
-0.26112342 -0.010673166 1.4070001 4290363076
-0.2586813 -0.010673166 1.4070001 4290231490
-0.25642127 -0.010680752 1.4080001 4290823371
-0.25415778 -0.010688337 1.409 4290692041
-0.25153354 -0.010680752 1.4080001 4290757834
-0.24926659 -0.010688337 1.409 4290692041
-0.24699616 -0.010695923 1.4100001 4290626248
-0.24454883 -0.010695923 1.4100001 4290297283
-0.24244492 -0.010711095 1.4120001 4290099904
-0.240504 -0.010733852 1.4150001 4290099904
-0.23821622 -0.010741438 1.416 4290297283
-0.23625797 -0.010764195 1.419 4290297283
-0.23445407 -0.010794538 1.4230001 4290099650
-0.23247322 -0.010817296 1.4260001 4290362822
-0.23128842 -0.010877982 1.434 4290560201
-0.26883137 -0.0082597136 1.409 4292074208
-0.26619673 -0.0082538519 1.4080001 4292073694
-0.26356554 -0.0082479902 1.4070001 4291613143
-0.26112342 -0.0082479902 1.4070001 4290494662
-0.2586813 -0.0082479902 1.4070001 4290626248
-0.25642127 -0.0082538519 1.4080001 4290626248
-0.25415778 -0.0082597136 1.409 4290692041
-0.25153354 -0.0082538519 1.4080001 4290494662
-0.24926659 -0.0082597136 1.409 4290297283
-0.24699616 -0.0082655754 1.4100001 4290363076
-0.24472229 -0.0082714381 1.411 4290099904
-0.24244492 -0.0082773007 1.4120001 4290363076
-0.240504 -0.0082948869 1.4150001 4290165697
-0.23821622 -0.0083007487 1.416 4290362822
-0.23625797 -0.0083183348 1.419 4290363076
-0.23461881 -0.0083476463 1.424 4290165697
-0.23263624 -0.0083652316 1.427 4290428615
-0.2317723 -0.0084238527 1.437 4290494408
-0.26883137 -0.0058310903 1.409 4292008417
-0.26619673 -0.0058269519 1.4080001 4291942110
-0.26375288 -0.0058269519 1.4080001 4291744729
-0.261309 -0.0058269519 1.4080001 4290757834
-0.25886515 -0.0058269519 1.4080001 4289968318
-0.25660339 -0.0058310903 1.409 4289902525
-0.25433818 -0.0058352291 1.4100001 4290626248
-0.25189084 -0.0058352291 1.4100001 4290297283
-0.2494435 -0.0058352291 1.4100001 4290428869
-0.24717136 -0.0058393674 1.411 4290428869
-0.24472229 -0.0058393674 1.411 4290231490
-0.24261662 -0.0058476441 1.4130001 4290494662
-0.240504 -0.0058559212 1.4150001 4290165443
-0.23821622 -0.00586006 1.416 4290362822
-0.23592499 -0.0058641983 1.4170001 4290165697
-0.23445407 -0.0058890292 1.4230001 4290033855
-0.23263624 -0.0059055826 1.427 4290099650
-0.23193358 -0.0059511056 1.4380001 4290428615
-0.26902217 -0.0034048818 1.4100001 4292008417
-0.26638579 -0.0034024669 1.409 4292007647
-0.26375288 -0.003400052 1.4080001 4291744475
-0.26149458 -0.0034024669 1.409 4290362821
-0.259049 -0.0034024669 1.409 4290231492
-0.25678551 -0.0034048818 1.4100001 4290297283
-0.25433818 -0.0034048818 1.4100001 4290494662
-0.2517122 -0.0034024669 1.409 4290560455
-0.2494435 -0.0034048818 1.4100001 4290560455
-0.24717136 -0.0034072965 1.411 4290428869
-0.24472229 -0.0034072965 1.411 4290494662
-0.24261662 -0.0034121261 1.4130001 4290428869
-0.24033403 -0.0034145408 1.414 4290165443
-0.23804799 -0.0034169557 1.4150001 4290362822
-0.23592499 -0.0034217853 1.4170001 4290296770
-0.23428927 -0.0034338594 1.4220001 4290230979
-0.23247322 -0.0034435187 1.4260001 4290231236
-0.23193358 -0.0034724963 1.4380001 4290428615
-0.26695299 -0.0009759168 1.4120001 4291811038
-0.26431486 -0.00097522564 1.411 4291876061
-0.26186579 -0.00097522564 1.411 4290625994
-0.2594167 -0.00097522564 1.411 4290231490
-0.25696763 -0.00097522564 1.411 4290428869
-0.25451857 -0.00097522564 1.411 4290625735
-0.25189084 -0.00097453455 1.4100001 4290362563
-0.24962044 -0.00097522564 1.411 4290560455
-0.24734654 -0.0009759168 1.4120001 4290560455
-0.24472229 -0.00097522564 1.411 4290428869
-0.24261662 -0.00097660802 1.4130001 4290231490
-0.240504 -0.00097799033 1.4150001 4290099904
-0.23821622 -0.00097868149 1.416 4289968318
-0.23592499 -0.00097937265 1.4170001 4290230977
-0.23428927 -0.00098282832 1.4220001 4290560198
-0.23247322 -0.00098559307 1.4260001 4291284178
-0.23209487 -0.00099457812 1.439 4291678936
-0.26733109 0.0014599427 1.414 4292007647
-0.26468951 0.0014589102 1.4130001 4292139233
-0.26223695 0.0014589102 1.4130001 4290954957
-0.2597844 0.0014589102 1.4130001 4289968318
-0.25714976 0.0014578777 1.4120001 4290165697
-0.25469896 0.0014578777 1.4120001 4290625735
-0.25224814 0.0014578777 1.4120001 4290494149
-0.24979734 0.0014578777 1.4120001 4290626248
-0.2475217 0.0014589102 1.4130001 4290363076
-0.24506916 0.0014589102 1.4130001 4290626248
-0.24296002 0.0014609752 1.4150001 4290889420
-0.24067396 0.0014620076 1.416 4290955213
-0.23821622 0.0014620076 1.416 4291218385
-0.23609148 0.0014640725 1.4180001 4291612630
-0.23445407 0.0014692351 1.4230001 4291810009
-0.23263624 0.001473365 1.427 4291613143
-0.23225617 0.0014867875 1.4400001 4291481557
-0.2686545 0.0039164773 1.4210001 4291876831
-0.26525146 0.0039026965 1.416 4292139233
-0.26260811 0.0038999405 1.4150001 4291283924
-0.25996825 0.0038971843 1.414 4290560455
-0.25733188 0.0038944283 1.4130001 4290099904
-0.25451857 0.0038889162 1.411 4290231490
-0.2520695 0.0038889162 1.411 4290428613
-0.24979734 0.003891672 1.4120001 4290494662
-0.2475217 0.0038944283 1.4130001 4291086799
-0.24506916 0.0038944283 1.4130001 4291744729
-0.24278831 0.0038971843 1.414 4291744475
-0.24067396 0.0039026965 1.416 4291876061
-0.23838447 0.0039054528 1.4170001 4291678682
-0.23625797 0.0039109653 1.419 4291349717
-0.23461881 0.0039247461 1.424 4290889166
-0.23263624 0.0039330143 1.427 4290625994
-0.23225617 0.0039688442 1.4400001 4290691787
-0.26959983 0.0063881837 1.4260001 4291876831
-0.26581344 0.0063568251 1.419 4291942367
-0.26279369 0.0063433857 1.416 4291810268
-0.25996825 0.0063344259 1.414 4290954959
-0.25714976 0.0063254666 1.4120001 4290297029
-0.25451857 0.0063209869 1.411 4290560201
-0.2520695 0.0063209869 1.411 4290560201
-0.24979734 0.0063254666 1.4120001 4291021006
-0.2475217 0.0063299467 1.4130001 4291678682
-0.24506916 0.0063299467 1.4130001 4291547096
-0.24278831 0.0063344259 1.414 4290757580
-0.24067396 0.0063433857 1.416 4290033859
-0.23838447 0.0063478653 1.4170001 4289902273
-0.23642446 0.0063613052 1.4200001 4290625996
-0.23478357 0.006383704 1.4250001 4290494410
-0.23279926 0.006397143 1.4280001 4290954961
-0.23241746 0.0064553809 1.4410001 4291612890
-0.27016699 0.0088647194 1.429 4291811038
-0.26600075 0.0088088885 1.4200001 4291811038
-0.26279369 0.0087840743 1.416 4291744475
-0.2601521 0.0087778708 1.4150001 4291218132
-0.25714976 0.0087592611 1.4120001 4290428617
-0.25469896 0.0087592611 1.4120001 4290625996
-0.25224814 0.0087592611 1.4120001 4290691789
-0.24979734 0.0087592611 1.4120001 4290625996
-0.2475217 0.0087654646 1.4130001 4290757582
-0.24506916 0.0087654646 1.4130001 4291152340
-0.24296002 0.0087778708 1.4150001 4290494410
-0.24084395 0.0087902779 1.4170001 4289639102
-0.2385527 0.0087964823 1.4180001 4289704895
-0.23675744 0.0088212956 1.4220001 4290428618
-0.23511308 0.0088523133 1.427 4291020755
-0.23312533 0.008870923 1.4300001 4290625998
-0.23257875 0.0089453645 1.442 4290823891
-0.27073416 0.011351597 1.432 4291745760
-0.26581344 0.011248546 1.419 4291482588
-0.26279369 0.011224763 1.416 4291613406
-0.2601521 0.011216836 1.4150001 4291087062
-0.25733188 0.011200983 1.4130001 4290363082
-0.25487933 0.011200983 1.4130001 4290428618
-0.25224814 0.011193056 1.4120001 4290033859
-0.24979734 0.011193056 1.4120001 4290099652
-0.2475217 0.011200983 1.4130001 4290362824
-0.24506916 0.011200983 1.4130001 4290362825
-0.24296002 0.011216836 1.4150001 4289639102
-0.24101391 0.011240618 1.4180001 4289639618
-0.23872092 0.011248546 1.419 4289705411
-0.23692396 0.011280254 1.4230001 4289836999
-0.23527785 0.01131989 1.4280001 4289639620
-0.23328835 0.01134367 1.4310001 4289376448
-0.23274003 0.011438795 1.4430001 4289705670
-0.26618809 0.013713706 1.4210001 4291021782
-0.26297933 0.013675104 1.4170001 4291219161
-0.26033595 0.013665453 1.416 4290955476
-0.25751397 0.013646152 1.414 4290297546
-0.25505969 0.013646152 1.414 4289836227
-0.25242677 0.013636501 1.4130001 4289770434
-0.25015116 0.013646152 1.414 4289968067
-0.24787204 0.013655802 1.4150001 4289770688
-0.24541603 0.013655802 1.4150001 4290165446
-0.24347514 0.013684754 1.4180001 4290626513
-0.24135384 0.013704056 1.4200001 4290692306
-0.23905738 0.013713706 1.4210001 4289968585
-0.23709045 0.013742658 1.424 4289113276
-0.23544262 0.013790912 1.429 4289047740
-0.23345137 0.013819865 1.432 4289376707
-0.23274003 0.013926023 1.4430001 4289310914
-0.26637539 0.016174387 1.4220001 4290692819
-0.26316491 0.01612889 1.4180001 4290889944
-0.26051983 0.016117517 1.4170001 4291087066
-0.25769609 0.016094768 1.4150001 4290362573
-0.25524008 0.016094768 1.4150001 4289244092
-0.25278407 0.016094768 1.4150001 4289704641
-0.25050497 0.016106142 1.416 4290757329
-0.24822241 0.016117517 1.4170001 4291481306
-0.24593636 0.01612889 1.4180001 4291941857
-0.24381854 0.016151641 1.4200001 4291942373
-0.24169376 0.016174387 1.4220001 4291942117
-0.23939386 0.016185762 1.4230001 4290692051
-0.23725694 0.016208513 1.4250001 4289310655
-0.23544262 0.01625401 1.429 4289047484
-0.23328835 0.016276758 1.4310001 4289245121
-0.23257875 0.016401876 1.442 4289310914
-0.26712471 0.018677812 1.4260001 4290824918
-0.26353607 0.018599223 1.4200001 4290429393
-0.26070368 0.018573027 1.4180001 4290955737
-0.25787821 0.018546831 1.416 4291744996
-0.25524008 0.018533733 1.4150001 4292204777
-0.25278407 0.018533733 1.4150001 4292138984
-0.25085881 0.018573027 1.4180001 4291875812
-0.24892309 0.018612321 1.4210001 4291481052
-0.24645667 0.018612321 1.4210001 4289507262
-0.24433365 0.018638518 1.4230001 4289375676
-0.24203372 0.018651616 1.424 4290823124
-0.23939386 0.018638518 1.4230001 4290691538
-0.23725694 0.018664714 1.4250001 4289113019
-0.23527785 0.018704008 1.4280001 4289179326
-0.23312533 0.018730205 1.4300001 4290100430
-0.23225617 0.018861184 1.4400001 4290363602
-0.26372164 0.021061629 1.4210001 4290364113
-0.26088753 0.021031985 1.419 4290692565
-0.25806034 0.021002343 1.4170001 4289310912
-0.25524008 0.020972699 1.4150001 4286942107
-0.25278407 0.020972699 1.4150001 4287336865
-0.25103569 0.021031985 1.419 4287401888
-0.24909826 0.02107645 1.4220001 4286875544
-0.24680355 0.021091273 1.4230001 4285954440
-0.24450536 0.021106094 1.424 4288059816
-0.24220368 0.021120917 1.4250001 4290230987
-0.23956209 0.021106094 1.424 4290888917
-0.23725694 0.021120917 1.4250001 4290757331
-0.23527785 0.02116538 1.4280001 4290626258
-0.23312533 0.021195024 1.4300001 4290297550
-0.23209487 0.021328419 1.439 4290100428
-0.26409283 0.023544027 1.4230001 4290429906
-0.26125523 0.023510937 1.4210001 4290758358
-0.25806034 0.023444755 1.4170001 4289771463
-0.25542045 0.023428209 1.416 4285955212
-0.25296271 0.023428209 1.416 4285955212
-0.25085881 0.023461301 1.4180001 4285954442
-0.24909826 0.023527481 1.4220001 4286019722
-0.24680355 0.023544027 1.4230001 4285888136
-0.24467705 0.023577118 1.4250001 4286875285
-0.24220368 0.023577118 1.4250001 4290559439
-0.23956209 0.023560572 1.424 4291086296
-0.23725694 0.023577118 1.4250001 4290494159
-0.23527785 0.023626754 1.4280001 4290362573
-0.23328835 0.02367639 1.4310001 4290560722
-0.23225617 0.023825297 1.4400001 4290824151
-0.26427844 0.026015051 1.424 4290758358
-0.26143909 0.025978511 1.4220001 4290758358
-0.25842458 0.025923705 1.419 4290692308
-0.25524008 0.025850629 1.4150001 4287007646
-0.25278407 0.025850629 1.4150001 4287138718
-0.25068191 0.025887169 1.4170001 4287598756
-0.24857275 0.025923705 1.419 4288256686
-0.24628323 0.025941975 1.4200001 4289177272
-0.24416193 0.025978511 1.4220001 4290098888
-0.24186376 0.025996782 1.4230001 4290362060
-0.23939386 0.025996782 1.4230001 4290823124
-0.23725694 0.02603332 1.4250001 4290954710
-0.23544262 0.026106395 1.429 4291019990
-0.23328835 0.026142934 1.4310001 4290692308
-0.23241746 0.026325624 1.4410001 4290232014
-0.26502076 0.0285495 1.4280001 4291021530
-0.26199064 0.028489523 1.4250001 4290692567
-0.25860667 0.028389556 1.4200001 4291086812
-0.25578123 0.028349573 1.4180001 4289836745
-0.25296271 0.028309589 1.416 4289507011
-0.25050497 0.028309589 1.416 4289769926
-0.24804722 0.028309589 1.416 4289440960
-0.24576293 0.028329579 1.4170001 4288059307
-0.24364683 0.028369566 1.419 4287269789
-0.2415238 0.02840955 1.4210001 4289440958
-0.23905738 0.02840955 1.4210001 4290625745
-0.23709045 0.028469529 1.424 4290559952
-0.23544262 0.028569493 1.429 4290428366
-0.23345137 0.028629471 1.432 4289771206
-0.23241746 0.028809404 1.4410001 4289771463
-0.26539198 0.031054303 1.4300001 4292140265
-0.26235834 0.030989155 1.427 4290758101
-0.25897092 0.030880576 1.4220001 4290955480
-0.25596163 0.030815426 1.419 4288848821
-0.25332001 0.03079371 1.4180001 4286546068
-0.25068191 0.030771991 1.4170001 4287137435
-0.24804722 0.030750278 1.416 4287400607
-0.24558946 0.030750278 1.416 4287400861
-0.24347514 0.03079371 1.4180001 4286479759
-0.24135384 0.030837141 1.4200001 4287861926
-0.23905738 0.030858858 1.4210001 4291086296
-0.23725694 0.030945724 1.4250001 4290823124
-0.23544262 0.03103259 1.429 4288652725
-0.23345137 0.031097738 1.432 4288718518
-0.23257875 0.031314902 1.442 4289310912
-0.26613429 0.033612885 1.434 4292798195
-0.26309377 0.033542566 1.4310001 4290889687
-0.25933516 0.033378486 1.424 4291020503
-0.25632238 0.033308167 1.4210001 4289835716
-0.25367731 0.033284724 1.4200001 4286480273
-0.25068191 0.033214405 1.4170001 4287071642
-0.24804722 0.033190966 1.416 4286742420
-0.24558946 0.033190966 1.416 4286808211
-0.24347514 0.033237845 1.4180001 4286808724
-0.24135384 0.033284724 1.4200001 4287927719
-0.23905738 0.033308167 1.4210001 4290165451
-0.23709045 0.033378486 1.424 4290560722
-0.23544262 0.033495687 1.429 4289574084
-0.23328835 0.033542566 1.4310001 4289705670
-0.23193358 0.033706646 1.4380001 4289705672
-0.2307141 0.033894163 1.4460001 4289771464
-0.26382917 0.036109764 1.4350001 4291876582
-0.2598815 0.035908453 1.427 4290954710
-0.25650275 0.035782639 1.4220001 4290757331
-0.25385594 0.035757471 1.4210001 4287532961
-0.25085881 0.035681982 1.4180001 4287597986
-0.24839757 0.035681982 1.4180001 4287334557
-0.24593636 0.035681982 1.4180001 4287269021
-0.24381854 0.035732307 1.4200001 4286940311
-0.24169376 0.035782639 1.4220001 4287730340
-0.23939386 0.0358078 1.4230001 4289508035
-0.23725694 0.035858128 1.4250001 4290889944
-0.23527785 0.035933618 1.4280001 4289442498
-0.23312533 0.035983942 1.4300001 4289442500
-0.23193358 0.036185253 1.4380001 4289245121
-0.26438072 0.038663864 1.4380001 4292600303
-0.26024574 0.03842188 1.429 4291020503
-0.25686353 0.038287442 1.424 4291086296
-0.25403458 0.038233668 1.4220001 4289572544
-0.2513895 0.038206778 1.4210001 4288650673
-0.24892309 0.038206778 1.4210001 4288979382
-0.2466301 0.038233668 1.4220001 4289045175
-0.24450536 0.038287442 1.424 4288980407
-0.24220368 0.038314331 1.4250001 4289572801
-0.23973031 0.038314331 1.4250001 4289836745
-0.23742343 0.038341217 1.4260001 4290955739
-0.23527785 0.038394991 1.4280001 4288916156
-0.23296231 0.03842188 1.429 4288982462
-0.23161101 0.038610086 1.4360001 4288719290
-0.26060998 0.040942196 1.4310001 4291415259
-0.2570439 0.040770531 1.4250001 4291086294
-0.25421324 0.040713307 1.4230001 4289704130
-0.25174335 0.040713307 1.4230001 4288979893
-0.24944863 0.04074192 1.424 4289243065
-0.24697699 0.04074192 1.424 4288716464
-0.24484876 0.040799145 1.4260001 4288256170
-0.24237365 0.040799145 1.4260001 4287927718
-0.23989855 0.040799145 1.4260001 4289704643
-0.23742343 0.040799145 1.4260001 4290297807
-0.23511308 0.040827751 1.427 4289245121
-0.23296231 0.040884975 1.429 4288456118
-0.25740466 0.0432874 1.427 4291217880
-0.25474918 0.043257069 1.4260001 4289244090
-0.25192025 0.043196399 1.424 4286809238
-0.24962379 0.043226734 1.4250001 4287072664
-0.24715042 0.043226734 1.4250001 4287006358
-0.24502045 0.0432874 1.427 4286875285
-0.24254361 0.0432874 1.427 4287072664
-0.24006677 0.0432874 1.427 4288915127
-0.23742343 0.043257069 1.4260001 4290232014
-0.23527785 0.043317735 1.4280001 4289771465
-0.23312533 0.043378405 1.4300001 4289179842
-0.25262788 0.045779109 1.4280001 4289704641
-0.25014931 0.045779109 1.4280001 4289704384
-0.24767072 0.045779109 1.4280001 4289572798
-0.70593023 0.068913996 1.3980001 4279903519
-0.7024973 0.068815403 1.396 4279837726
-0.7025817 0.069061883 1.401 4279771933
-0.70149088 0.071119592 1.3940001 4279837727
