# .PCD v0.7 - Point Cloud Data file format
VERSION 0.7
FIELDS x y z rgba
SIZE 4 4 4 4
TYPE F F F U
COUNT 1 1 1 1
WIDTH 898
HEIGHT 1
VIEWPOINT 0 0 0 1 0 0 0
POINTS 898
DATA ascii
-0.17074972 -0.031160032 1.3490001 4293323763
-0.16828342 -0.031136936 1.348 4293192691
-0.1656975 -0.031090736 1.3460001 4293192690
-0.16348262 -0.031113833 1.3470001 4293324276
-0.16126426 -0.031136936 1.348 4293389813
-0.16999029 -0.028706577 1.3430001 4293126382
-0.1675344 -0.028685203 1.342 4292797930
-0.16508198 -0.028663829 1.3410001 4292534502
-0.16275442 -0.028663829 1.3410001 4292007901
-0.20800361 -0.025900433 1.3180001 4287402391
-0.20571595 -0.025900433 1.3180001 4287468182
-0.20373701 -0.025939735 1.3200001 4289836730
-0.20220892 -0.026037991 1.325 4292863208
-0.20021088 -0.026077295 1.327 4293060587
-0.19850416 -0.0261559 1.3310001 4293192173
-0.19648875 -0.026195202 1.3330001 4293192173
-0.19432074 -0.026214853 1.3340001 4293257966
-0.19229318 -0.026254157 1.3360001 4293257966
-0.18983209 -0.026234506 1.335 4293061357
-0.18723401 -0.026195202 1.3330001 4293127150
-0.18450415 -0.026136247 1.33 4293060846
-0.18219568 -0.026136247 1.33 4292995053
-0.17988719 -0.026136247 1.33 4292929516
-0.17797926 -0.026195202 1.3330001 4292732137
-0.17606093 -0.026254157 1.3360001 4292600037
-0.17387208 -0.026273808 1.337 4292336864
-0.17155147 -0.026273808 1.337 4292271070
-0.16923083 -0.026273808 1.337 4292007899
-0.1669102 -0.026273808 1.337 4291810520
-0.16471267 -0.026293458 1.3380001 4291744727
-0.16251168 -0.026313111 1.3390001 4289507765
-0.16054647 -0.026372064 1.342 4286481287
-0.15821716 -0.026372064 1.342 4291810522
-0.21061037 -0.023664515 1.3200001 4293257968
-0.2070567 -0.023521096 1.312 4292007899
-0.20477946 -0.023521096 1.312 4291481555
-0.20296527 -0.023574878 1.3150001 4291284175
-0.20159848 -0.023682443 1.3210001 4291810520
-0.19990912 -0.023754153 1.325 4291942106
-0.19820589 -0.023825865 1.3290001 4292073691
-0.19589914 -0.023825865 1.3290001 4292139485
-0.19373806 -0.023843793 1.33 4292205278
-0.19142959 -0.023843793 1.33 4292139485
-0.18883671 -0.023807937 1.3280001 4292073692
-0.18611032 -0.023754153 1.325 4292007899
-0.18353309 -0.023718299 1.3230001 4292073692
-0.18123676 -0.023718299 1.3230001 4292007899
-0.17907567 -0.023736227 1.3240001 4292007899
-0.17717816 -0.023790011 1.327 4291876313
-0.17540203 -0.023861721 1.3310001 4291810520
-0.17322186 -0.023879649 1.332 4291810519
-0.17129484 -0.023933433 1.335 4291744726
-0.16923083 -0.023969287 1.337 4291810519
-0.16703504 -0.023987213 1.3380001 4291678933
-0.16495888 -0.024023071 1.34 4291744726
-0.16275442 -0.024040997 1.3410001 4289770936
-0.16066611 -0.024076853 1.3430001 4285625977
-0.15845296 -0.024094781 1.3440001 4291744727
-0.21061037 -0.021389298 1.3200001 4292665829
-0.2070567 -0.021259667 1.312 4292402657
-0.20493554 -0.021275871 1.3130001 4292139485
-0.20311961 -0.021324482 1.3160001 4292007898
-0.20159848 -0.021405501 1.3210001 4291876312
-0.19990912 -0.021470318 1.325 4291876312
-0.19820589 -0.021535134 1.3290001 4291810519
-0.19589914 -0.021535134 1.3290001 4291744980
-0.1935924 -0.021535134 1.3290001 4291810773
-0.19128565 -0.021535134 1.3290001 4291744726
-0.18869452 -0.021502726 1.327 4291744726
-0.18611032 -0.021470318 1.325 4291679189
-0.18353309 -0.021437909 1.3230001 4291876311
-0.18123676 -0.021437909 1.3230001 4291744982
-0.17907567 -0.021454114 1.3240001 4291876311
-0.17717816 -0.021502726 1.327 4291876311
-0.1755338 -0.021583747 1.332 4291810775
-0.1733519 -0.02159995 1.3330001 4291744725
-0.17142314 -0.021648562 1.3360001 4291810518
-0.16948397 -0.021697175 1.3390001 4291876568
-0.16728473 -0.02171338 1.34 4291810519
-0.16508198 -0.021729581 1.3410001 4291613140
-0.16275442 -0.021729581 1.3410001 4290692038
-0.16066611 -0.021761989 1.3430001 4287862939
-0.15845296 -0.021778194 1.3440001 4291613141
-0.20816141 -0.019099599 1.319 4292205277
-0.20587203 -0.019099599 1.319 4292402656
-0.20389134 -0.019128559 1.3210001 4292534242
-0.20236154 -0.019200962 1.3260001 4292402910
-0.20051263 -0.019244403 1.3290001 4292139738
-0.19865331 -0.019287843 1.332 4292073945
-0.19634135 -0.019287843 1.332 4292073945
-0.19402941 -0.019287843 1.332 4291942359
-0.19171746 -0.019287843 1.332 4291942359
-0.18912111 -0.019258883 1.33 4292008152
-0.18667217 -0.019244403 1.3290001 4292008152
-0.18422669 -0.019229922 1.3280001 4292008152
-0.18192169 -0.019229922 1.3280001 4291942359
-0.17975195 -0.019244403 1.3290001 4292008152
-0.17784575 -0.019287843 1.332 4291942359
-0.17619272 -0.019360246 1.337 4291876566
-0.17400213 -0.019374724 1.3380001 4291876566
-0.17206469 -0.019418167 1.3410001 4291942359
-0.17011686 -0.019461608 1.3440001 4291810774
-0.16790891 -0.01947609 1.345 4291744726
-0.1656975 -0.019490568 1.3460001 4291678933
-0.16323988 -0.01947609 1.345 4291678933
-0.161025 -0.019490568 1.3460001 4291613140
-0.15892453 -0.019519528 1.348 4291613141
-0.20973961 -0.016953671 1.3290001 4291810520
-0.20743287 -0.016953671 1.3290001 4291876312
-0.20512612 -0.016953671 1.3290001 4292007898
-0.2032772 -0.016991941 1.332 4292205531
-0.201267 -0.017017454 1.3340001 4292073945
-0.19924986 -0.017042968 1.3360001 4292139738
-0.19707838 -0.017055726 1.337 4292073945
-0.1949034 -0.017068481 1.3380001 4292073945
-0.19258104 -0.017068481 1.3380001 4292073945
-0.19011649 -0.017055726 1.337 4292008152
-0.18765539 -0.017042968 1.3360001 4292008152
-0.1853365 -0.017042968 1.3360001 4291876053
-0.1831546 -0.017055726 1.337 4291942103
-0.18083398 -0.017055726 1.337 4291744980
-0.17878038 -0.017081238 1.3390001 4291744980
-0.17685162 -0.017119508 1.342 4291679187
-0.17465237 -0.017132264 1.3430001 4291679188
-0.17270626 -0.017170535 1.3460001 4291744981
-0.17074972 -0.017208805 1.3490001 4291744981
-0.1685331 -0.017221563 1.35 4291810519
-0.16618991 -0.017221563 1.35 4291810519
-0.16372536 -0.017208805 1.3490001 4291876312
-0.1613839 -0.017208805 1.3490001 4291876312
-0.15916033 -0.017221563 1.35 4291810520
-0.15561821 -0.01734913 1.36 4293192173
-0.21037087 -0.014707072 1.3330001 4291744727
-0.20790111 -0.014696039 1.332 4291678933
-0.20558916 -0.014696039 1.332 4291678933
-0.20358244 -0.014718105 1.3340001 4291679187
-0.20141788 -0.014729138 1.335 4291679187
-0.19939901 -0.014751204 1.337 4291744726
-0.19737317 -0.01477327 1.3390001 4291810519
-0.19519475 -0.014784304 1.34 4291086796
-0.19301285 -0.014795336 1.3410001 4290889415
-0.19054309 -0.014784304 1.34 4290758085
-0.18807678 -0.01477327 1.3390001 4291547601
-0.18575267 -0.01477327 1.3390001 4291152330
-0.18356557 -0.014784304 1.34 4291152330
-0.18123974 -0.014784304 1.34 4290165948
-0.17904741 -0.014795336 1.3410001 4291284175
-0.17698342 -0.014817402 1.3430001 4291810519
-0.17478241 -0.014828435 1.3440001 4291942105
-0.17283456 -0.014861535 1.3470001 4292007898
-0.17087629 -0.014894634 1.35 4291876313
-0.16865794 -0.014905667 1.3510001 4291942105
-0.16631301 -0.014905667 1.3510001 4292007898
-0.16396809 -0.014905667 1.3510001 4292007898
-0.16150352 -0.014894634 1.35 4291942106
-0.15916033 -0.014894634 1.35 4292007899
-0.1551605 -0.014960832 1.3560001 4293126380
-0.20899367 -0.012465302 1.3390001 4291678934
-0.20651524 -0.012455993 1.3380001 4291744726
-0.20434548 -0.012465302 1.3390001 4291744726
-0.20217226 -0.012474611 1.34 4291744726
-0.20014469 -0.01249323 1.342 4291744726
-0.19811019 -0.012511849 1.3440001 4291678933
-0.19592308 -0.012521159 1.345 4289705144
-0.1937325 -0.012530467 1.3460001 4289310385
-0.19139625 -0.012530467 1.3460001 4289836984
-0.18906 -0.012530467 1.3460001 4291218637
-0.18672375 -0.012530467 1.3460001 4291020745
-0.1842505 -0.012521159 1.345 4291547089
-0.181916 -0.012521159 1.345 4291349968
-0.17971501 -0.012530467 1.3460001 4291678934
-0.17751053 -0.012539778 1.3470001 4291942105
-0.17530259 -0.012549087 1.348 4291942106
-0.17321949 -0.012567705 1.35 4291942106
-0.17125602 -0.012595634 1.353 4291810264
-0.16890763 -0.012595634 1.353 4291678934
-0.16655922 -0.012595634 1.353 4291876313
-0.16408946 -0.012586324 1.3520001 4291678934
-0.16174279 -0.012586324 1.3520001 4291876313
-0.15927823 -0.012577016 1.3510001 4292007899
-0.15538935 -0.012642181 1.358 4293060587
-0.21008626 -0.010210434 1.3460001 4291876313
-0.20728697 -0.010187677 1.3430001 4291810520
-0.20510852 -0.010195263 1.3440001 4291744726
-0.20292662 -0.010202848 1.345 4291876312
-0.20074126 -0.010210434 1.3460001 4291744727
-0.19840501 -0.010210434 1.3460001 4291678934
-0.19606875 -0.010210434 1.3460001 4291284176
-0.19387643 -0.010218021 1.3470001 4291613141
-0.19182284 -0.010233192 1.3490001 4291481555
-0.18948139 -0.010233192 1.3490001 4291613141
-0.18713993 -0.010233192 1.3490001 4291481555
-0.18479848 -0.010233192 1.3490001 4291349969
-0.18232176 -0.010225606 1.348 4291678934
-0.17998204 -0.010225606 1.348 4290823625
-0.1777741 -0.010233192 1.3490001 4291152590
-0.17543264 -0.010233192 1.3490001 4291021004
-0.17321949 -0.010240777 1.35 4290889162
-0.17112945 -0.01025595 1.3520001 4290823368
-0.16890763 -0.010263535 1.353 4290560453
-0.16655922 -0.010263535 1.353 4290560453
-0.16408946 -0.01025595 1.3520001 4290034109
-0.16174279 -0.01025595 1.3520001 4291415762
-0.15939614 -0.01025595 1.3520001 4291810520
-0.15584706 -0.010331807 1.3620001 4293060587
-0.21024233 -0.0078962632 1.3470001 4291942106
-0.20728697 -0.0078728152 1.3430001 4291876313
-0.20526114 -0.0078845387 1.345 4291284176
-0.20292662 -0.0078845387 1.345 4290099902
-0.20074126 -0.0078904005 1.3460001 4290626246
-0.19811019 -0.007878677 1.3440001 4290757832
-0.19563176 -0.0078728152 1.3430001 4290231488
-0.19344464 -0.007878677 1.3440001 4290692039
-0.19139625 -0.0078904005 1.3460001 4290231488
-0.18934092 -0.0079021249 1.348 4289770937
-0.18713993 -0.0079079876 1.3490001 4290099902
-0.18479848 -0.0079079876 1.3490001 4289902523
-0.18232176 -0.0079021249 1.348 4290231489
-0.17984852 -0.0078962632 1.3470001 4289770937
-0.17751053 -0.0078962632 1.3470001 4290231232
-0.17517255 -0.0078962632 1.3470001 4290362561
-0.17296287 -0.0079021249 1.348 4290428354
-0.17074972 -0.0079079876 1.3490001 4290428611
-0.1685331 -0.0079138493 1.35 4290297281
-0.16631301 -0.007919712 1.3510001 4290297281
-0.16396809 -0.007919712 1.3510001 4290363074
-0.16162315 -0.007919712 1.3510001 4291218383
-0.15927823 -0.007919712 1.3510001 4291613141
-0.15774643 -0.0079607461 1.358 4291744727
-0.15584706 -0.0079841949 1.3620001 4292929001
-0.21102275 -0.0055951984 1.3520001 4291942106
-0.20775001 -0.0055703674 1.3460001 4291876313
-0.20556636 -0.0055745058 1.3470001 4290626246
-0.20337924 -0.0055786446 1.348 4289178800
-0.20074126 -0.0055703674 1.3460001 4289770937
-0.1982576 -0.0055662286 1.345 4290428867
-0.19577742 -0.0055620903 1.3440001 4290297281
-0.19344464 -0.0055620903 1.3440001 4290363074
-0.19139625 -0.0055703674 1.3460001 4290494660
-0.18920046 -0.0055745058 1.3470001 4290231490
-0.18713993 -0.0055827829 1.3490001 4290297283
-0.18493545 -0.0055869212 1.35 4290560199
-0.18245701 -0.0055827829 1.3490001 4290494406
-0.17998204 -0.0055786446 1.348 4290165441
-0.17764232 -0.0055786446 1.348 4290297027
-0.17530259 -0.0055786446 1.348 4290428356
-0.17296287 -0.0055786446 1.348 4290362561
-0.17074972 -0.0055827829 1.3490001 4290494147
-0.1685331 -0.0055869212 1.35 4290296768
-0.16631301 -0.0055910596 1.3510001 4290297024
-0.16408946 -0.0055951984 1.3520001 4290297025
-0.16186243 -0.0055993367 1.353 4291152590
-0.1599856 -0.0056158905 1.3570001 4291613141
-0.15832724 -0.0056407209 1.363 4291744727
-0.15687688 -0.005673829 1.3710001 4292797415
-0.21102275 -0.0032648228 1.3520001 4292073692
-0.20759565 -0.003247919 1.345 4291810520
-0.20526114 -0.003247919 1.345 4291349969
-0.20307751 -0.0032503339 1.3460001 4290560453
-0.20074126 -0.0032503339 1.3460001 4290297281
-0.1982576 -0.003247919 1.345 4290626246
-0.19577742 -0.0032455043 1.3440001 4290626246
-0.19344464 -0.0032455043 1.3440001 4290494662
-0.19125405 -0.003247919 1.345 4290560455
-0.18906 -0.0032503339 1.3460001 4290363077
-0.1870012 -0.0032551636 1.348 4290363076
-0.18466148 -0.0032551636 1.348 4290231491
-0.18232176 -0.0032551636 1.348 4290363078
-0.17998204 -0.0032551636 1.348 4289902270
-0.17764232 -0.0032551636 1.348 4289902269
-0.17530259 -0.0032551636 1.348 4290231233
-0.17296287 -0.0032551636 1.348 4290230976
-0.17087629 -0.0032599932 1.35 4290230718
-0.1685331 -0.0032599932 1.35 4290230718
-0.16631301 -0.0032624078 1.3510001 4290757319
-0.16396809 -0.0032624078 1.3510001 4290954954
-0.16174279 -0.0032648228 1.3520001 4291218125
-0.15986772 -0.003274482 1.3560001 4291613141
-0.15844339 -0.0032938006 1.3640001 4291810520
-0.15687688 -0.0033107041 1.3710001 4292731622
-0.2113349 -0.00093582965 1.3540001 4292007899
-0.20759565 -0.00092960917 1.345 4291942106
-0.20526114 -0.00092960917 1.345 4291547348
-0.20307751 -0.00093030039 1.3460001 4290692039
-0.20089039 -0.00093099143 1.3470001 4290363074
-0.1985524 -0.00093099143 1.3470001 4290231488
-0.19621442 -0.00093099143 1.3470001 4290363074
-0.1937325 -0.00093030039 1.3460001 4290099902
-0.19139625 -0.00093030039 1.3460001 4290428868
-0.18906 -0.00093030039 1.3460001 4290165696
-0.1870012 -0.00093168265 1.348 4290099903
-0.18479848 -0.0009323738 1.3490001 4290099903
-0.18245701 -0.0009323738 1.3490001 4289836732
-0.18011557 -0.0009323738 1.3490001 4289705146
-0.1777741 -0.0009323738 1.3490001 4289639353
-0.17543264 -0.0009323738 1.3490001 4289705145
-0.17321949 -0.0009330649 1.35 4290034109
-0.17100286 -0.00093375606 1.3510001 4289967803
-0.16865794 -0.00093375606 1.3510001 4290099389
-0.16643612 -0.00093444728 1.3520001 4289967802
-0.1643322 -0.00093582965 1.3540001 4290033851
-0.1621017 -0.00093652075 1.355 4290823624
-0.16010351 -0.00093859417 1.358 4291547347
-0.15844339 -0.00094274117 1.3640001 4291810520
-0.15664804 -0.00094619702 1.3690001 4292665830
-0.21195924 0.0014021231 1.358 4292073692
-0.20790435 0.0013907658 1.3470001 4291942106
-0.20541376 0.0013897332 1.3460001 4291744727
-0.20322837 0.0013907658 1.3470001 4290297281
-0.20118867 0.0013928306 1.3490001 4290034109
-0.19884722 0.0013928306 1.3490001 4290165695
-0.19665141 0.0013938632 1.35 4289968316
-0.19416431 0.0013928306 1.3490001 4289639351
-0.19168064 0.0013917983 1.348 4290363074
-0.18934092 0.0013917983 1.348 4290165695
-0.18727864 0.0013938632 1.35 4290034109
-0.18507244 0.0013948957 1.3510001 4289968316
-0.18286277 0.0013959282 1.3520001 4290099902
-0.18051611 0.0013959282 1.3520001 4289573558
-0.17803766 0.0013948957 1.3510001 4290034109
-0.17569272 0.0013948957 1.3510001 4289836730
-0.17321949 0.0013938632 1.35 4289968316
-0.17100286 0.0013948957 1.3510001 4290099902
-0.16878279 0.0013959282 1.3520001 4290165695
-0.16668232 0.0013979931 1.3540001 4290165695
-0.16457494 0.0014000582 1.3560001 4290363074
-0.16234095 0.0014010906 1.3570001 4291152590
-0.16033931 0.0014041881 1.36 4291547348
-0.15879188 0.0014114155 1.3670001 4291744727
-0.15722016 0.001418643 1.3740001 4292534243
-0.21227141 0.0037483529 1.36 4291942106
-0.20805869 0.003715279 1.348 4292007899
-0.20556636 0.003712523 1.3470001 4291810520
-0.20337924 0.003715279 1.348 4290692039
-0.20118867 0.0037180353 1.3490001 4290165695
-0.19899461 0.0037207911 1.35 4289836730
-0.19665141 0.0037207911 1.35 4289836730
-0.19416431 0.0037180353 1.3490001 4289770937
-0.19168064 0.003715279 1.348 4290231488
-0.18934092 0.003715279 1.348 4290757832
-0.18713993 0.0037180353 1.3490001 4291021004
-0.18507244 0.0037235476 1.3510001 4290889418
-0.18272752 0.0037235476 1.3510001 4291152334
-0.18051611 0.0037263033 1.3520001 4291218126
-0.17790587 0.0037207911 1.35 4291349969
-0.17556268 0.0037207911 1.35 4291086540
-0.17321949 0.0037207911 1.35 4291218126
-0.17087629 0.0037207911 1.35 4291020748
-0.16865794 0.0037235476 1.3510001 4290955211
-0.16668232 0.0037318161 1.3540001 4291086797
-0.16457494 0.0037373283 1.3560001 4291086797
-0.16222133 0.0037373283 1.3560001 4291284176
-0.16033931 0.0037483529 1.36 4291547348
-0.15855956 0.0037621337 1.365 4291613141
-0.15676245 0.0037759144 1.3700001 4292534243
-0.21242748 0.0060969973 1.3610001 4292139485
-0.20960216 0.0060835578 1.358 4292007899
-0.20602418 0.0060477192 1.35 4291810520
-0.20368099 0.0060477192 1.35 4291218383
-0.20148695 0.0060521993 1.3510001 4289968316
-0.19928943 0.0060566789 1.3520001 4289770937
-0.19694276 0.0060566789 1.3520001 4289836730
-0.19445215 0.0060521993 1.3510001 4289441972
-0.19196503 0.0060477192 1.35 4289639351
-0.18962184 0.0060477192 1.35 4290692039
-0.18741737 0.0060521993 1.3510001 4290757832
-0.18520944 0.0060566789 1.3520001 4290691782
-0.18299803 0.0060611591 1.353 4290428354
-0.18051611 0.0060566789 1.3520001 4290559683
-0.17790587 0.0060477192 1.35 4290362304
-0.17556268 0.0060477192 1.35 4290033339
-0.17321949 0.0060477192 1.35 4289967803
-0.17100286 0.0060521993 1.3510001 4289968059
-0.16865794 0.0060521993 1.3510001 4289573814
-0.16668232 0.0060656387 1.3540001 4289968573
-0.16457494 0.0060745985 1.3560001 4290034365
-0.16234095 0.0060790777 1.3570001 4290231488
-0.16045721 0.0060969973 1.3610001 4291481812
-0.21242748 0.0084428852 1.3610001 4292139485
-0.20960216 0.0084242756 1.358 4292073692
-0.20648202 0.0083932579 1.353 4292007386
-0.20413363 0.0083932579 1.353 4291217870
-0.20178522 0.0083932579 1.353 4289704631
-0.19958422 0.0083994614 1.3540001 4289375922
-0.19723409 0.0083994614 1.3540001 4289705144
-0.19474003 0.0083932579 1.353 4289441972
-0.19224943 0.0083870543 1.3520001 4289770937
-0.19004323 0.0083932579 1.353 4289705144
-0.18769482 0.0083932579 1.353 4289902523
-0.18534642 0.0083932579 1.353 4289836474
-0.18313327 0.0083994614 1.3540001 4289967546
-0.18064962 0.0083932579 1.353 4290098875
-0.17816944 0.0083870543 1.3520001 4289901496
-0.17582278 0.0083870543 1.3520001 4289967033
-0.1733478 0.0083808508 1.3510001 4290032825
-0.17112945 0.0083870543 1.3520001 4289967546
-0.16890763 0.0083932579 1.353 4290165182
-0.16680543 0.0084056649 1.355 4290231488
-0.16469629 0.008418072 1.3570001 4289968060
-0.1624606 0.0084242756 1.358 4290297281
-0.16057509 0.0084490888 1.3620001 4291482068
-0.20648202 0.010725357 1.353 4292007386
-0.20413363 0.010725357 1.353 4290559940
-0.20178522 0.010725357 1.353 4290362561
-0.19943683 0.010725357 1.353 4289967803
-0.19708842 0.010725357 1.353 4289836217
-0.1945961 0.01071743 1.3520001 4289770937
-0.19224943 0.01071743 1.3520001 4289836730
-0.18976229 0.010709503 1.3510001 4289836730
-0.18741737 0.010709503 1.3510001 4289836730
-0.18520944 0.01071743 1.3520001 4290034109
-0.18299803 0.010725357 1.353 4290033596
-0.18078314 0.010733284 1.3540001 4290230718
-0.17830123 0.010725357 1.353 4290295997
-0.17595282 0.010725357 1.353 4290493120
-0.17360443 0.010725357 1.353 4290361277
-0.17125602 0.010725357 1.353 4290361534
-0.16890763 0.010725357 1.353 4290559683
-0.16680543 0.010741211 1.355 4290165438
-0.16469629 0.010757065 1.3570001 4290033852
-0.1624606 0.010764993 1.358 4290362561
-0.160693 0.010804628 1.363 4291416021
-0.2077029 0.013134662 1.3610001 4291942106
-0.20443538 0.013076758 1.355 4290494147
-0.20193435 0.013067107 1.3540001 4290428354
-0.19958422 0.013067107 1.3540001 4290099389
-0.19723409 0.013067107 1.3540001 4289967803
-0.1945961 0.013047805 1.3520001 4289902010
-0.19224943 0.013047805 1.3520001 4290034109
-0.18990277 0.013047805 1.3520001 4289770938
-0.1875561 0.013047805 1.3520001 4289968318
-0.18534642 0.013057456 1.353 4289968318
-0.18313327 0.013067107 1.3540001 4289902525
-0.18091667 0.013076758 1.355 4290099391
-0.17856479 0.013076758 1.355 4290296512
-0.17621292 0.013076758 1.355 4290624962
-0.17386106 0.013076758 1.355 4290361534
-0.17150918 0.013076758 1.355 4290361534
-0.16928214 0.013086408 1.3560001 4290033082
-0.16705163 0.013096059 1.3570001 4290165182
-0.16506042 0.013125011 1.36 4290033596
-0.16281949 0.013134662 1.3610001 4290099390
-0.16116458 0.013192567 1.3670001 4291349971
-0.20800814 0.015503298 1.363 4292139999
-0.20473711 0.015435053 1.3570001 4290955212
-0.20223264 0.015423679 1.3560001 4290033596
-0.19958422 0.01540093 1.3540001 4290033596
-0.19723409 0.01540093 1.3540001 4290099646
-0.19488396 0.01540093 1.3540001 4289968061
-0.19239162 0.015389556 1.353 4289968317
-0.19018368 0.01540093 1.3540001 4289639352
-0.18783355 0.01540093 1.3540001 4289573560
-0.18562041 0.015412304 1.355 4289639354
-0.18340379 0.015423679 1.3560001 4289573304
-0.1811837 0.015435053 1.3570001 4289968318
-0.17882834 0.015435053 1.3570001 4289968061
-0.17647301 0.015435053 1.3570001 4290164926
-0.17411767 0.015435053 1.3570001 4290164668
-0.17176232 0.015435053 1.3570001 4290164412
-0.16953182 0.015446426 1.358 4290033082
-0.16742095 0.015469176 1.36 4290033339
-0.16542451 0.015503298 1.363 4289967803
-0.16329801 0.015526048 1.365 4289902267
-0.16163616 0.015594295 1.3710001 4291152592
-0.20861857 0.017905027 1.3670001 4292271071
-0.20458625 0.017760949 1.3560001 4291284177
-0.20193435 0.017734753 1.3540001 4290165441
-0.19958422 0.017734753 1.3540001 4289638840
-0.19723409 0.017734753 1.3540001 4290033855
-0.19488396 0.017734753 1.3540001 4289968318
-0.19253382 0.017734753 1.3540001 4290034111
-0.19018368 0.017734753 1.3540001 4289705146
-0.18783355 0.017734753 1.3540001 4289441974
-0.18548341 0.017734753 1.3540001 4289770939
-0.18326853 0.017747849 1.355 4289836477
-0.1811837 0.017774047 1.3570001 4289968064
-0.17896014 0.017787144 1.358 4289704892
-0.17660306 0.017787144 1.358 4289836219
-0.17424598 0.017787144 1.358 4290099134
-0.1718889 0.017787144 1.358 4290164926
-0.16953182 0.017787144 1.358 4290164925
-0.16742095 0.01781334 1.36 4289967803
-0.16554588 0.017865732 1.3640001 4290033597
-0.16341765 0.01789193 1.3660001 4290428611
-0.16175407 0.017970517 1.3720001 4291284178
-0.20473711 0.02011304 1.3570001 4291415764
-0.20208351 0.020083396 1.355 4290231490
-0.19958422 0.020068575 1.3540001 4289771196
-0.19737977 0.020083396 1.355 4290231490
-0.19502789 0.020083396 1.355 4290099904
-0.19267602 0.020083396 1.355 4290165697
-0.19018368 0.020068575 1.3540001 4290034111
-0.18783355 0.020068575 1.3540001 4289902525
-0.18548341 0.020068575 1.3540001 4290034112
-0.18326853 0.020083396 1.355 4289968064
-0.18105018 0.020098219 1.3560001 4290033857
-0.17909192 0.020142684 1.3590001 4290099650
-0.17673311 0.020142684 1.3590001 4289902271
-0.17450261 0.020157505 1.36 4289968064
-0.17214206 0.020157505 1.36 4290165442
-0.16978151 0.020157505 1.36 4290296770
-0.16766715 0.020187149 1.3620001 4289967805
-0.16578862 0.020246437 1.3660001 4289770426
-0.16365691 0.020276079 1.368 4290099904
-0.16222565 0.020394653 1.376 4291284178
-0.20503888 0.022485126 1.3590001 4291482328
-0.20223264 0.02243549 1.3560001 4290495433
-0.19973163 0.022418942 1.355 4290034627
-0.19737977 0.022418942 1.355 4289837505
-0.19502789 0.022418942 1.355 4289968834
-0.19267602 0.022418942 1.355 4290033857
-0.19032414 0.022418942 1.355 4289968063
-0.18797228 0.022418942 1.355 4289902525
-0.18562041 0.022418942 1.355 4289836476
-0.18326853 0.022418942 1.355 4289441719
-0.18105018 0.02243549 1.3560001 4289638842
-0.17909192 0.022485126 1.3590001 4289573306
-0.17673311 0.022485126 1.3590001 4289639099
-0.17450261 0.02250167 1.36 4289375927
-0.1723952 0.022534762 1.3620001 4289507512
-0.16990635 0.022518216 1.3610001 4289770939
-0.16791336 0.022567851 1.3640001 4289639353
-0.16603135 0.022634031 1.368 4289441974
-0.16413544 0.022700215 1.3720001 4289705146
-0.16269723 0.022832576 1.3800001 4291152592
-0.20534062 0.024864104 1.3610001 4291614172
-0.20238177 0.024791028 1.3570001 4290232519
-0.19973163 0.024754489 1.355 4289311674
-0.19737977 0.024754489 1.355 4289180088
-0.19502789 0.024754489 1.355 4289837247
-0.19253382 0.02473622 1.3540001 4289639355
-0.19018368 0.02473622 1.3540001 4289573048
-0.18783355 0.02473622 1.3540001 4289836219
-0.18548341 0.02473622 1.3540001 4289835706
-0.18299803 0.024717953 1.353 4289638583
-0.18091667 0.024754489 1.355 4289638584
-0.17896014 0.024809295 1.358 4289770171
-0.17673311 0.024827566 1.3590001 4289967807
-0.17450261 0.024845835 1.36 4289705149
-0.17226863 0.024864104 1.3610001 4289441977
-0.16990635 0.024864104 1.3610001 4289573306
-0.16779026 0.024900641 1.363 4289836733
-0.16603135 0.024991985 1.368 4290033855
-0.1640158 0.025046794 1.3710001 4289639353
-0.16281514 0.025229482 1.381 4290823627
-0.20654763 0.027369933 1.3690001 4291482586
-0.20268005 0.027170006 1.3590001 4290035398
-0.19987904 0.027110029 1.3560001 4289640641
-0.19737977 0.027090035 1.355 4289640641
-0.19488396 0.027070044 1.3540001 4289771712
-0.19253382 0.027070044 1.3540001 4289639613
-0.19018368 0.027070044 1.3540001 4289704891
-0.18769482 0.027050052 1.353 4289836219
-0.18534642 0.027050052 1.353 4289967549
-0.18299803 0.027050052 1.353 4289967035
-0.18078314 0.027070044 1.3540001 4289967035
-0.17882834 0.027130021 1.3570001 4289704120
-0.17660306 0.027150013 1.358 4289967551
-0.17450261 0.02719 1.36 4289507513
-0.17226863 0.027209993 1.3610001 4289441720
-0.17003118 0.027229985 1.3620001 4289573306
-0.16803646 0.027289962 1.365 4289836478
-0.16627409 0.027389925 1.3700001 4289902526
-0.16425507 0.027449904 1.373 4289968318
-0.16293302 0.027629837 1.3820001 4291021006
-0.20700026 0.02979476 1.3720001 4291548380
-0.20297834 0.02955588 1.3610001 4290232521
-0.20002644 0.029469017 1.3570001 4289640641
-0.19752543 0.029447298 1.3560001 4289640641
-0.19502789 0.029425582 1.355 4289706434
-0.19253382 0.029403865 1.3540001 4289574334
-0.19018368 0.029403865 1.3540001 4289771199
-0.18783355 0.029403865 1.3540001 4289770683
-0.18534642 0.029382151 1.353 4289967805
-0.18313327 0.029403865 1.3540001 4290098878
-0.18091667 0.029425582 1.355 4290032828
-0.17869657 0.029447298 1.3560001 4289967035
-0.17647301 0.029469017 1.3570001 4290164671
-0.17437428 0.029512448 1.3590001 4289441462
-0.1723952 0.029577596 1.3620001 4289507256
-0.17015603 0.029599315 1.363 4289639098
-0.16815957 0.029664462 1.3660001 4289902525
-0.16639544 0.029773042 1.3710001 4289968318
-0.16437469 0.029838191 1.3740001 4290034111
-0.16316882 0.030055353 1.3840001 4291086799
-0.20775461 0.032276805 1.3770001 4291614174
-0.20327662 0.031948648 1.363 4290298314
-0.20017384 0.031831447 1.358 4289640641
-0.19767109 0.031808011 1.3570001 4289574848
-0.19502789 0.031761128 1.355 4289706434
-0.19267602 0.031761128 1.355 4289574334
-0.19004323 0.031714249 1.353 4289639870
-0.18769482 0.031714249 1.353 4289705148
-0.18534642 0.031714249 1.353 4289902269
-0.18313327 0.031737689 1.3540001 4289967547
-0.18091667 0.031761128 1.355 4289835703
-0.17869657 0.031784568 1.3560001 4289901496
-0.17634296 0.031784568 1.3560001 4290033340
-0.17424598 0.031831447 1.358 4289704633
-0.17226863 0.031901769 1.3610001 4289573303
-0.17003118 0.031925209 1.3620001 4289705145
-0.16828267 0.032042406 1.3670001 4289836731
-0.16663818 0.032183047 1.373 4290165695
-0.16449434 0.032229926 1.3750001 4290297281
-0.16328672 0.032464329 1.3850001 4291152590
-0.20805638 0.034700602 1.3790001 4291811553
-0.20372404 0.034373477 1.3660001 4291153623
-0.20046866 0.034222495 1.36 4290495693
-0.19796243 0.03419733 1.3590001 4289640127
-0.19531575 0.034147006 1.3570001 4289508541
-0.19267602 0.034096673 1.355 4289508284
-0.19032414 0.034096673 1.355 4289705149
-0.18783355 0.034071509 1.3540001 4289639355
-0.18548341 0.034071509 1.3540001 4290099392
-0.18326853 0.034096673 1.355 4290428355
-0.18091667 0.034096673 1.355 4290296512
-0.17869657 0.034121841 1.3560001 4290296512
-0.17634296 0.034121841 1.3560001 4290033597
-0.17424598 0.034172166 1.358 4290362818
-0.17226863 0.034247655 1.3610001 4290428611
-0.17015603 0.034297984 1.363 4290692039
-0.16840577 0.034423802 1.368 4290889418
-0.16675955 0.034574784 1.3740001 4291152590
-0.1647336 0.034650274 1.3770001 4291152590
-0.16352251 0.03490191 1.3870001 4291415763
-0.20775461 0.037023738 1.3770001 4291877346
-0.20491715 0.036943078 1.3740001 4291351002
-0.20076345 0.036620431 1.3620001 4290429387
-0.19796243 0.036539771 1.3590001 4289836994
-0.19531575 0.036485996 1.3570001 4290034372
-0.19296041 0.036485996 1.3570001 4289770686
-0.1904646 0.036459111 1.3560001 4290165443
-0.18797228 0.036432222 1.355 4290823116
-0.18562041 0.036432222 1.355 4291152081
-0.18340379 0.036459111 1.3560001 4291349460
-0.18105018 0.036459111 1.3560001 4291283922
-0.17882834 0.036485996 1.3570001 4291415507
-0.17647301 0.036485996 1.3570001 4291218128
-0.17437428 0.036539771 1.3590001 4290955470
-0.1723952 0.036620431 1.3620001 4290955212
-0.17028086 0.036674205 1.3640001 4290955211
-0.16852888 0.036808643 1.3690001 4291021004
-0.16700229 0.036996856 1.376 4290889418
-0.16497287 0.037077516 1.3790001 4290428867
-0.16364041 0.0373195 1.388 4290955213
-0.20135307 0.03908249 1.3660001 4290758096
-0.19839942 0.038968045 1.3620001 4290165445
-0.19574755 0.038910825 1.36 4290494154
-0.1932448 0.038882211 1.3590001 4290362310
-0.19074553 0.038853601 1.358 4290625480
-0.18838845 0.038853601 1.358 4290823117
-0.18589437 0.03882499 1.3570001 4290757581
-0.18353903 0.03882499 1.3570001 4290494152
-0.18131723 0.038853601 1.358 4290362823
-0.17896014 0.038853601 1.358 4289968065
-0.17673311 0.038882211 1.3590001 4290362822
-0.17463091 0.038939431 1.3610001 4290363078
-0.17252178 0.038996655 1.363 4290034113
-0.17028086 0.039025266 1.3640001 4290034368
-0.16865198 0.039196935 1.3700001 4290297282
-0.16700229 0.0393686 1.376 4290428868
-0.16497287 0.03945443 1.3790001 4290626247
-0.16375829 0.03974054 1.3890001 4291152592
-0.20150048 0.041467328 1.3670001 4290757840
-0.19883643 0.041406661 1.365 4290297032
-0.19617935 0.041345991 1.363 4290296518
-0.19367139 0.041315656 1.3620001 4290033089
-0.19116691 0.041285321 1.3610001 4290230211
-0.18880463 0.041285321 1.3610001 4290098882
-0.18644235 0.041285321 1.3610001 4290428104
-0.18408005 0.041285321 1.3610001 4289704382
-0.18171777 0.041285321 1.3610001 4288915636
-0.17948726 0.041315656 1.3620001 4289047222
-0.17725329 0.041345991 1.363 4289705409
-0.17514415 0.041406661 1.365 4289968837
-0.17302808 0.041467328 1.3670001 4290100423
-0.17065538 0.041467328 1.3670001 4290429644
-0.16877508 0.041588668 1.3710001 4290692815
-0.16712366 0.041770674 1.3770001 4291021265
-0.16521214 0.041892011 1.381 4291087056
-0.16364041 0.042104356 1.388 4291087057
-0.20194268 0.043919735 1.3700001 4290823633
-0.19927344 0.043855619 1.368 4290099653
-0.19646721 0.043759443 1.365 4289835967
-0.19381359 0.043695327 1.363 4289901503
-0.19130737 0.043663267 1.3620001 4290032832
-0.18894334 0.043663267 1.3620001 4290098882
-0.18657933 0.043663267 1.3620001 4289572539
-0.18421531 0.043663267 1.3620001 4289112245
-0.18185128 0.043663267 1.3620001 4289178810
-0.17961906 0.043695327 1.363 4289245117
-0.17751338 0.043759443 1.365 4289639876
-0.17514415 0.043759443 1.365 4289969097
-0.17302808 0.043823559 1.3670001 4289837768
-0.17078021 0.043855619 1.368 4290035146
-0.1688982 0.043983851 1.3720001 4290890198
-0.16724503 0.044176199 1.378 4290692559
-0.16533177 0.044304434 1.3820001 4289771457
-0.16422988 0.044657074 1.393 4290232007
-0.2022375 0.046348698 1.3720001 4290954962
-0.19941911 0.046247352 1.3690001 4290033604
-0.19661115 0.046146009 1.3660001 4289309881
-0.19395579 0.046078444 1.3640001 4289704381
-0.19144784 0.046044663 1.363 4289967296
-0.18908209 0.046044663 1.363 4289967297
-0.18671632 0.046044663 1.363 4289967811
-0.18421531 0.046010882 1.3620001 4290099398
-0.18198481 0.046044663 1.363 4289573826
-0.17961906 0.046044663 1.363 4289047483
-0.17738333 0.046078444 1.3640001 4288784568
-0.17527246 0.046146009 1.3660001 4288850876
-0.17315465 0.046213571 1.368 4288587704
-0.17090507 0.046247352 1.3690001 4289048254
-0.1688982 0.046348698 1.3720001 4289508546
-0.1673664 0.046585172 1.3790001 4289376701
-0.16557103 0.046754081 1.3840001 4288850100
-0.20238489 0.048749056 1.373 4291152857
-0.19956477 0.048642538 1.3700001 4291613152
-0.19675508 0.048536018 1.3670001 4291941860
-0.19409798 0.04846501 1.365 4292073190
-0.1915883 0.0484295 1.3640001 4291941347
-0.18908209 0.048393998 1.363 4291941604
-0.18671632 0.048393998 1.363 4291810018
-0.18421531 0.048358493 1.3620001 4291547617
-0.18185128 0.048358493 1.3620001 4290824151
-0.17961906 0.048393998 1.363 4289047997
-0.17751338 0.04846501 1.365 4288258739
-0.17527246 0.048500516 1.3660001 4288390325
-0.17315465 0.048571523 1.368 4288785084
-0.17090507 0.048607033 1.3690001 4288785083
-0.16902129 0.048749056 1.373 4289047997
-0.16748776 0.048997592 1.3800001 4288981690
-0.16569066 0.049175117 1.3850001 4288981688
-0.20253229 0.051152851 1.3740001 4290692307
-0.19985612 0.051078394 1.3720001 4288915897
-0.19675508 0.050892249 1.3670001 4288850104
-0.19409798 0.050817791 1.365 4289442241
-0.1915883 0.050780561 1.3640001 4289573827
-0.18908209 0.050743334 1.363 4289376448
-0.18657933 0.050706103 1.3620001 4289179326
-0.18421531 0.050706103 1.3620001 4290232014
-0.18185128 0.050706103 1.3620001 4290693078
-0.17961906 0.050743334 1.363 4289048254
-0.17738333 0.050780561 1.3640001 4288324532
-0.17514415 0.050817791 1.365 4288455862
-0.17315465 0.050929479 1.368 4288785084
-0.17090507 0.05096671 1.3690001 4288719035
-0.16902129 0.051115625 1.373 4288652984
-0.16760914 0.051413458 1.381 4289179328
-0.16569066 0.051562376 1.3850001 4289705412
-0.20000178 0.053482197 1.373 4287665830
-0.196899 0.053287432 1.368 4286087055
-0.19409798 0.053170573 1.365 4286415763
-0.19144784 0.05309267 1.363 4286613142
-0.18894334 0.053053714 1.3620001 4286284177
-0.18657933 0.053053714 1.3620001 4286942107
-0.18421531 0.053053714 1.3620001 4289442498
-0.18185128 0.053053714 1.3620001 4290166477
-0.17961906 0.05309267 1.363 4289443012
-0.17725329 0.05309267 1.363 4288587703
-0.17514415 0.053170573 1.365 4288850877
-0.17302808 0.05324848 1.3670001 4289508551
-0.17090507 0.053326387 1.3690001 4289508552
-0.16902129 0.053482197 1.373 4289837260
-0.16748776 0.05375487 1.3800001 4290166223
-0.16569066 0.053949632 1.3850001 4289047740
-0.20014745 0.055889443 1.3740001 4288981691
-0.19675508 0.055604707 1.3670001 4286284434
-0.19409798 0.055523358 1.365 4285889676
-0.1915883 0.055482678 1.3640001 4285889421
-0.18908209 0.055442005 1.363 4285560456
-0.18671632 0.055442005 1.363 4285889677
-0.18435057 0.055442005 1.363 4289639878
-0.18198481 0.055442005 1.363 4290363600
-0.17975083 0.055482678 1.3640001 4290232270
-0.17738333 0.055482678 1.3640001 4289903562
-0.17527246 0.055564035 1.3660001 4289771977
-0.17315465 0.055645388 1.368 4289508805
-0.1710299 0.055726741 1.3700001 4289574344
-0.16914439 0.055889443 1.3740001 4289705673
-0.16760914 0.056174181 1.381 4288916156
-0.16569066 0.056336887 1.3850001 4288389554
-0.20014745 0.058257744 1.3740001 4290626774
-0.196899 0.058003344 1.368 4289376708
-0.19395579 0.057833739 1.3640001 4288850365
-0.19144784 0.057791341 1.363 4288652987
-0.18908209 0.057791341 1.363 4288521401
-0.1868533 0.057833739 1.3640001 4288784571
-0.18462107 0.057876144 1.365 4290166223
-0.18225184 0.057876144 1.365 4290429394
-0.17988262 0.057876144 1.365 4290100429
-0.17751338 0.057876144 1.365 4289705926
-0.17527246 0.057918541 1.3660001 4289508804
-0.17328124 0.058045741 1.3690001 4289706184
-0.1710299 0.058088139 1.3700001 4289969101
-0.16926751 0.058300141 1.3750001 4290232017
-0.16760914 0.058554541 1.381 4288718520
-0.16569066 0.058724146 1.3850001 4287929003
-0.20043878 0.060714282 1.376 4290495187
-0.19704294 0.060405418 1.3690001 4287337124
-0.19424018 0.060273048 1.3660001 4287534248
-0.1915883 0.060184799 1.3640001 4287862958
-0.18935952 0.060228925 1.365 4287665836
-0.18712729 0.060273048 1.3660001 4287665835
-0.18489158 0.06031717 1.3670001 4289639623
-0.18251887 0.06031717 1.3670001 4290231503
-0.1800144 0.060273048 1.3660001 4290494931
-0.17764343 0.060273048 1.3660001 4290363344
-0.17527246 0.060273048 1.3660001 4290297808
-0.17328124 0.060405418 1.3690001 4290232015
-0.17115474 0.060493667 1.3710001 4289903052
-0.16926751 0.06067016 1.3750001 4289903052
-0.1677305 0.060979024 1.3820001 4289639880
-0.16557103 0.061067272 1.3840001 4288126638
-0.20087579 0.063223571 1.3790001 4291021531
-0.1973308 0.062856793 1.3710001 4287073953
-0.19438237 0.062673397 1.3670001 4286547096
-0.19200967 0.062673397 1.3670001 4286810269
-0.18949826 0.062627554 1.3660001 4286678684
-0.18726428 0.062673397 1.3670001 4286415511
-0.18502682 0.062719248 1.368 4288323250
-0.18265238 0.062719248 1.368 4290033867
-0.18014617 0.062673397 1.3670001 4290231246
-0.17777348 0.062673397 1.3670001 4289770952
-0.17540078 0.062673397 1.3670001 4289573829
-0.17328124 0.062765099 1.3690001 4289639879
-0.17115474 0.062856793 1.3710001 4289245122
-0.16926751 0.063040182 1.3750001 4289903052
-0.16760914 0.063315265 1.381 4290034637
-0.16569066 0.063498661 1.3850001 4288389811
-0.20233245 0.066076197 1.3890001 4291284702
-0.19790654 0.065410197 1.3750001 4288324019
-0.19495116 0.065219916 1.3710001 4286678938
-0.19243106 0.065172344 1.3700001 4286612890
-0.18991444 0.065124772 1.3690001 4286481305
-0.18753827 0.065124772 1.3690001 4286547097
-0.18529734 0.065172344 1.3700001 4287599271
-0.18278591 0.065124772 1.3690001 4290296783
-0.18014617 0.065029629 1.3670001 4290165196
-0.17764343 0.064982064 1.3660001 4288718264
-0.17527246 0.064982064 1.3660001 4288389299
-0.17302808 0.065029629 1.3670001 4288849850
-0.17090507 0.065124772 1.3690001 4288850107
-0.16926751 0.065410197 1.3750001 4289902794
-0.1677305 0.065743193 1.3820001 4290165966
-0.16581029 0.065933481 1.386 4289968586
-0.19833833 0.067928106 1.378 4289442500
-0.19537774 0.067730926 1.3740001 4287139489
-0.19285244 0.067681625 1.373 4287007648
-0.19033061 0.067632332 1.3720001 4286876062
-0.18767524 0.067533746 1.3700001 4286810012
-0.18529734 0.067533746 1.3700001 4287862443
-0.18265238 0.06743516 1.368 4289638596
-0.18014617 0.06738586 1.3670001 4290428368
-0.17751338 0.067287274 1.365 4289441473
-0.17527246 0.067336567 1.3660001 4289178815
-0.17315465 0.06743516 1.368 4289376194
-0.1710299 0.067533746 1.3700001 4289507780
-0.16926751 0.067780219 1.3750001 4290099917
-0.1677305 0.068125278 1.3820001 4290429137
-0.19862619 0.070405334 1.3800001 4290429392
-0.19566214 0.070201255 1.376 4289310399
-0.19313337 0.070150241 1.3750001 4288783799
-0.19046932 0.070048198 1.373 4288257198
-0.18781222 0.06994617 1.3710001 4288125612
-0.18543258 0.06994617 1.3710001 4288520371
-0.18265238 0.069793113 1.368 4289704644
-0.18014617 0.069742091 1.3670001 4290559954
-0.17777348 0.069742091 1.3670001 4289376193
-0.17552908 0.069793113 1.368 4289047229
-0.17340781 0.069895148 1.3700001 4288784057
-0.17127958 0.069997184 1.3720001 4288981436
-0.1693906 0.070201255 1.376 4289836745
-0.19594654 0.072678484 1.378 4287797158
-0.19341427 0.072625741 1.3770001 4288257196
-0.19060804 0.072467521 1.3740001 4288783540
-0.18781222 0.072309293 1.3710001 4288783284
-0.18529734 0.072256543 1.3700001 4288915126
-0.18265238 0.072151065 1.368 4290099143
-0.18027796 0.072151065 1.368 4290823124
-0.17790352 0.072151065 1.368 4289113020
-0.17578571 0.072256543 1.3700001 4288849850
-0.17378753 0.072414771 1.373 4288849851
-0.17152925 0.072467521 1.3740001 4288652728
-0.16963682 0.072678484 1.378 4288126384
-0.19046932 0.074781343 1.373 4287072920
-0.18767524 0.074617945 1.3700001 4286743955
-0.18502682 0.074509017 1.368 4287270299
-0.18265238 0.074509017 1.368 4289441212
-0.18027796 0.074509017 1.368 4290494158
-0.17803358 0.074563481 1.3690001 4288718261
-0.17604233 0.07472688 1.3720001 4288257712
-0.17404068 0.074890278 1.3750001 4288389300
-0.18767524 0.076979347 1.3700001 4288718000
-0.18516208 0.076923162 1.3690001 4288586416
-0.18265238 0.076866977 1.368 4289309883
-0.18040974 0.076923162 1.3690001 4290692051
-0.17816362 0.076979347 1.3700001 4289310399
