# .PCD v0.7 - Point Cloud Data file format
VERSION 0.7
FIELDS x y z rgba
SIZE 4 4 4 4
TYPE F F F U
COUNT 1 1 1 1
WIDTH 1075
HEIGHT 1
VIEWPOINT 0 0 0 1 0 0 0
POINTS 1075
DATA ascii
-0.18062964 -0.065629847 1.4990001 4279836697
-0.17932872 -0.065629847 1.4990001 4279836697
-0.1781466 -0.065673634 1.5000001 4279836697
-0.17684482 -0.065673634 1.5000001 4279902490
-0.17566007 -0.065717414 1.501 4279902490
-0.17435743 -0.065717414 1.501 4279770904
-0.17317007 -0.065761201 1.5020001 4279705111
-0.17186657 -0.065761201 1.5020001 4279639318
-0.17056306 -0.065761201 1.5020001 4279639318
-0.16925955 -0.065761201 1.5020001 4279705111
-0.16795604 -0.065761201 1.5020001 4279902490
-0.16665253 -0.065761201 1.5020001 4279968283
-0.16534902 -0.065761201 1.5020001 4279968283
-0.16404551 -0.065761201 1.5020001 4279902490
-0.162742 -0.065761201 1.5020001 4280034077
-0.16143849 -0.065761201 1.5020001 4280099870
-0.1602416 -0.065804973 1.503 4280099615
-0.15893723 -0.065804973 1.503 4280165408
-0.15763286 -0.065804973 1.503 4280231203
-0.15632848 -0.065804973 1.503 4280165410
-0.1550241 -0.065804973 1.503 4280231205
-0.15392426 -0.065892547 1.5050001 4280362791
-0.15261815 -0.065892547 1.5050001 4280625965
-0.1512115 -0.06584876 1.5040001 4280823088
-0.15010561 -0.065936327 1.506 4280691503
-0.14889742 -0.065980107 1.5070001 4280362538
-0.14778545 -0.066067673 1.5090001 4279507229
-0.29255047 -0.067342415 1.5690001 4293390322
-0.29118881 -0.067342415 1.5690001 4292535011
-0.28982714 -0.067342415 1.5690001 4291877082
-0.28864935 -0.067385338 1.5700001 4290429637
-0.28728682 -0.067385338 1.5700001 4288521640
-0.28610641 -0.067428261 1.5710001 4286416264
-0.28492427 -0.067471176 1.572 4284837231
-0.28356001 -0.067471176 1.572 4283587422
-0.28165722 -0.067342415 1.5690001 4282337354
-0.28011692 -0.067299493 1.5680001 4280955700
-0.27857834 -0.06725657 1.567 4280429100
-0.27668771 -0.067127809 1.5640001 4280099876
-0.27533039 -0.067127809 1.5640001 4280165926
-0.2737979 -0.067084894 1.5630001 4280231460
-0.26396453 -0.066999048 1.5610001 4281612855
-0.26260984 -0.066999048 1.5610001 4281547062
-0.26125512 -0.066999048 1.5610001 4281218097
-0.25990039 -0.066999048 1.5610001 4281152303
-0.2585457 -0.066999048 1.5610001 4281481011
-0.25735572 -0.067041971 1.562 4281218097
-0.25616407 -0.067084894 1.5630001 4280823339
-0.25497064 -0.067127809 1.5640001 4280954924
-0.23808424 -0.067342415 1.5690001 4280494378
-0.23717521 -0.067471176 1.572 4280428584
-0.23596095 -0.067514099 1.5730001 4280428328
-0.23504326 -0.06764286 1.5760001 4280362792
-0.23367552 -0.06764286 1.5760001 4280362791
-0.23230779 -0.06764286 1.5760001 4280231205
-0.21531157 -0.064595498 1.5050001 4280165410
-0.21372108 -0.064509653 1.503 4280165410
-0.21227537 -0.064466737 1.5020001 4280165410
-0.21069095 -0.064380899 1.5000001 4280231202
-0.2089704 -0.064252138 1.4970001 4280099616
-0.20739377 -0.064166293 1.4950001 4280099615
-0.20595849 -0.06412337 1.4940001 4280034077
-0.20466191 -0.06412337 1.4940001 4280099869
-0.20336534 -0.06412337 1.4940001 4280231455
-0.20220403 -0.064166293 1.4950001 4280297248
-0.20090659 -0.064166293 1.4950001 4280165662
-0.19960916 -0.064166293 1.4950001 4280231455
-0.19844437 -0.064209215 1.4960001 4280099869
-0.19727786 -0.064252138 1.4970001 4280034076
-0.19584776 -0.064209215 1.4960001 4280099869
-0.19467951 -0.064252138 1.4970001 4279902490
-0.19338034 -0.064252138 1.4970001 4279836697
-0.19220948 -0.064295053 1.498 4279836697
-0.19103688 -0.064337976 1.4990001 4279836697
-0.18973598 -0.064337976 1.4990001 4280034076
-0.18843508 -0.064337976 1.4990001 4279968283
-0.18725902 -0.064380899 1.5000001 4280034076
-0.18595724 -0.064380899 1.5000001 4279968283
-0.18465547 -0.064380899 1.5000001 4279968283
-0.18347593 -0.064423814 1.501 4279968283
-0.18217328 -0.064423814 1.501 4279770904
-0.18087064 -0.064423814 1.501 4279705111
-0.17956799 -0.064423814 1.501 4279836697
-0.17838413 -0.064466737 1.5020001 4279968283
-0.1770806 -0.064466737 1.5020001 4279968283
-0.17577709 -0.064466737 1.5020001 4279968283
-0.17447358 -0.064466737 1.5020001 4279836697
-0.17317007 -0.064466737 1.5020001 4279770904
-0.17198101 -0.064509653 1.503 4279705111
-0.17067663 -0.064509653 1.503 4279705111
-0.16937225 -0.064509653 1.503 4279705112
-0.16806787 -0.064509653 1.503 4279836698
-0.1667635 -0.064509653 1.503 4279968027
-0.16545911 -0.064509653 1.503 4279902490
-0.16415474 -0.064509653 1.503 4279902491
-0.16285037 -0.064509653 1.503 4279968029
-0.16165346 -0.064552575 1.5040001 4280033822
-0.16034822 -0.064552575 1.5040001 4280099615
-0.15904297 -0.064552575 1.5040001 4280231201
-0.15773773 -0.064552575 1.5040001 4280165410
-0.15643248 -0.064552575 1.5040001 4280231203
-0.1550241 -0.064509653 1.503 4280231203
-0.15371972 -0.064509653 1.503 4280296996
-0.15241535 -0.064509653 1.503 4280494377
-0.1512115 -0.064552575 1.5040001 4280560171
-0.15000592 -0.064595498 1.5050001 4280559915
-0.14879863 -0.064638413 1.506 4280494123
-0.14758958 -0.064681336 1.5070001 4280362537
-0.29199108 -0.065864041 1.5660001 4287732124
-0.29081762 -0.065906093 1.567 4285824127
-0.28945768 -0.065906093 1.567 4284442474
-0.2884655 -0.065990217 1.5690001 4282731855
-0.28710383 -0.065990217 1.5690001 4280692272
-0.28592429 -0.066032268 1.5700001 4279836963
-0.28474301 -0.066074327 1.5710001 4280034342
-0.28337961 -0.066074327 1.5710001 4280034598
-0.28147772 -0.065948151 1.5680001 4280495149
-0.27993825 -0.065906093 1.567 4280495148
-0.27840057 -0.065864041 1.5660001 4280560940
-0.2765108 -0.065737858 1.5630001 4280626218
-0.27515435 -0.065737858 1.5630001 4280691754
-0.2737979 -0.065737858 1.5630001 4280757545
-0.26379544 -0.065611683 1.5600001 4281678647
-0.26244161 -0.065611683 1.5600001 4281349682
-0.26108775 -0.065611683 1.5600001 4280954924
-0.25990039 -0.065653741 1.5610001 4280889131
-0.25871131 -0.0656958 1.562 4281152303
-0.25735572 -0.0656958 1.562 4280954924
-0.25649184 -0.065821975 1.5650001 4280625959
-0.25513366 -0.065821975 1.5650001 4280691752
-0.23823598 -0.066032268 1.5700001 4280296997
-0.23717521 -0.066116385 1.572 4280296996
-0.23611097 -0.06620051 1.5740001 4280296997
-0.23489411 -0.066242561 1.575 4280231205
-0.23352726 -0.066242561 1.575 4280099619
-0.23216039 -0.066242561 1.575 4279902240
-0.21516852 -0.06325639 1.5040001 4281086512
-0.21357888 -0.063172273 1.5020001 4280033824
-0.21213403 -0.063130215 1.501 4279968031
-0.21069095 -0.063088156 1.5000001 4280099617
-0.20883079 -0.062919922 1.4960001 4280033823
-0.20739377 -0.062877864 1.4950001 4279968029
-0.20595849 -0.062835805 1.4940001 4279968284
-0.20466191 -0.062835805 1.4940001 4280099869
-0.20336534 -0.062835805 1.4940001 4280165662
-0.20220403 -0.062877864 1.4950001 4280099869
-0.20090659 -0.062877864 1.4950001 4280034076
-0.19960916 -0.062877864 1.4950001 4280034076
-0.19844437 -0.062919922 1.4960001 4279968282
-0.19714607 -0.062919922 1.4960001 4279902489
-0.19597869 -0.062961981 1.4970001 4279770903
-0.19480956 -0.063004039 1.498 4279770903
-0.19350952 -0.063004039 1.498 4279770904
-0.19220948 -0.063004039 1.498 4279770904
-0.19103688 -0.063046098 1.4990001 4279902490
-0.18986256 -0.063088156 1.5000001 4279968283
-0.18856078 -0.063088156 1.5000001 4279968283
-0.18738385 -0.063130215 1.501 4279902490
-0.1860812 -0.063130215 1.501 4279902490
-0.18477857 -0.063130215 1.501 4279968283
-0.18347593 -0.063130215 1.501 4279902490
-0.18217328 -0.063130215 1.501 4279836697
-0.18087064 -0.063130215 1.501 4279836697
-0.17968763 -0.063172273 1.5020001 4279836697
-0.17838413 -0.063172273 1.5020001 4279836697
-0.1770806 -0.063172273 1.5020001 4279836697
-0.17577709 -0.063172273 1.5020001 4279902490
-0.17447358 -0.063172273 1.5020001 4279902490
-0.17317007 -0.063172273 1.5020001 4279836697
-0.17198101 -0.063214332 1.503 4279836697
-0.17067663 -0.063214332 1.503 4279836697
-0.16937225 -0.063214332 1.503 4279770905
-0.16806787 -0.063214332 1.503 4279902236
-0.1667635 -0.063214332 1.503 4279901979
-0.1655692 -0.06325639 1.5040001 4279902236
-0.16426395 -0.06325639 1.5040001 4279836443
-0.16295871 -0.06325639 1.5040001 4279836443
-0.16165346 -0.06325639 1.5040001 4279902236
-0.16034822 -0.06325639 1.5040001 4280033822
-0.15893723 -0.063214332 1.503 4280165408
-0.15752797 -0.063172273 1.5020001 4280165410
-0.15622446 -0.063172273 1.5020001 4280296995
-0.15492095 -0.063172273 1.5020001 4280296996
-0.15361744 -0.063172273 1.5020001 4280231204
-0.15241535 -0.063214332 1.503 4280296998
-0.15111096 -0.063214332 1.503 4280362791
-0.14990626 -0.06325639 1.5040001 4280428584
-0.14869981 -0.063298449 1.5050001 4280428585
-0.14667 -0.063550808 1.511 4280691502
-0.14574349 -0.063719034 1.5150001 4281020468
-0.14471468 -0.06384521 1.5180001 4282599500
-0.29977167 -0.064143643 1.557 4292732648
-0.29746211 -0.063937657 1.552 4291416532
-0.29611522 -0.063937657 1.552 4289376949
-0.2947683 -0.063937657 1.552 4286811022
-0.29361045 -0.063978858 1.5530001 4284837232
-0.29245088 -0.064020053 1.554 4282863442
-0.29147688 -0.064102449 1.5560001 4281021238
-0.29087234 -0.06426724 1.5600001 4280494893
-0.28988966 -0.064349629 1.562 4280363308
-0.28890353 -0.064432018 1.5640001 4280494894
-0.28809777 -0.064555615 1.567 4280758321
-0.28692088 -0.064596809 1.5680001 4280626735
-0.28556007 -0.064596809 1.5680001 4280560685
-0.28438053 -0.064638011 1.5690001 4280495148
-0.2826581 -0.064555615 1.567 4280560940
-0.28075963 -0.064432018 1.5640001 4281087284
-0.27922368 -0.064390831 1.5630001 4281284662
-0.27751166 -0.064308427 1.5610001 4281087283
-0.27580315 -0.064226039 1.559 4281152304
-0.27427414 -0.064184837 1.5580001 4281218097
-0.27292201 -0.064184837 1.5580001 4281152303
-0.26294994 -0.064061247 1.5550001 4281020715
-0.26176867 -0.064102449 1.5560001 4280757543
-0.26058567 -0.064143643 1.557 4280428578
-0.25990039 -0.064308427 1.5610001 4280297249
-0.25871131 -0.064349629 1.562 4280428835
-0.25752053 -0.064390831 1.5630001 4280494628
-0.23611157 -0.064102449 1.5560001 4279968031
-0.23536471 -0.06426724 1.5600001 4280033824
-0.2346109 -0.064432018 1.5640001 4280099618
-0.23444669 -0.064761594 1.572 4279968033
-0.23308243 -0.064761594 1.572 4279836447
-0.23142338 -0.064679205 1.5700001 4279639068
-0.21516852 -0.061960205 1.5040001 4283784027
-0.21372108 -0.061919007 1.503 4279112724
-0.21213403 -0.061836615 1.501 4279375895
-0.21026956 -0.061671831 1.4970001 4279968031
-0.20869119 -0.061589431 1.4950001 4280033823
-0.20725505 -0.06154824 1.4940001 4279968029
-0.20595849 -0.06154824 1.4940001 4279902491
-0.20466191 -0.06154824 1.4940001 4280034076
-0.20336534 -0.06154824 1.4940001 4280099869
-0.20220403 -0.061589431 1.4950001 4280034076
-0.20077221 -0.06154824 1.4940001 4279902490
-0.19947565 -0.06154824 1.4940001 4279902489
-0.19844437 -0.061630633 1.4960001 4279902489
-0.19740963 -0.061713021 1.498 4279836696
-0.19624051 -0.061754223 1.4990001 4279639317
-0.19506966 -0.061795421 1.5000001 4279770903
-0.19389705 -0.061836615 1.501 4279770903
-0.19259441 -0.061836615 1.501 4279639317
-0.19141921 -0.061877813 1.5020001 4279836696
-0.19024229 -0.061919007 1.503 4279836696
-0.1889379 -0.061919007 1.503 4279770903
-0.18775837 -0.061960205 1.5040001 4279639317
-0.18645312 -0.061960205 1.5040001 4279770903
-0.18514788 -0.061960205 1.5040001 4279836696
-0.18396486 -0.062001403 1.5050001 4279770903
-0.18278013 -0.062042598 1.506 4279770903
-0.18147315 -0.062042598 1.506 4279836696
-0.18016617 -0.062042598 1.506 4279770903
-0.17885919 -0.062042598 1.506 4279705111
-0.17755221 -0.062042598 1.506 4279770904
-0.17624523 -0.062042598 1.506 4279836697
-0.17482208 -0.062001403 1.5050001 4279902490
-0.17351596 -0.062001403 1.5050001 4279968283
-0.17220984 -0.062001403 1.5050001 4279968283
-0.17090373 -0.062001403 1.5050001 4279902490
-0.16959763 -0.062001403 1.5050001 4279836697
-0.16829151 -0.062001403 1.5050001 4279836186
-0.16698539 -0.062001403 1.5050001 4279770393
-0.16567928 -0.062001403 1.5050001 4279836443
-0.16437317 -0.062001403 1.5050001 4279836443
-0.16306706 -0.062001403 1.5050001 4279770650
-0.16165346 -0.061960205 1.5040001 4279902236
-0.16034822 -0.061960205 1.5040001 4280033822
-0.15904297 -0.061960205 1.5040001 4279968029
-0.15763286 -0.061919007 1.503 4280033822
-0.15632848 -0.061919007 1.503 4280231202
-0.1550241 -0.061919007 1.503 4280362789
-0.15371972 -0.061919007 1.503 4280296996
-0.15241535 -0.061919007 1.503 4280296997
-0.1512115 -0.061960205 1.5040001 4280296998
-0.15000592 -0.062001403 1.5050001 4280428584
-0.14879863 -0.062042598 1.506 4280559913
-0.14676706 -0.062289778 1.5120001 4280691501
-0.14574349 -0.062413372 1.5150001 4280559916
-0.14461935 -0.062495768 1.5170001 4280230951
-0.31081921 -0.063124463 1.5650001 4294114303
-0.30965877 -0.0631648 1.5660001 4294180095
-0.30849656 -0.06320513 1.567 4293917178
-0.30674466 -0.063124463 1.5650001 4293325041
-0.30538645 -0.063124463 1.5650001 4292535525
-0.30286267 -0.062882453 1.559 4290364100
-0.3011229 -0.062801786 1.557 4288126882
-0.29938659 -0.062721111 1.5550001 4285824127
-0.29707876 -0.062519439 1.5500001 4283389785
-0.2957336 -0.062519439 1.5500001 4280955445
-0.29438844 -0.062519439 1.5500001 4280231722
-0.29342142 -0.062600106 1.552 4280560686
-0.29245088 -0.062680781 1.554 4280494894
-0.29147688 -0.062761448 1.5560001 4280692271
-0.29124525 -0.063003458 1.562 4280824114
-0.29007527 -0.063043796 1.5630001 4280889907
-0.28908825 -0.063124463 1.5650001 4281021236
-0.28828165 -0.063245468 1.5680001 4281416249
-0.28692088 -0.063245468 1.5680001 4281547834
-0.28574219 -0.063285805 1.5690001 4281482041
-0.2841993 -0.063245468 1.5680001 4281416248
-0.28247771 -0.0631648 1.5660001 4281218869
-0.2804006 -0.063003458 1.562 4281087283
-0.27886638 -0.062963121 1.5610001 4281087282
-0.27715611 -0.062882453 1.559 4280824110
-0.2752724 -0.062761448 1.5560001 4280823338
-0.2740981 -0.062801786 1.557 4280691752
-0.27274686 -0.062801786 1.557 4280691751
-0.26278085 -0.062680781 1.554 4280231455
-0.26160043 -0.062721111 1.5550001 4280165662
-0.2604183 -0.062761448 1.5560001 4280099869
-0.25973392 -0.062922791 1.5600001 4279968283
-0.2585457 -0.062963121 1.5610001 4280034076
-0.25752053 -0.063043796 1.5630001 4280231455
-0.23611157 -0.062761448 1.5560001 4279902238
-0.23536471 -0.062922791 1.5600001 4279836445
-0.23446089 -0.063043796 1.5630001 4279836446
-0.23429756 -0.063366473 1.5710001 4279836445
-0.2327859 -0.063326135 1.5700001 4279704860
-0.23127598 -0.063285805 1.5690001 4279310103
-0.21531157 -0.060704358 1.5050001 4282994511
-0.21372108 -0.060623683 1.503 4278389001
-0.21227537 -0.060583353 1.5020001 4279244309
-0.21041001 -0.060422011 1.498 4279902238
-0.2089704 -0.060381677 1.4970001 4280033824
-0.20753248 -0.06034134 1.4960001 4279968030
-0.20609634 -0.060301002 1.4950001 4279968029
-0.20479889 -0.060301002 1.4950001 4280033822
-0.20350146 -0.060301002 1.4950001 4280034076
-0.20220403 -0.060301002 1.4950001 4280034076
-0.20104097 -0.06034134 1.4960001 4279968282
-0.19974267 -0.06034134 1.4960001 4279902489
-0.19870968 -0.060422011 1.498 4279902489
-0.19754142 -0.060462348 1.4990001 4279836696
-0.19624051 -0.060462348 1.4990001 4279705110
-0.1951997 -0.060543016 1.501 4279770903
-0.19389705 -0.060543016 1.501 4279770903
-0.19272272 -0.060583353 1.5020001 4279639317
-0.19154666 -0.060623683 1.503 4279705110
-0.19036886 -0.06066402 1.5040001 4279705110
-0.18918931 -0.060704358 1.5050001 4279639317
-0.18800806 -0.060744688 1.506 4279573780
-0.18670107 -0.060744688 1.506 4279639317
-0.18539409 -0.060744688 1.506 4279770903
-0.18420933 -0.060785025 1.5070001 4279770903
-0.18290149 -0.060785025 1.5070001 4279770903
-0.18171413 -0.060825363 1.508 4279770647
-0.18040542 -0.060825363 1.508 4279639317
-0.1790967 -0.060825363 1.508 4279705110
-0.17778799 -0.060825363 1.508 4279705110
-0.17636225 -0.060785025 1.5070001 4279770904
-0.1750544 -0.060785025 1.5070001 4279836697
-0.17363127 -0.060744688 1.506 4279902490
-0.17232428 -0.060744688 1.506 4279902490
-0.1710173 -0.060744688 1.506 4279902490
-0.16971032 -0.060744688 1.506 4279836441
-0.16829151 -0.060704358 1.5050001 4279836186
-0.16698539 -0.060704358 1.5050001 4279836186
-0.16567928 -0.060704358 1.5050001 4279836186
-0.16426395 -0.06066402 1.5040001 4279901979
-0.16295871 -0.06066402 1.5040001 4279836443
-0.16165346 -0.06066402 1.5040001 4279902236
-0.16034822 -0.06066402 1.5040001 4279902236
-0.15904297 -0.06066402 1.5040001 4279902236
-0.15763286 -0.060623683 1.503 4280033822
-0.15632848 -0.060623683 1.503 4280165408
-0.1550241 -0.060623683 1.503 4280231203
-0.15371972 -0.060623683 1.503 4280231203
-0.15251675 -0.06066402 1.5040001 4280296996
-0.1512115 -0.06066402 1.5040001 4280296996
-0.15010561 -0.060744688 1.506 4280362789
-0.14879863 -0.060744688 1.506 4280494375
-0.14676706 -0.060986701 1.5120001 4280559914
-0.14574349 -0.061107706 1.5150001 4280757551
-0.14461935 -0.061188381 1.5170001 4280559915
-0.310422 -0.061696764 1.5630001 4293456370
-0.30926329 -0.061736234 1.5640001 4292864232
-0.30790597 -0.061736234 1.5640001 4291285458
-0.30635265 -0.061696764 1.5630001 4288127138
-0.30480105 -0.061657287 1.562 4284047972
-0.30247414 -0.061459921 1.557 4281416252
-0.3007361 -0.061380971 1.5550001 4280494893
-0.29900154 -0.061302025 1.5530001 4280626479
-0.29669544 -0.061104663 1.5480001 4280758065
-0.29535201 -0.061104663 1.5480001 4280692272
-0.29400858 -0.061104663 1.5480001 4280758065
-0.29342142 -0.061262552 1.552 4280823858
-0.29245088 -0.061341502 1.554 4280823857
-0.29147688 -0.061420448 1.5560001 4281350456
-0.29143173 -0.061696764 1.5630001 4281613628
-0.29026085 -0.061736234 1.5640001 4281811006
-0.28927296 -0.061815184 1.5660001 4281679420
-0.2884655 -0.061933603 1.5690001 4281613627
-0.28710383 -0.061933603 1.5690001 4281547833
-0.28574219 -0.061933603 1.5690001 4281350453
-0.28383678 -0.061815184 1.5660001 4281153074
-0.28229734 -0.061775707 1.5650001 4280889902
-0.28004158 -0.061578345 1.5600001 4280692523
-0.27850911 -0.061538868 1.559 4280495144
-0.27680057 -0.061459921 1.557 4280429351
-0.27509549 -0.061380971 1.5550001 4280428579
-0.27374598 -0.061380971 1.5550001 4280231200
-0.27239648 -0.061380971 1.5550001 4280231455
-0.26261175 -0.061302025 1.5530001 4279968283
-0.2614322 -0.061341502 1.554 4280034076
-0.26025093 -0.061380971 1.5550001 4280099869
-0.25956741 -0.061538868 1.559 4279968283
-0.2585457 -0.06161781 1.5610001 4279968283
-0.25735572 -0.061657287 1.562 4280231455
-0.23626333 -0.061459921 1.557 4279968030
-0.23536471 -0.061578345 1.5600001 4279902238
-0.2346109 -0.061736234 1.5640001 4279836445
-0.23414841 -0.061973073 1.5700001 4279770652
-0.23263763 -0.061933603 1.5690001 4279639067
-0.23127598 -0.061933603 1.5690001 4279046931
-0.21545465 -0.059446778 1.506 4282270531
-0.21386327 -0.059367836 1.5040001 4278191108
-0.21241671 -0.059328359 1.503 4278586380
-0.21055047 -0.05917047 1.4990001 4279704859
-0.20910998 -0.059130996 1.498 4280033824
-0.20753248 -0.05905205 1.4960001 4280033823
-0.20609634 -0.059012573 1.4950001 4279968029
-0.20479889 -0.059012573 1.4950001 4279902236
-0.20350146 -0.059012573 1.4950001 4279902490
-0.20233928 -0.05905205 1.4960001 4279968283
-0.20104097 -0.05905205 1.4960001 4280034075
-0.1998762 -0.059091527 1.4970001 4279902489
-0.19870968 -0.059130996 1.498 4279902489
-0.19754142 -0.05917047 1.4990001 4279770903
-0.19637144 -0.059209947 1.5000001 4279836696
-0.19532974 -0.059288889 1.5020001 4279770903
-0.19402623 -0.059288889 1.5020001 4279705110
-0.19285104 -0.059328359 1.503 4279639317
-0.1916741 -0.059367836 1.5040001 4279639317
-0.19049543 -0.059407312 1.5050001 4279770903
-0.18931504 -0.059446778 1.506 4279705623
-0.18813288 -0.059486255 1.5070001 4279705623
-0.18682504 -0.059486255 1.5070001 4279639317
-0.18551719 -0.059486255 1.5070001 4279639317
-0.18433157 -0.059525732 1.508 4279770903
-0.18314423 -0.059565201 1.5090001 4279770903
-0.18183465 -0.059565201 1.5090001 4279704597
-0.18064469 -0.059604675 1.5100001 4279704597
-0.17933424 -0.059604675 1.5100001 4279704597
-0.17802379 -0.059604675 1.5100001 4279770390
-0.17659631 -0.059565201 1.5090001 4279836184
-0.17517056 -0.059525732 1.508 4279901977
-0.17374656 -0.059486255 1.5070001 4279901977
-0.1724387 -0.059486255 1.5070001 4279836441
-0.17113085 -0.059486255 1.5070001 4279770904
-0.16971032 -0.059446778 1.506 4279770904
-0.16840334 -0.059446778 1.506 4279836186
-0.16709636 -0.059446778 1.506 4279901979
-0.16567928 -0.059407312 1.5050001 4279901979
-0.16426395 -0.059367836 1.5040001 4279901979
-0.16306706 -0.059407312 1.5050001 4279902236
-0.16165346 -0.059367836 1.5040001 4279902236
-0.16034822 -0.059367836 1.5040001 4279836443
-0.15904297 -0.059367836 1.5040001 4279968029
-0.15773773 -0.059367836 1.5040001 4280033822
-0.15632848 -0.059328359 1.503 4280033822
-0.1550241 -0.059328359 1.503 4280099615
-0.15382199 -0.059367836 1.5040001 4280165408
-0.15251675 -0.059367836 1.5040001 4280231202
-0.15131204 -0.059407312 1.5050001 4280231202
-0.15010561 -0.059446778 1.506 4280296995
-0.14889742 -0.059486255 1.5070001 4280362789
-0.14676706 -0.059683621 1.5120001 4280560169
-0.14574349 -0.05980204 1.5150001 4280560170
-0.14461935 -0.059880991 1.5170001 4280625707
-0.31137949 -0.060272504 1.5610001 4291219666
-0.31022337 -0.060311116 1.562 4287798430
-0.30886778 -0.060311116 1.562 4284969074
-0.30731535 -0.060272504 1.5610001 4282271304
-0.30596063 -0.060272504 1.5610001 4280494893
-0.30441079 -0.060233895 1.5600001 4280494893
-0.30227986 -0.060079448 1.5560001 4280757808
-0.30054271 -0.060002226 1.554 4280757808
-0.2986165 -0.059886392 1.5510001 4280955187
-0.29631212 -0.059693336 1.5460001 4281020980
-0.29497042 -0.059693336 1.5460001 4281349944
-0.29381865 -0.059731942 1.5470001 4281481787
-0.29323235 -0.059886392 1.5510001 4281481785
-0.2922627 -0.059963614 1.5530001 4281350456
-0.29147688 -0.060079448 1.5560001 4281218869
-0.29143173 -0.060349729 1.5630001 4281218870
-0.29026085 -0.060388338 1.5640001 4281416246
-0.28927296 -0.060465563 1.5660001 4281284660
-0.28828165 -0.060542785 1.5680001 4280955695
-0.28673786 -0.060504172 1.567 4280889902
-0.28464949 -0.060349729 1.5630001 4280626729
-0.28311175 -0.060311116 1.562 4280495143
-0.2815758 -0.060272504 1.5610001 4280297508
-0.27950305 -0.060118061 1.557 4280231714
-0.27761588 -0.060002226 1.554 4280165920
-0.27591169 -0.059924997 1.552 4280231713
-0.27421093 -0.059847776 1.5500001 4280231455
-0.27286577 -0.059847776 1.5500001 4280231455
-0.27152061 -0.059847776 1.5500001 4280034076
-0.26327965 -0.059809163 1.549 4280099869
-0.26210445 -0.059847776 1.5500001 4280034076
-0.26092753 -0.059886392 1.5510001 4280099869
-0.26025093 -0.060040832 1.5550001 4280165662
-0.25940093 -0.060156669 1.5580001 4280034076
-0.25838006 -0.060233895 1.5600001 4279968283
-0.2371738 -0.060349729 1.5630001 4280165408
-0.23611909 -0.06042695 1.5650001 4280099615
-0.2350609 -0.060504172 1.567 4279967773
-0.23399928 -0.060581401 1.5690001 4279835932
-0.23234107 -0.060504172 1.567 4279770140
-0.23083375 -0.060465563 1.5660001 4279046418
-0.22141492 -0.058689438 1.5200001 4287600021
-0.21937181 -0.058496375 1.5150001 4293521391
-0.21762522 -0.05838054 1.5120001 4291810773
-0.21545465 -0.058148872 1.506 4282204995
-0.21400546 -0.058110263 1.5050001 4278256901
-0.21241671 -0.058033034 1.503 4278586123
-0.21069095 -0.057917207 1.5000001 4279639066
-0.20910998 -0.057839982 1.498 4279968031
-0.20767123 -0.057801373 1.4970001 4279968030
-0.20637205 -0.057801373 1.4970001 4279902236
-0.20493588 -0.057762761 1.4960001 4279770650
-0.20363759 -0.057762761 1.4960001 4279705112
-0.20247453 -0.057801373 1.4970001 4279836697
-0.20117538 -0.057801373 1.4970001 4279968283
-0.20000972 -0.057839982 1.498 4279836697
-0.19884232 -0.057878595 1.4990001 4279836696
-0.1976732 -0.057917207 1.5000001 4279705110
-0.19650234 -0.057955816 1.501 4279770903
-0.1954598 -0.058033034 1.503 4279639317
-0.19428459 -0.058071651 1.5040001 4279639317
-0.19310765 -0.058110263 1.5050001 4279770903
-0.19218387 -0.058226097 1.508 4279770903
-0.19087516 -0.058226097 1.508 4279902489
-0.18969215 -0.058264706 1.5090001 4279902489
-0.18863223 -0.058341932 1.511 4279902489
-0.18732092 -0.058341932 1.511 4279639317
-0.1860096 -0.058341932 1.511 4279573524
-0.18482052 -0.05838054 1.5120001 4279770390
-0.18350834 -0.05838054 1.5120001 4279770390
-0.18219614 -0.05838054 1.5120001 4279770133
-0.18088396 -0.05838054 1.5120001 4279770390
-0.17957176 -0.05838054 1.5120001 4279704597
-0.17825958 -0.05838054 1.5120001 4279704597
-0.17683035 -0.058341932 1.511 4279770391
-0.17540288 -0.058303319 1.5100001 4279836184
-0.17397714 -0.058264706 1.5090001 4279836184
-0.17266755 -0.058264706 1.5090001 4279770391
-0.17135797 -0.058264706 1.5090001 4279705111
-0.16993569 -0.058226097 1.508 4279705111
-0.16840334 -0.058148872 1.506 4279836186
-0.16709636 -0.058148872 1.506 4279901979
-0.16567928 -0.058110263 1.5050001 4279836443
-0.16437317 -0.058110263 1.5050001 4279836443
-0.16306706 -0.058110263 1.5050001 4279836443
-0.16165346 -0.058071651 1.5040001 4279836443
-0.16034822 -0.058071651 1.5040001 4279902236
-0.15904297 -0.058071651 1.5040001 4280033822
-0.15773773 -0.058071651 1.5040001 4280033822
-0.15643248 -0.058071651 1.5040001 4279968029
-0.15512724 -0.058071651 1.5040001 4279968029
-0.15392426 -0.058110263 1.5050001 4280099615
-0.15261815 -0.058110263 1.5050001 4280165408
-0.15141259 -0.058148872 1.506 4280231201
-0.15020527 -0.058187485 1.5070001 4280231201
-0.14899622 -0.058226097 1.508 4280296995
-0.14686413 -0.058419153 1.5130001 4280494376
-0.14564727 -0.058457769 1.5140001 4280494377
-0.14452402 -0.058534987 1.516 4280560171
-0.31388769 -0.058889449 1.5600001 4289245876
-0.31233352 -0.058851697 1.559 4285561468
-0.31078106 -0.058813944 1.5580001 4282206025
-0.30923036 -0.0587762 1.557 4280560686
-0.30787912 -0.0587762 1.557 4280429100
-0.30633098 -0.058738448 1.5560001 4280560686
-0.30498061 -0.058738448 1.5560001 4280758064
-0.30363023 -0.058738448 1.5560001 4280889651
-0.30169708 -0.058625199 1.5530001 4281349943
-0.30015591 -0.058587447 1.552 4281612858
-0.29842392 -0.05851195 1.5500001 4281612858
-0.29650378 -0.058398698 1.5470001 4281547065
-0.29535201 -0.05843645 1.5480001 4281349686
-0.29400858 -0.05843645 1.5480001 4281283893
-0.29342142 -0.058587447 1.552 4281021233
-0.29245088 -0.058662951 1.554 4280889903
-0.29128957 -0.058700696 1.5550001 4280692524
-0.29105878 -0.058927193 1.5610001 4280560938
-0.29007527 -0.059002697 1.5630001 4280560937
-0.28890353 -0.059040442 1.5640001 4280495143
-0.28791392 -0.059115946 1.5660001 4280166178
-0.28637189 -0.059078194 1.5650001 4280166178
-0.28428522 -0.058927193 1.5610001 4280166178
-0.28274927 -0.058889449 1.5600001 4280034592
-0.28139544 -0.058889449 1.5600001 4280099870
-0.27914402 -0.058700696 1.5550001 4280231456
-0.27743721 -0.058625199 1.5530001 4280231455
-0.27591169 -0.058587447 1.552 4280297248
-0.27385712 -0.05843645 1.5480001 4280099869
-0.27268973 -0.058474198 1.549 4280165662
-0.27134544 -0.058474198 1.549 4280099869
-0.26310968 -0.05843645 1.5480001 4280165662
-0.26193535 -0.058474198 1.549 4280165662
-0.26059106 -0.058474198 1.549 4280165662
-0.26008359 -0.058662951 1.554 4280099869
-0.25906792 -0.058738448 1.5560001 4280034076
-0.25804883 -0.058813944 1.5580001 4279968283
-0.23747727 -0.059078194 1.5650001 4280165407
-0.23642083 -0.059153691 1.567 4280165408
-0.23521094 -0.059191443 1.5680001 4280099360
-0.23399928 -0.059229195 1.5690001 4280033311
-0.23234107 -0.059153691 1.567 4279835933
-0.23083375 -0.059115946 1.5660001 4278980625
-0.2215606 -0.057417206 1.521 4285954683
-0.2196614 -0.057266213 1.5170001 4292600032
-0.21791308 -0.057152964 1.5140001 4293521391
-0.21545465 -0.056850962 1.506 4286942091
-0.21400546 -0.056813218 1.5050001 4279901983
-0.21241671 -0.056737714 1.503 4278783759
-0.21041001 -0.056548968 1.498 4279704860
-0.20910998 -0.056548968 1.498 4279902238
-0.20767123 -0.05651122 1.4970001 4279968029
-0.20637205 -0.05651122 1.4970001 4279902236
-0.20493588 -0.056473467 1.4960001 4279770650
-0.20363759 -0.056473467 1.4960001 4279770650
-0.20247453 -0.05651122 1.4970001 4279836443
-0.20117538 -0.05651122 1.4970001 4279836697
-0.20000972 -0.056548968 1.498 4279770904
-0.19884232 -0.05658672 1.4990001 4279770904
-0.1976732 -0.056624468 1.5000001 4279770904
-0.19650234 -0.056662217 1.501 4279770903
-0.19558984 -0.056775466 1.5040001 4279639317
-0.19428459 -0.056775466 1.5040001 4279639317
-0.19310765 -0.056813218 1.5050001 4279770903
-0.19218387 -0.056926467 1.508 4279836696
-0.19100174 -0.056964211 1.5090001 4279836697
-0.18981786 -0.057001963 1.5100001 4279836696
-0.18863223 -0.057039715 1.511 4279770903
-0.1874449 -0.05707746 1.5120001 4279639317
-0.18613271 -0.05707746 1.5120001 4279639060
-0.18482052 -0.05707746 1.5120001 4279638804
-0.18350834 -0.05707746 1.5120001 4279704597
-0.18219614 -0.05707746 1.5120001 4279901462
-0.18088396 -0.05707746 1.5120001 4279901462
-0.17957176 -0.05707746 1.5120001 4279835669
-0.17825958 -0.05707746 1.5120001 4279835669
-0.17683035 -0.057039715 1.511 4279704597
-0.17551903 -0.057039715 1.511 4279770390
-0.17409243 -0.057001963 1.5100001 4279770391
-0.17266755 -0.056964211 1.5090001 4279770391
-0.1712444 -0.056926467 1.508 4279705111
-0.16982301 -0.056888714 1.5070001 4279705112
-0.16840334 -0.056850962 1.506 4279770650
-0.16709636 -0.056850962 1.506 4279704857
-0.16567928 -0.056813218 1.5050001 4279704857
-0.16437317 -0.056813218 1.5050001 4279770650
-0.16306706 -0.056813218 1.5050001 4279770650
-0.16165346 -0.056775466 1.5040001 4279836443
-0.16034822 -0.056775466 1.5040001 4279902236
-0.15904297 -0.056775466 1.5040001 4279968029
-0.15773773 -0.056775466 1.5040001 4280033822
-0.15643248 -0.056775466 1.5040001 4279902236
-0.15512724 -0.056775466 1.5040001 4279902236
-0.15392426 -0.056813218 1.5050001 4280033822
-0.15261815 -0.056813218 1.5050001 4280165408
-0.15141259 -0.056850962 1.506 4280165408
-0.15030494 -0.056926467 1.508 4280165408
-0.14899622 -0.056926467 1.508 4280362787
-0.14778545 -0.056964211 1.5090001 4280494375
-0.14686413 -0.057115212 1.5130001 4280428583
-0.14564727 -0.057152964 1.5140001 4280494377
-0.14452402 -0.057228461 1.516 4280494378
-0.31388769 -0.057544999 1.5600001 4280429614
-0.31233352 -0.057508111 1.559 4280297771
-0.31058159 -0.057434335 1.557 4280560943
-0.30923036 -0.057434335 1.557 4280626479
-0.30768135 -0.057397448 1.5560001 4280626478
-0.3061341 -0.057360556 1.5550001 4280889905
-0.30478463 -0.057360556 1.5550001 4281153077
-0.30343512 -0.057360556 1.5550001 4281218870
-0.30169708 -0.057286784 1.5530001 4281218357
-0.30015591 -0.057249893 1.552 4281152307
-0.29842392 -0.057176121 1.5500001 4281086514
-0.2968871 -0.057139229 1.549 4280954928
-0.29554281 -0.057139229 1.549 4280757548
-0.29438844 -0.057176121 1.5500001 4280625961
-0.29361045 -0.057286784 1.5530001 4280429096
-0.29245088 -0.057323672 1.554 4280297766
-0.29128957 -0.057360556 1.5550001 4280166179
-0.29087234 -0.057544999 1.5600001 4280100386
-0.28970408 -0.057581883 1.5610001 4280166178
-0.28853408 -0.057618774 1.562 4280166178
-0.28754622 -0.057692546 1.5640001 4280100385
-0.28563994 -0.057581883 1.5610001 4280100385
-0.283921 -0.057508111 1.559 4280100385
-0.28256804 -0.057508111 1.559 4280034592
-0.28103468 -0.057471219 1.5580001 4280165662
-0.27914402 -0.057360556 1.5550001 4280297248
-0.27743721 -0.057286784 1.5530001 4280297248
-0.27573392 -0.057213008 1.5510001 4280297248
-0.27368021 -0.057065457 1.5470001 4280165662
-0.27251369 -0.057102345 1.5480001 4280165662
-0.27117026 -0.057102345 1.5480001 4280165662
-0.26293972 -0.057065457 1.5470001 4280231455
-0.26176625 -0.057102345 1.5480001 4280165662
-0.26042283 -0.057102345 1.5480001 4280099869
-0.25991622 -0.057286784 1.5530001 4280099869
-0.25890142 -0.057360556 1.5550001 4280034076
-0.25788319 -0.057434335 1.557 4279968283
-0.23234107 -0.05780321 1.567 4279704347
-0.23068635 -0.057729438 1.5650001 4278914832
-0.22185194 -0.056180149 1.5230001 4283651928
-0.21980621 -0.05599571 1.5180001 4291152587
-0.21805702 -0.055885047 1.5150001 4294113528
-0.21545465 -0.055553056 1.506 4293455598
-0.21372108 -0.055442393 1.503 4287468435
-0.21227537 -0.055405505 1.5020001 4281152819
-0.21055047 -0.055294842 1.4990001 4279047699
-0.20910998 -0.055257954 1.498 4279639066
-0.20767123 -0.055221066 1.4970001 4279968031
-0.20637205 -0.055221066 1.4970001 4279968029
-0.20493588 -0.055184178 1.4960001 4279836443
-0.20363759 -0.055184178 1.4960001 4279836443
-0.20247453 -0.055221066 1.4970001 4279836443
-0.20117538 -0.055221066 1.4970001 4279770904
-0.20000972 -0.055257954 1.498 4279705111
-0.19884232 -0.055294842 1.4990001 4279770904
-0.1976732 -0.055331729 1.5000001 4279902234
-0.19650234 -0.055368617 1.501 4279705112
-0.19558984 -0.055479281 1.5040001 4279705111
-0.19441377 -0.055516168 1.5050001 4279705111
-0.19323598 -0.055553056 1.506 4279770904
-0.19231132 -0.05566372 1.5090001 4279836697
-0.19112831 -0.055700608 1.5100001 4279639318
-0.18994355 -0.055737495 1.511 4279836439
-0.18875709 -0.055774383 1.5120001 4279705110
-0.1874449 -0.055774383 1.5120001 4279836183
-0.18625581 -0.055811271 1.5130001 4279704854
-0.18494275 -0.055811271 1.5130001 4279638804
-0.18362969 -0.055811271 1.5130001 4279704597
-0.18231665 -0.055811271 1.5130001 4279966999
-0.18088396 -0.055774383 1.5120001 4279966999
-0.17957176 -0.055774383 1.5120001 4279966742
-0.17825958 -0.055774383 1.5120001 4279900692
-0.17683035 -0.055737495 1.511 4279835157
-0.17551903 -0.055737495 1.511 4279966742
-0.17409243 -0.055700608 1.5100001 4279967000
-0.17255312 -0.055626828 1.508 4279967257
-0.1712444 -0.055626828 1.508 4279901721
-0.16982301 -0.055589944 1.5070001 4279901721
-0.16851516 -0.055589944 1.5070001 4279835930
-0.16709636 -0.055553056 1.506 4279704857
-0.16567928 -0.055516168 1.5050001 4279704857
-0.16437317 -0.055516168 1.5050001 4279770650
-0.16306706 -0.055516168 1.5050001 4279770906
-0.16165346 -0.055479281 1.5040001 4279836699
-0.16034822 -0.055479281 1.5040001 4279902236
-0.15893723 -0.055442393 1.503 4279902236
-0.15773773 -0.055479281 1.5040001 4279967772
-0.15643248 -0.055479281 1.5040001 4279967516
-0.15512724 -0.055479281 1.5040001 4279968029
-0.15392426 -0.055516168 1.5050001 4280033822
-0.15261815 -0.055516168 1.5050001 4280165408
-0.15141259 -0.055553056 1.506 4280165408
-0.15030494 -0.055626828 1.508 4280296737
-0.14899622 -0.055626828 1.508 4280362788
-0.14778545 -0.05566372 1.5090001 4280428582
-0.14676706 -0.055774383 1.5120001 4280428582
-0.14564727 -0.055848159 1.5140001 4280362791
-0.14452402 -0.055921935 1.516 4280494122
-0.31368649 -0.056164525 1.559 4280692529
-0.31213319 -0.056128498 1.5580001 4280889651
-0.3103821 -0.056056447 1.5560001 4281021236
-0.30903172 -0.056056447 1.5560001 4281087030
-0.30748361 -0.05602042 1.5550001 4281284407
-0.30593726 -0.055984393 1.554 4281284406
-0.30458862 -0.055984393 1.554 4281152820
-0.30323997 -0.055984393 1.554 4280889647
-0.30169708 -0.055948369 1.5530001 4280692012
-0.30015591 -0.055912342 1.552 4280625962
-0.2986165 -0.055876318 1.5510001 4280494377
-0.29707876 -0.055840291 1.5500001 4280428584
-0.29649678 -0.055984393 1.554 4280362789
-0.29552799 -0.056056447 1.5560001 4280296996
-0.29455575 -0.056128498 1.5580001 4280297251
-0.29320365 -0.056128498 1.5580001 4280100385
-0.29166421 -0.056092471 1.557 4280100127
-0.29049945 -0.056128498 1.5580001 4280034591
-0.28914732 -0.056128498 1.5580001 4280100384
-0.28797993 -0.056164525 1.559 4280231713
-0.28662696 -0.056164525 1.559 4280166177
-0.28509101 -0.056128498 1.5580001 4280165920
-0.28355679 -0.056092471 1.557 4280165920
-0.28220555 -0.056092471 1.557 4280100384
-0.28085428 -0.056092471 1.557 4280231456
-0.27896449 -0.055984393 1.554 4280231455
-0.27725857 -0.055912342 1.552 4280297248
-0.27555612 -0.055840291 1.5500001 4280363041
-0.27368021 -0.055732213 1.5470001 4280297248
-0.27233765 -0.055732213 1.5470001 4280231455
-0.27099511 -0.055732213 1.5470001 4280165662
-0.26965255 -0.055732213 1.5470001 4280099869
-0.2684834 -0.05576824 1.5480001 4280165662
-0.26713997 -0.05576824 1.5480001 4280231455
-0.26596823 -0.055804264 1.549 4280297248
-0.26479477 -0.055840291 1.5500001 4280231711
-0.26327965 -0.055804264 1.549 4280034590
-0.26210445 -0.055840291 1.5500001 4280034589
-0.26075926 -0.055840291 1.5500001 4279968797
-0.25991622 -0.055948369 1.5530001 4280034589
-0.25890142 -0.05602042 1.5550001 4280099869
-0.25788319 -0.056092471 1.557 4280034076
-0.25752053 -0.056308627 1.5630001 4280034076
-0.25649184 -0.056380682 1.5650001 4280231455
-0.25529668 -0.056416705 1.5660001 4280823592
-0.2200958 -0.05475951 1.5200001 4290691779
-0.21820094 -0.054615408 1.516 4294376187
-0.21531157 -0.054219123 1.5050001 4294639359
-0.21386327 -0.054183096 1.5040001 4292534496
-0.21227537 -0.054111045 1.5020001 4282599753
-0.21055047 -0.054002967 1.4990001 4279046931
-0.20924957 -0.054002967 1.4990001 4279704860
-0.20767123 -0.053930912 1.4970001 4279902238
-0.20637205 -0.053930912 1.4970001 4279836445
-0.20507288 -0.053930912 1.4970001 4279836445
-0.20377371 -0.053930912 1.4970001 4279902236
-0.20260979 -0.053966939 1.498 4279836443
-0.20130976 -0.053966939 1.498 4279770904
-0.20014323 -0.054002967 1.4990001 4279639318
-0.19910762 -0.054075018 1.501 4279639064
-0.19780499 -0.054075018 1.501 4279704857
-0.19663325 -0.054111045 1.5020001 4279770649
-0.19571988 -0.054219123 1.5050001 4279770650
-0.19454296 -0.054255147 1.506 4279770904
-0.19349259 -0.054327197 1.508 4279705111
-0.1925662 -0.054435275 1.511 4279705111
-0.19138145 -0.054471303 1.5120001 4279705111
-0.19019498 -0.05450733 1.5130001 4279967257
-0.1891316 -0.054579381 1.5150001 4279704598
-0.18781681 -0.054579381 1.5150001 4279639574
-0.18650202 -0.054579381 1.5150001 4279574294
-0.18518724 -0.054579381 1.5150001 4279770133
-0.18387243 -0.054579381 1.5150001 4279835412
-0.18243714 -0.054543354 1.5140001 4279966485
-0.18100359 -0.05450733 1.5130001 4280360473
-0.17969052 -0.05450733 1.5130001 4280491033
-0.17837748 -0.05450733 1.5130001 4280424470
-0.1769474 -0.054471303 1.5120001 4280555544
-0.1756352 -0.054471303 1.5120001 4280687643
-0.17409243 -0.054399252 1.5100001 4280557340
-0.17278197 -0.054399252 1.5100001 4280360219
-0.17147152 -0.054399252 1.5100001 4280228634
-0.17004839 -0.054363225 1.5090001 4280163611
-0.16862696 -0.054327197 1.508 4279901722
-0.16731825 -0.054327197 1.508 4279836186
-0.16589946 -0.054291174 1.5070001 4279704857
-0.1644824 -0.054255147 1.506 4279836443
-0.16317542 -0.054255147 1.506 4279771420
-0.16176094 -0.054219123 1.5050001 4279836956
-0.16045482 -0.054219123 1.5050001 4279902236
-0.15914872 -0.054219123 1.5050001 4280033566
-0.15784261 -0.054219123 1.5050001 4280099101
-0.15664051 -0.054255147 1.506 4280033309
-0.15533353 -0.054255147 1.506 4280033565
-0.15412882 -0.054291174 1.5070001 4280099615
-0.15292238 -0.054327197 1.508 4280165664
-0.15161365 -0.054327197 1.508 4280231458
-0.15040462 -0.054363225 1.5090001 4280362787
-0.14919384 -0.054399252 1.5100001 4280428580
-0.14788339 -0.054399252 1.5100001 4280428582
-0.1469612 -0.054543354 1.5140001 4280428582
-0.14574349 -0.054579381 1.5150001 4280428584
-0.14452402 -0.054615408 1.516 4280560171
-0.14377515 -0.054831564 1.5220001 4280757295
-0.14264148 -0.054903615 1.524 4280296745
-0.14168979 -0.055047721 1.5280001 4279770401
-0.3097837 -0.054609954 1.5530001 4281021492
-0.30823731 -0.054574791 1.552 4280889905
-0.30669269 -0.054539628 1.5510001 4280823598
-0.30514976 -0.054504462 1.5500001 4280757547
-0.30380461 -0.054504462 1.5500001 4280560168
-0.30265459 -0.054539628 1.5510001 4280428582
-0.30150282 -0.054574791 1.552 4280362789
-0.30015591 -0.054574791 1.552 4280296996
-0.29880902 -0.054574791 1.552 4280231202
-0.29784542 -0.054645117 1.554 4280231202
-0.29687837 -0.054715447 1.5560001 4280296994
-0.29571795 -0.05475061 1.557 4280362787
-0.29493389 -0.054856103 1.5600001 4280363042
-0.29358003 -0.054856103 1.5600001 4280297248
-0.29185155 -0.054785777 1.5580001 4280165662
-0.29049945 -0.054785777 1.5580001 4280165662
-0.28933293 -0.05482094 1.559 4280231455
-0.28797993 -0.05482094 1.559 4280297248
-0.28662696 -0.05482094 1.559 4280297248
-0.28527397 -0.05482094 1.559 4280231455
-0.28373888 -0.054785777 1.5580001 4280165662
-0.28238678 -0.054785777 1.5580001 4280099869
-0.28085428 -0.05475061 1.557 4280165662
-0.27914402 -0.054680284 1.5550001 4280231455
-0.27743721 -0.054609954 1.5530001 4280297248
-0.27591169 -0.054574791 1.552 4280297248
-0.27385712 -0.054434136 1.5480001 4280231455
-0.27251369 -0.054434136 1.5480001 4280231455
-0.27117026 -0.054434136 1.5480001 4280165662
-0.27000114 -0.054469299 1.549 4280099869
-0.26865685 -0.054469299 1.549 4280231455
-0.26748511 -0.054504462 1.5500001 4280231455
-0.26631168 -0.054539628 1.5510001 4280231455
-0.26513645 -0.054574791 1.552 4280231455
-0.26378956 -0.054574791 1.552 4280100126
-0.26244265 -0.054574791 1.552 4280100126
-0.26109576 -0.054574791 1.552 4280100126
-0.26025093 -0.054680284 1.5550001 4280099869
-0.25923443 -0.05475061 1.557 4280099869
-0.25821444 -0.05482094 1.559 4280034076
-0.2219976 -0.053590193 1.524 4281020208
-0.2200958 -0.053449538 1.5200001 4289770677
-0.21834487 -0.053344045 1.5170001 4294375929
-0.21531157 -0.052922077 1.5050001 4294705151
-0.21386327 -0.052886911 1.5040001 4292271324
-0.21241671 -0.052851748 1.503 4282599753
-0.21055047 -0.052711092 1.4990001 4279112724
-0.20924957 -0.052711092 1.4990001 4279704859
-0.20780994 -0.052675925 1.498 4279836445
-0.2065099 -0.052675925 1.498 4279770652
-0.20520987 -0.052675925 1.498 4279770652
-0.20390983 -0.052675925 1.498 4279770650
-0.20260979 -0.052675925 1.498 4279770650
-0.20144413 -0.052711092 1.4990001 4279705111
-0.20027675 -0.052746255 1.5000001 4279639318
-0.19910762 -0.052781418 1.501 4279705111
-0.19793676 -0.052816585 1.5020001 4279639318
-0.19663325 -0.052816585 1.5020001 4279639318
-0.19584994 -0.05295724 1.506 4279639318
-0.19467212 -0.052992404 1.5070001 4279705111
-0.19349259 -0.053027567 1.508 4279770904
-0.19269365 -0.053168226 1.5120001 4279705111
-0.19150802 -0.053203389 1.5130001 4279705111
-0.19032069 -0.053238552 1.5140001 4279770903
-0.18925644 -0.053308882 1.516 4279639318
-0.18794078 -0.053308882 1.516 4279508501
-0.18662512 -0.053308882 1.516 4279639317
-0.18518724 -0.053273719 1.5150001 4279901205
-0.18387243 -0.053273719 1.5150001 4280032278
-0.18255764 -0.053273719 1.5150001 4280294423
-0.18112321 -0.053238552 1.5140001 4280557082
-0.17980929 -0.053238552 1.5140001 4280819485
-0.17837748 -0.053203389 1.5130001 4280752665
-0.1769474 -0.053168226 1.5120001 4281080091
-0.1756352 -0.053168226 1.5120001 4281409056
-0.17420772 -0.053133059 1.511 4281278753
-0.17278197 -0.053097896 1.5100001 4280819486
-0.17147152 -0.053097896 1.5100001 4280294683
-0.17004839 -0.053062733 1.5090001 4280098074
-0.1687388 -0.053062733 1.5090001 4279967259
-0.16742922 -0.053062733 1.5090001 4279901722
-0.16600955 -0.053027567 1.508 4279770393
-0.16459161 -0.052992404 1.5070001 4279836187
-0.16328377 -0.052992404 1.5070001 4279705370
-0.16186844 -0.05295724 1.506 4279770906
-0.16056146 -0.05295724 1.506 4279836443
-0.15925448 -0.05295724 1.506 4279968029
-0.1579475 -0.05295724 1.506 4280033822
-0.15674451 -0.052992404 1.5070001 4280033822
-0.15543666 -0.052992404 1.5070001 4280033822
-0.15423109 -0.053027567 1.508 4280099614
-0.15292238 -0.053027567 1.508 4280165664
-0.15171421 -0.053062733 1.5090001 4280231714
-0.15050429 -0.053097896 1.5100001 4280297507
-0.14929263 -0.053133059 1.511 4280428837
-0.14798132 -0.053133059 1.511 4280494375
-0.1469612 -0.053238552 1.5140001 4280494375
-0.14574349 -0.053273719 1.5150001 4280494377
-0.14452402 -0.053308882 1.516 4280494378
-0.14386962 -0.05355503 1.5230001 4280691502
-0.14282867 -0.053660523 1.526 4280362538
-0.14187525 -0.053801179 1.5300001 4279770401
-0.30938476 -0.053202938 1.5510001 4280626733
-0.30803871 -0.053202938 1.5510001 4280494890
-0.30649492 -0.053168632 1.5500001 4280428839
-0.30495289 -0.05313433 1.549 4280362789
-0.3036086 -0.05313433 1.549 4280296996
-0.30245942 -0.053168632 1.5500001 4280362789
-0.30130854 -0.053202938 1.5510001 4280362788
-0.30015591 -0.053237237 1.552 4280296995
-0.29880902 -0.053237237 1.552 4280231202
-0.29822874 -0.053374447 1.5560001 4280296994
-0.29706919 -0.053408749 1.557 4280362787
-0.29609779 -0.053477354 1.559 4280362787
-0.29531199 -0.053580262 1.562 4280363042
-0.29358003 -0.053511657 1.5600001 4280297248
-0.2922262 -0.053511657 1.5600001 4280231455
-0.29087234 -0.053511657 1.5600001 4280165662
-0.28951851 -0.053511657 1.5600001 4280231455
-0.28816465 -0.053511657 1.5600001 4280231455
-0.28681082 -0.053511657 1.5600001 4280297248
-0.28545696 -0.053511657 1.5600001 4280231455
-0.28373888 -0.053443052 1.5580001 4280165662
-0.28238678 -0.053443052 1.5580001 4280099869
-0.28103468 -0.053443052 1.5580001 4280165662
-0.27914402 -0.053340144 1.5550001 4280231455
-0.27761588 -0.053305842 1.554 4280297248
-0.27591169 -0.053237237 1.552 4280231455
-0.27403402 -0.05313433 1.549 4280165662
-0.27268973 -0.05313433 1.549 4280165662
-0.27134544 -0.05313433 1.549 4280165662
-0.27017543 -0.053168632 1.5500001 4280165662
-0.26883027 -0.053168632 1.5500001 4280231455
-0.2676577 -0.053202938 1.5510001 4280231455
-0.26682675 -0.053305842 1.554 4280165662
-0.26547813 -0.053305842 1.554 4280165662
-0.26429945 -0.053340144 1.5550001 4280165662
-0.26311904 -0.053374447 1.5560001 4280231455
-0.26160043 -0.053340144 1.5550001 4280165662
-0.26058567 -0.053408749 1.557 4280099870
-0.25956741 -0.053477354 1.559 4280165407
-0.25838006 -0.053511657 1.5600001 4280034078
-0.22214326 -0.052311074 1.5250001 4279572762
-0.22024061 -0.052173864 1.521 4286020476
-0.21820094 -0.052002352 1.516 4292402397
-0.21545465 -0.051659331 1.506 4293258219
-0.21386327 -0.051590726 1.5040001 4287073677
-0.21241671 -0.051556423 1.503 4281152307
-0.21055047 -0.051419213 1.4990001 4279375896
-0.20924957 -0.051419213 1.4990001 4279770653
-0.20780994 -0.051384911 1.498 4279836445
-0.2065099 -0.051384911 1.498 4279770652
-0.20520987 -0.051384911 1.498 4279704859
-0.20404594 -0.051419213 1.4990001 4279639064
-0.20274504 -0.051419213 1.4990001 4279639064
-0.20144413 -0.051419213 1.4990001 4279639318
-0.20041026 -0.051487818 1.501 4279639318
-0.19910762 -0.051487818 1.501 4279705111
-0.19793676 -0.051522121 1.5020001 4279639318
-0.19676417 -0.051556423 1.503 4279573525
-0.19584994 -0.051659331 1.506 4279639318
-0.19467212 -0.051693633 1.5070001 4279705111
-0.19362091 -0.051762238 1.5090001 4279705111
-0.19269365 -0.051865146 1.5120001 4279705110
-0.19150802 -0.051899444 1.5130001 4279639317
-0.19044639 -0.051968053 1.5150001 4279639317
-0.18925644 -0.052002352 1.516 4279639317
-0.18794078 -0.052002352 1.516 4279639830
-0.18674822 -0.052036654 1.5170001 4279770646
-0.18530945 -0.052002352 1.516 4280098071
-0.18387243 -0.051968053 1.5150001 4280426009
-0.18255764 -0.051968053 1.5150001 4280688155
-0.18112321 -0.051933747 1.5140001 4281016093
-0.17969052 -0.051899444 1.5130001 4281605920
-0.17837748 -0.051899444 1.5130001 4281735710
-0.1769474 -0.051865146 1.5120001 4282259488
-0.1756352 -0.051865146 1.5120001 4282588196
-0.17420772 -0.051830839 1.511 4282392101
-0.1728964 -0.051830839 1.511 4281736738
-0.17158508 -0.051830839 1.511 4280687643
-0.17016107 -0.051796537 1.5100001 4280163096
-0.1687388 -0.051762238 1.5090001 4280098075
-0.16742922 -0.051762238 1.5090001 4280032795
-0.16600955 -0.051727932 1.508 4279901466
-0.16470082 -0.051727932 1.508 4279901466
-0.16339211 -0.051727932 1.508 4279770393
-0.16197591 -0.051693633 1.5070001 4279770650
-0.16066806 -0.051693633 1.5070001 4279770907
-0.15936022 -0.051693633 1.5070001 4279902493
-0.15805237 -0.051693633 1.5070001 4279902750
-0.15684852 -0.051727932 1.508 4279968286
-0.15553981 -0.051727932 1.508 4280033822
-0.15433337 -0.051762238 1.5090001 4280099614
-0.15302379 -0.051762238 1.5090001 4280230944
-0.15181474 -0.051796537 1.5100001 4280296737
-0.15060395 -0.051830839 1.511 4280362787
-0.14929263 -0.051830839 1.511 4280494374
-0.14807926 -0.051865146 1.5120001 4280494375
-0.1469612 -0.051933747 1.5140001 4280428583
-0.14574349 -0.051968053 1.5150001 4280428584
-0.14452402 -0.052002352 1.516 4280494378
