# .PCD v0.7 - Point Cloud Data file format
VERSION 0.7
FIELDS x y z rgba
SIZE 4 4 4 4
TYPE F F F U
COUNT 1 1 1 1
WIDTH 1081
HEIGHT 1
VIEWPOINT 0 0 0 1 0 0 0
POINTS 1081
DATA ascii
-0.26431626 -0.67830175 2.401 4282731588
-0.26288787 -0.67999679 2.4070001 4282139451
-0.26079896 -0.67999679 2.4070001 4281810741
-0.25871003 -0.67999679 2.4070001 4281679154
-0.25662112 -0.67999679 2.4070001 4281810738
-0.25442648 -0.67971432 2.4060001 4281810740
-0.25233844 -0.67971432 2.4060001 4281942326
-0.26606709 -0.67538756 2.398 4283586897
-0.26431626 -0.67623252 2.401 4283521104
-0.26288787 -0.67792243 2.4070001 4283060553
-0.26090729 -0.678204 2.4080002 4282271036
-0.25881752 -0.678204 2.4080002 4281744692
-0.25672773 -0.678204 2.4080002 4281810485
-0.25463796 -0.678204 2.4080002 4281876535
-0.25254819 -0.678204 2.4080002 4282008121
-0.25035438 -0.67792243 2.4070001 4282271550
-0.26497677 -0.67584801 2.4070001 4283586897
-0.26365238 -0.67781341 2.414 4283652433
-0.26166573 -0.67809421 2.4150002 4283191626
-0.25967738 -0.67837501 2.4160001 4282534209
-0.25768724 -0.6786558 2.4170001 4282205244
-0.25558966 -0.6786558 2.4170001 4282271037
-0.25338718 -0.67837501 2.4160001 4282271037
-0.25118646 -0.67809421 2.4150002 4282403136
-0.26530701 -0.6746133 2.4100001 4283257932
-0.26408926 -0.6768527 2.4180002 4283717970
-0.26209915 -0.67713267 2.4190001 4283915349
-0.26010731 -0.67741251 2.4200001 4283718226
-0.25800711 -0.67741251 2.4200001 4282994760
-0.25590691 -0.67741251 2.4200001 4282271037
-0.25370184 -0.67713267 2.4190001 4282336830
-0.25149852 -0.6768527 2.4180002 4282206014
-0.24940005 -0.6768527 2.4180002 4282534979
-0.2644169 -0.67560595 2.421 4283191883
-0.2624242 -0.67588502 2.4220002 4283849556
-0.26053724 -0.67644316 2.424 4284113241
-0.25832695 -0.67616409 2.4230001 4283784276
-0.25622416 -0.67616409 2.4230001 4282797381
-0.25412133 -0.67616409 2.4230001 4282205244
-0.25181052 -0.67560595 2.421 4282468416
-0.24970947 -0.67560595 2.421 4282402623
-0.26518142 -0.6754669 2.4280002 4282600002
-0.26318264 -0.67574513 2.4290001 4283060553
-0.26118213 -0.6760233 2.4300001 4283850069
-0.25917986 -0.67630148 2.4310002 4284179034
-0.25696439 -0.6760233 2.4300001 4283718483
-0.25485551 -0.6760233 2.4300001 4283192139
-0.2526426 -0.67574513 2.4290001 4282732358
-0.25043148 -0.6754669 2.4280002 4282732358
-0.263291 -0.6739291 2.4300001 4282666051
-0.26128963 -0.67420638 2.4310002 4282994760
-0.25928649 -0.67448372 2.4320002 4283850069
-0.25717586 -0.67448372 2.4320002 4284310620
-0.25496039 -0.67420638 2.4310002 4284047704
-0.25274664 -0.6739291 2.4300001 4283390288
-0.25063777 -0.6739291 2.4300001 4283192909
-0.24822205 -0.67309701 2.427 4283127116
-0.26139709 -0.67238778 2.4320002 4282403393
-0.2593931 -0.67266423 2.4330001 4282863944
-0.2572816 -0.67266423 2.4330001 4283850839
-0.25517014 -0.67266423 2.4330001 4284179804
-0.25295466 -0.67238778 2.4320002 4283719253
-0.25074092 -0.67211127 2.4310002 4283192909
-0.2484266 -0.67155838 2.4290001 4282863944
-0.24611579 -0.67100537 2.427 4282929737
-0.26171955 -0.67111868 2.4350002 4282074428
-0.25981957 -0.67166984 2.437 4282403393
-0.25781035 -0.67194545 2.4380002 4283061323
-0.25579941 -0.67222112 2.4390001 4283850839
-0.25378674 -0.67249674 2.4400001 4284048218
-0.25166917 -0.67249674 2.4400001 4283521874
-0.24934709 -0.67194545 2.4380002 4282863944
-0.24712987 -0.67166984 2.437 4282469186
-0.25992617 -0.66984433 2.4380002 4282206014
-0.25791609 -0.67011911 2.4390001 4282798151
-0.25611407 -0.67094338 2.4420002 4283456081
-0.25399476 -0.67094338 2.4420002 4283916632
-0.25197864 -0.6712181 2.4430001 4283916632
-0.2497562 -0.67094338 2.4420002 4283324495
-0.24743408 -0.67039388 2.4400001 4282534979
-0.26013938 -0.66829103 2.4400001 4282206014
-0.25865632 -0.66993433 2.4460001 4282534979
-0.25684822 -0.67075598 2.4490001 4282666565
-0.25493085 -0.67130381 2.4510002 4283192909
-0.25290689 -0.67157769 2.4520001 4283916632
-0.25088122 -0.67185158 2.4530001 4284048218
-0.24865097 -0.67157769 2.4520001 4283390288
-0.24632193 -0.67102993 2.45 4282469186
-0.25876209 -0.66809934 2.447 4282271807
-0.25705796 -0.66919148 2.4510002 4282140221
-0.25503486 -0.66946453 2.4520001 4282469186
-0.25311321 -0.67001057 2.4540002 4283324495
-0.25108576 -0.67028356 2.4550002 4284179804
-0.2487524 -0.66973752 2.4530001 4284179804
-0.24642247 -0.66919148 2.4510002 4283390288
-0.25737262 -0.66789567 2.4540002 4282140221
-0.2554509 -0.66843992 2.4560001 4282271807
-0.25342262 -0.66871214 2.457 4282863944
-0.25149488 -0.66925645 2.4590001 4283719253
-0.24915801 -0.66871214 2.457 4284442976
-0.24692516 -0.66843992 2.4560001 4284179804
-0.2441957 -0.66680694 2.45 4283258702
-0.25747749 -0.66605198 2.4550002 4282206014
-0.2554509 -0.6663233 2.4560001 4282337600
-0.25342262 -0.66659462 2.457 4282666565
-0.25149488 -0.66713727 2.4590001 4283258702
-0.24925941 -0.66686594 2.4580002 4283850839
-0.2470257 -0.66659462 2.457 4284377183
-0.24429536 -0.66496682 2.4510002 4283982425
-0.2554509 -0.66420668 2.4560001 4282337600
-0.25352576 -0.6647476 2.4580002 4282534979
-0.25159714 -0.66528845 2.46 4282798151
-0.24936083 -0.66501802 2.4590001 4283258702
-0.24722679 -0.66501802 2.4590001 4283850839
-0.24449472 -0.66339535 2.4530001 4284311390
-0.24206947 -0.66258401 2.45 4284179035
-0.2554509 -0.66209 2.4560001 4282403393
-0.25342262 -0.6623596 2.457 4282534979
-0.25149488 -0.66289878 2.4590001 4282600772
-0.24925941 -0.66262919 2.4580002 4282995530
-0.24712624 -0.66262919 2.4580002 4283324496
-0.24469405 -0.66182041 2.4550002 4283850584
-0.24226707 -0.6610117 2.4520001 4284442207
-0.23906183 -0.65804636 2.4410002 4284113242
-0.25321633 -0.65970463 2.4550002 4282600002
-0.25129032 -0.66024208 2.457 4282600002
-0.24915801 -0.66024208 2.457 4282863174
-0.2470257 -0.66024208 2.457 4283126346
-0.2445944 -0.65943599 2.4540002 4283323725
-0.24226707 -0.65889853 2.4520001 4283981655
-0.23915976 -0.65621138 2.4420002 4284442206
-0.25108576 -0.6575889 2.4550002 4282468416
-0.24895521 -0.6575889 2.4550002 4282600002
-0.24682462 -0.6575889 2.4550002 4282731588
-0.24449472 -0.65705317 2.4530001 4282928967
-0.24216826 -0.65651745 2.4510002 4283521104
-0.23915976 -0.6541068 2.4420002 4284179034
-0.23684631 -0.65357107 2.4400001 4284442206
-0.25026757 -0.65333718 2.447 4282468416
-0.24804252 -0.65307015 2.4460001 4282468416
-0.24602032 -0.65333718 2.447 4282600002
-0.243797 -0.65307015 2.4460001 4282863174
-0.24157545 -0.65280318 2.4450002 4283192139
-0.23906183 -0.65173519 2.4410002 4283718483
-0.23684631 -0.65146822 2.4400001 4284376413
-0.24773832 -0.65016371 2.4430001 4282600002
-0.24571869 -0.65042984 2.444 4282797381
-0.24339834 -0.64989763 2.4420002 4283060553
-0.24118024 -0.6496315 2.4410002 4283192139
-0.23896387 -0.64936537 2.4400001 4283586897
-0.23674925 -0.64909917 2.4390001 4284113241
-0.23463257 -0.64909917 2.4390001 4284507999
-0.24521598 -0.64699721 2.4390001 4282994760
-0.2430993 -0.64699721 2.4390001 4283126346
-0.24098262 -0.64699721 2.4390001 4283257932
-0.23886594 -0.64699721 2.4390001 4283586897
-0.23674925 -0.64699721 2.4390001 4283915862
-0.23463257 -0.64699721 2.4390001 4284244827
-0.24390899 -0.64145786 2.4260001 4283060553
-0.24180359 -0.64145786 2.4260001 4283060553
-0.23979698 -0.64172232 2.427 4283257932
-0.23798452 -0.64251554 2.4300001 4283586897
-0.23597272 -0.64277989 2.4310002 4283784276
-0.23405537 -0.64330876 2.4330001 4283915606
-0.23232523 -0.64436638 2.437 4284507486
-0.24140489 -0.63831294 2.4220002 4283257933
-0.23940176 -0.63857645 2.4230001 4283521104
-0.2376907 -0.63963062 2.427 4283652690
-0.2356815 -0.63989419 2.4280002 4283586897
-0.23376678 -0.64042133 2.4300001 4283520847
-0.2322299 -0.64200258 2.4360001 4283915349
-0.23890775 -0.63517487 2.4180002 4283783762
-0.23720102 -0.63622558 2.4220002 4283520847
-0.23539031 -0.63701361 2.4250002 4283323468
-0.23347817 -0.63753897 2.427 4283191626
-0.23203921 -0.63937783 2.434 4283585871
-0.23011582 -0.63990319 2.4360001 4284901988
-0.23762329 -0.62968725 2.4050002 4283980628
-0.23631962 -0.63178182 2.4130001 4283586127
-0.23451668 -0.63256729 2.4160001 4283257419
-0.23270857 -0.63335276 2.4190001 4283257163
-0.23146722 -0.63570917 2.4280002 4283454542
-0.22964349 -0.63649464 2.4310002 4284638816
-0.22772093 -0.63701826 2.4330001 4285757554
-0.23612373 -0.62918031 2.411 4283651920
-0.23432256 -0.62996316 2.414 4283454798
-0.23251615 -0.63074607 2.4170001 4283454799
-0.23146722 -0.63361669 2.4280002 4283520592
-0.22954904 -0.63413858 2.4300001 4284441694
-0.22762734 -0.63466048 2.4320002 4285560175
-0.2342255 -0.62762266 2.4130001 4283520592
-0.23241995 -0.62840295 2.4160001 4283586384
-0.23127657 -0.63100392 2.4260001 4283520592
-0.22945455 -0.63178426 2.4290001 4284375900
-0.22762734 -0.63256454 2.4320002 4285560175
-0.2260731 -0.63412511 2.4380002 4285626481
-0.2342255 -0.62554306 2.4130001 4283389006
-0.23241995 -0.62632078 2.4160001 4283454798
-0.23137189 -0.62917238 2.427 4283454798
-0.22945455 -0.62969089 2.4290001 4284244571
-0.22762734 -0.63046861 2.4320002 4285429102
-0.2260731 -0.63202399 2.4380002 4285692274
-0.23270857 -0.62501377 2.4190001 4283389262
-0.23137189 -0.62708074 2.427 4283323725
-0.22954904 -0.6278559 2.4300001 4283981655
-0.22762734 -0.62837261 2.4320002 4285297515
-0.2260731 -0.62992287 2.4380002 4285626480
-0.22404915 -0.63018125 2.4390001 4285165930
-0.23347817 -0.62498909 2.427 4283323469
-0.23203921 -0.62679172 2.434 4283126346
-0.23011582 -0.62730676 2.4360001 4283586897
-0.22809534 -0.62756425 2.437 4284902757
-0.22635129 -0.62859434 2.4410002 4285494894
-0.22432473 -0.62885183 2.4420002 4285165929
-0.23232523 -0.62546396 2.437 4282731588
-0.23030475 -0.62572062 2.4380002 4283126346
-0.22837611 -0.62623394 2.4400001 4284573792
-0.22653675 -0.62700391 2.4430001 4285429101
-0.2244166 -0.62700391 2.4430001 4285297515
-0.22238743 -0.62726057 2.444 4285035113
-0.23087153 -0.62515426 2.444 4282797381
-0.22884409 -0.62541002 2.4450002 4284376414
-0.22681494 -0.62566584 2.4460001 4285298028
-0.22469218 -0.62566584 2.4460001 4285166699
-0.22256942 -0.62566584 2.4460001 4284969320
-0.23087153 -0.62304795 2.444 4282666052
-0.2287505 -0.62304795 2.444 4284310877
-0.22681494 -0.62355781 2.4460001 4285363822
-0.22469218 -0.62355781 2.4460001 4285100907
-0.22256942 -0.62355781 2.4460001 4284771941
-0.22044666 -0.62355781 2.4460001 4284837734
-0.2287505 -0.62094164 2.444 4284179805
-0.22681494 -0.62144977 2.4460001 4285298286
-0.22469218 -0.62144977 2.4460001 4284969321
-0.22247842 -0.62119573 2.4450002 4284574562
-0.22026642 -0.62094164 2.444 4284640355
-0.22662948 -0.61883533 2.444 4285364079
-0.22450846 -0.61883533 2.444 4285100907
-0.22247842 -0.61908853 2.4450002 4284377184
-0.22035652 -0.61908853 2.4450002 4284377184
-0.21814539 -0.61883533 2.444 4284771941
-0.22662948 -0.61672902 2.444 4285429872
-0.22450846 -0.61672902 2.444 4285035114
-0.22247842 -0.61698139 2.4450002 4284179292
-0.22035652 -0.61698139 2.4450002 4284113755
-0.21823464 -0.61698139 2.4450002 4284640098
-0.22450846 -0.61462271 2.444 4285429615
-0.22247842 -0.61487424 2.4450002 4284376414
-0.22035652 -0.61487424 2.4450002 4284047449
-0.21823464 -0.61487424 2.4450002 4284507999
-0.21611275 -0.61487424 2.4450002 4284836964
-0.22460032 -0.61276704 2.4450002 4285758067
-0.22247842 -0.61276704 2.4450002 4284573793
-0.22044666 -0.61301768 2.4460001 4284244828
-0.2183239 -0.61301768 2.4460001 4284376413
-0.21620114 -0.61301768 2.4460001 4284902757
-0.21399085 -0.61276704 2.4450002 4285231722
-0.22247842 -0.6106599 2.4450002 4284639586
-0.22044666 -0.6109097 2.4460001 4284310621
-0.2183239 -0.6109097 2.4460001 4284442206
-0.21620114 -0.6109097 2.4460001 4284771172
-0.21399085 -0.6106599 2.4450002 4284902757
-0.22044666 -0.60880166 2.4460001 4284179035
-0.2183239 -0.60880166 2.4460001 4284179035
-0.21620114 -0.60880166 2.4460001 4284244828
-0.21399085 -0.60855275 2.4450002 4284179034
-0.21178232 -0.60830384 2.444 4283981655
-0.22062692 -0.60718971 2.4480002 4283850070
-0.21850243 -0.60718971 2.4480002 4283784277
-0.21637793 -0.60718971 2.4480002 4283784277
-0.21407838 -0.60669363 2.4460001 4283850069
-0.21186897 -0.60644555 2.4450002 4283915862
-0.21859168 -0.60532707 2.4490001 4283718484
-0.21646632 -0.60532707 2.4490001 4283784277
-0.21416591 -0.60483277 2.447 4284047448
-0.21186897 -0.60433841 2.4450002 4284244827
-0.20966129 -0.60409123 2.444 4284244827
-0.2165547 -0.60346282 2.45 4283850069
-0.21416591 -0.6027239 2.447 4284310620
-0.21186897 -0.60223126 2.4450002 4284573792
-0.20957552 -0.60173863 2.4430001 4284507999
-0.2165547 -0.60135132 2.45 4284639585
-0.21407838 -0.60036957 2.4460001 4284705378
-0.21178232 -0.59987861 2.444 4284771171
-0.20948972 -0.59938776 2.4420002 4284836963
-0.20669109 -0.59742415 2.434 4284902757
-0.21399085 -0.59801692 2.4450002 4285165928
-0.21169567 -0.59752774 2.4430001 4285100135
-0.20940393 -0.59703857 2.4410002 4285100390
-0.20660616 -0.59508187 2.4330001 4285100390
-0.20407444 -0.59385896 2.4280002 4285034597
-0.21399085 -0.59590977 2.4450002 4285363819
-0.21169567 -0.59542227 2.4430001 4285363819
-0.20931816 -0.59469116 2.4400001 4285429355
-0.20669109 -0.59322882 2.434 4285363562
-0.20449468 -0.59298503 2.4330001 4285297769
-0.21169567 -0.59331685 2.4430001 4285495663
-0.20940393 -0.59283113 2.4410002 4285627248
-0.20686091 -0.59161687 2.4360001 4285627248
-0.2046628 -0.59137398 2.4350002 4285561455
-0.2024664 -0.59113109 2.434 4285561199
-0.20948972 -0.59096944 2.4420002 4285758834
-0.20703076 -0.5900014 2.4380002 4285890420
-0.2046628 -0.58927542 2.4350002 4285890420
-0.20254958 -0.58927542 2.4350002 4285824371
-0.20991865 -0.59007055 2.447 4285890420
-0.20762518 -0.58958828 2.4450002 4285956213
-0.20558736 -0.58982944 2.4460001 4285890420
-0.2033814 -0.58958828 2.4450002 4285824371
-0.20787995 -0.588202 2.4480002 4285824627
-0.2056714 -0.58796167 2.447 4285561455
-0.20363097 -0.588202 2.4480002 4285363820
-0.20175341 -0.5889228 2.4510002 4285494894
-0.20592354 -0.58657104 2.45 4285100906
-0.2038805 -0.58681047 2.4510002 4284771684
-0.20200035 -0.58752871 2.4540002 4284705378
-0.20659596 -0.58636802 2.4580002 4284837734
-0.20446278 -0.58636802 2.4580002 4284311390
-0.20265886 -0.58732224 2.4620001 4284179547
-0.20060368 -0.58756077 2.4630001 4282995273
-0.20462915 -0.58472502 2.46 4284179804
-0.20274119 -0.58543813 2.4630001 4283916632
-0.20068511 -0.58567578 2.4640002 4282732358
-0.20479551 -0.58307856 2.4620001 4284048218
-0.20307045 -0.58426273 2.467 4283587667
-0.2010109 -0.5844996 2.4680002 4282074428
-0.19894964 -0.58473641 2.4690001 4280626982
-0.20307045 -0.58213663 2.467 4282929737
-0.2010109 -0.58237261 2.4680002 4281350705
-0.19894964 -0.58260858 2.4690001 4280495396
-0.2010109 -0.58024561 2.4680002 4280758311
-0.19894964 -0.58048069 2.4690001 4280494626
-0.19688663 -0.58071584 2.47 4281415985
-0.20109235 -0.57835287 2.4690001 4280494626
-0.19894964 -0.57835287 2.4690001 4280428833
-0.19688663 -0.57858711 2.47 4281613107
-0.19894964 -0.57622504 2.4690001 4280428833
-0.19696634 -0.57669181 2.4710002 4281942072
-0.19482188 -0.57669181 2.4710002 4283455311
-0.19894964 -0.57409716 2.4690001 4280823078
-0.19696634 -0.57456225 2.4710002 4282665282
-0.19482188 -0.57456225 2.4710002 4283783763
-0.19704604 -0.57266432 2.4720001 4283191626
-0.19490072 -0.57266432 2.4720001 4283915349
-0.1927554 -0.57266432 2.4720001 4283849556
-0.19497956 -0.57076466 2.473 4283915349
-0.19283338 -0.57076466 2.473 4283980885
-0.19505841 -0.56886333 2.4740002 4284112214
-0.19298933 -0.56909329 2.4750001 4284243800
-0.19091851 -0.56932318 2.4760001 4284309593
-0.19298933 -0.56696028 2.4750001 4284901730
-0.19091851 -0.56718934 2.4760001 4285099109
-0.1909956 -0.56528366 2.4770002 4286283383
-0.18884595 -0.56528366 2.4770002 4286612348
-0.19076428 -0.56246686 2.4740002 4286809727
-0.18861723 -0.56246686 2.4740002 4286941313
-0.18631943 -0.5620122 2.4720001 4287072899
-0.18846476 -0.55988175 2.4720001 4287204485
-0.18616869 -0.55942875 2.47 4287336071
-0.18831228 -0.55730003 2.47 4287599243
-0.18594258 -0.55662316 2.467 4287665036
-0.18365258 -0.55617189 2.4650002 4287600011
-0.18533958 -0.55269891 2.4590001 4287730829
-0.18305655 -0.55224937 2.457 4287731086
-0.1808506 -0.5520246 2.4560001 4287731342
-0.18290754 -0.54968405 2.4550002 4287468428
-0.18070334 -0.54946017 2.4540002 4287534477
-0.18275853 -0.54712224 2.4530001 4287007877
-0.18055606 -0.54689914 2.4520001 4287337098
-0.17820978 -0.54623002 2.4490001 4287468684
-0.18026152 -0.54389727 2.4480002 4287271305
-0.1779187 -0.54323071 2.4450002 4287271305
-0.17572492 -0.54300851 2.444 4287073926
-0.17784594 -0.5409022 2.444 4287008387
-0.17558111 -0.54045963 2.4420002 4286745215
-0.1777004 -0.53835505 2.4420002 4287337352
-0.17558111 -0.53835505 2.4420002 4287139973
-0.17339081 -0.53813457 2.4410002 4287074180
-0.17543732 -0.53581125 2.4400001 4288192661
-0.17331977 -0.53581125 2.4400001 4288390040
-0.17331977 -0.53370839 2.4400001 4287863694
-0.17148288 -0.53458333 2.444 4287600522
-0.17331977 -0.53160554 2.4400001 4285100387
-0.17148288 -0.53247702 2.444 4284903008
-0.17120221 -0.52950269 2.4400001 4284310357
-0.16929255 -0.53015369 2.4430001 4284178771
-0.16915396 -0.52761596 2.4410002 4285429093
-0.16901536 -0.52508169 2.4390001 4286547317
-0.16676183 -0.52465111 2.437 4286613111
-0.16676183 -0.52255082 2.437 4287073148
-0.16669339 -0.52023703 2.4360001 4287402111
-0.12539564 -0.4513523 2.299 4287534469
-0.12722458 -0.44878456 2.296 4287402883
-0.12501383 -0.44800273 2.2920001 4287600262
-0.1228637 -0.44741634 2.289 4287731848
-0.12705836 -0.44622201 2.2930002 4287402628
-0.12490474 -0.44563821 2.2900002 4287731592
-0.12281001 -0.44524899 2.2880001 4287928972
-0.12485021 -0.4434709 2.289 4287665800
-0.12270267 -0.44288969 2.286 4287863179
-0.12019068 -0.44095227 2.276 4287994765
-0.12232693 -0.43956938 2.279 4287665800
-0.11971541 -0.43725485 2.2670002 4287928972
-0.11764413 -0.43686908 2.2650001 4288192144
-0.12221959 -0.43722126 2.2770002 4287731593
-0.11955699 -0.43472505 2.2640002 4287863179
-0.11754024 -0.43453303 2.263 4288126351
-0.11945138 -0.43239155 2.2620001 4287732107
-0.11733249 -0.4318181 2.2590001 4287797899
-0.1152188 -0.43124464 2.256 4288126864
-0.11686502 -0.42815861 2.25 4287600520
-0.11475914 -0.42758772 2.2470002 4287863692
-0.11260827 -0.42682654 2.243 4288192657
-0.11465701 -0.42527235 2.2450001 4287732106
-0.11245766 -0.42432517 2.24 4287929485
-0.11056302 -0.42451462 2.2410002 4288192657
-0.11424842 -0.42182899 2.237 4287731593
-0.11210623 -0.42107472 2.233 4287863179
-0.11011898 -0.42088616 2.2320001 4287994765
-0.11200582 -0.41877484 2.2310002 4287797386
-0.11002031 -0.41858715 2.23 4287797386
-0.10823041 -0.41915026 2.233 4287665800
-0.10992164 -0.41629156 2.2280002 4287665800
-0.10803653 -0.41647843 2.2290001 4287468421
-0.10619731 -0.41685212 2.2310002 4287468421
-0.10947761 -0.41269755 2.2190001 4287731593
-0.10755186 -0.41269755 2.2190001 4287600007
-0.10572129 -0.41306955 2.2210002 4287600007
-0.10745491 -0.41041493 2.217 4287797384
-0.1056261 -0.41078517 2.2190001 4287731592
-0.10374707 -0.4109703 2.22 4287665800
-0.10538809 -0.4079515 2.214 4287994508
-0.10356014 -0.40832001 2.2160001 4287731593
-0.10186631 -0.40924132 2.2210002 4287665800
-0.10538809 -0.40604341 2.214 4288191887
-0.1035134 -0.40622681 2.2150002 4287928972
-0.10177458 -0.4069604 2.2190001 4287863179
-0.1035134 -0.40431789 2.2150002 4288060301
-0.10172872 -0.40486547 2.2180002 4288126094
-0.099803828 -0.40486547 2.2180002 4288323473
-0.10131593 -0.40131888 2.2090001 4288389009
-0.099308856 -0.40095553 2.207 4288652181
-0.097305253 -0.40059218 2.2050002 4288652181
-0.1010866 -0.39851102 2.204 4288454802
-0.099128872 -0.39833024 2.2030001 4288849560
-0.097128734 -0.39796859 2.2010002 4288915353
-0.098948881 -0.39571184 2.1990001 4288915353
-0.096952215 -0.39535195 2.197 4288981146
-0.094872512 -0.39463213 2.1930001 4288520595
-0.096378542 -0.39113033 2.184 4288849560
-0.094310112 -0.390414 2.1800001 4288520595
-0.092375807 -0.39023489 2.1790001 4288323216
-0.096069634 -0.38800055 2.177 4288717974
-0.094137065 -0.3878223 2.1760001 4288454802
-0.092248626 -0.3878223 2.1760001 4288257935
-0.090318657 -0.38764405 2.1750002 4288060813
-0.093964018 -0.38523749 2.1720002 4288520595
-0.092036657 -0.38506016 2.171 4288192144
-0.090111032 -0.38488278 2.1700001 4287928972
-0.091697507 -0.38177708 2.1630001 4288060558
-0.089778818 -0.38160059 2.1620002 4287994765
-0.087902531 -0.38160059 2.1620002 4288126352
-0.091655113 -0.37973732 2.1620002 4287994767
-0.089695774 -0.37938604 2.1600001 4288257939
-0.087821215 -0.37938604 2.1600001 4288389525
-0.085946664 -0.37938604 2.1600001 4288455318
-0.089612722 -0.37717494 2.158 4288652697
-0.0877399 -0.37717494 2.158 4288652697
-0.085867085 -0.37717494 2.158 4288784283
-0.087414637 -0.37392378 2.1500001 4288652697
-0.085548759 -0.37392378 2.1500001 4288915869
-0.083605044 -0.37357593 2.148 4289310627
-0.087333322 -0.37172472 2.148 4288521111
-0.085429393 -0.37155169 2.1470001 4288850076
-0.083488278 -0.37120557 2.1450002 4289244834
-0.081588686 -0.37103251 2.1440001 4289442213
-0.085270226 -0.36901256 2.1430001 4288849820
-0.083332583 -0.36866817 2.141 4288981662
-0.08147452 -0.36866817 2.141 4289179041
-0.079616457 -0.36866817 2.141 4289442213
-0.083137967 -0.36596632 2.1360002 4288850076
-0.081246197 -0.36579502 2.135 4288784283
-0.079393335 -0.36579502 2.135 4289047455
-0.083099052 -0.36395502 2.135 4288915869
-0.08120814 -0.36378455 2.1340001 4288718490
-0.079318963 -0.36361405 2.1330001 4288915869
-0.077431522 -0.36344361 2.1320002 4289244834
-0.081170082 -0.36177579 2.1330001 4288784283
-0.079281777 -0.36160621 2.1320002 4288784283
-0.077322565 -0.36109737 2.1290002 4288784283
-0.075474918 -0.36109737 2.1290002 4288981662
-0.07883554 -0.35774383 2.1200001 4288784283
-0.076959379 -0.35757506 2.1190002 4288521111
-0.075120404 -0.35757506 2.1190002 4288718490
-0.073212266 -0.35723758 2.1170001 4289442213
-0.078723975 -0.35541308 2.1170001 4288850076
-0.076850422 -0.3552452 2.1160002 4288718490
-0.074978605 -0.3550773 2.115 4288915869
-0.073073938 -0.35474154 2.1130002 4289245090
-0.07670515 -0.35275346 2.112 4289047455
-0.074872248 -0.35275346 2.112 4289179041
-0.072970189 -0.35241944 2.1100001 4289113248
-0.071172737 -0.35258648 2.1110001 4288915869
-0.074624091 -0.34977019 2.105 4289113248
-0.072762683 -0.34960401 2.1040001 4288981662
-0.070970446 -0.34977019 2.105 4288652697
-0.069176473 -0.34993634 2.1060002 4288455318
-0.074588642 -0.34779075 2.1040001 4289113248
-0.072728105 -0.34762543 2.1030002 4288981662
-0.070936732 -0.34779075 2.1040001 4288718490
-0.069110774 -0.34779075 2.1040001 4288455574
-0.072693519 -0.34564859 2.102 4289047455
-0.070903018 -0.34581301 2.1030002 4288915869
-0.069077931 -0.34581301 2.1030002 4288784283
-0.067348786 -0.34630632 2.1060002 4288521368
-0.070700727 -0.34301913 2.0970001 4288915869
-0.068880849 -0.34301913 2.0970001 4288915869
-0.067156911 -0.34350985 2.1000001 4288784796
-0.070633292 -0.34088647 2.095 4288718747
-0.068815149 -0.34088647 2.095 4288784796
-0.06706097 -0.34121189 2.0970001 4288982175
-0.065272197 -0.34137461 2.098 4289179554
-0.068749458 -0.33875725 2.0930002 4288719002
-0.066933051 -0.33875725 2.0930002 4288982174
-0.065178864 -0.33908093 2.095 4289377188
-0.063390963 -0.33924282 2.0960002 4289443238
-0.066677213 -0.33566552 2.085 4288982173
-0.064867742 -0.33566552 2.085 4289245602
-0.063088529 -0.33582649 2.0860002 4289311908
-0.066581272 -0.33338824 2.082 4288982173
-0.064805523 -0.33354834 2.0830002 4289114016
-0.062937312 -0.33322811 2.0810001 4289180322
-0.061160687 -0.33338824 2.082 4289245858
-0.064463295 -0.33000124 2.072 4289113759
-0.062755845 -0.33047903 2.075 4288982942
-0.060955063 -0.33047903 2.075 4288916893
-0.059154272 -0.33047903 2.075 4288850587
-0.062665112 -0.32821554 2.072 4288982429
-0.060896304 -0.32837394 2.0730002 4288784794
-0.059097253 -0.32837394 2.0730002 4288521622
-0.062604629 -0.32611474 2.0700002 4288850587
-0.060837556 -0.32627228 2.0710001 4288850587
-0.059068743 -0.32642984 2.072 4288455829
-0.057298202 -0.32658738 2.0730002 4288324243
-0.060631923 -0.32339069 2.0640001 4288916380
-0.058869191 -0.32354733 2.0650001 4288719001
-0.057104718 -0.32370403 2.066 4288258450
-0.055284973 -0.32354733 2.0650001 4288258450
-0.058840681 -0.32161188 2.0640001 4288850587
-0.057049442 -0.32161188 2.0640001 4288521622
-0.05523143 -0.32145604 2.0630002 4288455829
-0.053441055 -0.32145604 2.0630002 4288587415
-0.058783669 -0.31952313 2.062 4288915867
-0.056994162 -0.31952313 2.062 4288652952
-0.055177882 -0.31936818 2.0610001 4288718488
-0.053363342 -0.31921324 2.0600002 4288850074
-0.056745399 -0.31635919 2.0530002 4288652695
-0.054936934 -0.31620511 2.052 4288718488
-0.053156108 -0.31620511 2.052 4288915867
-0.051300168 -0.31574282 2.049 4289047453
-0.054883387 -0.31413016 2.0500002 4288915869
-0.053078391 -0.31397694 2.049 4289047455
-0.051250096 -0.31367046 2.0470002 4289047455
-0.04944944 -0.31351724 2.046 4288981662
-0.054615665 -0.31083971 2.0400002 4289376420
-0.052845251 -0.31083971 2.0400002 4289376420
-0.05107484 -0.31083971 2.0400002 4289179041
-0.049256086 -0.31053495 2.0380001 4288981662
-0.047487412 -0.31053495 2.0380001 4288981662
-0.052793439 -0.30877855 2.0380001 4289639592
-0.050999731 -0.30862704 2.0370002 4289244834
-0.049207754 -0.30847552 2.036 4288981662
-0.04741751 -0.30832401 2.0350001 4288981662
-0.050949655 -0.3065702 2.0350001 4289244834
-0.049159415 -0.30641958 2.0340002 4289179041
-0.047370907 -0.3062689 2.033 4289047455
-0.045651436 -0.3065702 2.0350001 4288981662
-0.050749362 -0.3036181 2.0270002 4289310629
-0.048990231 -0.3036181 2.0270002 4289310628
-0.0472311 -0.3036181 2.0270002 4289179041
-0.04547197 -0.3036181 2.0270002 4289047456
-0.043712839 -0.3036181 2.0270002 4288915869
-0.048941892 -0.30157334 2.0250001 4289376422
-0.047184497 -0.30157334 2.0250001 4289179043
-0.04544954 -0.30172223 2.026 4288981663
-0.043691278 -0.30172223 2.026 4288850076
-0.047161199 -0.29968005 2.0240002 4289179043
-0.045404673 -0.29968005 2.0240002 4289047456
-0.043669708 -0.29982814 2.0250001 4288981662
-0.041912314 -0.29982814 2.0250001 4288981662
-0.047067996 -0.29734692 2.02 4289310629
-0.045292504 -0.29719973 2.0190001 4289244835
-0.043561887 -0.29734692 2.02 4289244834
-0.041808829 -0.29734692 2.02 4289244834
-0.040035944 -0.29719973 2.0190001 4289179041
-0.045270074 -0.29531336 2.0180001 4289244835
-0.043518756 -0.29531336 2.0180001 4289244834
-0.041746736 -0.295167 2.0170002 4289179041
-0.039976455 -0.2950207 2.016 4289113248
-0.043475624 -0.29328325 2.016 4288981662
-0.041684642 -0.29299226 2.0140002 4288981662
-0.039916966 -0.29284683 2.013 4288981662
-0.038151022 -0.29270133 2.0120001 4289113248
-0.043303099 -0.29038885 2.0080001 4288850076
-0.041539762 -0.29024425 2.0070002 4288915869
-0.039758328 -0.28995502 2.0050001 4289113248
-0.037980366 -0.28966579 2.003 4289310370
-0.036223974 -0.28952116 2.0020001 4289441699
-0.041477673 -0.28808331 2.0040002 4289047455
-0.039718669 -0.28793955 2.003 4289244834
-0.037942443 -0.28765205 2.0010002 4289179041
-0.036151595 -0.28722081 1.9980001 4289113248
-0.039679009 -0.28592753 2.0010002 4289113248
-0.037904523 -0.28564176 1.9990001 4288915869
-0.036097314 -0.28507018 1.9950001 4288784283
-0.034365956 -0.28507018 1.9950001 4288915869
-0.039460886 -0.2826407 1.9900001 4288981662
-0.037714906 -0.28249866 1.9890001 4288784283
-0.035916377 -0.28193054 1.9850001 4288652697
-0.034176469 -0.28178853 1.9840001 4288718490
-0.032438301 -0.28164649 1.983 4288784283
-0.037620094 -0.28007865 1.9840001 4289113248
-0.035880189 -0.27993748 1.983 4288718490
-0.034142017 -0.2797963 1.9820001 4288455318
-0.032389224 -0.27951398 1.9800001 4288521111
-0.030670881 -0.27951398 1.9800001 4288850076
-0.035844002 -0.27794787 1.9810001 4289047453
-0.034107562 -0.27780756 1.9800001 4288389524
-0.032323793 -0.27724633 1.9760001 4288323731
-0.030608922 -0.27724633 1.9760001 4288586904
-0.033918079 -0.27456725 1.9690001 4288586902
-0.032176569 -0.27428836 1.9670001 4288389523
-0.030454017 -0.27414891 1.9660001 4288521367
-0.028733205 -0.27400947 1.9650002 4288719003
-0.033866402 -0.27245459 1.9660001 4288850074
-0.032111134 -0.27203882 1.9630001 4288586902
-0.030407546 -0.27203882 1.9630001 4288652695
-0.028689338 -0.27190024 1.9620001 4288652696
-0.027000371 -0.27203882 1.9630001 4288521367
-0.032062061 -0.26993391 1.96 4288850074
-0.030361077 -0.26993391 1.96 4288718488
-0.028645471 -0.26979616 1.9590001 4288652695
-0.026959106 -0.26993391 1.96 4288652697
-0.02527101 -0.2700716 1.9610001 4288718490
-0.030221663 -0.26701298 1.9510001 4288981661
-0.028528491 -0.26701298 1.9510001 4288981661
-0.026849071 -0.26714984 1.9520001 4289047455
-0.025167916 -0.26728669 1.9530001 4289113248
-0.030190682 -0.26505956 1.9490001 4289310626
-0.028513866 -0.26519555 1.95 4289244834
-0.026835315 -0.26533157 1.9510001 4289310627
-0.025155028 -0.26546755 1.9520001 4289376420
-0.023473006 -0.26560354 1.9530001 4289310627
-0.02848462 -0.26324475 1.9480001 4289244834
-0.026821559 -0.263515 1.95 4289244834
-0.025142141 -0.26365015 1.9510001 4289244834
-0.023460986 -0.26378527 1.9520001 4289179041
-0.021789249 -0.26405555 1.9540001 4289244834
-0.026766542 -0.26129735 1.9460001 4288981662
-0.02506482 -0.26116309 1.9450001 4288915869
-0.023376854 -0.26116309 1.9450001 4288850076
-0.02170004 -0.26129735 1.9460001 4289047455
-0.026725277 -0.25921997 1.9430001 4288850076
-0.025039047 -0.25921997 1.9430001 4288784283
-0.023352817 -0.25921997 1.9430001 4288652697
-0.021655433 -0.25908658 1.9420002 4288718490
-0.019970071 -0.25908658 1.9420002 4289179041
-0.024923066 -0.25635251 1.9340001 4288784283
-0.02330474 -0.25701529 1.9390001 4288586904
-0.02162198 -0.25701529 1.9390001 4288586904
-0.019939221 -0.25701529 1.9390001 4288981662
-0.018256461 -0.25701529 1.9390001 4289573799
-0.023184551 -0.25402731 1.9290001 4288784285
-0.021499319 -0.25389561 1.9280001 4288521112
-0.019826105 -0.25389561 1.9280001 4288652698
-0.018134061 -0.25363225 1.9260001 4289179043
-0.016462583 -0.25363225 1.9260001 4289639594
-0.023160513 -0.25210318 1.927 4288981664
-0.021477016 -0.25197235 1.9260001 4288586906
-0.019795256 -0.25184152 1.9250001 4288389527
-0.018105814 -0.25157988 1.9230001 4288652699
-0.016436942 -0.25157988 1.9230001 4289244836
-0.021410109 -0.24953268 1.9200001 4288784285
-0.019733556 -0.24940272 1.9190001 4288389527
-0.018049324 -0.2491428 1.9170001 4288257941
-0.016385656 -0.2491428 1.9170001 4288915871
-0.01472199 -0.2491428 1.9170001 4289573801
-0.019723272 -0.24761979 1.9180001 4288980894
-0.018039908 -0.24736157 1.9160001 4288915101
-0.01636856 -0.24723248 1.9150001 4289244579
-0.014706629 -0.24723248 1.9150001 4289771180
-0.013044698 -0.24723248 1.9150001 4290100145
-0.019702706 -0.24571031 1.9160001 4289441445
-0.018021077 -0.24545383 1.914 4289507238
-0.01636856 -0.24558209 1.9150001 4289836203
-0.014706629 -0.24558209 1.9150001 4290230961
-0.013044698 -0.24558209 1.9150001 4290297268
-0.018002246 -0.24354956 1.9120001 4289507238
-0.016351467 -0.24367692 1.9130001 4289836203
-0.014691271 -0.24367692 1.9130001 4290296754
-0.013031076 -0.24367692 1.9130001 4290363061
-0.011382767 -0.2439317 1.9150001 4290034352
-0.016342919 -0.24190174 1.9120001 4289638824
-0.014691271 -0.24202824 1.9130001 4290099375
-0.013031076 -0.24202824 1.9130001 4290362547
-0.011382767 -0.24228129 1.9150001 4290165168
-0.016342919 -0.24025393 1.9120001 4289441445
-0.014683591 -0.24025393 1.9120001 4289638824
-0.013024263 -0.24025393 1.9120001 4289967789
-0.011376823 -0.24050523 1.914 4290033582
-0.0097208358 -0.24063089 1.9150001 4289639338
-0.014652872 -0.23810694 1.9080001 4289441445
-0.013003828 -0.23823173 1.909 4289704617
-0.011353048 -0.23835652 1.9100001 4289836203
-0.0096954554 -0.23835652 1.9100001 4289770410
-0.0080420719 -0.23848131 1.9110001 4289704617
-0.012990204 -0.23633866 1.9070001 4289901996
-0.011341159 -0.23646258 1.9080001 4290230961
-0.0096903797 -0.23658651 1.909 4290230961
-0.0080336556 -0.23658651 1.909 4289901996
-0.012976581 -0.234449 1.9050001 4290230961
-0.011329272 -0.23457208 1.9060001 4290362804
-0.0096802264 -0.23469515 1.9070001 4290297267
-0.0080252383 -0.23469515 1.9070001 4289771180
-0.0063635698 -0.234449 1.9050001 4289310629
-0.011275776 -0.23182957 1.8970001 4290100145
-0.009639618 -0.23207398 1.899 4289968559
-0.0079789478 -0.23170735 1.8960001 4289639594
-0.0063301651 -0.23158516 1.8950001 4289244836
-0.004685591 -0.23158516 1.8950001 4289113250
-0.0096142376 -0.22983064 1.8940001 4289639593
-0.0079663228 -0.22970928 1.8930001 4289442215
-0.0063201436 -0.22958796 1.8920001 4289310628
-0.0046757003 -0.2294666 1.891 4289047456
-0.0030281788 -0.2289812 1.8870001 4289113248
-0.0095939329 -0.2277164 1.8900001 4289244835
-0.0079494901 -0.22759593 1.8890001 4289244834
-0.0063067819 -0.22747543 1.8880001 4289179041
-0.0046633375 -0.22723447 1.886 4289113248
-0.0030217597 -0.22687301 1.8830001 4289179041
-0.0013868628 -0.22675252 1.8820001 4289376420
-0.0078905728 -0.22429322 1.8750001 4288915869
-0.0062600155 -0.22417358 1.8740001 4289047455
-0.004633666 -0.22417358 1.8740001 4289113248
-0.0030008978 -0.22369508 1.8700001 4289376420
-0.001377283 -0.22357547 1.8690001 4289442213
0.0002447271 -0.22357547 1.8690001 4289442213
-0.006249994 -0.22220224 1.8710001 4288850076
-0.0046237758 -0.22208348 1.8700001 4289047456
-0.0029960836 -0.22172719 1.8670001 4289310628
-0.0013750723 -0.22160843 1.8660001 4289573799
0.00024433428 -0.22160843 1.8660001 4289508007
-0.0062366324 -0.22011817 1.8670001 4288718492
-0.0046114125 -0.21988237 1.8650001 4288915871
-0.0029912693 -0.21976447 1.8640001 4289179043
-0.0013728616 -0.21964657 1.863 4289508008
0.00024381053 -0.21952866 1.8620001 4289705387
0.0018607444 -0.21964657 1.863 4289836973
-0.0045842142 -0.21698765 1.8540001 4288850078
-0.0029752217 -0.21698765 1.8540001 4289179044
-0.0013662294 -0.21698765 1.8540001 4289573545
0.00024276301 -0.21698765 1.8540001 4289771181
0.0018517553 -0.21698765 1.8540001 4289902510
0.0034626143 -0.21710469 1.8550001 4289705131
-0.0029720122 -0.21515748 1.8520001 4289178788
-0.0013640187 -0.21504129 1.8510001 4289507753
0.00024250113 -0.21515748 1.8520001 4289770925
0.0018497577 -0.21515748 1.8520001 4289836718
0.0034588811 -0.21527365 1.853 4289508010
0.0050697401 -0.21538983 1.8540001 4289179045
-0.0013618079 -0.21310012 1.848 4289179045
0.00024223924 -0.21333075 1.8500001 4289376423
0.001848759 -0.21344607 1.8510001 4289639596
0.0034551478 -0.21344607 1.8510001 4289507754
0.0050642709 -0.21356137 1.8520001 4289178789
-0.0013581234 -0.21093521 1.8430001 4288981411
0.0002414536 -0.21104965 1.8440001 4289178790
0.0018417675 -0.21104965 1.8440001 4289507755
0.003443948 -0.21116412 1.845 4289376170
0.0050478643 -0.21127856 1.8460001 4289047205
0.0066499137 -0.21127856 1.8460001 4289046693
0.00024119172 -0.20923327 1.8420001 4289178536
0.0018397699 -0.20923327 1.8420001 4289441708
0.0034402148 -0.20934686 1.8430001 4289375915
0.0050451295 -0.20957404 1.845 4289047206
0.0066463114 -0.20957404 1.845 4289112231
0.0082474928 -0.20957404 1.845 4288914596
0.001838771 -0.20753305 1.8410001 4289376172
0.0034364813 -0.20753305 1.8410001 4289507503
0.0050396607 -0.20775852 1.8430001 4289244331
0.0066391067 -0.20775852 1.8430001 4289375149
0.0082385531 -0.20775852 1.8430001 4289375149
0.0018277845 -0.20471591 1.83 4290165433
0.0034159485 -0.20471591 1.83 4290494400
0.0050259884 -0.20561084 1.8380001 4290560193
0.0066210949 -0.20561084 1.8380001 4290625731
0.0082162023 -0.20561084 1.8380001 4290888902
0.0098059699 -0.20549896 1.8370001 4290888903
0.0034084818 -0.20269476 1.8260001 4292205019
0.0050232536 -0.2039158 1.8370001 4292468192
0.0066138902 -0.20380479 1.8360001 4292402399
0.0082072616 -0.20380479 1.8360001 4292402399
0.0097952951 -0.20369379 1.835 4292467936
0.011381592 -0.20358278 1.8340001 4292533729
0.0050177849 -0.20211235 1.835 4292928744
0.0066066855 -0.2020022 1.8340001 4292994537
0.0081938505 -0.20189206 1.8330001 4292928487
0.0097792801 -0.20178191 1.8320001 4292862695
0.01136918 -0.20178191 1.8320001 4292994281
0.0094109559 -0.18810445 1.7630001 4293325042
0.019881411 -0.18586384 1.7420001 4292930284
0.00942697 -0.18690255 1.766 4291877596
0.019892823 -0.18446839 1.743 4285101174
0.021417765 -0.18457422 1.7440001 4283785314
0.019892823 -0.18296623 1.743 4280364848
0.021417765 -0.1830712 1.7440001 4279969320
0.012612468 -0.18562847 1.7830001 4279772711
0.014175724 -0.18583669 1.7850001 4279706661
0.015733644 -0.1859408 1.7860001 4279772711
0.017264269 -0.18573257 1.784 4279772711
0.018759787 -0.18521202 1.779 4280430641
0.012633688 -0.18440159 1.7860001 4280693043
0.014191609 -0.18450482 1.7870001 4280758579
0.015742455 -0.18450482 1.7870001 4280561714
0.017264269 -0.18419509 1.784 4280561457
0.018780876 -0.18388534 1.7810001 4280693043
0.020349342 -0.18409184 1.7830001 4280693300
0.024360722 -0.17944565 1.738 4280824629
0.014231316 -0.18347667 1.7920001 4280758836
0.015777692 -0.18337429 1.7910001 4280693556
0.017312655 -0.18316953 1.789 4280628020
0.018854693 -0.18306713 1.7880001 4280628020
0.020292277 -0.18204327 1.7780001 4280890935
0.021798471 -0.18173611 1.7750001 4280890422
0.0228524 -0.1779478 1.738 4280758836
0.024332691 -0.17774303 1.7360001 4280693043
0.025824392 -0.17764065 1.7350001 4280890422
0.014231316 -0.18193229 1.7920001 4280889654
0.015786503 -0.18193229 1.7920001 4280758582
0.017312655 -0.18162772 1.789 4280561202
0.018854693 -0.18152618 1.7880001 4280890167
0.020303691 -0.18061246 1.779 4280824374
0.021810751 -0.18030788 1.7760001 4280890165
0.023312606 -0.18000332 1.7730001 4280758579
0.015786503 -0.18038788 1.7920001 4280824118
0.017322334 -0.18018657 1.7900001 4280758325
0.018854693 -0.17998524 1.7880001 4280889911
0.020326516 -0.17928061 1.7810001 4280758325
0.021835312 -0.17897862 1.7780001 4280758325
0.023338903 -0.17867662 1.7750001 4280824117
0.027235597 -0.17404613 1.7290001 4280758579
0.017312655 -0.1785441 1.789 4280888884
0.018844148 -0.1783445 1.7870001 4280560433
0.020326516 -0.1777457 1.7810001 4280692019
0.021847595 -0.17754608 1.779 4280955191
0.0233652 -0.1773465 1.7770001 4281020984
0.024753187 -0.17624867 1.766 4280955445
0.026241155 -0.17594928 1.7630001 4280824116
0.027235597 -0.17255604 1.7290001 4280758579
0.028719489 -0.17245623 1.728 4280692786
0.017302979 -0.17690335 1.7880001 4280033321
0.018844148 -0.17680442 1.7870001 4280297261
0.020315103 -0.17611185 1.7800001 4280363054
0.021835312 -0.17591396 1.7780001 4280889398
0.023352051 -0.17571609 1.7760001 4280955191
0.024753187 -0.17472669 1.766 4280889398
0.026226269 -0.17433093 1.7620001 4280955191
0.027471881 -0.17255004 1.7440001 4280955445
0.018833602 -0.17516626 1.7860001 4285494910
0.020303691 -0.17447971 1.779 4283850085
0.021823032 -0.17428356 1.7770001 4280362540
0.023338903 -0.17408741 1.7750001 4280033575
0.024753187 -0.17320471 1.766 4281020468
0.026226269 -0.1728124 1.7620001 4281086261
0.027692413 -0.17242008 1.7580001 4281087031
0.02893555 -0.17075278 1.7410001 4280955445
0.020280864 -0.1727521 1.7770001 4293257714
0.021798471 -0.17255767 1.7750001 4283717983
0.023312606 -0.17236324 1.7730001 4279770403
0.024739169 -0.17158552 1.7650001 4279638817
0.026226269 -0.17129387 1.7620001 4280888884
0.027692413 -0.17090499 1.7580001 4280889652
0.028985409 -0.16954398 1.7440001 4280889652
0.030446474 -0.16925234 1.7410001 4281021238
0.020269452 -0.17112428 1.7760001 4294178815
0.021798471 -0.17102793 1.7750001 4290494662
0.023325754 -0.17093158 1.774 4280033575
0.024739169 -0.17006439 1.7650001 4279638817
0.026226269 -0.16977534 1.7620001 4281086263
0.027708165 -0.16948627 1.7590001 4280954675
0.029002031 -0.16813731 1.7450001 4281020468
0.030463964 -0.16784824 1.7420001 4281087031
0.021798471 -0.16949819 1.7750001 4294047484
0.023312606 -0.1693072 1.7730001 4286415496
0.024739169 -0.16854326 1.7650001 4279244059
0.026226269 -0.16825679 1.7620001 4279704610
0.027708165 -0.16797031 1.7590001 4281086263
0.029018648 -0.16672891 1.7460001 4281217849
0.03048145 -0.16644245 1.743 4280889652
0.023273159 -0.1674953 1.7700001 4292797417
0.024711138 -0.16683288 1.7630001 4283454811
0.026211387 -0.16664362 1.761 4279967782
0.027708165 -0.16645437 1.7590001 4279967782
0.029085131 -0.1656027 1.7500001 4280954677
0.030516427 -0.16512954 1.7450001 4280758066
0.031902332 -0.16446714 1.738 4280758066
0.034316234 -0.16162823 1.7080001 4280560687
0.02326001 -0.16587609 1.7690001 4293784312
0.024697119 -0.16521972 1.7620001 4289639353
0.026196502 -0.16503218 1.7600001 4279704610
0.027692413 -0.16484465 1.7580001 4279638817
0.029085131 -0.16409451 1.7500001 4280757298
0.030516427 -0.16362566 1.7450001 4280757296
0.031902332 -0.16296928 1.738 4280757296
0.033372208 -0.16278175 1.7360001 4280626480
0.034316234 -0.16015624 1.7080001 4280560687
0.024697119 -0.16370119 1.7620001 4293784310
0.026196502 -0.16351537 1.7600001 4286941838
0.027676659 -0.16323665 1.7570001 4279375643
0.029085131 -0.1625863 1.7500001 4279375643
0.030516427 -0.16212177 1.7450001 4280823859
0.031902332 -0.16147143 1.738 4280823859
0.033372208 -0.16128561 1.7360001 4280823859
0.034316234 -0.15868424 1.7080001 4280626480
0.035777561 -0.15859133 1.7070001 4280494893
0.026151849 -0.16172242 1.7570001 4293455345
0.027645156 -0.16153833 1.7550001 4284770669
0.029068509 -0.16098607 1.7490001 4279836194
0.030533914 -0.16070993 1.7460001 4279771171
0.031902332 -0.15997358 1.738 4280955445
0.033372208 -0.15978949 1.7360001 4280955445
0.034838613 -0.1596054 1.7340001 4280692273
0.026136965 -0.16011702 1.756 4293784312
0.027645156 -0.16002582 1.7550001 4292271071
0.029068509 -0.15947872 1.7490001 4282928465
0.030533914 -0.15920518 1.7460001 4279967780
0.03192069 -0.15856691 1.7390001 4280954931
0.033391431 -0.15838455 1.7370001 4280758066
0.0348587 -0.15820217 1.7350001 4280823859
0.027629402 -0.15842301 1.7540001 4294047482
0.029068509 -0.1579714 1.7490001 4289178800
0.030533914 -0.15770043 1.7460001 4279836194
0.031939045 -0.15715852 1.7400001 4279639071
0.033391431 -0.15688756 1.7370001 4280626479
0.0348587 -0.15670691 1.7350001 4280692272
0.029002031 -0.15610623 1.7450001 4293192173
0.030498939 -0.15601678 1.7440001 4283389016
0.031902332 -0.15548003 1.738 4279836194
0.033372208 -0.15530109 1.7360001 4279705377
0.034838613 -0.15512219 1.7340001 4280758065
0.028985409 -0.15451375 1.7440001 4293521138
0.03048145 -0.15442516 1.743 4289441972
0.031883977 -0.15389358 1.7370001 4280954675
0.03333376 -0.15362778 1.7340001 4279705120
0.034798425 -0.15345058 1.7320001 4279968549
0.030446474 -0.15274753 1.7410001 4293521138
0.031847265 -0.15222111 1.7350001 4287731354
0.033314537 -0.15204564 1.733 4280691502
0.034778338 -0.15187018 1.7310001 4280099365
0.036669645 -0.13726059 1.6800001 4290890188
0.046875551 -0.13726059 1.6800001 4280429614
0.046987157 -0.13613608 1.6840001 4280495407
0.048477385 -0.13621694 1.6850001 4280429614
0.047098767 -0.1350047 1.6880001 4280495407
0.048563696 -0.1350047 1.6880001 4280495407
0.039915498 -0.13402463 1.6940001 4280692273
0.041385636 -0.13402463 1.6940001 4280626480
0.042906366 -0.13418287 1.6960001 4280626737
0.04437824 -0.13418287 1.6960001 4280561200
0.045877147 -0.134262 1.697 4280495407
0.047377788 -0.13434111 1.6980001 4280429614
0.048851397 -0.13434111 1.6980001 4280561200
0.041434497 -0.13272122 1.6960001 4280823602
0.042956963 -0.13287772 1.6980001 4280757810
0.044430573 -0.13287772 1.6980001 4280626480
0.045904178 -0.13287772 1.6980001 4280560687
0.04740569 -0.13295597 1.6990001 4280560687
0.048880167 -0.13295597 1.6990001 4280626480
0.050354641 -0.13295597 1.6990001 4280692273
0.041581079 -0.13172391 1.702 4280823089
0.043083455 -0.13180131 1.7030001 4280823089
0.044561405 -0.13180131 1.7030001 4280888882
0.04601232 -0.13172391 1.702 4280757296
0.047489397 -0.13172391 1.702 4280757296
0.048966479 -0.13172391 1.702 4280757296
0.050473191 -0.13180131 1.7030001 4280823090
0.043083455 -0.13033362 1.7030001 4280757297
0.044561405 -0.13033362 1.7030001 4280823090
0.04603935 -0.13033362 1.7030001 4280888882
0.047489397 -0.13025708 1.702 4280823089
0.048995245 -0.13033362 1.7030001 4280757297
0.050473191 -0.13033362 1.7030001 4280823091
0.05195114 -0.13033362 1.7030001 4280888884
0.043083455 -0.12886593 1.7030001 4280757298
0.044561405 -0.12886593 1.7030001 4280888628
0.04603935 -0.12886593 1.7030001 4280823092
0.0475173 -0.12886593 1.7030001 4280691249
0.048995245 -0.12886593 1.7030001 4280362541
0.050473191 -0.12886593 1.7030001 4280362540
0.051981647 -0.12894161 1.7040001 4280494126
0.044482905 -0.12717381 1.7 4280296493
0.045958247 -0.12717381 1.7 4280230700
0.047461495 -0.12724863 1.7010001 4280230700
0.048937704 -0.12724863 1.7010001 4279572770
0.050413918 -0.12724863 1.7010001 4279507232
0.051920637 -0.12732343 1.702 4279441439
0.053397715 -0.12732343 1.702 4279770147
0.045931216 -0.12563477 1.6990001 4280428080
0.04740569 -0.12563477 1.6990001 4281086009
0.048908934 -0.12570871 1.7 4281678146
0.050384279 -0.12570871 1.7 4282138697
0.051890127 -0.12578267 1.7010001 4282467662
0.053366341 -0.12578267 1.7010001 4283388764
0.045904178 -0.12409745 1.6980001 4286151816
0.047377788 -0.12409745 1.6980001 4287599262
0.048851397 -0.12409745 1.6980001 4288652206
0.050354641 -0.12417053 1.6990001 4289639098
0.051829118 -0.12417053 1.6990001 4290362820
0.053303596 -0.12417053 1.6990001 4291349460
0.054778069 -0.12417053 1.6990001 4292270562
0.047266182 -0.12234518 1.6940001 4293915133
0.048736319 -0.12234518 1.6940001 4294046718
0.050206453 -0.12234518 1.6940001 4294244351
0.051707093 -0.1224174 1.6950001 4294244349
0.053178098 -0.1224174 1.6950001 4293849594
0.054649103 -0.1224174 1.6950001 4293849594
0.056120109 -0.1224174 1.6950001 4293652472
0.048678778 -0.12074252 1.692 4293651961
0.050176814 -0.12081388 1.6930001 4293783801
0.05167659 -0.12088525 1.6940001 4293651960
0.053146727 -0.12088525 1.6940001 4293586423
0.054616865 -0.12088525 1.6940001 4293455094
0.056053888 -0.12081388 1.6930001 4293060335
0.048650008 -0.11921382 1.6910001 4293125617
0.05014718 -0.11928432 1.692 4293125874
0.051646084 -0.11935481 1.6930001 4293125874
0.053115353 -0.11935481 1.6930001 4293060337
0.054584622 -0.11935481 1.6930001 4293126129
0.056020781 -0.11928432 1.692 4293060335
0.057489183 -0.11928432 1.692 4293060335
0.049969353 -0.11740828 1.6860001 4293060336
0.051463049 -0.11747792 1.687 4293060336
0.05292711 -0.11747792 1.687 4293126128
0.054358933 -0.11740828 1.6860001 4293126128
0.055789016 -0.11733865 1.6850001 4293126128
0.057251345 -0.11733865 1.6850001 4293060335
0.058678821 -0.117269 1.6840001 4292994799
0.05140204 -0.11588647 1.6850001 4292994542
0.052864365 -0.11588647 1.6850001 4293126128
0.054294448 -0.11581769 1.6840001 4293126128
0.055722799 -0.11574892 1.6830001 4293060591
0.057183389 -0.11574892 1.6830001 4292995055
0.058574285 -0.11561137 1.6810001 4292995312
0.051341027 -0.11429847 1.6830001 4292929262
0.052801616 -0.11429847 1.6830001 4293060591
0.054229967 -0.11423056 1.682 4292995055
0.055656582 -0.11416264 1.6810001 4292929519
0.057081457 -0.11409473 1.6800001 4292929519
0.0585046 -0.11402682 1.6790001 4292995312
0.059961718 -0.11402682 1.6790001 4293061105
0.052613378 -0.1124457 1.677 4292995312
0.05403652 -0.11237865 1.6760001 4292995312
0.055491034 -0.11237865 1.6760001 4292995312
0.056911569 -0.1123116 1.6750001 4292995312
0.058330372 -0.11224455 1.674 4292995312
0.059783153 -0.11224455 1.674 4292995312
0.061272509 -0.1123116 1.6750001 4292929519
0.054004278 -0.11086804 1.6750001 4293061105
0.055457924 -0.11086804 1.6750001 4293061105
0.056877594 -0.11080185 1.674 4293061105
0.058295529 -0.11073566 1.6730001 4292995312
0.059783153 -0.11080185 1.674 4292995312
0.061235931 -0.11080185 1.674 4292995312
0.053972036 -0.10935916 1.674 4293061105
0.055424813 -0.10935916 1.674 4293061105
0.05684362 -0.10929383 1.6730001 4293061105
0.058260679 -0.10922851 1.6720001 4293061105
0.059747443 -0.10929383 1.6730001 4293061105
0.061199352 -0.10929383 1.6730001 4293061105
0.062726155 -0.10942449 1.6750001 4293061105
0.055259269 -0.10759413 1.669 4293126898
