# .PCD v0.7 - Point Cloud Data file format
VERSION 0.7
FIELDS x y z rgba
SIZE 4 4 4 4
TYPE F F F U
COUNT 1 1 1 1
WIDTH 716
HEIGHT 1
VIEWPOINT 0 0 0 1 0 0 0
POINTS 716
DATA ascii
-0.30717701 -0.2047548 1.789 4290298564
-0.30442977 -0.19986752 1.7730001 4279706661
-0.22800817 -0.20031844 1.7770001 4283193432
-0.30442977 -0.19681148 1.7730001 4279904296
-0.22378467 -0.19320905 1.7680001 4280101159
-0.2189682 -0.19167912 1.7540001 4280166952
-0.21567757 -0.19146055 1.7520001 4280298282
-0.21385032 -0.19255337 1.7620001 4280363819
-0.21067238 -0.19244409 1.761 4280429613
-0.20749792 -0.1923348 1.7600001 4280561199
-0.20432694 -0.19222553 1.7590001 4280495407
-0.048674449 -0.19244409 1.761 4290232259
-0.045566078 -0.19222553 1.7590001 4291022032
-0.21859369 -0.18833317 1.751 4280232233
-0.21555448 -0.18833317 1.751 4280298027
-0.21263663 -0.18844071 1.7520001 4280495405
-0.094039835 -0.18844071 1.7520001 4280890168
-0.066404969 -0.18768781 1.7450001 4280298541
-0.063267224 -0.18736514 1.7420001 4280232492
-0.060243636 -0.18736514 1.7420001 4280232492
-0.057285741 -0.18758026 1.7440001 4280298028
-0.054165348 -0.18725759 1.7410001 4279969063
-0.042295463 -0.18822561 1.7500001 4279640613
-0.21859369 -0.18531504 1.751 4280166442
-0.21580069 -0.18552673 1.7530001 4280166442
-0.21300073 -0.18573838 1.7550001 4280298027
-0.093127355 -0.1836217 1.7350001 4280429873
-0.074885689 -0.18319838 1.7310001 4280693813
-0.071964242 -0.18341003 1.733 4280759606
-0.069155231 -0.18393922 1.738 4280759606
-0.066214696 -0.18415089 1.7400001 4280824886
-0.063230902 -0.18425672 1.7410001 4280824629
-0.060278215 -0.18446839 1.743 4280758836
-0.21784465 -0.18167228 1.7450001 4280231722
-0.21530826 -0.18208872 1.7490001 4280232235
-0.066366911 -0.18156818 1.7440001 4280693043
-0.032993428 -0.18115173 1.7400001 4280496947
0.0091600679 -0.17865309 1.7160001 4280760119
0.012103158 -0.17813253 1.7110001 4280891448
-0.43313706 -0.17876689 1.7460001 4291879136
-0.21647142 -0.17753826 1.7340001 4279245340
-0.2130924 -0.1772311 1.7310001 4280034855
-0.10151395 -0.17651439 1.7240001 4293719547
0.015178652 -0.176412 1.723 4280693813
-0.32329565 -0.17535475 1.7420001 4292930543
-0.32045594 -0.17545542 1.743 4293326071
-0.21998741 -0.1749521 1.738 4293652978
-0.21709561 -0.17505276 1.7390001 4292732390
-0.21358481 -0.17465012 1.7350001 4280626993
-0.1016906 -0.1738448 1.7270001 4293522425
0.015213889 -0.1738448 1.7270001 4280496436
0.2330865 -0.17314017 1.72 4292731624
-0.1016906 -0.17086805 1.7270001 4289641150
0.14897378 -0.16958185 1.7140001 4281088571
-0.44666746 -0.16798854 1.728 4292403686
-0.10139619 -0.16740525 1.7220001 4282535507
-0.44640899 -0.16491456 1.7270001 4292996078
0.24089681 -0.16147687 1.6910001 4280824629
0.24103928 -0.15865594 1.692 4280824628
0.24455285 -0.159031 1.6960001 4280693043
-0.096921489 -0.15026107 1.6960001 4280693818
-0.093811512 -0.14999528 1.6930001 4280496695
0.014773416 -0.14857773 1.677 4280693043
0.22180676 -0.14689438 1.6580001 4280954675
0.22482006 -0.14698298 1.659 4280692016
0.22811133 -0.14724877 1.6620001 4280626735
0.23127405 -0.14742596 1.664 4280626992
0.00022076507 -0.14646903 1.6860001 4280890422
0.0031471525 -0.14646903 1.6860001 4280627250
0.0060663354 -0.14629528 1.6840001 4280561457
0.0089732362 -0.14603466 1.6810001 4280561457
0.011883873 -0.14594778 1.6800001 4280561457
0.2250911 -0.1442972 1.6610001 4280758066
0.22811133 -0.14438406 1.6620001 4280495149
0.23099606 -0.14438406 1.6620001 4280429613
0.0060555283 -0.1431372 1.6810001 4280824629
0.22495557 -0.14134905 1.6600001 4280692272
0.22783685 -0.14134905 1.6600001 4280429613
0.2308571 -0.14143421 1.6610001 4280429613
0.22274323 -0.13890493 1.6650001 4280757296
0.22482006 -0.13840437 1.659 4280692273
0.22783685 -0.13848779 1.6600001 4280561199
0.2308571 -0.13857122 1.6610001 4280429613
0.112383 -0.13538142 1.6570001 4281087031
0.11491126 -0.13497292 1.6520001 4280758066
0.11784993 -0.13505462 1.6530001 4280429101
0.22482006 -0.13554484 1.659 4280955445
0.2279741 -0.13570824 1.6610001 4280626992
0.2308571 -0.13570824 1.6610001 4280495406
0.11251865 -0.13268529 1.659 4279639585
0.11498082 -0.13220543 1.6530001 4280889652
0.11770733 -0.13204548 1.651 4280561200
0.23176996 -0.12888668 1.6470001 4280495404
0.23477113 -0.12896496 1.6480001 4280561197
0.23134778 -0.12581824 1.6440001 4280561197
0.23434374 -0.12589478 1.6450001 4280561197
-0.23573373 -0.075771369 1.4460001 4280428580
-0.23209487 -0.07540457 1.439 4280165408
-0.22895901 -0.07519497 1.4350001 4280231455
-0.22536355 -0.074828163 1.4280001 4280231455
-0.22226064 -0.074618563 1.424 4280165661
-0.21948032 -0.074513763 1.4220001 4280165661
-0.21670693 -0.074408956 1.4200001 4280165661
-0.21454398 -0.074513763 1.4220001 4280034076
-0.21252324 -0.074670963 1.4250001 4280034076
-0.21136387 -0.076033384 1.4510001 4280034078
-0.20927717 -0.076190583 1.4540001 4279968029
-0.20746444 -0.076452583 1.4590001 4280494374
-0.23605977 -0.073380336 1.4480001 4280625959
-0.23225617 -0.072974913 1.4400001 4280560166
-0.2292781 -0.072822876 1.437 4280428580
-0.22583699 -0.072518826 1.4310001 4280560165
-0.22241673 -0.07221476 1.4250001 4280560420
-0.21978901 -0.072164081 1.424 4280428834
-0.21701215 -0.072062731 1.4220001 4280363041
-0.21499661 -0.07221476 1.4250001 4280494627
-0.21311979 -0.072417468 1.429 4280625959
-0.21092686 -0.073380336 1.4480001 4280625959
-0.20870143 -0.073481686 1.45 4280625959
-0.20689565 -0.073735066 1.455 4280625961
-0.23807877 -0.070737623 1.4450001 4280692006
-0.23508163 -0.070590764 1.442 4280560420
-0.23193358 -0.070394948 1.4380001 4280560166
-0.22879943 -0.070199132 1.434 4280494373
-0.22567919 -0.070003323 1.4300001 4280626214
-0.2225728 -0.069807507 1.4260001 4280889385
-0.22009769 -0.069807507 1.4260001 4280823592
-0.21762259 -0.069807507 1.4260001 4280889385
-0.21605273 -0.070101231 1.432 4280823592
-0.21401463 -0.07024809 1.4350001 4280757799
-0.21255574 -0.070590764 1.442 4280626213
-0.21034418 -0.070688672 1.4440001 4280560420
-0.20798178 -0.070737623 1.4450001 4280560166
-0.20547369 -0.070737623 1.4450001 4280428580
-0.20338699 -0.070884489 1.4480001 4280428582
-0.20128988 -0.071031347 1.4510001 4280560168
-0.23791401 -0.068199717 1.4440001 4280757799
-0.23475559 -0.0680108 1.4400001 4280692006
-0.23096585 -0.067632958 1.432 4280626213
-0.22784211 -0.067444049 1.4280001 4280560420
-0.2250479 -0.067349583 1.4260001 4280494627
-0.22226064 -0.067255124 1.424 4280626213
-0.21994336 -0.067302354 1.4250001 4280626213
-0.21777521 -0.067396812 1.427 4280626213
-0.21605273 -0.067632958 1.432 4280560420
-0.21401463 -0.067774653 1.4350001 4280560420
-0.21211353 -0.06796357 1.439 4280625959
-0.20961586 -0.06796357 1.439 4280625959
-0.20683032 -0.067869104 1.437 4280560166
-0.20419392 -0.067821883 1.4360001 4280625961
-0.2022633 -0.0680108 1.4400001 4280494375
-0.20031878 -0.068199717 1.4440001 4280362276
-0.25104201 -0.06721247 1.4770001 4280099617
-0.24730076 -0.066893928 1.47 4280231201
-0.24458276 -0.06684842 1.4690001 4280494627
-0.23741975 -0.065574251 1.4410001 4280494627
-0.23394045 -0.06530121 1.4350001 4280428834
-0.23032069 -0.064982675 1.4280001 4280428834
-0.22720392 -0.06480065 1.424 4280428834
-0.22457446 -0.064755142 1.4230001 4280560420
-0.22179238 -0.064664125 1.4210001 4280626213
-0.21948032 -0.064709634 1.4220001 4280625958
-0.21746999 -0.064846158 1.4250001 4280560422
-0.2156001 -0.065028176 1.429 4280494372
-0.21356721 -0.065164693 1.432 4280494373
-0.2113765 -0.065255702 1.434 4280560166
-0.2080135 -0.064982675 1.4280001 4280362787
-0.2058228 -0.065073684 1.4300001 4280428580
-0.20362513 -0.065164693 1.432 4280362789
-0.20198238 -0.065437734 1.4380001 4280099617
-0.20018007 -0.06566526 1.4430001 4280823340
-0.19863437 -0.065983802 1.45 4281612856
-0.1976054 -0.066484369 1.4610001 4282139200
-0.19506955 -0.066484369 1.4610001 4281810237
-0.19306083 -0.066666394 1.465 4281743931
-0.19090818 -0.066802919 1.4680001 4281875519
-0.18848847 -0.06684842 1.4690001 4281414713
-0.18657161 -0.067075953 1.4740001 4281019955
-0.24951227 -0.064272597 1.4680001 4280889133
-0.24025387 -0.063178033 1.4430001 4280823592
-0.23774926 -0.063178033 1.4430001 4280626213
-0.23459254 -0.063002907 1.439 4280363041
-0.23112714 -0.062740214 1.4330001 4280165662
-0.22736347 -0.062389955 1.4250001 4280165662
-0.22457446 -0.062302385 1.4230001 4280297248
-0.22163631 -0.062171035 1.4200001 4280428580
-0.21901728 -0.062127259 1.419 4280362787
-0.21655431 -0.062127259 1.419 4280296994
-0.21409136 -0.062127259 1.419 4280296994
-0.21192668 -0.062214822 1.4210001 4280165408
-0.20990248 -0.062346168 1.424 4280296994
-0.20786785 -0.062477514 1.427 4280691752
-0.20524706 -0.062433731 1.4260001 4281481268
-0.2049049 -0.063090466 1.4410001 4282073405
-0.20254423 -0.063134253 1.442 4282731335
-0.20018007 -0.063178033 1.4430001 4282666312
-0.19808643 -0.063309379 1.4460001 4282468163
-0.19611761 -0.063484512 1.45 4281612856
-0.19373438 -0.063528299 1.4510001 4281612345
-0.19187477 -0.063747205 1.4560001 4281480759
-0.18999784 -0.063966118 1.4610001 4280822831
-0.18771861 -0.064053677 1.4630001 4280625197
-0.18593873 -0.064316377 1.4690001 4280033060
-0.24866244 -0.06153198 1.4630001 4281481272
-0.23975439 -0.060564626 1.4400001 4281349682
-0.23692545 -0.060480513 1.4380001 4281810232
-0.23410349 -0.060396396 1.4360001 4281613108
-0.23096585 -0.060228158 1.432 4281218350
-0.22800168 -0.060101982 1.429 4281284143
-0.22520573 -0.060017865 1.427 4281218095
-0.22210455 -0.059849627 1.4230001 4281218095
-0.21932596 -0.059765514 1.4210001 4281218096
-0.21670693 -0.059723452 1.4200001 4281218095
-0.21409136 -0.059681397 1.419 4281612854
-0.21192668 -0.059765514 1.4210001 4282007613
-0.20960766 -0.059807576 1.4220001 4282468165
-0.2075765 -0.059933752 1.4250001 4282731337
-0.20625459 -0.06027022 1.4330001 4282468163
-0.20405172 -0.060354337 1.4350001 4282073407
-0.20184192 -0.06043845 1.437 4281744442
-0.19948643 -0.060480513 1.4380001 4281547063
-0.19753847 -0.060648751 1.442 4281283891
-0.19571185 -0.060859043 1.447 4281349173
-0.19346733 -0.060943156 1.4490001 4281020208
-0.191743 -0.061195511 1.455 4280691245
-0.18973775 -0.061363749 1.4590001 4279638557
-0.18746199 -0.061447863 1.4610001 4280296232
-0.185559 -0.061658155 1.4660001 4289178287
-0.2542614 -0.059131283 1.4660001 4283717982
-0.25051495 -0.058848944 1.4590001 4279573021
-0.2452631 -0.058203578 1.4430001 4280494122
-0.24242203 -0.058122907 1.4410001 4281283893
-0.23925489 -0.057961565 1.437 4281349684
-0.2362664 -0.05784056 1.434 4281415477
-0.23345137 -0.057759892 1.432 4281349683
-0.23064329 -0.057679225 1.4300001 4281349683
-0.22784211 -0.057598554 1.4280001 4281283891
-0.22520573 -0.057558216 1.427 4281283891
-0.22226064 -0.057437211 1.424 4281481271
-0.21963465 -0.057396874 1.4230001 4281612857
-0.21701215 -0.057356544 1.4220001 4281612856
-0.21439311 -0.057316206 1.4210001 4281349686
-0.21207583 -0.057356544 1.4220001 4281349686
-0.20975506 -0.057396874 1.4230001 4281349686
-0.2075765 -0.057477549 1.4250001 4281283893
-0.20567885 -0.057638887 1.429 4281283893
-0.20334075 -0.057679225 1.4300001 4281349686
-0.20128009 -0.05780023 1.4330001 4281283893
-0.19962518 -0.058042239 1.439 4281086514
-0.19781244 -0.058243915 1.4440001 4280954928
-0.19557661 -0.058324583 1.4460001 4281020721
-0.19386789 -0.058566593 1.452 4280099106
-0.18934759 -0.058727935 1.4560001 4286481029
-0.1875903 -0.058969948 1.462 4292007642
-0.25408798 -0.056565806 1.465 4292336866
-0.25034326 -0.056295522 1.4580001 4288191905
-0.24492317 -0.055639129 1.4410001 4282731085
-0.24208555 -0.055561904 1.439 4279375641
-0.23892191 -0.055407457 1.4350001 4279836446
-0.2359369 -0.055291623 1.432 4279704859
-0.23345137 -0.055291623 1.432 4280099617
-0.23064329 -0.055214401 1.4300001 4280823084
-0.22768256 -0.055098567 1.427 4280954671
-0.2250479 -0.055059955 1.4260001 4281283380
-0.22226064 -0.054982733 1.424 4281349431
-0.21948032 -0.054905508 1.4220001 4281415225
-0.21701215 -0.054905508 1.4220001 4281481018
-0.21454398 -0.054905508 1.4220001 4281481018
-0.21222496 -0.054944124 1.4230001 4281612604
-0.20990248 -0.054982733 1.424 4281546811
-0.2075765 -0.055021346 1.4250001 4281481272
-0.20553493 -0.05513718 1.4280001 4281218100
-0.20334075 -0.055214401 1.4300001 4281086001
-0.20170146 -0.055446073 1.4360001 4279967520
-0.19948643 -0.055523295 1.4380001 4279704861
-0.19767545 -0.055716351 1.4430001 4280099106
-0.19530609 -0.055754963 1.4440001 4281678138
-0.19346733 -0.055948019 1.4490001 4287731094
-0.19147943 -0.056102466 1.4530001 4291678674
-0.18908753 -0.056141078 1.4540001 4292073433
-0.1875903 -0.056449968 1.462 4291612883
-0.25391454 -0.054003768 1.4640001 4291349971
-0.25034326 -0.053782441 1.4580001 4292073691
-0.24492317 -0.053155348 1.4410001 4292271326
-0.24208555 -0.053081572 1.439 4290428866
-0.23892191 -0.052934021 1.4350001 4288126365
-0.2359369 -0.052823357 1.432 4283981406
-0.23328835 -0.052786469 1.4310001 4280625450
-0.230482 -0.052712694 1.429 4279441176
-0.22768256 -0.052638918 1.427 4279375383
-0.2248901 -0.052565143 1.4250001 4279704348
-0.22210455 -0.052491367 1.4230001 4279572764
-0.21948032 -0.052454479 1.4220001 4279770143
-0.21701215 -0.052454479 1.4220001 4279901986
-0.21454398 -0.052454479 1.4220001 4279967779
-0.21222496 -0.052491367 1.4230001 4279770400
-0.20990248 -0.052528255 1.424 4279967779
-0.2075765 -0.052565143 1.4250001 4280165412
-0.205391 -0.052638918 1.427 4279770654
-0.20362513 -0.052823357 1.432 4281283380
-0.20156099 -0.052934021 1.4350001 4285428339
-0.19934772 -0.053007796 1.437 4289704884
-0.19740148 -0.053155348 1.4410001 4292205018
-0.19517085 -0.053229123 1.4430001 4292205018
-0.19333382 -0.053413562 1.4480001 4292139225
-0.19134766 -0.053561114 1.452 4291744467
-0.18895747 -0.053598002 1.4530001 4291744723
-0.18771861 -0.05396688 1.4630001 4291876053
-0.25356767 -0.051410012 1.462 4289310386
-0.24999985 -0.05119903 1.4560001 4292007899
-0.24492317 -0.050671566 1.4410001 4291744727
-0.24208555 -0.050601237 1.439 4291744727
-0.23875539 -0.050425418 1.434 4292205277
-0.23577213 -0.050319925 1.4310001 4292336863
-0.23328835 -0.050319925 1.4310001 4291941848
-0.230482 -0.050249595 1.429 4291481297
-0.22736347 -0.050108939 1.4250001 4290297023
-0.2248901 -0.050108939 1.4250001 4288981163
-0.22210455 -0.050038613 1.4230001 4287928220
-0.21948032 -0.050003447 1.4220001 4286678409
-0.21716475 -0.050038613 1.4230001 4287270545
-0.21469486 -0.050038613 1.4230001 4287270545
-0.21237411 -0.050073776 1.424 4287402131
-0.20990248 -0.050073776 1.424 4289639093
-0.20772217 -0.050144102 1.4260001 4291283918
-0.20553493 -0.050214432 1.4280001 4292139227
-0.20362513 -0.050355088 1.432 4292402399
-0.20156099 -0.050460581 1.4350001 4292139227
-0.199209 -0.050495747 1.4360001 4292336606
-0.19726449 -0.050636403 1.4400001 4291810262
-0.19544135 -0.050812222 1.4450001 4291678933
-0.19320029 -0.050882552 1.447 4291744980
-0.19161123 -0.0511287 1.4540001 4291942359
-0.18960769 -0.051269356 1.4580001 4291679187
-0.24492317 -0.048187789 1.4410001 4291942106
-0.24208555 -0.048120905 1.439 4291810520
-0.23875539 -0.047953703 1.434 4291744726
-0.23577213 -0.04785338 1.4310001 4291613140
-0.23296231 -0.0477865 1.429 4291941848
-0.2301594 -0.04771962 1.427 4291941848
-0.22720392 -0.047619298 1.424 4291941848
-0.22473228 -0.047619298 1.424 4292270043
-0.22194847 -0.047552418 1.4220001 4292533473
-0.21948032 -0.047552418 1.4220001 4292599009
-0.21701215 -0.047552418 1.4220001 4292599523
-0.21469486 -0.04758586 1.4230001 4292599523
-0.21237411 -0.047619298 1.424 4292533985
-0.20990248 -0.047619298 1.424 4292402399
-0.20772217 -0.047686178 1.4260001 4291941848
-0.20553493 -0.047753058 1.4280001 4292007641
-0.20362513 -0.047886822 1.432 4292007641
-0.20156099 -0.047987144 1.4350001 4291810519
-0.199209 -0.048020586 1.4360001 4292007898
-0.19726449 -0.048154347 1.4400001 4291942104
-0.19544135 -0.048321549 1.4450001 4292007898
-0.19346733 -0.048455309 1.4490001 4291942359
-0.24492317 -0.045704007 1.4410001 4291942106
-0.24208555 -0.045640573 1.439 4291876313
-0.2385889 -0.045450274 1.4330001 4291810519
-0.23527785 -0.045291688 1.4280001 4291744726
-0.23279926 -0.045291688 1.4280001 4291744726
-0.22983684 -0.045196537 1.4250001 4291810262
-0.22704436 -0.045133103 1.4230001 4291941848
-0.22457446 -0.045133103 1.4230001 4291941848
-0.22179238 -0.045069668 1.4210001 4291941848
-0.21932596 -0.045069668 1.4210001 4291941848
-0.21685953 -0.045069668 1.4210001 4292007641
-0.21454398 -0.045101386 1.4220001 4292007641
-0.21222496 -0.045133103 1.4230001 4292139225
-0.20975506 -0.045133103 1.4230001 4292007639
-0.2075765 -0.045196537 1.4250001 4292008152
-0.20553493 -0.045291688 1.4280001 4291942358
-0.20362513 -0.045418553 1.432 4292008152
-0.20142053 -0.045481987 1.434 4292008152
-0.19907026 -0.045513704 1.4350001 4291876566
-0.1969905 -0.045608856 1.4380001 4292073944
-0.19544135 -0.045830872 1.4450001 4292008152
-0.19360085 -0.045989458 1.45 4291876564
-0.24560302 -0.043340199 1.4450001 4288389284
-0.24225381 -0.043190233 1.4400001 4291942106
-0.2385889 -0.042980283 1.4330001 4291810518
-0.23527785 -0.042830314 1.4280001 4291744980
-0.23247322 -0.042770326 1.4260001 4291810773
-0.22967555 -0.042710342 1.424 4291810773
-0.2268848 -0.042650353 1.4220001 4291744980
-0.22425881 -0.042620361 1.4210001 4291876566
-0.22163631 -0.042590369 1.4200001 4291876566
-0.21917161 -0.042590369 1.4200001 4291876566
-0.21670693 -0.042590369 1.4200001 4291942359
-0.21439311 -0.042620361 1.4210001 4291942359
-0.21207583 -0.042650353 1.4220001 4292073943
-0.20975506 -0.042680349 1.4230001 4292008150
-0.2075765 -0.042740334 1.4250001 4292073943
-0.20567885 -0.042860307 1.429 4291942357
-0.20405172 -0.043040268 1.4350001 4292008152
-0.20184192 -0.043100253 1.437 4291942359
-0.19948643 -0.043130245 1.4380001 4291876564
-0.19726449 -0.043190233 1.4400001 4292139736
-0.19087516 -0.04522977 1.508 4282862414
-0.23892191 -0.040566828 1.4350001 4289705143
-0.23560739 -0.040425483 1.4300001 4291152843
-0.23279926 -0.040368941 1.4280001 4291284427
-0.22967555 -0.040255863 1.424 4291350220
-0.2268848 -0.040199324 1.4220001 4291416013
-0.22425881 -0.040171053 1.4210001 4291284427
-0.22163631 -0.040142786 1.4200001 4291547599
-0.21917161 -0.040142786 1.4200001 4291613392
-0.21670693 -0.040142786 1.4200001 4291744978
-0.21439311 -0.040171053 1.4210001 4291744978
-0.21207583 -0.040199324 1.4220001 4291810771
-0.20990248 -0.040255863 1.424 4291744976
-0.2080135 -0.040368941 1.4280001 4291810771
-0.20596673 -0.040453751 1.4310001 4291876564
-0.20212223 -0.041188758 1.457 4291744978
-0.19904535 -0.04107568 1.4530001 4289113258
-0.19774067 -0.041330107 1.462 4285428850
-0.19560362 -0.041414913 1.465 4281283891
-0.19385152 -0.041584533 1.4710001 4281547061
-0.19311894 -0.041980304 1.485 4282270786
-0.1923378 -0.042376082 1.4990001 4282731340
-0.19049543 -0.042545699 1.5050001 4282928464
-0.23892191 -0.038093388 1.4350001 4284441703
-0.2359369 -0.038013753 1.432 4287073677
-0.23296231 -0.037934113 1.429 4288850086
-0.22983684 -0.037827931 1.4250001 4289508016
-0.22704436 -0.037774842 1.4230001 4289902772
-0.22441664 -0.037748292 1.4220001 4289836979
-0.22163631 -0.037695203 1.4200001 4290100151
-0.21901728 -0.037668653 1.419 4290692288
-0.21655431 -0.037668653 1.419 4291087046
-0.21424223 -0.037695203 1.4200001 4291152839
-0.21192668 -0.037721746 1.4210001 4291547597
-0.20975506 -0.037774842 1.4230001 4291350218
-0.2080135 -0.037907567 1.4280001 4291416011
-0.20625459 -0.038040299 1.4330001 4290758081
-0.20376733 -0.038040299 1.4330001 4289244844
-0.20295458 -0.038836677 1.4630001 4283126095
-0.20000428 -0.038757037 1.46 4281152305
-0.19801116 -0.038863223 1.4640001 4281283891
-0.19587065 -0.038942859 1.4670001 4281876028
-0.19411507 -0.039102137 1.473 4282007614
-0.19311894 -0.039420683 1.485 4282204993
-0.1923378 -0.039792329 1.4990001 4282467911
-0.19062202 -0.03997815 1.506 4282665292
-0.20633666 -0.036463909 1.4690001 4280889133
-0.20337075 -0.036389444 1.4660001 4280889133
-0.20068923 -0.036364619 1.465 4281612856
-0.19814643 -0.036364619 1.465 4281744444
-0.19640474 -0.036513552 1.4710001 4281941823
-0.19451043 -0.036637664 1.4760001 4281941823
-0.193249 -0.036885887 1.4860001 4282007617
-0.19220948 -0.037183754 1.498 4282204741
-0.19062202 -0.037382334 1.506 4282731086
-0.25234771 -0.034647923 1.5000001 4284245095
-0.24874517 -0.034509331 1.4940001 4283652958
-0.24466918 -0.034301441 1.485 4282797648
-0.24062447 -0.034093559 1.4760001 4282271558
-0.23612711 -0.033816371 1.4640001 4281678649
-0.23246916 -0.033654682 1.457 4281744442
-0.22930899 -0.033562288 1.4530001 4281678647
-0.22600661 -0.033446796 1.4480001 4282073405
-0.22303028 -0.033377498 1.4450001 4282007866
-0.2206748 -0.033400599 1.4460001 4281547315
-0.21846673 -0.033446796 1.4480001 4281284143
-0.21669912 -0.033562288 1.4530001 4281481268
-0.21447197 -0.033608485 1.455 4281612854
-0.21267487 -0.03372398 1.46 4281876026
-0.21114828 -0.033885669 1.4670001 4281612856
-0.20874421 -0.033908766 1.4680001 4281481270
-0.20647712 -0.033954967 1.47 4281481270
-0.20364819 -0.033908766 1.4680001 4281415477
-0.20082621 -0.033862572 1.4660001 4281612858
-0.19841692 -0.033885669 1.4670001 4281415479
-0.19667175 -0.034024261 1.473 4281678651
-0.19477399 -0.034139752 1.478 4281876031
-0.19337904 -0.034347642 1.4870001 4282007362
-0.1923378 -0.034624826 1.4990001 4282336328
-0.19062202 -0.034786515 1.506 4282599500
-0.25285238 -0.032126572 1.503 4283982182
-0.24907817 -0.031976949 1.4960001 4283653215
-0.24466918 -0.03174182 1.485 4282863955
-0.24062447 -0.03154945 1.4760001 4282534476
-0.23661096 -0.031357072 1.4670001 4282204995
-0.23310737 -0.031228824 1.4610001 4282073407
-0.22994025 -0.031143324 1.457 4281744442
-0.22647485 -0.031015074 1.4510001 4281876026
-0.22318462 -0.030908201 1.4460001 4282007612
-0.2205222 -0.030886823 1.4450001 4281744440
-0.21831585 -0.030929575 1.447 4281810233
-0.21625172 -0.0309937 1.45 4281941820
-0.21388236 -0.031015074 1.4510001 4282073405
-0.21223786 -0.031143324 1.457 4282007614
-0.21057256 -0.031271573 1.4630001 4281678649
-0.20831762 -0.031314321 1.465 4281481272
-0.2061962 -0.031378448 1.4680001 4281481272
-0.20364819 -0.031378448 1.4680001 4281218100
-0.20110019 -0.031378448 1.4680001 4281415479
-0.19868743 -0.031399824 1.4690001 4281481018
-0.19680528 -0.031506699 1.4740001 4281612604
-0.19490577 -0.031613573 1.4790001 4281875777
-0.193249 -0.0317632 1.4860001 4281941570
-0.19272272 -0.0321052 1.5020001 4282336328
-0.19100174 -0.032254823 1.5090001 4282599500
-0.24417493 -0.02912325 1.4820001 4282731856
-0.24062447 -0.029005341 1.4760001 4282402890
-0.23725612 -0.028907083 1.4710001 4282270534
-0.23422424 -0.028848128 1.4680001 4282139202
-0.2312028 -0.028789174 1.465 4281810237
-0.22756743 -0.028651616 1.4580001 4281810235
-0.22411069 -0.028533706 1.452 4281941821
-0.22128524 -0.028494406 1.45 4281612856
-0.21846673 -0.028455103 1.4480001 4281547063
-0.21610259 -0.028474754 1.4490001 4281941821
-0.21373495 -0.028494406 1.45 4282007614
-0.21180087 -0.028573012 1.4540001 4281876028
-0.21014075 -0.028690919 1.46 4281481271
-0.20803322 -0.028749874 1.4630001 4281283893
-0.20591527 -0.028808828 1.4660001 4281349686
-0.20364819 -0.028848128 1.4680001 4281349686
-0.20110019 -0.028848128 1.4680001 4281612858
-0.19868743 -0.028867783 1.4690001 4281546811
-0.19627121 -0.028887432 1.47 4281546811
-0.19411507 -0.028946387 1.473 4281744191
-0.19233868 -0.029064296 1.4790001 4282138949
-0.24285682 -0.026425377 1.4740001 4282929235
-0.24029841 -0.026425377 1.4740001 4282666063
-0.23677225 -0.026317813 1.4680001 4282467913
-0.2340647 -0.026299883 1.4670001 4282138948
-0.23088714 -0.026228173 1.4630001 4281744190
-0.22772351 -0.026156461 1.4590001 4281744444
-0.2244194 -0.026066823 1.4540001 4282007616
-0.22159046 -0.026030969 1.452 4281744442
-0.21846673 -0.025959257 1.4480001 4281547063
-0.21580429 -0.025941331 1.447 4281547063
-0.21344015 -0.025959257 1.4480001 4281876029
-0.21121819 -0.025995113 1.45 4281876030
-0.20507251 -0.026174391 1.46 4281283639
-0.20267712 -0.026192317 1.4610001 4281218101
-0.20027825 -0.026210245 1.462 4281547066
-0.19774067 -0.026210245 1.462 4281612604
-0.19520308 -0.026210245 1.462 4281744191
-0.19292904 -0.026246101 1.4640001 4281875777
-0.19116825 -0.026353667 1.47 4282138949
-0.24203302 -0.023803696 1.4690001 4283258200
-0.23932026 -0.023787493 1.4680001 4282862672
-0.23548195 -0.02365786 1.46 4282402121
-0.23278828 -0.023641655 1.4590001 4282007362
-0.22994025 -0.023609249 1.457 4281678397
-0.22694311 -0.023560636 1.4540001 4281678651
-0.223802 -0.023495821 1.45 4281875774
-0.22098003 -0.023463411 1.4480001 4281810235
-0.21786323 -0.023398595 1.4440001 4281547063
-0.21505861 -0.023366189 1.442 4281612856
-0.21255574 -0.023366189 1.442 4281810237
-0.21034418 -0.023398595 1.4440001 4281810237
-0.20408928 -0.023544431 1.4530001 4281415225
-0.20170605 -0.023560636 1.4540001 4281481018
-0.1994563 -0.023593044 1.4560001 4281546811
-0.1970644 -0.023609249 1.457 4281546811
-0.19453548 -0.023609249 1.457 4281743935
-0.19227014 -0.023641655 1.4590001 4281415226
-0.19064808 -0.023755083 1.4660001 4281612349
-0.24358378 -0.021184772 1.4630001 4289179570
-0.23989114 -0.021083409 1.4560001 4283850337
-0.23671187 -0.021025488 1.452 4282796879
-0.23370777 -0.020982046 1.4490001 4282336328
-0.23103319 -0.020967565 1.4480001 4282073156
-0.22836208 -0.020953085 1.447 4281678398
-0.22538227 -0.020909645 1.4440001 4281678398
-0.22272158 -0.020895163 1.4430001 4281941569
-0.22006436 -0.020880684 1.442 4281875776
-0.21725973 -0.020851724 1.4400001 4281678397
-0.21446204 -0.020822762 1.4380001 4281678651
-0.21181871 -0.020808283 1.437 4282007360
-0.20932451 -0.020808283 1.437 4281744190
-0.20711818 -0.020837242 1.439 4281481018
-0.2049049 -0.020866202 1.4410001 4281349432
-0.2029656 -0.020924125 1.4450001 4281217847
-0.20059624 -0.020938605 1.4460001 4281152053
-0.1983604 -0.020967565 1.4480001 4281086003
-0.19652337 -0.021039966 1.4530001 4281217589
-0.19440195 -0.021083409 1.4560001 4282072643
-0.19051804 -0.021213733 1.465 4284572777
-0.23972638 -0.018561017 1.455 4284968818
-0.23654884 -0.01850999 1.4510001 4287665561
-0.23322392 -0.018446207 1.4460001 4283191637
-0.23023543 -0.018407935 1.4430001 4282467401
-0.22741517 -0.018382423 1.4410001 4281151541
-0.22460188 -0.01835691 1.439 4281612092
-0.22210421 -0.01835691 1.439 4281809471
-0.21960653 -0.01835691 1.439 4281677885
-0.21710886 -0.01835691 1.439 4281612092
-0.21446204 -0.018344153 1.4380001 4281349176
-0.21196611 -0.018344153 1.4380001 4280888368
-0.20932451 -0.018331397 1.437 4281612347
-0.20697424 -0.018344153 1.4380001 4281283383
-0.20462051 -0.01835691 1.439 4280428074
-0.20254423 -0.01839518 1.442 4282402121
-0.20045753 -0.01843345 1.4450001 4282796878
-0.19863437 -0.018497234 1.45 4281151796
-0.19665864 -0.01854826 1.4540001 4287862682
-0.19466899 -0.018599287 1.4580001 4287467924
-0.19077812 -0.018714098 1.4670001 4286941326
-0.23989114 -0.016064137 1.4560001 4286613389
-0.23703793 -0.016042072 1.4540001 4288191905
-0.23370777 -0.015986906 1.4490001 4290231488
-0.23039497 -0.015931742 1.4440001 4287204497
-0.22757299 -0.015909676 1.442 4284704363
-0.22460188 -0.015876576 1.439 4285757051
-0.22194985 -0.015865542 1.4380001 4281743678
-0.21945392 -0.015865542 1.4380001 4285691258
-0.21710886 -0.015876576 1.439 4281348920
-0.21461119 -0.015876576 1.439 4285691258
-0.21211353 -0.015876576 1.439 4284112226
-0.20932451 -0.015854511 1.437 4288520357
-0.20683032 -0.015854511 1.437 4287730841
-0.20462051 -0.015876576 1.439 4284178019
-0.20310606 -0.015953807 1.4460001 4288586150
-0.20115113 -0.015997941 1.45 4287665048
-0.19890836 -0.016020007 1.452 4287994011
-0.1970644 -0.016075172 1.457 4288651428
-0.19520308 -0.016130337 1.462 4288125854
-0.1931926 -0.016174469 1.4660001 4288651943
-0.19194853 -0.016284799 1.4760001 4287401876
-0.23883119 -0.013638288 1.465 4285494394
-0.23483679 -0.013554503 1.4560001 4287533975
-0.23119274 -0.013489338 1.4490001 4288060319
-0.22836208 -0.013470719 1.447 4289705145
-0.22538227 -0.01344279 1.4440001 4290691526
-0.22256725 -0.013424171 1.442 4283454296
-0.22006436 -0.013424171 1.442 4290296768
-0.21786323 -0.01344279 1.4440001 4288849322
-0.21565516 -0.013461409 1.4460001 4290230975
-0.21314535 -0.013461409 1.4460001 4289178287
-0.21078119 -0.013470719 1.447 4287401876
-0.20841357 -0.013480028 1.4480001 4288388771
-0.20604247 -0.013489338 1.4490001 4289046701
-0.20422976 -0.013535884 1.4540001 4288059806
-0.20239967 -0.013582432 1.4590001 4287401361
-0.20027825 -0.01361036 1.462 4288322464
-0.19828168 -0.013647597 1.4660001 4288256927
-0.19627121 -0.013684835 1.47 4287796376
-0.19411507 -0.013712763 1.473 4284901997
-0.19246873 -0.013777929 1.48 4283125330
-0.23948328 -0.011143483 1.4690001 4282863188
-0.23548195 -0.011075211 1.46 4282007365
-0.23183095 -0.011022111 1.4530001 4284178534
-0.22899334 -0.011006939 1.4510001 4287928221
-0.22585052 -0.010976597 1.447 4286941325
-0.22287592 -0.010953839 1.4440001 4288191392
-0.2205222 -0.010961425 1.4450001 4289507252
-0.21831585 -0.010976597 1.447 4287204240
-0.21610259 -0.010991768 1.4490001 4289836216
-0.21358755 -0.010991768 1.4490001 4286809739
-0.21107252 -0.010991768 1.4490001 4288059806
-0.20884536 -0.011006939 1.4510001 4288651943
-0.20646906 -0.011014526 1.452 4284572520
-0.20465113 -0.011052454 1.457 4286875275
-0.20295458 -0.011097969 1.4630001 4286677639
-0.20082621 -0.011120726 1.4660001 4281875006
-0.19868743 -0.011143483 1.4690001 4282270277
-0.19653825 -0.01116624 1.4720001 4282336070
-0.19411507 -0.011173826 1.473 4281546554
-0.19246873 -0.011226927 1.48 4281875263
-0.24029841 -0.0086407503 1.4740001 4285626494
-0.2362884 -0.0085879918 1.465 4284441963
-0.23278828 -0.0085528195 1.4590001 4282270537
-0.22994025 -0.0085410951 1.457 4281678398
-0.22647485 -0.0085059218 1.4510001 4280954675
-0.22349332 -0.0084883366 1.4480001 4281612604
-0.22113264 -0.0084941983 1.4490001 4283059280
-0.21876848 -0.0085000601 1.45 4281940542
-0.21625172 -0.0085000601 1.45 4282401349
-0.21373495 -0.0085000601 1.45 4281480761
-0.21107252 -0.0084941983 1.4490001 4281940798
-0.20870143 -0.0085000601 1.45 4282335299
-0.20661125 -0.0085176472 1.4530001 4281085233
-0.20521297 -0.0085645439 1.4610001 4281348405
-0.20392564 -0.0086173033 1.47 4281546299
-0.20164815 -0.0086290268 1.4720001 4282730573
-0.19949895 -0.0086466139 1.475 4283322710
-0.19707231 -0.0086524757 1.4760001 4282598987
-0.23677225 -0.0060752593 1.4680001 4284836978
-0.23326692 -0.0060504288 1.462 4284310888
-0.23041371 -0.0060421522 1.46 4284704876
-0.22709918 -0.0060214596 1.455 4283060050
-0.22395636 -0.0060049058 1.4510001 4281546811
-0.22143786 -0.0060049058 1.4510001 4281809982
-0.21891937 -0.0060049058 1.4510001 4282270275
-0.21610259 -0.0059966287 1.4490001 4281875774
-0.21344015 -0.0059924908 1.4480001 4282073152
-0.21063553 -0.0059842137 1.4460001 4282599240
-0.20826963 -0.005988352 1.447 4283849307
-0.20632687 -0.0060049058 1.4510001 4284375653
-0.20535344 -0.0060504288 1.462 4283388245
-0.2337456 -0.0035376963 1.465 4282205258
-0.23088714 -0.0035328665 1.4630001 4283258200
-0.22756743 -0.0035207926 1.4580001 4283586395
-0.2244194 -0.0035111334 1.4540001 4283191636
-0.22174306 -0.0035087185 1.4530001 4283520855
-0.21907023 -0.0035063035 1.452 4285757818
-0.21625172 -0.0035014742 1.45 4285362803
-0.21358755 -0.0034990592 1.4490001 4284704873
-0.21078119 -0.0034942296 1.447 4284376164
-0.20841357 -0.0034966446 1.4480001 4284638825
-0.20646906 -0.0035063035 1.452 4284441445
-0.2054939 -0.0035328665 1.4630001 4282533450
-0.22819175 -0.0010104747 1.462 4281612604
-0.22519113 -0.0010084013 1.4590001 4281809983
-0.22250612 -0.0010077102 1.4580001 4281678140
-0.21982461 -0.0010070191 1.457 4282204484
-0.21714655 -0.0010063278 1.4560001 4282270275
-0.21447197 -0.0010056366 1.455 4281612345
-0.21180087 -0.0010049455 1.4540001 4281678138
-0.20942108 -0.0010056366 1.455 4282270276
-0.20746444 -0.0010084013 1.4590001 4282401863
