# .PCD v0.7 - Point Cloud Data file format
VERSION 0.7
FIELDS x y z rgba
SIZE 4 4 4 4
TYPE F F F U
COUNT 1 1 1 1
WIDTH 729
HEIGHT 1
VIEWPOINT 0 0 0 1 0 0 0
POINTS 729
DATA ascii
0.16984093 -0.19671112 1.7450001 4292929000
0.17296879 -0.19682385 1.7460001 4292929000
0.17630173 -0.19716203 1.7490001 4292929000
0.17316692 -0.19403636 1.748 4292995051
0.17640252 -0.19425839 1.7500001 4292798185
-0.023809293 -0.18618202 1.7310001 4282995798
-0.12416515 -0.18499754 1.748 4280363821
-0.099493109 -0.18425672 1.7410001 4280363820
-0.096637495 -0.18457422 1.7440001 4280166442
-0.023602974 -0.18161087 1.7160001 4280628020
-0.13505353 -0.18031885 1.7320001 4291877596
-0.13219979 -0.18052708 1.7340001 4280100649
-0.1294136 -0.1808394 1.7370001 4281350973
-0.12647146 -0.1809435 1.738 4281219387
-0.12331276 -0.18073529 1.7360001 4280956215
-0.12016098 -0.18052708 1.7340001 4280956215
-0.10163172 -0.17969419 1.7260001 4281021749
-0.032917581 -0.18073529 1.7360001 4280758836
-0.029801056 -0.18011062 1.7300001 4280627250
-0.026767315 -0.1799024 1.728 4280693557
-0.023685502 -0.17927775 1.7220001 4280628020
-0.13450772 -0.17661679 1.725 4287930016
-0.13136114 -0.176412 1.723 4280495664
-0.11953732 -0.17661679 1.725 4280693813
-0.11667836 -0.17682154 1.7270001 4280824885
-0.11354916 -0.17661679 1.725 4280759091
-0.02981828 -0.1772311 1.7310001 4280758580
-0.026767315 -0.17692395 1.728 4280759092
-0.023740519 -0.17671916 1.7260001 4280693299
-0.4742026 -0.17525409 1.7410001 4280231975
-0.23740233 -0.17444877 1.733 4280232486
-0.13435176 -0.17344216 1.723 4283850850
-0.13120867 -0.17324083 1.7210001 4280166699
-0.11953732 -0.17364348 1.725 4280759350
-0.11674592 -0.17394547 1.728 4280824629
-0.11361498 -0.17374414 1.7260001 4280758836
-0.029783828 -0.17404613 1.7290001 4280692788
-0.026720846 -0.17364348 1.725 4280824630
-0.023713011 -0.17354281 1.7240001 4280693043
-0.47284073 -0.17175852 1.7360001 4280297768
-0.34568909 -0.1714617 1.733 4279969573
-0.25500789 -0.17116487 1.7300001 4279968806
-0.25200516 -0.17116487 1.7300001 4279903013
-0.24900238 -0.17116487 1.7300001 4279903267
-0.24585743 -0.17106594 1.7290001 4279903267
-0.24271595 -0.17096701 1.728 4279903521
-0.23957795 -0.17086805 1.7270001 4279837728
-0.13458568 -0.17076913 1.7260001 4280495407
-0.13151363 -0.17067018 1.725 4281087801
-0.029335953 -0.16849351 1.7030001 4280626739
-0.026442017 -0.16888928 1.7070001 4280561458
-0.25441831 -0.16779411 1.7260001 4280034343
-0.25142249 -0.16779411 1.7260001 4279968806
-0.24514645 -0.16759966 1.7240001 4279771681
-0.24187319 -0.16740525 1.7220001 4279969314
-0.23916176 -0.16759966 1.7240001 4279772446
0.10532025 -0.16351663 1.682 4280364078
0.11148957 -0.16400269 1.687 4280429359
-0.2535339 -0.16424613 1.72 4279113241
-0.2438667 -0.16376866 1.715 4279771681
0.1083684 -0.16080841 1.6840001 4280298285
0.11168783 -0.16138136 1.6900001 4280495407
-0.24372451 -0.16071884 1.7140001 4279837728
-0.014539385 -0.15656793 1.7010001 4280561459
-0.24792647 -0.15372631 1.702 4278587407
-0.24497232 -0.15372631 1.702 4279771681
-0.46948832 -0.15079266 1.702 4292142308
-0.46735653 -0.15105845 1.705 4280496433
-0.24690677 -0.15017249 1.6950001 4279705888
-0.24367692 -0.14999528 1.6930001 4279903267
-0.24088056 -0.15008388 1.6940001 4279640349
-0.12326965 -0.15008388 1.6940001 4280693043
-0.12032937 -0.15008388 1.6940001 4280561457
-0.11731981 -0.14999528 1.6930001 4280693043
-0.034916583 -0.1494637 1.687 4289640637
-0.03191261 -0.14910932 1.6830001 4279442980
-0.028991431 -0.14910932 1.6830001 4280693561
-0.026178684 -0.14972949 1.6900001 4280496437
-0.47022188 -0.14716403 1.6940001 4292865519
-0.46838498 -0.14751151 1.6980001 4285365886
-0.46543777 -0.14751151 1.6980001 4279312416
-0.24646978 -0.14699027 1.692 4279903267
-0.24338906 -0.14690341 1.6910001 4279771935
-0.24045399 -0.14690341 1.6910001 4279771422
-0.1222509 -0.14594778 1.6800001 4280693043
-0.11940596 -0.14603466 1.6810001 4280495921
-0.11676543 -0.14638217 1.6850001 4280561971
-0.037799839 -0.14638217 1.6850001 4293719803
-0.034895882 -0.14646903 1.6860001 4288653998
-0.031874686 -0.14603466 1.6810001 4279312162
-0.028956978 -0.14603466 1.6810001 4280693815
0.11292558 -0.14464468 1.6650001 4280758579
0.1156764 -0.14447093 1.6630001 4280429614
-0.46938914 -0.14398871 1.6910001 4289773249
-0.12203258 -0.14279661 1.677 4280693043
-0.11912182 -0.14279661 1.677 4280693299
-0.11655754 -0.14322236 1.682 4280693557
-0.031779878 -0.14271146 1.6760001 4279772713
-0.028888075 -0.14279661 1.677 4280694070
0.11265429 -0.14143421 1.6610001 4280561200
0.11546773 -0.14134905 1.6600001 4280232235
-0.47176558 -0.14090717 1.6890001 4292208360
-0.46800122 -0.14065689 1.6860001 4281155391
-0.031760916 -0.13973919 1.6750001 4280431155
-0.47008964 -0.1375057 1.6830001 4288128680
-0.46716848 -0.1375057 1.6830001 4279312417
-0.20703784 -0.093862832 1.4560001 4279705885
-0.2061962 -0.094636425 1.4680001 4279706142
-0.20392564 -0.094765358 1.47 4279640349
-0.23357005 -0.067348987 1.48 4280560166
-0.22912824 -0.066802919 1.4680001 4280428834
-0.22534548 -0.066438861 1.46 4280363041
-0.2222009 -0.066256844 1.4560001 4280362787
-0.2186176 -0.065938294 1.4490001 4280231201
-0.21356721 -0.065164693 1.432 4280296994
-0.21063948 -0.065028176 1.429 4280231201
-0.19147943 -0.066120327 1.4530001 4280362787
-0.23451695 -0.065060675 1.4860001 4280889131
-0.22944042 -0.064360157 1.47 4280560420
-0.22565417 -0.064009905 1.462 4280626213
-0.22250612 -0.063834772 1.4580001 4280691752
-0.21831585 -0.063353166 1.447 4280560420
-0.21386549 -0.062783986 1.434 4280494627
-0.2109343 -0.062652647 1.4310001 4280428834
-0.20641115 -0.062039688 1.4170001 4280297248
-0.20366381 -0.061952125 1.4150001 4280428834
-0.20120779 -0.061952125 1.4150001 4280363041
-0.19903271 -0.062039688 1.4170001 4280626213
-0.19306679 -0.063309379 1.4460001 4280757799
-0.19095232 -0.063440725 1.4490001 4280954924
-0.18869738 -0.063528299 1.4510001 4280757547
-0.2346748 -0.062541395 1.4870001 4280889131
-0.22944042 -0.061826393 1.47 4280757545
-0.22534548 -0.061405804 1.46 4280757545
-0.22235352 -0.061279625 1.457 4280560166
-0.21831585 -0.060859043 1.447 4280494373
-0.21401463 -0.060354337 1.4350001 4280560166
-0.20931286 -0.059723452 1.4200001 4280494373
-0.20582849 -0.059429046 1.4130001 4280560166
-0.20308807 -0.059344921 1.411 4280823338
-0.20063901 -0.059344921 1.411 4280889385
-0.19818994 -0.059344921 1.411 4280955178
-0.19279975 -0.060732864 1.4440001 4280692006
-0.19095232 -0.060943156 1.4490001 4280757545
-0.18869738 -0.061027281 1.4510001 4280625959
-0.24567823 -0.060785025 1.5070001 4279902240
-0.24225608 -0.060583353 1.5020001 4280296996
-0.2385322 -0.060301002 1.4950001 4280691754
-0.23499042 -0.060058992 1.4890001 4280691752
-0.2295965 -0.059332963 1.4710001 4280691752
-0.22549981 -0.058929611 1.4610001 4280757545
-0.2222009 -0.058727935 1.4560001 4280823338
-0.21831585 -0.05836492 1.447 4280625959
-0.21341808 -0.057719562 1.4310001 4280494373
-0.20857583 -0.057074197 1.4150001 4280625959
-0.20466314 -0.056670848 1.4050001 4280362787
-0.20193662 -0.056590173 1.4030001 4280494373
-0.19950144 -0.056590173 1.4030001 4280560420
-0.19706625 -0.056590173 1.4030001 4280626213
-0.19560215 -0.056872521 1.4100001 4280757545
-0.19226567 -0.058082569 1.4400001 4280625959
-0.19068874 -0.05836492 1.447 4280625959
-0.18856733 -0.058485925 1.45 4280823338
-0.17804676 -0.059171621 1.4670001 4280560938
-0.17562014 -0.059211958 1.4680001 4281218868
-0.17330793 -0.059292626 1.47 4281744444
-0.22772351 -0.056334138 1.4590001 4280428580
-0.22519113 -0.056334138 1.4590001 4280494373
-0.2220483 -0.056179687 1.455 4280494373
-0.21831585 -0.055870797 1.447 4280625959
-0.20769142 -0.054403558 1.409 4280560166
-0.20378914 -0.054017447 1.399 4280428580
-0.20107304 -0.053940225 1.3970001 4280428580
-0.19850607 -0.053901609 1.396 4280625959
-0.19650441 -0.054017447 1.399 4280560166
-0.19435363 -0.054094668 1.401 4280494375
-0.18923914 -0.055446073 1.4360001 4280494375
-0.18674669 -0.055446073 1.4360001 4280428582
-0.18502408 -0.055677738 1.442 4280362789
-0.17874649 -0.056063853 1.452 4281416245
-0.17683309 -0.056256913 1.457 4281613369
-0.17406492 -0.056179687 1.455 4281810235
-0.17153947 -0.056179687 1.455 4281678651
-0.16924636 -0.056256913 1.457 4281743933
-0.16694631 -0.056334138 1.4590001 4280756783
-0.22709918 -0.053671777 1.455 4280625959
-0.22472808 -0.053708665 1.4560001 4280625959
-0.22159046 -0.053561114 1.452 4280428580
-0.21801411 -0.053302899 1.4450001 4280428580
-0.20739661 -0.051901162 1.4070001 4280296994
-0.2034978 -0.051532283 1.3970001 4280231201
-0.20078517 -0.051458508 1.3950001 4280362787
-0.19822167 -0.05142162 1.3940001 4280362787
-0.19608304 -0.051495396 1.396 4280494373
-0.19393745 -0.051569171 1.3980001 4280428582
-0.18871202 -0.052823357 1.432 4281218098
-0.18648659 -0.052897133 1.434 4281876028
-0.18438253 -0.053007796 1.437 4282665544
-0.17776166 -0.053266011 1.4440001 4281613370
-0.17622626 -0.053561114 1.452 4281810235
-0.17346674 -0.053487338 1.45 4281612858
-0.17094998 -0.053487338 1.45 4281151795
-0.16878171 -0.053598002 1.4530001 4280822831
-0.16660301 -0.053708665 1.4560001 4280625197
-0.23338521 -0.050882552 1.447 4281612604
-0.22991632 -0.050671566 1.4410001 4281283893
-0.22725736 -0.050636403 1.4400001 4281415476
-0.21318612 -0.049686972 1.4130001 4281744440
-0.21058443 -0.049651805 1.4120001 4281020717
-0.20739661 -0.049475987 1.4070001 4280823338
-0.2039348 -0.049229838 1.4000001 4280954924
-0.2013609 -0.049194671 1.399 4280823340
-0.19864826 -0.049124345 1.3970001 4281020719
-0.19636396 -0.049159508 1.3980001 4281152305
-0.1942149 -0.049229838 1.4000001 4281349684
-0.19233288 -0.049370494 1.404 4281876028
-0.19084273 -0.049616642 1.411 4282533958
-0.18879421 -0.049722135 1.414 4282862923
-0.18673529 -0.049827628 1.4170001 4283060302
-0.18427579 -0.049827628 1.4170001 4283126097
-0.1829711 -0.050144102 1.4260001 4282007617
-0.18074916 -0.050214432 1.4280001 4281481273
-0.17839542 -0.050249595 1.429 4281547065
-0.17640753 -0.050390255 1.4330001 4281283893
-0.17464848 -0.050601237 1.439 4281020722
-0.17239006 -0.050671566 1.4410001 4280362280
-0.17036052 -0.050812222 1.4450001 4280033315
-0.16831706 -0.050952878 1.4490001 4281612348
-0.1660309 -0.051023208 1.4510001 4289573045
-0.23193358 -0.048087467 1.4380001 4279836193
-0.22816123 -0.047819942 1.4300001 4280625962
-0.22536355 -0.047753058 1.4280001 4281349683
-0.22210455 -0.04758586 1.4230001 4281678647
-0.21901728 -0.047452096 1.419 4281349684
-0.21624909 -0.047385216 1.4170001 4281481268
-0.21288437 -0.047184572 1.411 4281481268
-0.21028616 -0.047151133 1.4100001 4281481268
-0.20739661 -0.047050811 1.4070001 4281415477
-0.20466314 -0.046983927 1.4050001 4281481270
-0.20208056 -0.046950489 1.404 4281547063
-0.19935925 -0.046883605 1.4020001 4281744442
-0.19678535 -0.046850167 1.401 4281612858
-0.19449235 -0.046883605 1.4020001 4281744444
-0.19233288 -0.046950489 1.404 4281546809
-0.19030172 -0.047050811 1.4070001 4281547065
-0.18799311 -0.04708425 1.4080001 4281415479
-0.18607637 -0.04721801 1.4120001 4281218100
-0.18388566 -0.047284894 1.414 4281283639
-0.18194462 -0.047418654 1.4180001 4281283639
-0.18011628 -0.04758586 1.4230001 4281086004
-0.17789607 -0.047652736 1.4250001 4280954675
-0.17616132 -0.04785338 1.4310001 4280690990
-0.17428437 -0.048020586 1.4360001 4279967522
-0.17215081 -0.048120905 1.439 4281612347
-0.17012471 -0.048254669 1.4430001 4287204497
-0.16808474 -0.048388429 1.447 4291941593
-0.16580205 -0.048455309 1.4490001 4292402144
-0.23161101 -0.045545425 1.4360001 4289178800
-0.22784211 -0.045291688 1.4280001 4281612859
-0.2250479 -0.04522825 1.4260001 4279244309
-0.22179238 -0.045069668 1.4210001 4279178515
-0.21855424 -0.044911083 1.416 4280231203
-0.21533343 -0.044752501 1.411 4280889133
-0.2125826 -0.044689067 1.409 4281152305
-0.20998788 -0.04465735 1.4080001 4281218098
-0.20724919 -0.044593915 1.406 4281218100
-0.20451748 -0.044530485 1.404 4281218100
-0.2017927 -0.044467047 1.4020001 4281217587
-0.19921705 -0.044435333 1.401 4281414966
-0.19678535 -0.044435333 1.401 4281480759
-0.19435363 -0.044435333 1.401 4281480759
-0.19219588 -0.044498764 1.4030001 4281612345
-0.19003122 -0.044562198 1.4050001 4281612347
-0.18785959 -0.044625632 1.4070001 4281349175
-0.18594459 -0.044752501 1.411 4280954417
-0.18375562 -0.044815935 1.4130001 4280822576
-0.18181631 -0.044942804 1.4170001 4280690990
-0.17998971 -0.045101386 1.4220001 4279901474
-0.17789607 -0.045196537 1.4250001 4279901474
-0.17603822 -0.045355123 1.4300001 4281546299
-0.174163 -0.045513704 1.4350001 4287138704
-0.17203116 -0.045608856 1.4380001 4292204765
-0.16988891 -0.045704007 1.4410001 4292007386
-0.16796859 -0.045862593 1.4460001 4291612628
-0.16568762 -0.045926023 1.4480001 4291941593
-0.23144974 -0.043040268 1.4350001 4292007899
-0.22768256 -0.042800322 1.427 4291678933
-0.22473228 -0.042710342 1.424 4289902520
-0.22148024 -0.042560376 1.419 4285231471
-0.21824554 -0.042410411 1.414 4279704861
-0.21518083 -0.042290438 1.4100001 4279507480
-0.21228087 -0.042200457 1.4070001 4279375894
-0.20968959 -0.042170461 1.406 4279178517
-0.20710181 -0.042140469 1.4050001 4279507482
-0.20451748 -0.042110477 1.404 4280230694
-0.20193662 -0.042080484 1.4030001 4280691245
-0.19935925 -0.042050492 1.4020001 4280822318
-0.1969258 -0.042050492 1.4020001 4280822061
-0.19449235 -0.042050492 1.4020001 4280625452
-0.19219588 -0.042080484 1.4030001 4280559659
-0.19003122 -0.042140469 1.4050001 4280033315
-0.18772607 -0.042170461 1.406 4279704350
-0.18581282 -0.042290438 1.4100001 4279967266
-0.18349552 -0.04232043 1.411 4280756783
-0.18168801 -0.042470396 1.416 4281480506
-0.17986313 -0.042620361 1.4210001 4285822844
-0.17764638 -0.042680349 1.4230001 4289638838
-0.17591511 -0.042860307 1.429 4291810007
-0.17404163 -0.043010276 1.434 4291875800
-0.17179191 -0.04307026 1.4360001 4291546835
-0.17000683 -0.043250218 1.442 4291744214
-0.16796859 -0.043370195 1.4460001 4291810007
-0.16568762 -0.043430179 1.4480001 4291612628
-0.23144974 -0.040566828 1.4350001 4291810520
-0.22752301 -0.040312402 1.4260001 4291349968
-0.22457446 -0.040227596 1.4230001 4291481554
-0.22148024 -0.040114515 1.419 4291876566
-0.21839988 -0.040001437 1.4150001 4291810773
-0.21533343 -0.03988836 1.411 4291810773
-0.21243174 -0.03980355 1.4080001 4290758085
-0.20968959 -0.039747011 1.406 4288652196
-0.20710181 -0.03971874 1.4050001 4286349441
-0.20451748 -0.039690472 1.404 4284704616
-0.20208056 -0.039690472 1.404 4283783514
-0.19950144 -0.039662201 1.4030001 4283454551
-0.19706625 -0.039662201 1.4030001 4283125586
-0.19463107 -0.039662201 1.4030001 4284046686
-0.19233288 -0.039690472 1.404 4285165169
-0.19016646 -0.039747011 1.406 4286349443
-0.18785959 -0.039775282 1.4070001 4288059806
-0.18581282 -0.039860092 1.4100001 4290428354
-0.18375562 -0.039944898 1.4130001 4292533730
-0.18155968 -0.040001437 1.4150001 4292204765
-0.17973655 -0.040142786 1.4200001 4292073179
-0.17752154 -0.040199324 1.4220001 4292007386
-0.17566891 -0.040340673 1.427 4291612628
-0.17404163 -0.040538561 1.434 4291744470
-0.17191154 -0.040623367 1.437 4291876313
-0.17012471 -0.040792987 1.4430001 4291876056
-0.23144974 -0.038093388 1.4350001 4291481555
-0.22752301 -0.037854474 1.4260001 4291547348
-0.22457446 -0.037774842 1.4230001 4291481554
-0.22132415 -0.03764211 1.4180001 4291481554
-0.21839988 -0.037562471 1.4150001 4291415761
-0.21518083 -0.037429743 1.4100001 4291284429
-0.21228087 -0.037350107 1.4070001 4291942359
-0.20968959 -0.037323557 1.406 4292073432
-0.2069544 -0.037270468 1.404 4292139225
-0.20451748 -0.037270468 1.404 4292336606
-0.20193662 -0.037243918 1.4030001 4292336606
-0.19950144 -0.037243918 1.4030001 4292336606
-0.1969258 -0.037217375 1.4020001 4292204765
-0.19463107 -0.037243918 1.4030001 4292270813
-0.19233288 -0.037270468 1.404 4292139227
-0.19016646 -0.037323557 1.406 4292205021
-0.18785959 -0.037350107 1.4070001 4292270558
-0.18581282 -0.037429743 1.4100001 4292073178
-0.18362556 -0.037482832 1.4120001 4291744470
-0.18155968 -0.037562471 1.4150001 4291612884
-0.17960998 -0.037668653 1.419 4291612884
-0.1773967 -0.037721746 1.4210001 4291810518
-0.17566891 -0.037881024 1.427 4291810518
-0.17392027 -0.038040299 1.4330001 4291744725
-0.17191154 -0.038146481 1.437 4291810518
-0.16988891 -0.038252667 1.4410001 4292139484
-0.22768256 -0.035421375 1.427 4291876313
-0.22473228 -0.035346907 1.424 4291678933
-0.22132415 -0.035197973 1.4180001 4291547347
-0.21839988 -0.035123505 1.4150001 4291415761
-0.21518083 -0.034999397 1.4100001 4291613394
-0.21228087 -0.034924928 1.4070001 4291547601
-0.20968959 -0.034900106 1.406 4291613394
-0.2069544 -0.034850463 1.404 4291481808
-0.20437181 -0.034825638 1.4030001 4291678674
-0.20193662 -0.034825638 1.4030001 4291678675
-0.19950144 -0.034825638 1.4030001 4291810518
-0.19706625 -0.034825638 1.4030001 4291744468
-0.19463107 -0.034825638 1.4030001 4291744725
-0.19233288 -0.034850463 1.404 4291810261
-0.19016646 -0.034900106 1.406 4291876055
-0.18785959 -0.034924928 1.4070001 4291744468
-0.18581282 -0.034999397 1.4100001 4291744726
-0.18362556 -0.03504904 1.4120001 4291613396
-0.18143138 -0.035098683 1.414 4291613396
-0.17960998 -0.035222795 1.419 4291744982
-0.1773967 -0.035272442 1.4210001 4291810773
-0.17566891 -0.035421375 1.427 4291810773
-0.22784211 -0.032984823 1.4280001 4288849834
-0.2248901 -0.032915525 1.4250001 4291678933
-0.22132415 -0.032753836 1.4180001 4291613140
-0.2180912 -0.032638345 1.4130001 4291613140
-0.21487561 -0.03252285 1.4080001 4291613394
-0.21212998 -0.032476652 1.406 4291679187
-0.20954046 -0.032453556 1.4050001 4291481808
-0.2069544 -0.032430455 1.404 4291547601
-0.20437181 -0.032407355 1.4030001 4291613394
-0.20193662 -0.032407355 1.4030001 4291613394
-0.19950144 -0.032407355 1.4030001 4291613393
-0.19706625 -0.032407355 1.4030001 4291547601
-0.1947698 -0.032430455 1.404 4291679187
-0.19246987 -0.032453556 1.4050001 4291679187
-0.19030172 -0.032499753 1.4070001 4291744979
-0.18799311 -0.03252285 1.4080001 4291613394
-0.18581282 -0.032569051 1.4100001 4291744980
-0.18362556 -0.032615244 1.4120001 4291744980
-0.18130307 -0.032638345 1.4130001 4291613394
-0.17960998 -0.032776933 1.419 4291810773
-0.17412511 -0.034624826 1.4990001 4282862672
-0.1724387 -0.034809612 1.5070001 4283849568
-0.17027375 -0.034902006 1.511 4283783776
-0.22768256 -0.030502075 1.427 4283981153
-0.22457446 -0.030416576 1.4230001 4287533975
-0.22132415 -0.030309699 1.4180001 4291218382
-0.2177825 -0.030160075 1.411 4291678933
-0.21487561 -0.030095952 1.4080001 4291613394
-0.21197912 -0.030031826 1.4050001 4291481808
-0.20954046 -0.030031826 1.4050001 4291284429
-0.2069544 -0.030010452 1.404 4291416015
-0.20437181 -0.029989075 1.4030001 4291416013
-0.20193662 -0.029989075 1.4030001 4291350220
-0.19950144 -0.029989075 1.4030001 4291481806
-0.19706625 -0.029989075 1.4030001 4291416013
-0.1947698 -0.030010452 1.404 4291481806
-0.19260685 -0.0300532 1.406 4291679185
-0.19030172 -0.030074576 1.4070001 4291679185
-0.18799311 -0.030095952 1.4080001 4291547599
-0.18554924 -0.030095952 1.4080001 4291613392
-0.18349552 -0.030160075 1.411 4291810771
-0.18130307 -0.030202826 1.4130001 4291679186
-0.17973655 -0.030352451 1.4200001 4291744979
-0.1738928 -0.031998321 1.4970001 4283125844
-0.17232428 -0.032190699 1.506 4283783774
-0.21793684 -0.027747655 1.4120001 4287599767
-0.21502821 -0.027688703 1.409 4289771190
-0.21212998 -0.027629748 1.406 4290363325
-0.20968959 -0.027629748 1.406 4290692290
-0.20710181 -0.027610097 1.4050001 4290823876
-0.20437181 -0.027570795 1.4030001 4290626496
-0.20193662 -0.027570795 1.4030001 4290363323
-0.19950144 -0.027570795 1.4030001 4290560702
-0.19734718 -0.027610097 1.4050001 4290955460
-0.19504724 -0.027629748 1.406 4291021254
-0.19288084 -0.027669052 1.4080001 4290889669
-0.19057222 -0.027688703 1.409 4291087047
-0.18826015 -0.027708353 1.4100001 4290955462
-0.18594459 -0.027728004 1.411 4290692290
-0.17366047 -0.029378718 1.4950001 4283060050
-0.17209542 -0.029555576 1.5040001 4283454809
-0.20754401 -0.025242152 1.4080001 4287863189
-0.20510015 -0.025242152 1.4080001 4288257947
-0.20265628 -0.025242152 1.4080001 4288521119
-0.20035462 -0.02526008 1.409 4288455326
-0.19790901 -0.02526008 1.409 4288586912
-0.19532469 -0.025242152 1.4080001 4288521119
-0.19356579 -0.02533179 1.4130001 4287665810
-0.18830724 -0.025959257 1.4480001 4281481270
-0.18579395 -0.025959257 1.4480001 4281283891
-0.18378696 -0.026030969 1.452 4281218098
-0.18226543 -0.026174391 1.46 4281613112
-0.18022373 -0.026246101 1.4640001 4281679419
-0.17901772 -0.026443304 1.475 4281876800
-0.17717536 -0.02655087 1.4810001 4282205765
-0.17578375 -0.026730148 1.4910001 4282468683
-0.17163773 -0.026891496 1.5000001 4283586395
-0.20798622 -0.022863863 1.411 4282468163
-0.20582849 -0.022896271 1.4130001 4283718230
-0.20337595 -0.022896271 1.4130001 4284376160
-0.20092341 -0.022896271 1.4130001 4284573539
-0.19847086 -0.022896271 1.4130001 4284112988
-0.19574086 -0.022863863 1.411 4283586899
-0.19438772 -0.022993496 1.419 4281941819
-0.18856733 -0.023495821 1.45 4281678649
-0.18605056 -0.023495821 1.45 4281678649
-0.18404011 -0.023560636 1.4540001 4281678649
-0.1821406 -0.023641655 1.4590001 4281744185
-0.18010063 -0.023706473 1.4630001 4281678906
-0.17877498 -0.023868512 1.473 4281679422
-0.17681646 -0.023949532 1.478 4282073924
-0.17543007 -0.024111573 1.488 4282600269
-0.17140888 -0.024273613 1.498 4283652188
-0.23115732 -0.021445418 1.4810001 4283323993
-0.22735196 -0.021329576 1.473 4282665293
-0.22464268 -0.021315094 1.4720001 4282336328
-0.20772217 -0.020648997 1.4260001 4281547061
-0.2049592 -0.020620037 1.424 4281283889
-0.20248757 -0.020620037 1.424 4281941819
-0.20029685 -0.020648997 1.4260001 4281283889
-0.19823791 -0.02069244 1.429 4282073405
-0.19630557 -0.020750361 1.4330001 4282270785
-0.19422407 -0.020793801 1.4360001 4281941821
-0.19199863 -0.020822762 1.4380001 4281744442
-0.19042519 -0.020924125 1.4450001 4281612856
-0.18882743 -0.021025488 1.452 4281547064
-0.18656382 -0.021054449 1.4540001 4281612857
-0.1845464 -0.021112369 1.4580001 4281612856
-0.18239027 -0.02115581 1.4610001 4281612857
-0.18010063 -0.021184772 1.4630001 4281547065
-0.1782895 -0.021271653 1.4690001 4281678908
-0.17609866 -0.021315094 1.4720001 4281942082
-0.17354372 -0.021315094 1.4720001 4282468170
-0.22503677 -0.018599287 1.4580001 4282468684
-0.22281136 -0.018624801 1.46 4282468170
-0.21997547 -0.018599287 1.4580001 4282204742
-0.21669912 -0.018535502 1.4530001 4281875776
-0.21388236 -0.01850999 1.4510001 4281941823
-0.21034418 -0.018420693 1.4440001 4281678650
-0.20654245 -0.018305881 1.4350001 4281612856
-0.20376733 -0.018280368 1.4330001 4281810235
-0.20128009 -0.018280368 1.4330001 4281744442
-0.19907026 -0.018305881 1.4350001 4281678649
-0.19685352 -0.018331397 1.437 4282270787
-0.19462983 -0.01835691 1.439 4281678650
-0.19239919 -0.018382423 1.4410001 4281744444
-0.19068874 -0.018458964 1.447 4281547065
-0.18908753 -0.01854826 1.4540001 4281349687
-0.18682043 -0.018573774 1.4560001 4281481273
-0.18441983 -0.018586531 1.457 4281612859
-0.18164124 -0.018561017 1.455 4281546811
-0.1791158 -0.018561017 1.455 4281612604
-0.17671172 -0.018573774 1.4560001 4281678397
-0.17562014 -0.018726856 1.4680001 4282007363
-0.17295423 -0.018714098 1.4670001 4282599500
-0.22694311 -0.016042072 1.4540001 4283192407
-0.22349332 -0.015975874 1.4480001 4282929235
-0.22098003 -0.015975874 1.4480001 4282534477
-0.21816498 -0.015953807 1.4460001 4282073926
-0.21520774 -0.015920708 1.4430001 4282007362
-0.21255574 -0.015909676 1.442 4281744190
-0.20976152 -0.015887611 1.4400001 4281678651
-0.20683032 -0.015854511 1.437 4281612856
-0.20419392 -0.015843477 1.4360001 4281612856
-0.20156099 -0.015832443 1.4350001 4281678649
-0.19907026 -0.015832443 1.4350001 4281810237
-0.19657955 -0.015832443 1.4350001 4281876030
-0.19422407 -0.015843477 1.4360001 4281744444
-0.19159809 -0.015832443 1.4350001 4281744444
-0.1902934 -0.015931742 1.4440001 4281612603
-0.1879171 -0.015942775 1.4450001 4281415225
-0.18553732 -0.015953807 1.4460001 4281349432
-0.18302751 -0.015953807 1.4460001 4281546812
-0.18039285 -0.015942775 1.4450001 4281546812
-0.17788477 -0.015942775 1.4450001 4281612605
-0.17549804 -0.015953807 1.4460001 4281875777
-0.17346674 -0.015997941 1.45 4282138949
-0.17142159 -0.016042072 1.4540001 4282665293
-0.22585052 -0.013470719 1.447 4283257946
-0.22210421 -0.013396244 1.439 4282994774
-0.2191487 -0.013368315 1.4360001 4282534221
-0.21635449 -0.013349697 1.434 4282139462
-0.21356721 -0.013331077 1.432 4282073155
-0.2110817 -0.013331077 1.432 4281744190
-0.20859617 -0.013331077 1.432 4281612858
-0.20596673 -0.013321768 1.4310001 4281481273
-0.20319854 -0.013303149 1.429 4281678649
-0.20057778 -0.013293839 1.4280001 4281678650
-0.19796048 -0.01328453 1.427 4281612858
-0.19534664 -0.013275221 1.4260001 4282007616
-0.19327728 -0.013303149 1.429 4282073409
-0.19079697 -0.013303149 1.429 4281612858
-0.18844846 -0.013312459 1.4300001 4281546811
-0.18622649 -0.013331077 1.432 4281349433
-0.18386929 -0.013340387 1.4330001 4281415226
-0.18163517 -0.013359006 1.4350001 4281546556
-0.17939413 -0.013377625 1.437 4281546812
-0.17702304 -0.013386934 1.4380001 4281678655
-0.17501257 -0.013424171 1.442 4281744447
-0.17322749 -0.013480028 1.4480001 4281678398
-0.17118578 -0.013517266 1.452 4281678398
-0.22585052 -0.010976597 1.447 4285429115
-0.2217955 -0.010900739 1.437 4282468430
-0.21899608 -0.010885567 1.4350001 4282599502
-0.21590187 -0.010855224 1.4310001 4282336328
-0.21297066 -0.010832466 1.4280001 4282073156
-0.21049209 -0.010832466 1.4280001 4281744191
-0.20786785 -0.010824881 1.427 4281744190
-0.20524706 -0.010817296 1.4260001 4281612604
-0.20262976 -0.01080971 1.4250001 4281678652
-0.19987547 -0.010794538 1.4230001 4281678652
-0.19726685 -0.010786952 1.4220001 4281809981
-0.19479868 -0.010786952 1.4220001 4281876031
-0.19246577 -0.010794538 1.4230001 4281876031
-0.1901294 -0.010802125 1.424 4281678396
-0.18792132 -0.010817296 1.4260001 4281415225
-0.18570632 -0.010832466 1.4280001 4281349433
-0.18335605 -0.010840053 1.429 4281349433
-0.18125544 -0.01086281 1.432 4281349434
-0.1792693 -0.010893153 1.4360001 4281152311
-0.17689994 -0.010900739 1.437 4281283385
-0.17501257 -0.010938668 1.442 4282270023
-0.17310785 -0.010976597 1.447 4283520346
-0.17106789 -0.011006939 1.4510001 4285889406
-0.2217955 -0.0084238527 1.437 4288389543
-0.21884347 -0.0084062666 1.434 4285297014
-0.2156001 -0.0083769569 1.429 4282336328
-0.21252324 -0.0083535081 1.4250001 4282073156
-0.20990248 -0.0083476463 1.424 4281152054
-0.20728517 -0.0083417837 1.4230001 4281744191
-0.20467134 -0.008335921 1.4220001 4281415226
-0.20206097 -0.0083300592 1.4210001 4281809983
-0.19945408 -0.0083241975 1.4200001 4281809983
-0.19685067 -0.0083183348 1.419 4281678398
-0.19425072 -0.0083124731 1.4180001 4281941570
-0.19206001 -0.0083241975 1.4200001 4282007363
-0.18946181 -0.0083183348 1.419 4281349433
-0.1873942 -0.008335921 1.4220001 4281283640
-0.18531618 -0.0083535081 1.4250001 4280954675
-0.18309943 -0.0083652316 1.427 4280493611
-0.18112887 -0.0083886804 1.4310001 4282073157
-0.1792693 -0.008417991 1.4360001 4284507499
-0.17702304 -0.0084297154 1.4380001 4283716957
-0.17549804 -0.0084766122 1.4460001 4287796379
-0.22225854 -0.0059593827 1.4400001 4288455079
-0.2191487 -0.005942829 1.4360001 4287270805
-0.21605273 -0.0059262747 1.432 4283389017
-0.21282153 -0.0059055826 1.427 4288981421
-0.21004987 -0.0058973054 1.4250001 4284375911
-0.20728517 -0.0058890292 1.4230001 4283717981
-0.20467134 -0.0058848904 1.4220001 4280888882
-0.20206097 -0.0058807521 1.4210001 4282336328
-0.19959454 -0.0058807521 1.4210001 4281020212
-0.19698939 -0.0058766133 1.4200001 4282204229
-0.19438772 -0.005872475 1.419 4281020468
-0.19192477 -0.005872475 1.419 4283389016
-0.18959531 -0.0058766133 1.4200001 4281875777
-0.18752597 -0.0058890292 1.4230001 4285954687
-0.18544622 -0.0059014442 1.4260001 4287665048
-0.18335605 -0.0059138597 1.429 4284111455
-0.1815086 -0.0059345518 1.434 4287993242
-0.17964381 -0.0059552444 1.439 4287203727
-0.17763856 -0.0059717977 1.4430001 4288256930
-0.22210421 -0.0034749112 1.439 4285560187
-0.21930131 -0.0034700814 1.437 4288323492
-0.21635449 -0.0034628371 1.434 4283915361
-0.21282153 -0.0034459336 1.427 4289573558
-0.21004987 -0.003441104 1.4250001 4289705144
-0.20728517 -0.0034362741 1.4230001 4288126112
-0.20481527 -0.0034362741 1.4230001 4283849567
-0.20220317 -0.0034338594 1.4220001 4289968316
-0.19945408 -0.0034290296 1.4200001 4281020211
-0.19698939 -0.0034290296 1.4200001 4288717736
-0.19438772 -0.0034266151 1.419 4286415237
-0.19206001 -0.0034290296 1.4200001 4288849578
-0.18959531 -0.0034290296 1.4200001 4288322978
-0.18765776 -0.003438689 1.424 4288322978
-0.18583636 -0.0034507629 1.429 4287532948
-0.18361266 -0.0034555928 1.4310001 4288782759
-0.18176176 -0.0034676667 1.4360001 4288847783
-0.18014316 -0.0034845704 1.4430001 4286874249
-0.17813097 -0.0034942296 1.447 4287467669
-0.21741061 -0.00099596044 1.4410001 4282336328
-0.21401463 -0.00099181349 1.4350001 4285757564
-0.21078689 -0.00098835758 1.4300001 4283783774
-0.20830485 -0.00098835758 1.4300001 4288191905
-0.2058228 -0.00098835758 1.4300001 4289244336
-0.20319854 -0.00098766654 1.429 4290230975
-0.20057778 -0.00098697538 1.4280001 4287336083
-0.1980992 -0.00098697538 1.4280001 4288586150
-0.19548364 -0.00098628423 1.427 4289112494
-0.1930068 -0.00098628423 1.427 4290230975
-0.19066347 -0.00098697538 1.4280001 4288520357
-0.18871202 -0.00098974002 1.432 4288520100
-0.18687673 -0.0009931958 1.437 4288388257
-0.18476745 -0.00099526928 1.4400001 4286085245
-0.18290094 -0.00099872507 1.4450001 4284769385
-0.18101704 -0.001002181 1.45 4285296243
-0.1789927 -0.0010049455 1.4540001 4282006850
-0.22235352 0.0015043397 1.457 4283981153
-0.21846673 0.0014950474 1.4480001 4282862672
-0.21505861 0.0014888523 1.442 4281809984
-0.21226092 0.0014867875 1.4400001 4281349433
-0.20917885 0.0014826574 1.4360001 4282994258
-0.20683032 0.0014836899 1.437 4284770156
-0.20447831 0.0014847225 1.4380001 4282927952
-0.20198238 0.0014847225 1.4380001 4286283395
-0.19934772 0.0014836899 1.437 4286612360
-0.19657955 0.001481625 1.4350001 4283388503
-0.19408882 0.001481625 1.4350001 4285230963
-0.19159809 0.001481625 1.4350001 4283322709
-0.1895027 0.0014847225 1.4380001 4282533449
-0.18778704 0.0014909174 1.4440001 4282993487
-0.18553732 0.0014929824 1.4460001 4281546039
-0.18366039 0.0014981448 1.4510001 4281216818
-0.18164124 0.0015022748 1.455 4281941313
-0.2186176 0.0039936495 1.4490001 4284771439
-0.21505861 0.0039743562 1.442 4285231220
-0.21196611 0.0039633317 1.4380001 4283520602
-0.20903318 0.0039550634 1.4350001 4281875263
-0.20668639 0.0039578197 1.4360001 4281743678
-0.20462051 0.0039660879 1.439 4281348920
-0.20212284 0.0039660879 1.439 4281414969
-0.19948643 0.0039633317 1.4380001 4281612347
-0.19657955 0.0039550634 1.4350001 4281414968
-0.19395356 0.0039523076 1.434 4281546554
-0.19146457 0.0039523076 1.434 4281678140
-0.18937093 0.0039605754 1.437 4281743933
-0.18752696 0.0039743562 1.442 4282599496
-0.1852807 0.0039798687 1.4440001 4283454805
-0.1835338 0.0039964058 1.45 4283191633
-0.21891937 0.0065001785 1.4510001 4282337098
-0.21535689 0.0064688199 1.4440001 4282928722
-0.21240832 0.0064553809 1.4410001 4283652187
-0.20932451 0.0064374614 1.437 4283980895
-0.20697424 0.0064419415 1.4380001 4285099377
-0.2049049 0.0064553809 1.4410001 4284770156
-0.20240375 0.0064553809 1.4410001 4282730573
-0.19962518 0.0064464207 1.439 4282599242
-0.19685352 0.0064374614 1.437 4283849309
-0.19435932 0.0064374614 1.437 4285362548
-0.19199863 0.0064419415 1.4380001 4285165169
-0.18976627 0.0064509008 1.4400001 4284836461
-0.187657 0.0064643403 1.4430001 4284441958
-0.18540902 0.0064733 1.4450001 4283981407
-0.1835338 0.0064956988 1.45 4282533704
-0.21314535 0.0089701787 1.4460001 4281481789
-0.20961586 0.0089267539 1.439 4281941569
-0.20740604 0.008939161 1.4410001 4282204741
-0.2050471 0.0089453645 1.442 4282796366
-0.20240375 0.008939161 1.4410001 4282335815
-0.19976389 0.0089329574 1.4400001 4282204485
-0.19712751 0.0089267539 1.439 4282993744
-0.19503559 0.0089453645 1.442 4283586138
-0.19293328 0.0089639751 1.4450001 4282994257
-0.20961586 0.011407087 1.439 4281481018
-0.20740604 0.011422941 1.4410001 4281678397
-0.2050471 0.011430869 1.442 4281546556
-0.2022633 0.011415014 1.4400001 4281677885
-0.19962518 0.011407087 1.439 4281677884
-0.19712751 0.011407087 1.439 4281677885
-0.19503559 0.011430869 1.442 4281809728
