# .PCD v0.7 - Point Cloud Data file format
VERSION 0.7
FIELDS x y z rgba
SIZE 4 4 4 4
TYPE F F F U
COUNT 1 1 1 1
WIDTH 1091
HEIGHT 1
VIEWPOINT 0 0 0 1 0 0 0
POINTS 1091
DATA ascii
0.16027559 -0.058428511 1.304 4285099384
0.16497222 -0.058831774 1.3130001 4284902520
0.16933291 -0.059100617 1.319 4284705654
0.17346418 -0.059279844 1.3230001 4284836982
0.17494036 -0.058562927 1.307 4278190080
0.17619245 -0.057801206 1.2900001 4284836212
0.17860541 -0.057442751 1.2820001 4284770419
0.181969 -0.057397947 1.281 4284442224
0.18634063 -0.05766679 1.2870001 4284442224
0.19059755 -0.057890821 1.2920001 4284374634
0.19473158 -0.058070049 1.296 4285031024
0.19827549 -0.058070049 1.296 4284439914
0.20337667 -0.058518123 1.3060001 4283914597
0.20647256 -0.0583837 1.3030001 4283323741
0.21100278 -0.058652543 1.309 4282732117
0.21556583 -0.058921389 1.3150001 4282600018
0.22132832 -0.059503883 1.3280001 4282271053
0.22716191 -0.06008637 1.3410001 4282664530
0.233583 -0.060803287 1.3570001 4283058519
0.24218999 -0.062057886 1.3850001 4282796117
-0.01864991 -0.056798048 1.35 4278190080
-0.014803199 -0.056209031 1.3360001 4278190080
-0.011116511 -0.056040745 1.332 4285158505
-0.0075022001 -0.056251105 1.337 4284242022
-0.0038375305 -0.056124888 1.3340001 4283784294
-0.0001886992 -0.055830378 1.327 4283850858
0.0034244414 -0.055577945 1.3210001 4283981931
0.0069941143 -0.055241365 1.3130001 4283983214
0.010495851 -0.054778565 1.302 4284245103
0.013948224 -0.054357834 1.2920001 4284508788
0.017467679 -0.054315764 1.291 4284705654
0.021079257 -0.054526124 1.296 4285688186
0.024471186 -0.054189544 1.2880001 4285165178
0.028014969 -0.054231621 1.289 4278190080
0.031539753 -0.054231621 1.289 4285165177
0.035282157 -0.054568198 1.2970001 4285295481
0.038709067 -0.054399908 1.2930001 4285295223
0.041983414 -0.054063331 1.2850001 4285822080
0.045391042 -0.053937111 1.2820001 4285361529
0.049049243 -0.054105401 1.286 4285229688
0.052647576 -0.054189544 1.2880001 4284770934
0.055820744 -0.053852964 1.2800001 4284902520
0.059135534 -0.053684674 1.276 4284770934
0.062526613 -0.053600531 1.274 4284704113
0.06626945 -0.053810891 1.279 4284704113
0.069603242 -0.053684674 1.276 4284638833
0.074581817 -0.054778565 1.302 4284638834
0.077842064 -0.054568198 1.2970001 4284508275
0.081263229 -0.054484054 1.2950001 4284574068
0.08545927 -0.054904778 1.3050001 4284376944
0.089437135 -0.055157214 1.3110001 4284508017
0.092880167 -0.055073068 1.309 4278190080
0.095059536 -0.054273691 1.2900001 4278190080
0.097517118 -0.053684674 1.276 4285098871
0.10124382 -0.053810891 1.279 4284572528
0.10523262 -0.054063331 1.2850001 4284311409
0.10815408 -0.053768821 1.2780001 4284311409
0.11068779 -0.053306021 1.2670001 4284770419
0.11451281 -0.053474311 1.271 4284508017
0.11845252 -0.053684674 1.276 4285099382
0.12347081 -0.054357834 1.2920001 4284901746
0.12700379 -0.054357834 1.2920001 4284771187
0.13114299 -0.054610275 1.2980001 4284836980
0.13438107 -0.054484054 1.2950001 4284771700
0.13707024 -0.054147474 1.2870001 4284902773
0.14004335 -0.053937111 1.2820001 4285625726
0.14310111 -0.053768821 1.2780001 4285888641
0.14705464 -0.053937111 1.2820001 4285822078
0.15079518 -0.054021254 1.284 4285558906
0.1557484 -0.054526124 1.296 4285230457
0.15843193 -0.054231621 1.289 4285362556
0.1638414 -0.054862708 1.304 4285165947
0.1674072 -0.054862708 1.304 4285165947
0.17228414 -0.055283435 1.314 4284967798
0.17320032 -0.054441981 1.294 4284836212
0.17605585 -0.054231621 1.289 4284835699
0.17860541 -0.053937111 1.2820001 4284638833
0.18182695 -0.053852964 1.2800001 4284507247
0.18518235 -0.053810891 1.279 4284309868
0.19104011 -0.054484054 1.2950001 4284046696
0.1945813 -0.054484054 1.2950001 4284177255
0.19705157 -0.054189544 1.2880001 4278190080
0.20026216 -0.054105401 1.286 4283455329
0.20457104 -0.054315764 1.291 4283520093
0.21261472 -0.055493798 1.319 4282798423
0.21605761 -0.055451725 1.3180001 4282534738
0.22166164 -0.055956598 1.33 4282139980
0.22817831 -0.056671832 1.3470001 4282597710
0.2346158 -0.057344992 1.363 4284043361
0.24218999 -0.058270592 1.3850001 4283517785
-0.018594652 -0.052949108 1.3460001 4278190080
-0.014781038 -0.052477051 1.3340001 4278190080
-0.011091474 -0.052280359 1.3290001 4287718272
-0.0075078113 -0.052634403 1.3380001 4284242535
-0.003843284 -0.052555729 1.3360001 4283456099
-0.000189268 -0.052359037 1.3310001 4283784552
0.0034140721 -0.051808305 1.317 4283719272
0.0069461726 -0.051296908 1.304 4283719788
0.010471667 -0.051100217 1.299 4284311409
0.014002204 -0.051021539 1.2970001 4284573555
0.017616514 -0.051218234 1.302 4284901493
0.021241905 -0.051375583 1.3060001 4285098872
0.025003169 -0.051768962 1.3160001 4284967799
0.02818884 -0.051021539 1.2970001 4284837240
0.031637628 -0.05086419 1.2930001 4284968313
0.035146143 -0.050824847 1.2920001 4285296764
0.038918629 -0.051139556 1.3000001 4285427067
0.042114101 -0.050706837 1.289 4285425782
0.045284823 -0.05031345 1.279 4285492089
0.048972964 -0.050510146 1.284 4285230457
0.052484076 -0.050510146 1.284 4285164664
0.055689916 -0.050234776 1.2770001 4284770419
0.058903817 -0.049998749 1.271 4284769906
0.062428456 -0.050038088 1.2720001 4284966771
0.065699503 -0.049880736 1.268 4285359989
0.069985077 -0.05047081 1.2830001 4284572527
0.073779866 -0.050667495 1.2880001 4284638834
0.077121861 -0.050549485 1.2850001 4284376689
0.080761217 -0.050628159 1.2870001 4284376689
0.084346011 -0.050667495 1.2880001 4284180592
0.089096032 -0.051375583 1.3060001 4284245615
0.092383482 -0.051218234 1.302 4284507247
0.09483847 -0.050628159 1.2870001 4278190080
0.097135 -0.049998749 1.271 4285032564
0.1005314 -0.049959414 1.2700001 4285098102
0.10375854 -0.049841397 1.2670001 4284704114
0.10688466 -0.049684044 1.263 4284704627
0.10972682 -0.049408674 1.256 4284638320
0.11379203 -0.049684044 1.263 4284900465
0.11789554 -0.049959414 1.2700001 4284834670
0.12251515 -0.050431468 1.2820001 4284573808
0.1272987 -0.050942864 1.2950001 4284770419
0.13164817 -0.051257569 1.3030001 4284837495
0.13417354 -0.05086419 1.2930001 4284705909
0.13717675 -0.050667495 1.2880001 4284771700
0.14048031 -0.05058882 1.286 4285297531
0.14310111 -0.050274115 1.2780001 4285625726
0.14659582 -0.050274115 1.2780001 4285559933
0.14950331 -0.050077423 1.273 4285427320
0.15454663 -0.05058882 1.286 4285361527
0.15707992 -0.050274115 1.2780001 4284902005
0.16095157 -0.050392132 1.281 4284968568
0.1656099 -0.050746173 1.2900001 4285230970
0.16979298 -0.050942864 1.2950001 4285099382
0.17253107 -0.050706837 1.289 4285230968
0.17605585 -0.050706837 1.289 4285099382
0.17985928 -0.050785512 1.291 4284705396
0.18367362 -0.05086419 1.2930001 4284245358
0.18822287 -0.051139556 1.3000001 4284245103
0.19281037 -0.051414918 1.307 4283915880
0.19548284 -0.051178891 1.3010001 4278190080
0.19705157 -0.050667495 1.2880001 4283849315
0.20135222 -0.05086419 1.2930001 4283651936
0.20821561 -0.051690288 1.314 4283257432
0.21503264 -0.052477051 1.3340001 4282994774
0.21851653 -0.052437712 1.3330001 4282796881
0.22349495 -0.052752417 1.3410001 4282140493
0.22919469 -0.053224478 1.353 4283383891
0.2346158 -0.053617857 1.363 4285746279
0.24131566 -0.054286603 1.3800001 4284173662
-0.018580835 -0.049231857 1.345 4278190080
-0.014747798 -0.048719402 1.3310001 4286596968
-0.011066437 -0.048536383 1.3260001 4286928756
-0.0074404767 -0.048536383 1.3260001 4283913057
-0.0038317773 -0.048756011 1.332 4283324256
-0.0001891258 -0.048682801 1.33 4283521382
0.0033674105 -0.047548089 1.299 4283652968
0.0068556168 -0.047108848 1.2870001 4278190080
0.010366869 -0.047072239 1.286 4283915627
0.013948224 -0.04729186 1.2920001 4284769137
0.017643575 -0.047731109 1.304 4285492090
0.02125817 -0.047840916 1.307 4284836213
0.02502217 -0.048206955 1.317 4284967799
0.028406179 -0.047840916 1.307 4278190080
0.031588688 -0.047255259 1.291 4285034619
0.034982923 -0.047072239 1.286 4284903546
0.038709067 -0.047328468 1.2930001 4285165178
0.042016085 -0.047072239 1.286 4285164150
0.045391042 -0.046925828 1.2820001 4285425269
0.048744116 -0.046779413 1.2780001 4285884537
0.052034441 -0.046596393 1.273 4285097331
0.055341035 -0.046449978 1.2690001 4284836212
0.058811128 -0.046449978 1.2690001 4284965745
0.062526613 -0.046632998 1.274 4285162610
0.066373073 -0.046889227 1.281 4284572527
0.069712333 -0.046779413 1.2780001 4284245615
0.073378883 -0.046889227 1.281 4284508017
0.076881796 -0.046889227 1.281 4284442482
0.080447458 -0.046925828 1.2820001 4284376689
0.083756641 -0.046816014 1.279 4284114030
0.087526955 -0.046962433 1.2830001 4284310896
0.091319159 -0.047108848 1.2870001 4284245103
0.09439633 -0.046889227 1.281 4278190080
0.097135 -0.046523187 1.271 4278190080
0.10021476 -0.046340171 1.266 4285096304
0.10334909 -0.046193752 1.2620001 4285621108
0.1067154 -0.046157151 1.261 4284769392
0.10981417 -0.046010736 1.2570001 4285096815
0.11352174 -0.046120547 1.2600001 4285292654
0.11706006 -0.046157151 1.261 4284441195
0.12117723 -0.046413377 1.268 4284442222
0.12503779 -0.046559792 1.2720001 4284442224
0.12962747 -0.046962433 1.2830001 4284705396
0.13220192 -0.046632998 1.274 4284837495
0.13525967 -0.046486586 1.2700001 4278190080
0.13938792 -0.046706207 1.276 4285231738
0.14220533 -0.046486586 1.2700001 4285231738
0.14579287 -0.046523187 1.271 4285428347
0.1489161 -0.046413377 1.268 4285492600
0.15298434 -0.046596393 1.273 4285098355
0.15695702 -0.046742808 1.2770001 4285491573
0.16057463 -0.046779413 1.2780001 4285033332
0.16406934 -0.046779413 1.2780001 4285032049
0.16795738 -0.046889227 1.281 4285492343
0.17172799 -0.046962433 1.2830001 4285229428
0.17591928 -0.047145449 1.2880001 4285099125
0.18041654 -0.047401674 1.2950001 4285099382
0.18481004 -0.047621295 1.3010001 4284442737
0.19010508 -0.04806054 1.3130001 4284244590
0.19281037 -0.047840916 1.307 4278190080
0.19413054 -0.04729186 1.2920001 4283849317
0.19643959 -0.046999034 1.284 4283323743
0.20026216 -0.047072239 1.286 4284046183
0.20488794 -0.047328468 1.2930001 4282994776
0.2132595 -0.048426576 1.3230001 4283256921
0.21950009 -0.049012233 1.3390001 4282666324
0.22499491 -0.049414873 1.35 4282139982
0.22919469 -0.049524684 1.353 4282728784
0.23409942 -0.049780905 1.36 4285680486
0.24149054 -0.050549585 1.381 4282990928
-0.018580835 -0.045553941 1.345 4278190080
-0.014803199 -0.045249119 1.3360001 4285682282
-0.011124857 -0.045147508 1.3330001 4285025379
-0.0074573103 -0.045012034 1.3290001 4284700776
-0.0038260238 -0.045045905 1.33 4283650656
-0.000187846 -0.044741083 1.3210001 4283652453
0.0033777799 -0.044131435 1.3030001 4278190080
0.0068929046 -0.043826614 1.294 4283586662
0.010439422 -0.043860484 1.2950001 4283916138
0.014066977 -0.044131435 1.3030001 4284507762
0.017616514 -0.044097565 1.302 4284704114
0.021144316 -0.044029828 1.3000001 4284705396
0.024737176 -0.044097565 1.302 4284902775
0.028145371 -0.043860484 1.2950001 4284903545
0.031539753 -0.043657269 1.289 4278190080
0.034765303 -0.04328471 1.2780001 4284837753
0.038379759 -0.043420184 1.2820001 4285164665
0.041983414 -0.043521792 1.2850001 4284771447
0.045320228 -0.043352447 1.2800001 4285097332
0.048515271 -0.043081496 1.2720001 4285555572
0.051789191 -0.042912148 1.2670001 4285292913
0.055166591 -0.042844411 1.2650001 4285095021
0.058718435 -0.042912148 1.2670001 4285817715
0.062526613 -0.043149233 1.274 4285162608
0.066321261 -0.043352447 1.2800001 4284440941
0.069548696 -0.043183103 1.2750001 4284376944
0.073207043 -0.04328471 1.2780001 4284310896
0.07676176 -0.043318577 1.279 4284574068
0.080384701 -0.043386318 1.281 4284245616
0.08369115 -0.04328471 1.2780001 4284179823
0.086981192 -0.043183103 1.2750001 4284311409
0.089971013 -0.042946018 1.268 4284048237
0.093733117 -0.043081496 1.2720001 4284310896
0.097058572 -0.043013755 1.2700001 4284376431
0.099977285 -0.042776674 1.263 4284702827
0.10293961 -0.042573459 1.2570001 4286994546
0.10629227 -0.042539589 1.256 4287843436
0.10937737 -0.042404111 1.2520001 4287978872
0.11334155 -0.04260733 1.258 4286210674
0.11631741 -0.042437982 1.253 4284442733
0.12089054 -0.042844411 1.2650001 4284311149
0.12434969 -0.042844411 1.2650001 4284638833
0.12871815 -0.043149233 1.274 4284442737
0.13168307 -0.042979885 1.2690001 4284574323
0.13494016 -0.042912148 1.2670001 4284837495
0.13796782 -0.042776674 1.263 4284968568
0.14153349 -0.042810541 1.2640001 4284967796
0.14602228 -0.043115366 1.273 4285165175
0.1489161 -0.042946018 1.268 4285099382
0.15238346 -0.042946018 1.268 4285359474
0.15621956 -0.043047626 1.271 4285883251
0.16007204 -0.043149233 1.274 4285621619
0.16368419 -0.043183103 1.2750001 4285161579
0.16677734 -0.043081496 1.2720001 4285556851
0.17092489 -0.04325084 1.2770001 4285032560
0.17496319 -0.043386318 1.281 4284902003
0.1801379 -0.043792747 1.2930001 4285165945
0.18509416 -0.044131435 1.3030001 4284836982
0.18938117 -0.044300783 1.3080001 4284508017
0.19089261 -0.043826614 1.294 4284179310
0.19247772 -0.043386318 1.281 4283849832
0.19506268 -0.043183103 1.2750001 4283520352
0.19901636 -0.04328471 1.2780001 4283388766
0.20330337 -0.043454055 1.2830001 4283849317
0.21100278 -0.04433465 1.309 4283191128
0.21900831 -0.045249119 1.3360001 4283059288
0.22466157 -0.045655545 1.348 4282664530
0.2286865 -0.045723282 1.35 4283319124
0.23444366 -0.046129715 1.3620001 4284896103
-0.018525576 -0.041751485 1.3410001 4278190080
-0.01482536 -0.041658081 1.3380001 4284900466
-0.01115824 -0.041626949 1.337 4283980390
-0.0074516991 -0.041346736 1.3280001 4283781985
-0.0037915031 -0.041035388 1.3180001 4284045157
-0.00018656621 -0.040848583 1.312 4283717732
0.0033518567 -0.040257026 1.2930001 4278190080
0.0068822508 -0.04022589 1.2920001 4283521380
0.010447483 -0.04035043 1.296 4283980904
0.013948224 -0.04022589 1.2920001 4284507248
0.017359437 -0.039945677 1.2830001 4284507762
0.020672634 -0.039572064 1.271 4284639603
0.024300192 -0.03982114 1.279 4284640373
0.027906299 -0.039976813 1.284 4284771960
0.031368475 -0.039914545 1.2820001 4284837753
0.034574881 -0.039572064 1.271 4284968313
0.03799057 -0.039509792 1.2690001 4285034619
0.041820053 -0.039852276 1.2800001 4284639861
0.04507238 -0.039634336 1.273 4284573041
0.048400849 -0.039509792 1.2690001 4285685618
0.051707439 -0.039385255 1.2650001 4288824175
0.055122983 -0.039354123 1.2640001 4289216108
0.058533061 -0.039322987 1.263 4288237167
0.062232144 -0.03947866 1.268 4285162093
0.065958567 -0.039634336 1.273 4284572781
0.069275953 -0.039540928 1.2700001 4284179565
0.072977915 -0.039665468 1.274 4284377201
0.076341644 -0.0396032 1.2720001 4284179822
0.080196448 -0.039790004 1.2780001 4284245615
0.083494693 -0.039696604 1.2750001 4284114029
0.086776532 -0.0396032 1.2720001 4284179822
0.089687191 -0.039354123 1.2640001 4284179822
0.093217298 -0.039385255 1.2650001 4284179823
0.096982144 -0.039509792 1.2690001 4284114283
0.10013561 -0.039385255 1.2650001 4284835183
0.10326719 -0.039260719 1.261 4287516011
0.10637689 -0.039136179 1.2570001 4288823658
0.10972682 -0.039105043 1.256 4288301164
0.11316136 -0.039105043 1.256 4285618537
0.11668873 -0.039136179 1.2570001 4284310634
0.12041271 -0.039229583 1.2600001 4283983211
0.12385818 -0.039229583 1.2600001 4284179822
0.12790987 -0.039416391 1.266 4284311151
0.13106045 -0.039322987 1.263 4284113517
0.13451414 -0.039322987 1.263 4284376689
0.13796782 -0.039322987 1.263 4284508275
0.14186941 -0.039447524 1.2670001 4284573810
0.14533404 -0.039447524 1.2670001 4284902773
0.14868121 -0.039416391 1.266 4284574321
0.15190275 -0.039354123 1.2640001 4285229169
0.15535918 -0.039354123 1.2640001 4286143084
0.15881559 -0.039354123 1.2640001 4288563820
0.16278553 -0.03947866 1.268 4288892272
0.16664624 -0.039572064 1.271 4285947502
0.17079103 -0.039727736 1.276 4284442222
0.17428027 -0.039727736 1.276 4284706166
0.17860541 -0.039914545 1.2820001 4285034361
0.18338953 -0.040194757 1.291 4284969081
0.18576148 -0.039945677 1.2830001 4284771702
0.18808968 -0.039696604 1.2750001 4284310638
0.19127569 -0.039634336 1.273 4283916393
0.19598062 -0.039883409 1.281 4283849317
0.19901636 -0.039790004 1.2780001 4283192157
0.20251106 -0.039790004 1.2780001 4284045156
0.20729533 -0.040039081 1.286 4283978850
0.21491012 -0.040817447 1.3110001 4282928983
0.22199498 -0.041471273 1.332 4282664016
0.22817831 -0.041938294 1.3470001 4283648858
0.23582073 -0.042654388 1.3700001 4285556085
-0.018567022 -0.038169708 1.3440001 4278190080
-0.014925082 -0.038254905 1.3470001 4284769392
-0.01115824 -0.037970908 1.337 4283717732
-0.0074685328 -0.037800506 1.3310001 4283454047
-0.0037886265 -0.037402906 1.317 4284173920
-0.0001845754 -0.036863305 1.2980001 4284372326
0.003346672 -0.036664505 1.291 4278190080
0.0068822508 -0.036692902 1.2920001 4283651425
0.01043136 -0.036749706 1.294 4284636780
0.013980611 -0.036778104 1.2950001 4284046183
0.0173865 -0.036494102 1.2850001 4284311151
0.020786488 -0.036295302 1.2780001 4284508017
0.024300192 -0.036323704 1.279 4284442994
0.027775895 -0.036295302 1.2780001 4284574580
0.031295069 -0.036323704 1.279 4284640373
0.034846913 -0.036380503 1.281 4284639861
0.038319882 -0.036352102 1.2800001 4284442995
0.041689366 -0.036238503 1.276 4284835700
0.044824537 -0.035954501 1.266 4284704627
0.048210144 -0.035897702 1.2640001 4285291373
0.051666565 -0.035897702 1.2640001 4288826229
0.055253815 -0.035982899 1.2670001 4289808245
0.058533061 -0.0358693 1.263 4288041328
0.06218306 -0.035982899 1.2670001 4285095786
0.065492243 -0.035897702 1.2640001 4284375913
0.068948664 -0.035897702 1.2640001 4284245869
0.072347805 -0.0358693 1.263 4284114283
0.075801492 -0.0358693 1.263 4284311408
0.079255179 -0.0358693 1.263 4284048236
0.082905322 -0.035954501 1.266 4284114029
0.086571872 -0.036039699 1.2690001 4284114029
0.089687191 -0.035897702 1.2640001 4284114029
0.092996232 -0.035840902 1.2620001 4284049006
0.096447185 -0.035840902 1.2620001 4284114283
0.099977285 -0.0358693 1.263 4284703084
0.10326719 -0.035812501 1.261 4287846259
0.10646152 -0.035727303 1.258 4288692585
0.10972682 -0.0356705 1.256 4288169578
0.11334155 -0.035727303 1.258 4286733168
0.11659591 -0.0356705 1.256 4283982184
0.12022158 -0.035727303 1.258 4283917420
0.12336669 -0.035642099 1.2550001 4283982443
0.1274047 -0.035812501 1.261 4283917421
0.13116424 -0.035897702 1.2640001 4284113004
0.13451414 -0.0358693 1.263 4284047724
0.1378586 -0.035840902 1.2620001 4284245103
0.14220533 -0.0360681 1.2700001 4284442224
0.14590757 -0.036124904 1.2720001 4284442224
0.14856377 -0.0359261 1.2650001 4284704624
0.1511817 -0.035727303 1.258 4284900717
0.15462171 -0.035727303 1.258 4286272874
0.15781043 -0.0356705 1.256 4289022831
0.16150174 -0.035727303 1.258 4288628843
0.16559732 -0.0358693 1.263 4285750380
0.17079103 -0.036238503 1.276 4284244843
0.17509978 -0.036408901 1.2820001 4284640114
0.17749088 -0.036181703 1.274 4284968568
0.18069053 -0.036124904 1.2720001 4284574580
0.1834449 -0.035982899 1.2670001 4284442737
0.18838473 -0.036266904 1.2770001 4284376944
0.19157618 -0.036210101 1.2750001 4284179565
0.19674559 -0.0365225 1.286 4283981673
0.20010644 -0.036494102 1.2850001 4283653221
0.20282799 -0.036352102 1.2800001 4283715678
0.20713413 -0.036494102 1.2850001 4284765027
0.21212333 -0.036749706 1.294 4283780955
0.22049502 -0.037573308 1.3230001 4282860623
0.22817831 -0.038254905 1.3470001 4283648088
-0.01867754 -0.03469985 1.3520001 4278190080
-0.014936162 -0.034597188 1.348 4284244075
-0.01109982 -0.034135208 1.33 4283324256
-0.0074573103 -0.034109544 1.3290001 4283126109
-0.0037713663 -0.033647563 1.3110001 4278190080
-0.00018343781 -0.033108588 1.2900001 4278190080
0.0033311183 -0.032980256 1.2850001 4287513705
0.0068449634 -0.032980256 1.2850001 4288432752
0.010342686 -0.032928925 1.2830001 4285684076
0.013829471 -0.032877594 1.281 4284112487
0.017264726 -0.032749269 1.276 4284179565
0.020851549 -0.032903261 1.2820001 4284442737
0.024262194 -0.032774933 1.2770001 4284246386
0.027754163 -0.032774933 1.2770001 4284377202
0.031172728 -0.032697938 1.274 4284377202
0.034846913 -0.032877594 1.281 4284442995
0.038379759 -0.032903261 1.2820001 4284310383
0.04159135 -0.032672271 1.273 4284376431
0.044789132 -0.032466948 1.2650001 4284440941
0.048324566 -0.032518279 1.2670001 4285292654
0.051952694 -0.03262094 1.271 4285881709
0.055428255 -0.03262094 1.271 4284896867
0.058625747 -0.032466948 1.2650001 4284766308
0.061986748 -0.032415617 1.263 4285752690
0.065336809 -0.032364286 1.261 4284506986
0.068566829 -0.032261621 1.2570001 4283983211
0.071946822 -0.032235954 1.256 4284114283
0.075381368 -0.032235954 1.256 4283916650
0.079004169 -0.032312952 1.2590001 4283851627
0.082119487 -0.032184623 1.2540001 4283851628
0.08602611 -0.032364286 1.261 4283982444
0.08947432 -0.032364286 1.261 4284114029
0.092848845 -0.032338619 1.2600001 4283982186
0.096217915 -0.032312952 1.2590001 4284308841
0.099898137 -0.03238995 1.2620001 4284963176
0.10343097 -0.032415617 1.263 4284898923
0.10663077 -0.032338619 1.2600001 4284178280
0.10990154 -0.032287288 1.258 4284571241
0.11325145 -0.032261621 1.2570001 4284701544
0.11668873 -0.032261621 1.2570001 4284112487
0.11993488 -0.03221029 1.2550001 4283784807
0.12317009 -0.03215896 1.253 4283785834
0.1267985 -0.03221029 1.2550001 4283720042
0.13095669 -0.03238995 1.2620001 4283916138
0.13408814 -0.032312952 1.2590001 4283982186
0.13807707 -0.032441281 1.2640001 4283982186
0.14198138 -0.032543942 1.268 4284244843
0.14544874 -0.032543942 1.268 4284573038
0.14809401 -0.032364286 1.261 4284572011
0.1511817 -0.032287288 1.258 4284898923
0.15499043 -0.032364286 1.261 4285620590
0.15894124 -0.032466948 1.2650001 4284701028
0.16214363 -0.032415617 1.263 4284831588
0.16494174 -0.032287288 1.258 4285555826
0.17025565 -0.032646608 1.2720001 4284309866
0.17441685 -0.032774933 1.2770001 4284245615
0.17749088 -0.032697938 1.274 4284508017
0.1795541 -0.032441281 1.2640001 4284442737
0.18286574 -0.032415617 1.263 4284376944
0.18705705 -0.032543942 1.268 4284245358
0.19232747 -0.032851931 1.2800001 4284048490
0.19781651 -0.033185583 1.2930001 4284112487
0.20088506 -0.033108588 1.2900001 4284046694
0.20282799 -0.032851931 1.2800001 4283977819
0.20616697 -0.032826263 1.279 4284629845
0.20999226 -0.032877594 1.281 4289415795
0.21632843 -0.033313911 1.2980001 4288102758
0.22597614 -0.034237869 1.3340001 4283581007
-0.015024804 -0.031094519 1.3560001 4283586145
-0.011141548 -0.030612964 1.335 4282995036
-0.0074180318 -0.030314863 1.322 4283126109
-0.0037368457 -0.029787447 1.299 4283453277
-0.0001832956 -0.029558139 1.289 4278190080
0.0033311183 -0.029466411 1.2850001 4288629104
0.0068556168 -0.029512273 1.2870001 4288956786
0.010334624 -0.02939762 1.2820001 4285813608
0.013851061 -0.029420551 1.2830001 4284111460
0.017278256 -0.029282965 1.2770001 4283981673
0.020867813 -0.029420551 1.2830001 4284114029
0.024262194 -0.029282965 1.2770001 4284114800
0.027688961 -0.029214172 1.274 4284442482
0.031197194 -0.029237103 1.2750001 4284376176
0.034955725 -0.029466411 1.2850001 4284113517
0.038319882 -0.029351758 1.2800001 4284179052
0.041395318 -0.029053653 1.2670001 4284309868
0.044647504 -0.028916068 1.261 4284375402
0.048133861 -0.028938999 1.2620001 4284964716
0.052116193 -0.029237103 1.2750001 4284571498
0.0556463 -0.029260034 1.276 4284244327
0.05895016 -0.02916831 1.2720001 4284571752
0.062084902 -0.029007791 1.2650001 4284636262
0.065336809 -0.028916068 1.261 4284637034
0.068566829 -0.028824344 1.2570001 4283982184
0.071946822 -0.028801411 1.256 4283784805
0.075561419 -0.028870206 1.2590001 4283916393
0.07894142 -0.028847275 1.258 4283785064
0.082250461 -0.028801411 1.256 4283653479
0.085753225 -0.028824344 1.2570001 4283719272
0.089261457 -0.028847275 1.258 4283981931
0.092775166 -0.028870206 1.2590001 4284111976
0.096141487 -0.028847275 1.258 4284046183
0.099660657 -0.028870206 1.2590001 4284439401
0.1031853 -0.028893137 1.2600001 4284046696
0.1067154 -0.028916068 1.261 4283784294
0.10990154 -0.028847275 1.258 4284112489
0.11334155 -0.028847275 1.258 4284177255
0.11668873 -0.028824344 1.2570001 4284178282
0.12003045 -0.028801411 1.256 4283718501
0.12356329 -0.028824344 1.2570001 4283587685
0.12689954 -0.028801411 1.256 4283652966
0.13064539 -0.028870206 1.2590001 4283587686
0.13355561 -0.028755549 1.2540001 4283785064
0.13753088 -0.028870206 1.2590001 4283916393
0.14142151 -0.02896193 1.263 4284244843
0.14510462 -0.029007791 1.2650001 4284309866
0.14785913 -0.028870206 1.2590001 4284373862
0.15106152 -0.028824344 1.2570001 4284963176
0.15523626 -0.02896193 1.263 4284571241
0.15919253 -0.029053653 1.2670001 4284375400
0.16278553 -0.029076584 1.268 4284375913
0.16507287 -0.028870206 1.2590001 4284965227
0.16864945 -0.028893137 1.2600001 4284768877
0.17236811 -0.028938999 1.2620001 4284113257
0.17665496 -0.029076584 1.268 4284244845
0.18012233 -0.029076584 1.268 4284179565
0.18330011 -0.029030722 1.266 4284113770
0.18735209 -0.029122446 1.2700001 4283981671
0.19127569 -0.029191241 1.273 4283851111
0.19598062 -0.029374689 1.281 4283915880
0.20072934 -0.029558139 1.289 4283718499
0.20266953 -0.029328827 1.279 4278190080
0.20519981 -0.029191241 1.273 4284760405
0.20884477 -0.029214172 1.274 4289085803
0.21466181 -0.029535204 1.2880001 4287904866
0.22377397 -0.030291932 1.3210001 4283515214
-0.014980483 -0.027305735 1.3520001 4283586146
-0.011183277 -0.027063379 1.34 4278190080
-0.007345086 -0.026437286 1.309 4278190080
-0.0037167089 -0.026093945 1.2920001 4278190080
-0.0001830112 -0.02599296 1.2870001 4284304478
0.0033259336 -0.025912175 1.2830001 4288497005
0.006818329 -0.025851585 1.2800001 4289089142
0.010262072 -0.02571021 1.273 4285879660
0.013732308 -0.025690014 1.2720001 4284045669
0.01708883 -0.025508244 1.263 4283915880
0.020688901 -0.025690014 1.2720001 4284179310
0.024148196 -0.025669815 1.271 4284311409
0.027732428 -0.0257708 1.276 4284311409
0.031074852 -0.025649618 1.2700001 4284179823
0.034547679 -0.025649618 1.2700001 4284245103
0.037870821 -0.025548637 1.2650001 4284309868
0.041199289 -0.02546785 1.261 4284441454
0.044647504 -0.02546785 1.261 4284441195
0.048172005 -0.025508244 1.263 4284309866
0.051993567 -0.025690014 1.2720001 4284244073
0.055341035 -0.025629422 1.2690001 4284309866
0.058672097 -0.025568834 1.266 4284309866
0.061790429 -0.025427459 1.2590001 4284046437
0.065181367 -0.025407262 1.258 4284375148
0.068566829 -0.025387065 1.2570001 4283915110
0.07206139 -0.025407262 1.258 4283850087
0.075681455 -0.02546785 1.261 4283653221
0.079129674 -0.02546785 1.261 4283653479
0.082512401 -0.025447655 1.2600001 4283653479
0.085616782 -0.02534667 1.2550001 4283521893
0.088906683 -0.025306277 1.253 4283915625
0.092480406 -0.02534667 1.2550001 4283717731
0.095912211 -0.02534667 1.2550001 4284046696
0.099344023 -0.02534667 1.2550001 4283980903
0.10277583 -0.02534667 1.2550001 4283652708
0.10629227 -0.025366867 1.256 4283718501
0.10972682 -0.025366867 1.256 4283783522
0.11307126 -0.02534667 1.2550001 4283783522
0.11641024 -0.025326474 1.2540001 4283783522
0.11983931 -0.025326474 1.2540001 4283651938
0.12336669 -0.02534667 1.2550001 4283521122
0.12700057 -0.025387065 1.2570001 4283455587
0.13033408 -0.025366867 1.256 4283390049
0.13344911 -0.025306277 1.253 4283324514
0.1373124 -0.025387065 1.2570001 4283652708
0.14108559 -0.025447655 1.2600001 4284178280
0.1448752 -0.025508244 1.263 4283849315
0.14797656 -0.025447655 1.2600001 4283914851
0.15166241 -0.025488047 1.2620001 4284309609
0.15499043 -0.02546785 1.261 4283917418
0.15856431 -0.025488047 1.2620001 4284048490
0.16188687 -0.02546785 1.261 4284441452
0.16467953 -0.025366867 1.256 4284439912
0.16811407 -0.025366867 1.256 4284178023
0.17113885 -0.025306277 1.253 4284375148
0.17540111 -0.025427459 1.2590001 4284244075
0.1795541 -0.02552844 1.2640001 4284047979
0.1844584 -0.025730407 1.274 4284113772
0.18912235 -0.025891978 1.2820001 4284047979
0.19337925 -0.02599296 1.2870001 4283850857
0.1965926 -0.025952566 1.2850001 4283784807
0.20088506 -0.026053552 1.2900001 4283651425
0.20203568 -0.025750604 1.2750001 4283845465
0.20423265 -0.02558903 1.2670001 4284960866
0.20769727 -0.02558903 1.2670001 4284628051
0.21266186 -0.0257708 1.276 4285483360
0.22157182 -0.02641709 1.3080001 4284040277
-0.011166586 -0.023364212 1.3380001 4283652453
-0.0073619196 -0.022910198 1.312 4278190080
-0.0037368457 -0.02268319 1.299 4278190080
-0.00018386441 -0.02257842 1.2930001 4283847264
0.0033285259 -0.022421259 1.284 4284832362
0.006791695 -0.022264102 1.2750001 4284110436
0.010213704 -0.022124406 1.2670001 4284504167
0.013667532 -0.022106944 1.266 4284767597
0.017102361 -0.022072019 1.2640001 4284177770
0.020672634 -0.022194255 1.271 4284178283
0.024300192 -0.02233395 1.279 4284048237
0.027841099 -0.022368874 1.281 4284179310
0.031123789 -0.022211716 1.2720001 4284114030
0.034302853 -0.022019634 1.261 4284179565
0.037751071 -0.022019634 1.261 4284376431
0.041199289 -0.022019634 1.261 4284309866
0.044718318 -0.022054559 1.263 4284309866
0.048057579 -0.022002172 1.2600001 4284178280
0.051666565 -0.022072019 1.2640001 4284047464
0.055166591 -0.022089481 1.2650001 4284047466
0.058672097 -0.022106944 1.266 4284047466
0.061790429 -0.021984709 1.2590001 4284046696
0.065129548 -0.021949785 1.2570001 4283980903
0.068566829 -0.021949785 1.2570001 4284112489
0.07206139 -0.021967247 1.258 4283520352
0.075801492 -0.022054559 1.263 4283389536
0.079192422 -0.022037096 1.2620001 4283258720
0.082512401 -0.022002172 1.2600001 4283192927
0.085412122 -0.021862475 1.2520001 4283258463
0.088764772 -0.021845013 1.251 4283454559
0.092406712 -0.0218974 1.2540001 4283388766
0.096141487 -0.021967247 1.258 4283717731
0.099502333 -0.021949785 1.2570001 4283454559
0.10302151 -0.021967247 1.258 4283389536
0.10654616 -0.021984709 1.2590001 4283324256
0.10998891 -0.021984709 1.2590001 4283061595
0.11325145 -0.021949785 1.2570001 4283126362
0.11650307 -0.021914862 1.2550001 4283388764
0.12003045 -0.021932324 1.256 4283520350
0.12346499 -0.021932324 1.256 4283191387
0.12689954 -0.021932324 1.256 4282994778
0.13023031 -0.021914862 1.2550001 4282929755
0.13376863 -0.021932324 1.256 4283126877
0.13764012 -0.022002172 1.2600001 4283060569
0.14130954 -0.022037096 1.2620001 4283191385
0.1448752 -0.022054559 1.263 4283190099
0.14856377 -0.022089481 1.2650001 4284242276
0.15190275 -0.022072019 1.2640001 4283522146
0.15499043 -0.022019634 1.261 4283785318
0.15743349 -0.021879937 1.253 4283915878
0.16085984 -0.021879937 1.253 4284047464
0.16428617 -0.021879937 1.253 4284243816
0.16838177 -0.021967247 1.258 4284243816
0.17113885 -0.021879937 1.253 4283980390
0.17484383 -0.021914862 1.2550001 4284046696
0.17912796 -0.022019634 1.261 4284112489
0.1844584 -0.02224664 1.274 4283916393
0.18867978 -0.02233395 1.279 4283720042
0.19082493 -0.022176793 1.2700001 4283587685
0.19292082 -0.022019634 1.261 4283587685
0.19574614 -0.021949785 1.2570001 4283454046
0.20092648 -0.022141868 1.268 4284307301
0.20665056 -0.022386337 1.2820001 4283977823
0.21261512 -0.022648267 1.2970001 4283191385
0.21282852 -0.022299027 1.2770001 4283255127
0.22072482 -0.022753038 1.3030001 4283846237
-0.014781038 -0.019646527 1.3340001 4283455074
-0.010966288 -0.019351976 1.314 4283651939
-0.0073282523 -0.019234156 1.3060001 4278190080
-0.0037425992 -0.019160518 1.3010001 4283518300
-0.0001848598 -0.01914579 1.3000001 4284438119
0.0033337106 -0.018939605 1.286 4283585633
0.0067970217 -0.018792331 1.276 4283915625
0.010262072 -0.018748147 1.273 4283980391
0.013689124 -0.01867451 1.268 4284700777
0.017115893 -0.018630328 1.2650001 4284243563
0.020591311 -0.018645054 1.266 4283981418
0.024243195 -0.018792331 1.276 4284309869
0.027710693 -0.018777601 1.2750001 4284114030
0.030830169 -0.01855669 1.2600001 4284113517
0.034030825 -0.01842414 1.251 4284113772
0.037541509 -0.018468324 1.2540001 4284244845
0.041166615 -0.01855669 1.2600001 4284244073
0.044824537 -0.018645054 1.266 4284375659
0.048133861 -0.018586146 1.2620001 4283980901
0.051625691 -0.018600872 1.263 4283980901
0.055079374 -0.018600872 1.263 4283587685
0.058533061 -0.018600872 1.263 4283850600
0.061790429 -0.018541962 1.2590001 4283850600
0.065181367 -0.018527234 1.258 4283718501
0.068621382 -0.018527234 1.258 4283849317
0.07211867 -0.018541962 1.2590001 4283520352
0.07574147 -0.018586146 1.2620001 4283192157
0.079129674 -0.018571418 1.261 4283193181
0.082446918 -0.018541962 1.2590001 4282995289
0.08548034 -0.018453598 1.253 4283257948
0.088764772 -0.01842414 1.251 4283322714
0.092406712 -0.018468324 1.2540001 4283388253
0.096217915 -0.018541962 1.2590001 4283059801
0.099660657 -0.018541962 1.2590001 4283060571
0.1031853 -0.01855669 1.2600001 4282600533
0.10629227 -0.01849778 1.256 4282534997
0.10981417 -0.018512506 1.2570001 4282600790
0.11298116 -0.018468324 1.2540001 4282732117
0.11650307 -0.018483052 1.2550001 4282534225
0.12003045 -0.01849778 1.256 4282928213
0.12356329 -0.018512506 1.2570001 4282928213
0.12750575 -0.018586146 1.2620001 4282730834
0.13095669 -0.018586146 1.2620001 4282599248
0.13462065 -0.0186156 1.2640001 4282600018
0.1378586 -0.018586146 1.2620001 4282994006
0.14108559 -0.01855669 1.2600001 4282665295
0.14441638 -0.018541962 1.2590001 4283390045
0.14797656 -0.01855669 1.2600001 4283455579
0.15154223 -0.018571418 1.261 4283456867
0.1544988 -0.018512506 1.2570001 4283456867
0.15693092 -0.018394686 1.2490001 4283653478
0.15983281 -0.018335776 1.245 4283850600
0.16323726 -0.018335776 1.245 4283980904
0.16771251 -0.018453598 1.253 4283850087
0.17113885 -0.018453598 1.253 4283980903
0.1745652 -0.018453598 1.253 4284112490
0.17813359 -0.018468324 1.2540001 4284178283
0.18286574 -0.018600872 1.263 4283981418
0.18735209 -0.018703965 1.2700001 4283850345
0.18962286 -0.018586146 1.2620001 4283521893
0.19200288 -0.018483052 1.2550001 4283259748
0.19450034 -0.018394686 1.2490001 4283521122
0.19997573 -0.018586146 1.2620001 4284046183
0.20423265 -0.018659782 1.2670001 4283650911
0.21113977 -0.018969061 1.2880001 4283585632
0.21416183 -0.018924879 1.2850001 4282796629
0.21767567 -0.018924879 1.2850001 4282862423
0.22342722 -0.019116335 1.2980001 4282665044
-0.014692397 -0.015902746 1.3260001 4278190080
-0.010849448 -0.015590928 1.3000001 4278190080
-0.0072833626 -0.015566941 1.2980001 4282994009
-0.0037339691 -0.015566941 1.2980001 4283717219
-0.00018514421 -0.015614915 1.302 4283651939
0.0033544491 -0.01551897 1.294 4283651939
0.0068822508 -0.015494985 1.2920001 4283980391
0.010391054 -0.015459005 1.289 4283849318
0.013753899 -0.01527911 1.274 4284309356
0.017129421 -0.015183165 1.266 4284769137
0.020575047 -0.015171172 1.2650001 4284375662
0.024186196 -0.015267116 1.273 4284244590
0.027688961 -0.01527911 1.274 4284178797
0.030952511 -0.015171172 1.2650001 4278190080
0.034085233 -0.015027257 1.253 4283981673
0.037571445 -0.015051242 1.2550001 4284113259
0.041199289 -0.015123201 1.261 4284309868
0.044859942 -0.015195158 1.2670001 4283915108
0.048133861 -0.015135193 1.2620001 4283850085
0.051666565 -0.015159179 1.2640001 4283718501
0.055166591 -0.015171172 1.2650001 4283390306
0.058672097 -0.015183165 1.266 4283390306
0.061986748 -0.015147187 1.263 4283258720
0.06538862 -0.015135193 1.2620001 4283324256
0.068785019 -0.015123201 1.261 4283323743
0.07211867 -0.015099213 1.2590001 4283454046
0.075681455 -0.015123201 1.261 4282731606
0.079255179 -0.015147187 1.263 4282730834
0.082512401 -0.015111208 1.2600001 4282665041
0.085685 -0.015063236 1.256 4282730834
0.089048594 -0.015051242 1.2550001 4282665041
0.093069918 -0.015147187 1.263 4282994006
0.096905723 -0.015207151 1.268 4282599248
0.10037308 -0.015207151 1.268 4282534227
0.10384044 -0.015207151 1.268 4282140239
0.10713854 -0.015183165 1.266 4282272079
0.11042571 -0.015159179 1.2640001 4282272079
0.11370194 -0.015135193 1.2620001 4282337359
0.11715289 -0.015135193 1.2620001 4282271053
0.12060384 -0.015135193 1.2620001 4282533455
0.1240548 -0.015135193 1.2620001 4282730834
0.12770781 -0.015159179 1.2640001 4282598991
0.13126801 -0.015171172 1.2650001 4282402639
0.13451414 -0.015147187 1.263 4282271053
0.13796782 -0.015147187 1.263 4282336076
0.14130954 -0.015135193 1.2620001 4282993747
0.14430167 -0.015087221 1.258 4283454298
0.14738935 -0.015051242 1.2550001 4283389532
0.15058081 -0.015027257 1.253 4283390047
0.15388425 -0.015015262 1.2520001 4283455840
0.15667962 -0.014955298 1.2470001 4283456353
0.16021794 -0.014967291 1.248 4283587939
0.16389284 -0.014991277 1.25 4283587428
0.16811407 -0.015063236 1.256 4283980903
0.17141202 -0.015051242 1.2550001 4284112489
0.17498316 -0.015063236 1.256 4284244075
0.1784177 -0.015063236 1.256 4283980903
0.18286574 -0.015147187 1.263 4283980903
0.18764712 -0.015255123 1.2720001 4283915110
0.1905244 -0.015207151 1.268 4283914597
0.19337979 -0.015159179 1.2640001 4283979876
0.19590186 -0.015087221 1.258 4284177769
0.20029263 -0.015159179 1.2640001 4283849317
0.20374905 -0.015159179 1.2640001 4283717731
0.20818906 -0.015231138 1.2700001 4283258463
0.21216187 -0.015267116 1.273 4283060571
0.21615109 -0.015303096 1.276 4282862423
0.2222223 -0.01548299 1.291 4283125595
0.23309694 -0.015986698 1.3330001 4282928215
-0.014559434 -0.012165684 1.314 4278190080
-0.010757645 -0.011934222 1.289 4278190080
-0.0072216392 -0.011915705 1.2870001 4283125595
-0.0037023253 -0.011915705 1.2870001 4283849318
-0.000184291 -0.011999032 1.296 4283520353
0.0033363029 -0.011915705 1.2870001 4283849318
0.006903558 -0.011999032 1.296 4283652966
0.010374931 -0.011915705 1.2870001 4284047724
0.013732308 -0.011776827 1.2720001 4278190080
0.017102361 -0.011702759 1.2640001 4284506734
0.020526251 -0.011684243 1.2620001 4285096817
0.023996202 -0.011693501 1.263 4284244076
0.027515091 -0.011721276 1.266 4284177769
0.030830169 -0.011665726 1.2600001 4284112489
0.034194041 -0.011637949 1.2570001 4284112489
0.037541509 -0.011610175 1.2540001 4284046696
0.041035928 -0.011628691 1.256 4284046696
0.04457669 -0.011656466 1.2590001 4283915880
0.048019439 -0.011656466 1.2590001 4283784807
0.051666565 -0.011702759 1.2640001 4283455842
0.055166591 -0.011712017 1.2650001 4283390306
0.058486715 -0.011684243 1.2620001 4283324513
0.061839506 -0.011665726 1.2600001 4283192927
0.06528499 -0.011665726 1.2600001 4282797912
0.068948664 -0.011702759 1.2640001 4283257950
0.072347805 -0.011693501 1.263 4283256151
0.075801492 -0.011693501 1.263 4282599248
0.079380676 -0.011712017 1.2650001 4282401869
0.082774349 -0.011702759 1.2640001 4282139467
0.08623077 -0.011702759 1.2640001 4282140493
0.089687191 -0.011702759 1.2640001 4283123025
0.093659438 -0.011767569 1.271 4282205260
0.097440697 -0.011804602 1.2750001 4282336076
0.10045224 -0.011749052 1.2690001 4282205260
0.10408612 -0.011767569 1.271 4281811274
0.10747705 -0.011758311 1.2700001 4281679688
0.1111246 -0.011776827 1.2720001 4282008653
0.11451281 -0.011767569 1.271 4281942603
0.11789554 -0.011758311 1.2700001 4282073674
0.1209861 -0.011721276 1.266 4282401869
0.12415309 -0.011693501 1.263 4282400840
0.12780885 -0.011712017 1.2650001 4283123023
0.13137177 -0.011721276 1.266 4282270024
0.13451414 -0.011693501 1.263 4282138951
0.13764012 -0.011665726 1.2600001 4282598219
0.14063771 -0.011628691 1.256 4283387478
0.14407226 -0.011628691 1.256 4282994774
0.14727192 -0.011610175 1.2540001 4283389018
0.15070099 -0.011610175 1.2540001 4283324252
0.15388425 -0.011591656 1.2520001 4283390047
0.15693092 -0.011563881 1.2490001 4283193181
0.15983281 -0.011526848 1.245 4283456353
0.1636306 -0.011554623 1.248 4283456353
0.16717713 -0.011563881 1.2490001 4283719012
0.17154862 -0.011628691 1.256 4283915878
0.1745652 -0.011600916 1.253 4284177769
0.17827564 -0.011619433 1.2550001 4284177255
0.18156266 -0.011610175 1.2540001 4284111976
0.18587686 -0.011665726 1.2600001 4283717731
0.18932235 -0.011665726 1.2600001 4284176742
0.19353279 -0.011712017 1.2650001 4284309355
0.19636904 -0.011674984 1.261 4283979361
0.20013417 -0.011693501 1.263 4283915110
0.20245951 -0.011628691 1.256 4283783525
0.20802511 -0.011749052 1.2690001 4283258723
0.2119952 -0.011776827 1.2720001 4283126109
0.2156429 -0.011786086 1.273 4282862423
0.22067311 -0.011869412 1.2820001 4282730837
0.22907501 -0.012128651 1.3100001 4282862423
-0.018359801 -0.008670399 1.3290001 4278190080
-0.014470791 -0.0085203461 1.3060001 4278190080
-0.010774336 -0.0084224865 1.291 4278190080
-0.0071935831 -0.0083637703 1.2820001 4283454046
-0.0036879417 -0.0083637703 1.2820001 4283783524
-0.0001831534 -0.0084029147 1.2880001 4283520352
0.0033285259 -0.0083768191 1.284 4283521635
0.0068343095 -0.0083702952 1.2830001 4283916650
0.01031044 -0.0083441986 1.279 4283982443
0.013743103 -0.0083050542 1.273 4284113259
0.017102361 -0.0082463389 1.2640001 4284507247
0.020558782 -0.0082463389 1.2640001 4284834672
0.023958204 -0.0082267663 1.261 4285488752
0.027493356 -0.0082528628 1.2650001 4284439655
0.030928042 -0.0082463389 1.2640001 4284374632
0.034384463 -0.0082463389 1.2640001 4284438374
0.037631322 -0.0082006706 1.2570001 4284373608
0.040937912 -0.0081745749 1.253 4283915110
0.044328846 -0.008168051 1.2520001 4283784807
0.047828734 -0.0081810988 1.2540001 4283653221
0.051462185 -0.0082137184 1.2590001 4283455842
0.054992154 -0.0082267663 1.261 4283061341
0.058347683 -0.0082137184 1.2590001 4282929755
0.061692271 -0.0082006706 1.2570001 4282863962
0.06528499 -0.0082202423 1.2600001 4282797912
0.069166861 -0.0082724346 1.268 4282665811
0.072576933 -0.0082659107 1.2670001 4282796627
0.075921521 -0.0082528628 1.2650001 4283056719
0.079380676 -0.0082528628 1.2650001 4283906122
0.082839832 -0.0082528628 1.2650001 4283774023
0.08643543 -0.0082659107 1.2670001 4283773510
0.09039674 -0.0083115781 1.274 4283319375
0.09439633 -0.0083572464 1.281 4282073672
0.097975656 -0.0083637703 1.2820001 4282008394
0.10068971 -0.0082985312 1.2720001 4282008394
0.1042499 -0.0083050542 1.273 4281811017
0.10790019 -0.0083181029 1.2750001 4282008396
0.11156142 -0.0083311507 1.2770001 4281942603
0.11514349 -0.0083376747 1.2780001 4281943114
0.11873101 -0.0083441986 1.279 4281876295
0.1218462 -0.0083181029 1.2750001 4282073674
0.12474289 -0.0082789585 1.2690001 4282335047
0.12801091 -0.0082659107 1.2670001 4283447625
0.13137177 -0.0082593868 1.266 4284363339
0.13462065 -0.0082463389 1.2640001 4284559687
0.13753088 -0.0082137184 1.2590001 4284170319
0.14074968 -0.0082006706 1.2570001 4282663755
0.14407226 -0.0081941467 1.256 4282732115
0.14762424 -0.0082006706 1.2570001 4282929496
0.15106152 -0.0082006706 1.2570001 4282995802
0.1543759 -0.0081941467 1.256 4283127388
0.15755914 -0.0081810988 1.2540001 4282930009
0.16060308 -0.0081615271 1.251 4283193181
0.16415507 -0.008168051 1.2520001 4283456353
0.16811407 -0.0081941467 1.256 4283587426
0.17209494 -0.0082202423 1.2600001 4283850598
0.17540111 -0.0082137184 1.2590001 4284242533
0.17855975 -0.0082006706 1.2570001 4284569958
0.18185225 -0.0081941467 1.256 4283980644
0.18558182 -0.0082071945 1.258 4284176483
0.1891721 -0.0082137184 1.2590001 4284766310
0.19337979 -0.0082463389 1.2640001 4284438885
0.19636904 -0.0082267663 1.261 4284176742
0.20060955 -0.0082593868 1.266 4283849317
0.20294309 -0.0082137184 1.2590001 4283325541
0.2078612 -0.0082724346 1.268 4283653479
0.21216187 -0.0083050542 1.273 4283258208
0.2158123 -0.0083115781 1.274 4282994523
0.22067311 -0.0083637703 1.2820001 4282467665
0.22680175 -0.0084616309 1.2970001 4282994009
-0.018138764 -0.0049756034 1.3130001 4283916138
-0.014337829 -0.0049036033 1.294 4278190080
-0.010732608 -0.0048732874 1.286 4278190080
-0.0071935831 -0.0048581292 1.2820001 4283980390
-0.0036821882 -0.0048505501 1.2800001 4283520352
-0.000181447 -0.0048353923 1.276 4283389536
0.0033026028 -0.0048278132 1.274 4283785064
0.0067703878 -0.0048164451 1.271 4283982443
0.010213704 -0.0048012869 1.2670001 4284048236
0.013699921 -0.0048088655 1.2690001 4284047979
0.017115893 -0.0047937077 1.2650001 4284179565
0.020591311 -0.0047974973 1.266 4284309868
0.023901207 -0.0047671814 1.258 4284897385
0.027384687 -0.0047747605 1.2600001 4285487210
0.0308057 -0.0047709709 1.2590001 4284503138
0.034357257 -0.0047861291 1.263 4285880428
0.037661258 -0.0047671814 1.258 4284109407
0.040872566 -0.004740655 1.251 4283586913
0.044187222 -0.0047292863 1.248 4283586145
0.047599889 -0.0047292863 1.248 4283390049
0.051298685 -0.0047558132 1.2550001 4283192670
0.054904934 -0.0047709709 1.2590001 4282929755
0.058208648 -0.0047596022 1.256 4282732376
0.061643194 -0.0047596022 1.256 4282666583
0.065077737 -0.0047596022 1.256 4282272079
0.069166861 -0.0048050764 1.268 4282403152
0.07263422 -0.0048050764 1.268 4282402637
0.076041557 -0.0048012869 1.2670001 4282924104
0.079568937 -0.0048050764 1.268 4284757836
0.083167262 -0.0048126555 1.2700001 4285017158
0.08684475 -0.0048240237 1.273 4285281870
0.090751506 -0.004846761 1.279 4282465093
0.094691083 -0.0048694974 1.2850001 4281942599
0.09843421 -0.004880866 1.2880001 4281942601
0.10140215 -0.0048543396 1.281 4281679688
0.10474126 -0.004846761 1.279 4281745481
0.10806945 -0.0048391814 1.2770001 4281877067
0.11147405 -0.0048353923 1.276 4281942603
0.1148732 -0.0048316028 1.2750001 4281745481
0.11882385 -0.0048505501 1.2800001 4281876808
0.12222845 -0.004846761 1.279 4281877321
0.12513609 -0.0048240237 1.273 4282006852
0.12841505 -0.0048164451 1.271 4282988357
0.13178684 -0.0048126555 1.2700001 4285541708
0.13515316 -0.0048088655 1.2690001 4285278790
0.1378586 -0.0047823396 1.2620001 4283447366
0.14086166 -0.0047671814 1.258 4282663753
0.14407226 -0.0047596022 1.256 4282534225
0.14797656 -0.0047747605 1.2600001 4282404179
0.15154223 -0.0047785495 1.261 4282337872
0.15486753 -0.0047747605 1.2600001 4282469458
0.15755914 -0.0047520236 1.2540001 4282732630
0.16008955 -0.0047254972 1.2470001 4283127388
0.16349949 -0.0047254972 1.2470001 4283456353
0.16731097 -0.0047368654 1.25 4283587426
0.17113885 -0.0047482336 1.253 4283653732
0.17428656 -0.004740655 1.251 4283784292
0.17756538 -0.0047368654 1.25 4284371039
0.18098353 -0.0047368654 1.25 4284830561
0.18469669 -0.0047444445 1.2520001 4283912026
0.18812031 -0.0047444445 1.2520001 4285093735
0.19215588 -0.0047596022 1.256 4284110690
0.19590186 -0.0047671814 1.258 4283915880
0.20029263 -0.0047899182 1.2640001 4284046183
0.2026207 -0.0047633918 1.2570001 4283784552
0.20622189 -0.0047671814 1.258 4283456100
0.21049523 -0.0047861291 1.263 4283324001
0.2158123 -0.0048278132 1.274 4282994523
0.21929605 -0.0048278132 1.274 4282533204
0.22435363 -0.0048619187 1.2830001 4282730583
0.23212442 -0.0049528666 1.307 4282993496
-0.017986802 -0.0013735874 1.302 4278190080
-0.014260268 -0.0013577627 1.2870001 4278190080
-0.010740953 -0.0013577627 1.2870001 4283978851
-0.0071879718 -0.0013514328 1.281 4283848805
-0.0036735581 -0.0013472128 1.2770001 4283455076
-0.00018087821 -0.0013419379 1.2720001 4283521895
0.0032948258 -0.001340883 1.271 4283588456
0.0067437538 -0.0013356081 1.266 4283916651
0.010229827 -0.0013387731 1.2690001 4283720042
0.013721511 -0.001340883 1.271 4283982444
0.017197073 -0.001340883 1.271 4283982444
0.02062384 -0.001337718 1.268 4284047979
0.023939203 -0.0013292781 1.2600001 4284178282
0.027384687 -0.0013292781 1.2600001 4286531428
0.030830169 -0.0013292781 1.2600001 4287510110
0.034384463 -0.001333498 1.2640001 4285218389
0.037840884 -0.001333498 1.2640001 4283912539
0.041166615 -0.0013292781 1.2600001 4283193181
0.044399656 -0.0013229483 1.2540001 4282929755
0.047676172 -0.0013187283 1.25 4282798169
0.051380433 -0.0013261132 1.2570001 4282666584
0.054992154 -0.0013303332 1.261 4282600791
0.058625747 -0.0013345531 1.2650001 4282206803
0.062035825 -0.001333498 1.2640001 4282206803
0.065647684 -0.001336663 1.2670001 4281943630
0.069494143 -0.001344048 1.274 4281942603
0.072863348 -0.0013419379 1.2720001 4282007881
0.07628163 -0.001340883 1.271 4282268743
0.079694435 -0.001339828 1.2700001 4284428101
0.083363719 -0.0013429929 1.273 4285148744
0.086912975 -0.001344048 1.274 4283972683
0.090609603 -0.0013472128 1.2770001 4282074185
0.094764777 -0.0013567078 1.286 4281943114
0.098663479 -0.0013619827 1.291 4282008653
0.10203541 -0.0013598726 1.289 4282074447
0.10523262 -0.0013556527 1.2850001 4282074446
0.10832333 -0.0013503778 1.2800001 4282140239
0.11147405 -0.0013461579 1.276 4281942860
0.1148732 -0.0013451029 1.2750001 4282140239
0.11873101 -0.0013493228 1.279 4282008141
