# .PCD v0.7 - Point Cloud Data file format
VERSION 0.7
FIELDS x y z rgba
SIZE 4 4 4 4
TYPE F F F U
COUNT 1 1 1 1
WIDTH 1075
HEIGHT 1
VIEWPOINT 0 0 0 1 0 0 0
POINTS 1075
DATA ascii
-0.099263668 -0.10454859 1.4490001 4278190080
-0.093525551 -0.10260049 1.4220001 4283981418
-0.088187255 -0.10094098 1.399 4284768879
-0.083336554 -0.099714391 1.3820001 4284703599
-0.078693956 -0.098632112 1.3670001 4284309868
-0.074901052 -0.098559953 1.3660001 4284571500
-0.071165711 -0.098559953 1.3660001 4284965746
-0.06782528 -0.099137172 1.3740001 4284442995
-0.063695028 -0.098559953 1.3660001 4278190080
-0.05916959 -0.097261213 1.348 4278190080
-0.053754758 -0.094230823 1.3060001 4284706937
-0.051336247 -0.096395388 1.3360001 4284706937
-0.04836107 -0.097766273 1.355 4284575350
-0.044194419 -0.096756153 1.3410001 4284640116
-0.040346112 -0.096323237 1.335 4284770419
-0.036640566 -0.096178934 1.3330001 4285161327
-0.032747939 -0.095457412 1.3230001 4286601843
-0.029218255 -0.095746018 1.327 4288500087
-0.025705261 -0.096178934 1.3330001 4287712881
-0.022291852 -0.097189061 1.3470001 4285491575
-0.018829502 -0.098343499 1.363 4284836212
-0.015113446 -0.098415643 1.3640001 4284770419
-0.011341847 -0.098054886 1.3590001 4284573040
-0.007653703 -0.098415643 1.3640001 4284573040
-0.0039295852 -0.098559953 1.3660001 4284375661
-0.00019452939 -0.098704256 1.368 4284704626
0.0035410954 -0.098559953 1.3660001 4285033589
0.0073669916 -0.099786542 1.383 4284243814
0.010995653 -0.098415643 1.3640001 4289638324
0.014768708 -0.098704256 1.368 4292072665
0.022998508 -0.10202327 1.414 4294901247
0.02734009 -0.10382707 1.439 4294901247
0.031709727 -0.10527011 1.4590001 4294835455
-0.097688057 -0.09898968 1.4260001 4283914857
-0.091420896 -0.096490636 1.3900001 4284244845
-0.086170107 -0.094894037 1.3670001 4284440941
-0.082190827 -0.094616368 1.363 4284376431
-0.078636393 -0.094824612 1.3660001 4284047979
-0.075175211 -0.095171705 1.3710001 4284310383
-0.071999282 -0.0959353 1.3820001 4284770420
-0.06787464 -0.095449373 1.3750001 4284705141
-0.062995598 -0.093783341 1.3510001 4278190080
-0.058291703 -0.092186742 1.3280001 4284837753
-0.054042879 -0.091145471 1.3130001 4284837753
-0.050721444 -0.091631405 1.3200001 4285100924
-0.047504492 -0.092394993 1.3310001 4284771702
-0.043963727 -0.092603244 1.3340001 4284902775
-0.040769216 -0.093644515 1.3490001 4284901492
-0.036778003 -0.092880912 1.3380001 4285753464
-0.032747939 -0.091839649 1.3230001 4286341238
-0.028998071 -0.091423139 1.317 4287387509
-0.025435291 -0.091561981 1.319 4287652991
-0.022109808 -0.092742085 1.3360001 4285229430
-0.018553209 -0.093228005 1.3430001 4284836727
-0.014991563 -0.093922183 1.353 4284442482
-0.011291771 -0.093922183 1.353 4284704626
-0.0075470898 -0.093366846 1.345 4284903288
-0.0039008183 -0.094130434 1.3560001 4284639603
-0.00019154319 -0.093505673 1.3470001 4284179565
0.0034892492 -0.093436264 1.3460001 4284442224
0.0071592457 -0.093297422 1.3440001 4284442735
0.010737691 -0.09246441 1.332 4278190080
0.014304487 -0.091978483 1.325 4285884278
0.017927714 -0.091978483 1.325 4284965999
0.021811176 -0.093089171 1.3410001 4278190080
0.025915138 -0.094685778 1.3640001 4283717470
0.030036218 -0.0959353 1.3820001 4294835455
0.034011059 -0.096490636 1.3900001 4294967039
0.038192868 -0.09746249 1.404 4294967039
0.042391367 -0.098295502 1.416 4294835967
0.046949547 -0.099753268 1.437 4294770175
0.051162288 -0.10030861 1.4450001 4294835967
0.055609487 -0.10121104 1.4580001 4294835967
-0.10322597 -0.09662398 1.4490001 4278190080
-0.097140007 -0.094556801 1.4180001 4284309868
-0.089382015 -0.090622485 1.3590001 4283981673
-0.085476719 -0.090422437 1.3560001 4284179310
-0.082190827 -0.09088923 1.363 4278190080
-0.078003153 -0.090355754 1.355 4278190080
-0.074681722 -0.09082254 1.3620001 4284573555
-0.071530394 -0.091556057 1.373 4285230458
-0.06782528 -0.09162274 1.3740001 4284705141
-0.062296163 -0.089088775 1.3360001 4284968313
-0.058028337 -0.08815521 1.322 4278190080
-0.054125197 -0.087688431 1.3150001 4285296764
-0.050606169 -0.087821797 1.317 4285034874
-0.047397416 -0.088555314 1.3280001 4285165177
-0.04475468 -0.090555809 1.358 4285033591
-0.039953228 -0.08815521 1.322 4284771189
-0.036530618 -0.088621996 1.3290001 4284771702
-0.032822199 -0.088421941 1.3260001 4278190080
-0.029064126 -0.088021845 1.3200001 4285032564
-0.025435291 -0.087955162 1.319 4285820540
-0.022060161 -0.088888727 1.3330001 4284967798
-0.018553209 -0.089555554 1.3430001 4284639861
-0.015091285 -0.09082254 1.3620001 4284574068
-0.011124857 -0.088888727 1.3330001 4284508277
-0.0074629216 -0.088688679 1.33 4284311151
-0.003843284 -0.089088775 1.3360001 4284442737
-0.00018955239 -0.088888727 1.3330001 4284311408
0.0034348106 -0.088355266 1.325 4284376944
0.00708467 -0.088688679 1.33 4283982695
0.010649016 -0.088088527 1.3210001 4284572009
0.014196528 -0.087688431 1.3150001 4285617767
0.017751819 -0.087488383 1.312 4286991209
0.021615997 -0.088621996 1.3290001 4285551976
0.025706146 -0.090222396 1.353 4284833132
0.029579809 -0.090755858 1.3610001 4285097331
0.033203602 -0.090489127 1.3570001 4284900978
0.036968738 -0.090622485 1.3590001 4284704113
0.040774751 -0.09082254 1.3620001 4283388764
0.044597168 -0.091022588 1.365 4284375913
0.048613023 -0.091556057 1.373 4286415494
0.052672632 -0.092089519 1.381 4289836217
0.05612199 -0.091556057 1.373 4290493633
0.06009452 -0.091889471 1.378 4289046187
0.063584603 -0.091489367 1.3720001 4288585636
-0.10108878 -0.090743206 1.419 4284243562
-0.094057284 -0.087801576 1.373 4284046183
-0.089250475 -0.086778395 1.3570001 4284046696
-0.085602783 -0.086842343 1.358 4278190080
-0.082190827 -0.087162085 1.363 4283983214
-0.076794252 -0.085307576 1.3340001 4278190080
-0.072214261 -0.084220447 1.317 4284705396
-0.068560816 -0.084156498 1.3160001 4284836212
-0.065011561 -0.084220447 1.317 4285033591
-0.061596733 -0.08447624 1.3210001 4284771959
-0.058160022 -0.084732033 1.325 4278190080
-0.054289836 -0.084348343 1.319 4285100154
-0.050452467 -0.083964653 1.3130001 4285100154
-0.047397416 -0.084923886 1.3280001 4284967798
-0.044161465 -0.085691266 1.34 4285099384
-0.040104337 -0.084859937 1.327 4278190080
-0.036008362 -0.083772808 1.3100001 4285034619
-0.033242993 -0.085883111 1.3430001 4284968568
-0.029284308 -0.085051782 1.33 4284902005
-0.025493139 -0.084540188 1.322 4285428349
-0.021977415 -0.084923886 1.3280001 4285098871
-0.018470319 -0.085499421 1.337 4284705909
-0.014869681 -0.085819162 1.342 4284771189
-0.011074782 -0.084859937 1.327 4278190080
-0.0073787533 -0.08409255 1.3150001 4284377201
-0.0037771198 -0.083964653 1.3130001 4284574323
-0.0001874194 -0.084284395 1.3180001 4284442737
0.0034166644 -0.084284395 1.3180001 4284376431
0.0070260749 -0.084348343 1.319 4284245356
0.010616771 -0.084220447 1.317 4284900206
0.014196528 -0.08409255 1.3150001 4287258229
0.017778879 -0.084028602 1.314 4288238194
0.021534672 -0.084668085 1.3240001 4286793830
0.025497152 -0.085819162 1.342 4284897642
0.029297268 -0.086202852 1.348 4284308841
0.032714237 -0.085499421 1.337 4284704114
0.03653349 -0.085883111 1.3430001 4285033592
0.040176 -0.085819162 1.342 4284967798
0.044107087 -0.086330757 1.35 4285033591
0.047763269 -0.086266808 1.3490001 4285033589
0.05175725 -0.086778395 1.3570001 4284902003
0.055345356 -0.08658655 1.3540001 4284770158
0.05843734 -0.085691266 1.34 4284572779
0.062333304 -0.086011015 1.345 4285099125
0.066502012 -0.086650498 1.355 4285033332
0.070207268 -0.086650498 1.355 4285099125
0.07402163 -0.086778395 1.3570001 4284967796
-0.10593072 -0.087658733 1.432 4284242793
-0.098381691 -0.084536806 1.381 4283980904
-0.093440741 -0.083496168 1.3640001 4283981673
-0.090105489 -0.083863452 1.3700001 4283982443
-0.086296178 -0.083802231 1.3690001 4284048237
-0.083035052 -0.08429195 1.3770001 4284245616
-0.076851815 -0.081720948 1.335 4278190080
-0.072214261 -0.080619097 1.317 4278190080
-0.068352424 -0.080313027 1.312 4286146169
-0.064567298 -0.080068171 1.3080001 4285817717
-0.061410215 -0.080619097 1.317 4285163637
-0.058247808 -0.081231236 1.327 4285492089
-0.05449564 -0.081047595 1.3240001 4285492090
-0.050875146 -0.081047595 1.3240001 4285098872
-0.047183271 -0.080925167 1.322 4284967799
-0.043930769 -0.08159852 1.3330001 4284968313
-0.040285669 -0.08159852 1.3330001 4284837753
-0.037080362 -0.082577951 1.3490001 4278190080
-0.03269843 -0.080863953 1.3210001 4284771447
-0.029306328 -0.081476092 1.3310001 4278190080
-0.025628127 -0.081353664 1.3290001 4285362556
-0.02187812 -0.080925167 1.322 4284968568
-0.018124949 -0.080313027 1.312 4284903288
-0.014581595 -0.080557883 1.3160001 4284771959
-0.010949597 -0.080313027 1.312 4284574580
-0.0073001962 -0.079639666 1.3010001 4284771189
-0.0037425992 -0.079639666 1.3010001 4284705396
-0.0001861396 -0.080129385 1.309 4284508787
0.0034140721 -0.080619097 1.317 4284704113
0.006999441 -0.080435455 1.314 4284704113
0.010536158 -0.080006957 1.307 4284834670
0.01416414 -0.080313027 1.312 4285161325
0.017724756 -0.080190599 1.3100001 4286142573
0.021355759 -0.080374241 1.3130001 4286013041
0.025117166 -0.080925167 1.322 4284638833
0.028906059 -0.081414886 1.33 4284574323
0.032518487 -0.081353664 1.3290001 4284573810
0.036315866 -0.081720948 1.335 4284771189
0.040205937 -0.082210667 1.3430001 4284903286
0.043943729 -0.082333095 1.345 4284969079
0.047515422 -0.082149453 1.342 4284837491
0.051452123 -0.082577951 1.3490001 4284771698
0.055100106 -0.082516737 1.348 4284508013
0.058132071 -0.08159852 1.3330001 4278190080
0.061221037 -0.080863953 1.3210001 4284769906
0.065324113 -0.081476092 1.3310001 4284375148
0.069740951 -0.082394309 1.3460001 4284704626
0.073585242 -0.082577951 1.3490001 4284836212
0.077159531 -0.082455523 1.3470001 4284704626
0.080482818 -0.082088239 1.3410001 4284573040
0.089295417 -0.0871078 1.4230001 4284770419
0.092204332 -0.08618959 1.4080001 4285032564
0.095713429 -0.085883513 1.4030001 4284768879
0.10427073 -0.086618088 1.4150001 4285816177
0.10768152 -0.086250804 1.409 4287058542
0.11193024 -0.086556874 1.414 4287121768
0.11637008 -0.086985372 1.4210001 4286012016
0.12152524 -0.087903589 1.4360001 4284439914
0.12501518 -0.087597512 1.4310001 4284111976
0.12820749 -0.0871078 1.4230001 4284111976
-0.10815895 -0.082456358 1.4100001 4285685104
-0.1014183 -0.080175646 1.3710001 4278190080
-0.097313091 -0.079883255 1.3660001 4283784294
-0.093235224 -0.079590857 1.3610001 4283654248
-0.088658541 -0.078830615 1.348 4283982443
-0.085098498 -0.078947574 1.35 4284113772
-0.080622993 -0.078187339 1.337 4284246385
-0.075815611 -0.077017747 1.317 4278190080
-0.071885265 -0.076666869 1.3110001 4278190080
-0.068248227 -0.07660839 1.3100001 4287060339
-0.064567298 -0.07649143 1.3080001 4287651962
-0.061783247 -0.077485584 1.325 4286343802
-0.05837949 -0.077777989 1.33 4285228917
-0.054289836 -0.077134706 1.319 4284967799
-0.050644595 -0.077076226 1.3180001 4284837240
-0.046897743 -0.076842308 1.314 4284968313
-0.043139819 -0.07654991 1.309 4284903033
-0.039862566 -0.077134706 1.319 4284969339
-0.036723029 -0.078128867 1.3360001 4284837753
-0.032574669 -0.076959267 1.3160001 4278190080
-0.02875587 -0.076374471 1.3060001 4284902775
-0.025261737 -0.07660839 1.3100001 4285295736
-0.021662978 -0.07654991 1.309 4285230970
-0.017931543 -0.075906634 1.2980001 4284837495
-0.01434891 -0.075731196 1.2950001 4284771959
-0.010841102 -0.075965114 1.299 4284574323
-0.0072833626 -0.075906634 1.2980001 4284705396
-0.0037282156 -0.075789675 1.296 4285033591
-0.00018542859 -0.076257512 1.304 4285033591
0.0033985183 -0.076666869 1.3110001 4284770419
0.0069621531 -0.076432951 1.307 4284704626
0.010495851 -0.076140553 1.302 4284639601
0.014012999 -0.075906634 1.2980001 4284902003
0.017616514 -0.076140553 1.302 4285164148
0.021176847 -0.076140553 1.302 4285360757
0.024737176 -0.076140553 1.302 4284770419
0.028449647 -0.07654991 1.309 4284969081
0.032126993 -0.076783828 1.3130001 4284969081
0.036179855 -0.077777989 1.33 4284969081
0.039966438 -0.07807038 1.335 4284705907
0.043420978 -0.077719502 1.3290001 4284837493
0.047019735 -0.07766103 1.3280001 4284640114
0.05095629 -0.078128867 1.3360001 4284837493
0.054200839 -0.077544063 1.3260001 4284838006
0.056910992 -0.076315992 1.3050001 4285033332
0.059969738 -0.075672716 1.294 4284703086
0.063606352 -0.075789675 1.296 4285294196
0.068082921 -0.076842308 1.314 4284573040
0.072439738 -0.07766103 1.3280001 4284376944
0.076357581 -0.077953421 1.3330001 4284573808
0.079942666 -0.077894948 1.332 4284770417
0.083459526 -0.077777989 1.33 4284770417
0.087292887 -0.077953421 1.3330001 4284573038
0.091961294 -0.078830615 1.348 4284769392
0.095789321 -0.078947574 1.35 4285096817
0.099333532 -0.078830615 1.348 4285160557
0.10263753 -0.078538217 1.3430001 4286600303
0.10678492 -0.078889102 1.3490001 4287057518
0.11162028 -0.079707816 1.363 4285029739
0.11661683 -0.08058501 1.378 4284704367
0.12073444 -0.080818929 1.3820001 4284507245
0.12496402 -0.081111327 1.3870001 4284573038
0.12829262 -0.080818929 1.3820001 4284309868
0.1332185 -0.081520684 1.3940001 4283849832
0.14007773 -0.083333552 1.4250001 4283718246
-0.10532073 -0.076538123 1.373 4284700263
-0.10045664 -0.075701952 1.358 4283719271
-0.098666646 -0.077207074 1.3850001 4283522662
-0.094057284 -0.076538123 1.373 4283719272
-0.089118935 -0.075534716 1.355 4283982444
-0.084720284 -0.074921519 1.3440001 4284048237
-0.079115458 -0.073137671 1.312 4278190080
-0.075815611 -0.073416397 1.317 4278190080
-0.072049767 -0.073249161 1.314 4286209395
-0.068404526 -0.073193423 1.3130001 4288959098
-0.064764746 -0.073137671 1.312 4288366961
-0.061596733 -0.073639378 1.3210001 4285618285
-0.058203917 -0.073918104 1.3260001 4284705909
-0.054330997 -0.073583633 1.3200001 4284575351
-0.050529316 -0.073304914 1.3150001 4284771960
-0.046826363 -0.073137671 1.312 4284903546
-0.042612515 -0.072078511 1.2930001 4284575351
-0.039379016 -0.072635964 1.3030001 4284444022
-0.036475644 -0.073973849 1.327 4284641144
-0.032723185 -0.073695123 1.322 4278190080
-0.028623762 -0.072468735 1.3000001 4285099384
-0.02497248 -0.072190002 1.2950001 4285818744
-0.02139819 -0.072078511 1.2930001 4285950330
-0.017821025 -0.071911275 1.2900001 4285033591
-0.014359989 -0.072245747 1.296 4284771702
-0.01088283 -0.072691716 1.304 4285164150
-0.0072833626 -0.072357245 1.2980001 4284967798
-0.0037569827 -0.072803199 1.3060001 4285099384
-0.00018514421 -0.072580226 1.302 4285033591
0.0033751875 -0.072580226 1.302 4285165177
0.0069195386 -0.072412983 1.299 4284968566
0.010487789 -0.072524473 1.3010001 4285100152
0.014066977 -0.072635964 1.3030001 4284902003
0.017589454 -0.072468735 1.3000001 4285823107
0.021176847 -0.072580226 1.302 4285295736
0.024680179 -0.072412983 1.299 4284769906
0.028297508 -0.072580226 1.302 4285099384
0.032078058 -0.073081926 1.3110001 4284771189
0.036098246 -0.073973849 1.327 4284640116
0.039846689 -0.07419683 1.3310001 4284508787
0.043192275 -0.073695123 1.322 4284574834
0.046559449 -0.073304914 1.3150001 4284771700
0.050307896 -0.073527887 1.319 4284837493
0.053505961 -0.072970435 1.309 4285101178
0.056605723 -0.072357245 1.2980001 4278190080
0.059645329 -0.071744047 1.2870001 4285490033
0.063459113 -0.072078511 1.2930001 4286601328
0.067461155 -0.072580226 1.302 4286729577
0.071676068 -0.073249161 1.314 4285294194
0.07572747 -0.073695123 1.322 4284966256
0.079642579 -0.073973849 1.327 4285098355
0.083898783 -0.074531302 1.337 4284836210
0.086965457 -0.074029595 1.3280001 4284704624
0.091279089 -0.074587047 1.3380001 4284770419
0.095079772 -0.074698538 1.34 4284311408
0.098670326 -0.074642792 1.3390001 4284114030
0.10179687 -0.074252576 1.332 4284244076
0.10583502 -0.074531302 1.337 4285162097
0.10981864 -0.074754283 1.3410001 4284900465
0.11500891 -0.075757697 1.3590001 4284835699
0.1196861 -0.076370895 1.3700001 4284178282
0.12460363 -0.077095583 1.383 4283784294
0.12847829 -0.077151321 1.3840001 4283455842
0.13140275 -0.076649614 1.3750001 4283127135
0.13614571 -0.077207074 1.3850001 4283587686
0.14357026 -0.079213895 1.4210001 4284047724
-0.10986964 -0.073313758 1.383 4287060854
-0.10440022 -0.072147518 1.3610001 4283783525
-0.1014183 -0.072677627 1.3710001 4283456870
-0.097740531 -0.072730638 1.3720001 4278190080
-0.093509249 -0.072359562 1.365 4283653479
-0.088132381 -0.071034297 1.34 4283653479
-0.082892239 -0.069709033 1.3150001 4284046697
-0.079115458 -0.069549993 1.312 4278190080
-0.076333717 -0.070292145 1.3260001 4284505707
-0.072378762 -0.06997408 1.3200001 4286078836
-0.068612911 -0.069815055 1.317 4289223297
-0.064863473 -0.069656014 1.314 4288107639
-0.061923131 -0.070398167 1.3280001 4284898925
-0.058160022 -0.070239134 1.325 4284639603
-0.054330997 -0.06997408 1.3200001 4284574581
-0.05049089 -0.069656014 1.314 4284640374
-0.046326693 -0.068807848 1.2980001 4284377718
-0.042480692 -0.06833075 1.289 4284575351
-0.039318569 -0.06896688 1.3010001 4284378229
-0.036118306 -0.069656014 1.314 4284443765
-0.032178625 -0.06891387 1.3000001 4284574580
-0.028469633 -0.068542793 1.2930001 4278190080
-0.024798928 -0.068171717 1.286 4285491060
-0.021298897 -0.068224728 1.2870001 4286669944
-0.017793396 -0.068277739 1.2880001 4285229171
-0.014404311 -0.06891387 1.3000001 4285098355
-0.01088283 -0.069125913 1.304 4285295736
-0.007294585 -0.06891387 1.3000001 4284966771
-0.0037454758 -0.069019891 1.302 4284902005
-0.00018528641 -0.069072902 1.3030001 4284967798
0.0033777799 -0.069072902 1.3030001 4285034874
0.0069355192 -0.069019891 1.302 4284837493
0.010520034 -0.069178917 1.3050001 4284903286
0.014110161 -0.069284938 1.307 4285428349
0.017602984 -0.06896688 1.3010001 4285691521
0.021128051 -0.068860859 1.299 4284902005
0.024490187 -0.06833075 1.289 4284967285
0.028145371 -0.068648815 1.2950001 4285099384
0.031955715 -0.069231935 1.3060001 4284836982
0.035907824 -0.06997408 1.3200001 4284508787
0.039637126 -0.070186123 1.3240001 4284377201
0.042734869 -0.069337957 1.3080001 4284443248
0.046028357 -0.06891387 1.3000001 4284508528
0.049430653 -0.068701826 1.296 4284573038
0.053178955 -0.06896688 1.3010001 4284640114
0.056736555 -0.06896688 1.3010001 4284770160
0.059691671 -0.068277739 1.2880001 4285947248
0.063360959 -0.068436772 1.291 4287386735
0.067357533 -0.06891387 1.3000001 4287972712
0.071621515 -0.069603011 1.3130001 4286600812
0.073951714 -0.068436772 1.291 4285293681
0.079642579 -0.070345156 1.327 4285098355
0.084087037 -0.071034297 1.34 4284704626
0.087554827 -0.070875265 1.337 4284573040
0.091006204 -0.070716232 1.3340001 4284640116
0.095505498 -0.071352355 1.3460001 4284442482
0.099407218 -0.071511395 1.3490001 4284179310
0.1015676 -0.070451178 1.3290001 4283915625
0.10583502 -0.070875265 1.337 4284177769
0.11006431 -0.071246341 1.3440001 4284767850
0.11416263 -0.071511395 1.3490001 4284178282
0.11820094 -0.071723431 1.353 4283652453
0.12325218 -0.072518595 1.368 4283455074
0.1279213 -0.073048703 1.378 4282863963
0.13197614 -0.073207736 1.381 4282929756
0.13496611 -0.072783642 1.373 4283127135
0.14074129 -0.073843859 1.393 4283719272
-0.11545938 -0.070638001 1.4050001 4284766056
-0.10851911 -0.068677232 1.3660001 4285487725
-0.10463035 -0.068576679 1.3640001 4283389794
-0.10030869 -0.068174466 1.3560001 4283391334
-0.096743174 -0.06827502 1.358 4283457127
-0.092207655 -0.067671709 1.3460001 4283785065
-0.08714582 -0.066615909 1.325 4283850345
-0.08301831 -0.066213705 1.317 4278190080
-0.080803901 -0.06737005 1.34 4283980391
-0.077427492 -0.067621432 1.345 4284899438
-0.073310912 -0.06721922 1.337 4284701546
-0.068717107 -0.06631425 1.319 4284831849
-0.064863473 -0.066062868 1.314 4286012527
-0.061410215 -0.066213705 1.317 4284768366
-0.058160022 -0.066615909 1.325 4284310638
-0.054413315 -0.06646508 1.322 4284442737
-0.050606169 -0.066213705 1.317 4284377972
-0.046433765 -0.06540928 1.3010001 4284442995
-0.042711385 -0.065157898 1.296 4284246386
-0.039227903 -0.065258458 1.2980001 4284312179
-0.035733487 -0.065359004 1.3000001 4284312179
-0.03205486 -0.065107621 1.2950001 4278190080
-0.028491654 -0.065057345 1.294 4284574580
-0.024798928 -0.06465514 1.286 4285620077
-0.021282347 -0.06465514 1.286 4288632952
-0.017751951 -0.064604864 1.2850001 4287519091
-0.014393231 -0.065308727 1.299 4286209391
-0.010866139 -0.065459557 1.302 4284967285
-0.0072777513 -0.065208174 1.2970001 4284640116
-0.0037282156 -0.065157898 1.296 4284705141
-0.00018201581 -0.064353481 1.2800001 4284903033
0.0033544491 -0.065057345 1.294 4285034874
0.0069142119 -0.065258458 1.2980001 4284837752
0.010487789 -0.06540928 1.3010001 4285035131
0.014099366 -0.065660663 1.3060001 4285559935
0.017657107 -0.065610386 1.3050001 4285362556
0.021160582 -0.06540928 1.3010001 4285099384
0.024433186 -0.06465514 1.286 4284902005
0.027949765 -0.06465514 1.286 4284902005
0.031662092 -0.065057345 1.294 4284902005
0.035445374 -0.065509833 1.3030001 4284837240
0.039277878 -0.065962322 1.312 4284376689
0.042571507 -0.065509833 1.3030001 4278190080
0.045922134 -0.065208174 1.2970001 4284770419
0.049278088 -0.064956792 1.2920001 4284572527
0.05326071 -0.065509833 1.3030001 4284900465
0.056910992 -0.065610386 1.3050001 4285292911
0.060340494 -0.065459557 1.302 4285096813
0.063557275 -0.065107621 1.2950001 4285620590
0.067461155 -0.065459557 1.302 4287453298
0.07102149 -0.065459557 1.302 4285883249
0.0749828 -0.065811485 1.309 4278190080
0.078862362 -0.066062868 1.314 4284705394
0.08364778 -0.067018114 1.3330001 4284442737
0.087882258 -0.067470603 1.342 4284574068
0.091279089 -0.067269497 1.3380001 4284377202
0.095718361 -0.067822538 1.3490001 4284179310
0.099333532 -0.067772262 1.348 4284047211
0.1015676 -0.066817015 1.3290001 4278190080
0.10361858 -0.065811485 1.309 4283717218
0.10949107 -0.06721922 1.337 4285028971
0.11365487 -0.067520879 1.3430001 4283256668
0.11680314 -0.06721922 1.337 4283060316
0.12081957 -0.067420326 1.3410001 4282929243
0.12578619 -0.068124197 1.355 4282863963
0.12987371 -0.068325296 1.3590001 4282403412
0.13319671 -0.068124197 1.355 4282863962
0.13811438 -0.068727508 1.3670001 4283193698
0.14527683 -0.070386626 1.4000001 4282205260
-0.11777294 -0.065940268 1.3870001 4283980391
-0.11348712 -0.065655015 1.381 4283783012
-0.10891633 -0.065179601 1.3710001 4285227121
-0.10355644 -0.064181224 1.35 4283520867
-0.099347033 -0.063848428 1.3430001 4283390309
-0.095460869 -0.063705809 1.34 4283587688
-0.091728114 -0.063658267 1.3390001 4283784041
-0.086685434 -0.062659889 1.3180001 4283849832
-0.083144382 -0.062707439 1.319 4283915111
-0.080321483 -0.06332548 1.332 4284112490
-0.076563984 -0.063230395 1.33 4283981673
-0.072543256 -0.0628976 1.3230001 4283850857
-0.068560816 -0.062564805 1.3160001 4278190080
-0.065209024 -0.062802516 1.3210001 4284636780
-0.061689988 -0.0628976 1.3230001 4284309869
-0.058028337 -0.062850058 1.322 4283851628
-0.054084036 -0.062469725 1.314 4284114799
-0.050260343 -0.062184475 1.3080001 4284179822
-0.046398073 -0.061804146 1.3000001 4278190080
-0.042777296 -0.061709061 1.2980001 4284114799
-0.039197683 -0.061661519 1.2970001 4284114030
-0.035651024 -0.061661519 1.2970001 4284245103
-0.031955849 -0.06137627 1.291 4284244590
-0.028447615 -0.061423808 1.2920001 4284900465
-0.02481821 -0.061186101 1.2870001 4287255408
-0.021331994 -0.061281186 1.289 4288890734
-0.017779581 -0.061186101 1.2870001 4286859621
-0.014326748 -0.06147135 1.2930001 4285620077
-0.010774336 -0.06137627 1.291 4284836212
-0.0072160279 -0.061138559 1.286 4284574068
-0.0036821882 -0.06085331 1.2800001 4284574068
-0.0001811626 -0.060568061 1.274 4284639861
0.003338895 -0.06123364 1.2880001 4284968826
0.0068822508 -0.061423808 1.2920001 4284969338
0.010374931 -0.061186101 1.2870001 4285101694
0.013915837 -0.061281186 1.289 4285363326
0.017427089 -0.06123364 1.2880001 4285494912
0.020835284 -0.060900852 1.281 4285164664
0.024167197 -0.060472976 1.2720001 4278190080
0.027688961 -0.060568061 1.274 4284704626
0.031417411 -0.061043475 1.284 4284836982
0.035010129 -0.061186101 1.2870001 4284705396
0.038768943 -0.061566435 1.2950001 4284573555
0.04240815 -0.061709061 1.2980001 4284375662
0.045922134 -0.061661519 1.2970001 4284704114
0.049430653 -0.061613973 1.296 4284769906
0.05346508 -0.062184475 1.3080001 4284834672
0.057390705 -0.062564805 1.3160001 4284834672
0.060247809 -0.061804146 1.3000001 4284704367
0.063459113 -0.06147135 1.2930001 4284835183
0.066735767 -0.06123364 1.2880001 4285489520
0.070203274 -0.061186101 1.2870001 4285163378
0.074352689 -0.061709061 1.2980001 4284508015
0.07778205 -0.061613973 1.296 4284705909
0.082078993 -0.062184475 1.3080001 4284574581
0.086638018 -0.0628976 1.3230001 4284442995
0.090801544 -0.06327793 1.3310001 4284245616
0.093731627 -0.062802516 1.3210001 4284048237
0.097638674 -0.062992685 1.325 4283652966
0.099962682 -0.062184475 1.3080001 4278190080
0.10322279 -0.06199431 1.304 4283322973
0.10760752 -0.062469725 1.314 4284897385
0.11204694 -0.062945142 1.3240001 4282928216
0.1161916 -0.063230395 1.33 4282468692
0.11946812 -0.063040227 1.3260001 4282600278
0.1246722 -0.063848428 1.3430001 4282534998
0.12824909 -0.063800894 1.342 4282337619
0.13300011 -0.06432385 1.353 4282600790
0.13771024 -0.064799264 1.363 4282929756
0.14434291 -0.06613043 1.391 4282600018
-0.12156571 -0.062147502 1.3870001 4283718248
-0.11683892 -0.061654624 1.376 4283784554
-0.11414453 -0.062237117 1.3890001 4278190080
-0.1092341 -0.061609812 1.3750001 4284178799
-0.10355644 -0.060489636 1.35 4283520869
-0.099716902 -0.06040002 1.348 4283522409
-0.095603339 -0.060131181 1.342 4283718761
-0.09193363 -0.060131181 1.342 4283587686
-0.08648812 -0.058921389 1.3150001 4283717731
-0.082703128 -0.058786966 1.312 4284046696
-0.079597868 -0.059145421 1.3200001 4283783524
-0.076161012 -0.059279844 1.3230001 4283652708
-0.071994938 -0.058831774 1.3130001 4283785064
-0.068404526 -0.058831774 1.3130001 4283916393
-0.065060928 -0.059055809 1.3180001 4284046696
-0.061363585 -0.058966193 1.3160001 4283849832
-0.057808865 -0.059011005 1.317 4283587175
-0.053878237 -0.058652543 1.309 4283522663
-0.050260343 -0.058607738 1.3080001 4283654249
-0.046469457 -0.058338895 1.302 4283850858
-0.042810258 -0.058204472 1.299 4283917421
-0.039348792 -0.058338895 1.302 4283916651
-0.035705999 -0.058204472 1.299 4283916651
-0.032104366 -0.05811486 1.2970001 4284112490
-0.028601743 -0.058204472 1.299 4285161327
-0.02497248 -0.058025245 1.2950001 4286599274
-0.02139819 -0.057935629 1.2930001 4287708259
-0.017779581 -0.05766679 1.2870001 4287651960
-0.014337829 -0.057980433 1.294 4284636262
-0.010791028 -0.057935629 1.2930001 4284311151
-0.0072104167 -0.057577174 1.2850001 4284245103
-0.0036764347 -0.057263523 1.2780001 4284376689
-0.00018059381 -0.056905068 1.2700001 4284508275
0.0033181566 -0.057353139 1.2800001 4284507762
0.0068130023 -0.057308327 1.279 4284640374
0.010294317 -0.057218712 1.2770001 4284771959
0.013840266 -0.057442751 1.2820001 4284903799
0.0173865 -0.057577174 1.2850001 4285166458
0.020753959 -0.057173908 1.276 4285099382
0.0241102 -0.056860257 1.2690001 4285098355
0.027580291 -0.056860257 1.2690001 4284835953
0.031270597 -0.057263523 1.2780001 4284639603
0.034928519 -0.057532366 1.284 4284902003
0.038619258 -0.057801206 1.2900001 4284704626
0.042375475 -0.05811486 1.2970001 4284902006
0.046205387 -0.058473315 1.3050001 4284638321
0.049468793 -0.05811486 1.2970001 4284572527
0.053424206 -0.058562927 1.307 4284638320
0.056954604 -0.058518123 1.3060001 4284311408
0.06010877 -0.05811486 1.2970001 4284115312
0.062968321 -0.057487562 1.2830001 4284246385
0.066735767 -0.057711594 1.2880001 4284508530
0.07003963 -0.057532366 1.284 4285099384
0.074008994 -0.057890821 1.2920001 4284770419
0.077722035 -0.058025245 1.2950001 4284508017
0.081576981 -0.058249284 1.3000001 4284376689
0.085655726 -0.058607738 1.3080001 4283917421
0.088823147 -0.058338895 1.302 4283785835
0.091957748 -0.058070049 1.296 4283521892
0.094617404 -0.057532366 1.284 4283456870
0.099656984 -0.058428511 1.304 4283258721
0.10314363 -0.0583837 1.3030001 4282665558
0.10768942 -0.058921389 1.3150001 4283123027
0.11255471 -0.059593495 1.33 4282665813
0.11654106 -0.059772726 1.3340001 4282206803
0.1198285 -0.059593495 1.33 4278190080
0.12365107 -0.059683111 1.332 4282337106
0.1279624 -0.059996758 1.3390001 4282403412
0.1329018 -0.060579251 1.3520001 4282337106
0.13801335 -0.061206553 1.3660001 4282402899
-0.12544885 -0.058396805 1.388 4284243824
-0.1192869 -0.057260849 1.3610001 4283980652
-0.11581997 -0.057387069 1.3640001 4278190080
-0.11258316 -0.057639502 1.3700001 4278190080
-0.10828079 -0.057344992 1.363 4284897902
-0.10317289 -0.056587689 1.345 4283717478
-0.099199086 -0.056419391 1.3410001 4283848037
-0.095603339 -0.056461468 1.342 4283914857
-0.090563536 -0.055620015 1.322 4283979623
-0.087211594 -0.055788305 1.3260001 4284111977
-0.083522595 -0.055746235 1.325 4283717732
-0.080200881 -0.055956598 1.33 4283586915
-0.075930744 -0.055493798 1.319 4283324513
-0.072378762 -0.055535868 1.3200001 4283390306
-0.068508722 -0.055325508 1.3150001 4283718501
-0.064912841 -0.055325508 1.3150001 4284047466
-0.061130442 -0.055157214 1.3110001 4283718501
-0.057545498 -0.055157214 1.3110001 4283455074
-0.054125197 -0.055325508 1.3150001 4283455587
-0.050183486 -0.054946855 1.3060001 4283324513
-0.046291005 -0.054568198 1.2970001 4283391076
-0.042711385 -0.054526124 1.296 4283719272
-0.039197683 -0.054568198 1.2970001 4283784552
-0.035733487 -0.054694418 1.3000001 4284176743
-0.032079611 -0.054526124 1.296 4284898156
-0.02851367 -0.054484054 1.2950001 4284242022
-0.024895346 -0.054315764 1.291 4284244075
-0.021348543 -0.054273691 1.2900001 4284375659
-0.017765766 -0.054105401 1.286 4284702827
-0.014271348 -0.054189544 1.2880001 4284113257
-0.010740953 -0.054147474 1.2870001 4283982186
-0.0071823606 -0.053852964 1.2800001 4283981673
-0.0036821882 -0.053852964 1.2800001 4284245103
-0.0001817314 -0.053768821 1.2780001 4284310896
0.0033207489 -0.053895041 1.281 4284310896
0.0068023489 -0.053726744 1.2770001 4284442994
0.010302379 -0.053768821 1.2780001 4284508787
0.013786287 -0.053726744 1.2770001 4284575350
0.017251194 -0.053642601 1.2750001 4284903545
0.020640107 -0.053390164 1.2690001 4285164148
0.024072198 -0.053306021 1.2670001 4286537588
0.027580291 -0.053390164 1.2690001 4285946732
0.031295069 -0.053810891 1.279 4285095273
0.035037331 -0.054189544 1.2880001 4285490290
0.038529441 -0.054147474 1.2870001 4284834159
0.042114101 -0.054231621 1.289 4284440941
0.045851324 -0.054484054 1.2950001 4284507247
0.049392514 -0.054484054 1.2950001 4284638833
0.052892826 -0.054441981 1.294 4284573810
0.056256846 -0.054273691 1.2900001 4284311408
0.059459947 -0.053979184 1.2830001 4284507762
0.062379379 -0.053474311 1.271 4284573555
0.066217631 -0.053768821 1.2780001 4284638834
0.070094176 -0.054063331 1.2850001 4285556855
0.074180849 -0.054484054 1.2950001 4284573040
0.077842064 -0.054568198 1.2970001 4284573555
0.081576981 -0.054694418 1.3000001 4284310896
0.084607951 -0.054357834 1.2920001 4283916651
0.08779984 -0.054147474 1.2870001 4283719272
0.090822466 -0.053852964 1.2800001 4283456099
0.095354296 -0.054441981 1.294 4283062111
0.10011554 -0.055115145 1.3100001 4282929243
0.10393522 -0.055241365 1.3130001 4282665813
0.10818078 -0.055577945 1.3210001 4282727756
0.11247008 -0.055914525 1.3290001 4282270285
0.11767676 -0.056671832 1.3470001 4282205775
0.12136015 -0.056671832 1.3470001 4282206033
0.12476504 -0.056545611 1.3440001 4282206803
0.1271023 -0.055956598 1.33 4282468692
0.1324103 -0.056671832 1.3470001 4282140240
0.13851853 -0.057681572 1.3710001 4281482052
-0.12905812 -0.05452263 1.386 4278190080
-0.12436429 -0.05412925 1.376 4283915886
-0.12033866 -0.054011237 1.373 4283390825
-0.1160747 -0.053775206 1.3670001 4283392106
-0.11167921 -0.053460505 1.3590001 4278190080
-0.10796302 -0.053460505 1.3590001 4284178029
-0.1022524 -0.052437712 1.3330001 4283914598
-0.097867548 -0.052044332 1.3230001 4283520867
-0.094178557 -0.052004993 1.322 4283652453
-0.091111578 -0.052319702 1.33 4284045157
-0.087474674 -0.052319702 1.33 4283586146
-0.084783323 -0.052909773 1.345 4283455587
-0.080984794 -0.052831091 1.3430001 4283258721
-0.07644885 -0.052241024 1.3280001 4283062111
-0.072269097 -0.05184764 1.3180001 4283127134
-0.068717107 -0.051886979 1.319 4283455329
-0.064715385 -0.051572271 1.3110001 4283718501
-0.061037183 -0.051493596 1.309 4283850087
-0.057501607 -0.051532935 1.3100001 4282797399
-0.054248679 -0.05184764 1.3180001 4283192157
-0.050414041 -0.051611613 1.312 4283324256
-0.046433765 -0.051178891 1.3010001 4283258720
-0.042777296 -0.051060881 1.2980001 4283455074
-0.039348792 -0.051218234 1.302 4283520353
-0.035870921 -0.051336244 1.3050001 4283914598
-0.032178625 -0.051139556 1.3000001 4283651939
-0.02851367 -0.050942864 1.2950001 4283849317
-0.024837494 -0.050667495 1.2880001 4283850087
-0.021298897 -0.050628159 1.2870001 4283784294
-0.017779581 -0.050628159 1.2870001 4283980901
-0.014315668 -0.050824847 1.2920001 4283980903
-0.010799374 -0.050903525 1.294 4283915110
-0.0072328616 -0.050706837 1.289 4283982186
-0.0037109554 -0.050746173 1.2900001 4283785064
-0.000182869 -0.05058882 1.286 4284114029
0.0033311183 -0.050549485 1.2850001 4284048236
0.0068130023 -0.05031345 1.279 4284114029
0.01031044 -0.05031345 1.279 4284180592
0.013786287 -0.050234776 1.2770001 4284246385
0.017251194 -0.050156102 1.2750001 4284967798
0.020672634 -0.049998749 1.271 4284834413
0.0241102 -0.049920071 1.2690001 4286995057
0.027602024 -0.049959414 1.2700001 4288171631
0.031270597 -0.050274115 1.2780001 4288567159
0.035064537 -0.050706837 1.289 4285489518
0.038559381 -0.050667495 1.2880001 4284770419
0.042048756 -0.050628159 1.2870001 4284573810
0.045391042 -0.050431468 1.2820001 4284639603
0.048629694 -0.050156102 1.2750001 4284442737
0.051993567 -0.050038088 1.2720001 4284442994
0.055602692 -0.050156102 1.2750001 4284246385
0.059181884 -0.050234776 1.2770001 4284442482
0.062379379 -0.049998749 1.271 4284770420
0.065958567 -0.050077423 1.273 4284638834
0.070094176 -0.050549485 1.2850001 4285359221
0.074238129 -0.0509822 1.296 4284638834
0.078142151 -0.051218234 1.302 4284376176
0.081514232 -0.051100217 1.299 4284179310
0.084935382 -0.051021539 1.2970001 4283916651
0.088072725 -0.050785512 1.291 4283587685
0.091957748 -0.0509822 1.296 4283324513
0.096680708 -0.051611613 1.312 4283192927
0.1012619 -0.052123006 1.325 4282863192
0.10488512 -0.052123006 1.325 4282533198
0.10859025 -0.052162342 1.3260001 4283843925
0.11230083 -0.052201685 1.327 4282203979
0.1168905 -0.052634403 1.3380001 4282074189
0.12099976 -0.052831091 1.3430001 4282139982
0.12448655 -0.052752417 1.3410001 4282139727
0.12949145 -0.053303152 1.355 4282468692
0.13663721 -0.054679982 1.3900001 4282073676
-0.1319855 -0.050403174 1.3770001 4284245105
-0.12766139 -0.050183546 1.3710001 4283521895
-0.12400276 -0.050220154 1.3720001 4283652714
-0.12016336 -0.050183546 1.3710001 4283325032
-0.11522558 -0.049671099 1.3570001 4283391336
-0.11110397 -0.049488079 1.3520001 4278190080
-0.10613583 -0.048902422 1.3360001 4284767084
-0.10110177 -0.048243556 1.3180001 4285618286
-0.097053841 -0.048023935 1.312 4285614435
-0.093537398 -0.04806054 1.3130001 4284697183
-0.090974562 -0.048609596 1.3280001 4283585632
-0.087343134 -0.048609596 1.3280001 4283390307
-0.084657244 -0.049158644 1.3430001 4283128162
-0.080562688 -0.048902422 1.3360001 4282864733
-0.076218583 -0.048463177 1.3240001 4282930526
-0.072049767 -0.048097141 1.314 4282995548
-0.068404526 -0.04806054 1.3130001 4283061084
-0.064616658 -0.047914121 1.309 4283388766
-0.061177071 -0.048023935 1.312 4283717731
-0.057589393 -0.048023935 1.312 4282863192
-0.054166354 -0.04817035 1.3160001 4283059288
-0.050221916 -0.047840916 1.307 4282995291
-0.046433765 -0.047621295 1.3010001 4282994008
-0.042909127 -0.0476579 1.302 4283059801
-0.039288349 -0.047584694 1.3000001 4283454559
-0.035925899 -0.047840916 1.307 4283190874
-0.03205486 -0.047401674 1.2950001 4283192670
-0.02851367 -0.047401674 1.2950001 4283390306
-0.024798928 -0.047072239 1.286 4283323743
-0.021298897 -0.047108848 1.2870001 4283521122
-0.017751951 -0.047035638 1.2850001 4283717731
-0.014271348 -0.047145449 1.2880001 4284046696
-0.010774336 -0.047255259 1.291 4283651938
-0.0072216392 -0.047108848 1.2870001 4283718501
-0.0037052019 -0.047145449 1.2880001 4283719271
-0.00018358001 -0.047255259 1.291 4283850857
0.0033414874 -0.047182053 1.289 4283982443
0.0068343095 -0.046962433 1.2830001 4284048236
0.010318502 -0.046852618 1.2800001 4284311151
0.013797082 -0.046779413 1.2780001 4284113772
0.017224135 -0.046596393 1.273 4285162610
0.02065637 -0.046486586 1.2700001 4286665581
0.024148196 -0.046523187 1.271 4288695408
0.027710693 -0.046669599 1.2750001 4288629615
0.031172728 -0.046632998 1.274 4286597991
0.034574881 -0.046523187 1.271 4284573038
0.038230069 -0.046742808 1.2770001 4284574323
0.041852728 -0.046889227 1.281 4284574581
0.045214009 -0.046742808 1.2770001 4284836982
0.048515271 -0.046559792 1.2720001 4284640116
0.051789191 -0.046376772 1.2670001 4284376944
0.055515472 -0.046596393 1.273 4284179822
0.059274573 -0.046816014 1.279 4284508787
0.06257569 -0.046669599 1.2750001 4284573040
0.065647684 -0.046376772 1.2670001 4284573555
0.069494143 -0.046632998 1.274 4284573555
0.073722586 -0.047108848 1.2870001 4284309869
0.077842064 -0.04747488 1.2970001 4284310383
0.08094947 -0.047218654 1.2900001 4283981931
0.084542468 -0.047255259 1.291 4283850858
0.088413827 -0.047438275 1.296 4283719271
0.092880167 -0.047914121 1.309 4283456099
0.097270228 -0.048316762 1.3200001 4283126362
0.10087978 -0.048316762 1.3200001 4282403150
0.10448933 -0.048316762 1.3200001 4282532426
0.10801699 -0.048280161 1.319 4284039762
0.11187769 -0.048389971 1.322 4282794060
0.1161916 -0.048682801 1.33 4281811015
0.12045918 -0.048939023 1.337 4282008396
0.12541486 -0.049451478 1.3510001 4282336079
0.13254955 -0.050769206 1.3870001 4282270800
-0.13575092 -0.046637751 1.3770001 4285163124
-0.13160211 -0.04650227 1.373 4283981933
-0.12784763 -0.04650227 1.373 4283784554
-0.12291819 -0.046061974 1.36 4283325543
-0.11902396 -0.045994233 1.358 4283259237
-0.11480102 -0.045791022 1.3520001 4278190080
-0.11052872 -0.045553941 1.345 4278190080
-0.10526195 -0.044876557 1.325 4284111462
-0.10094835 -0.044571735 1.3160001 4286925932
-0.09712781 -0.044470128 1.3130001 4287384429
-0.094463512 -0.044910423 1.3260001 4284827742
-0.090632036 -0.04480882 1.3230001 4283257180
-0.086948514 -0.04477495 1.322 4283192928
-0.083711706 -0.044978168 1.3280001 4282996319
-0.079718471 -0.04477495 1.322 4283061342
-0.075988315 -0.044707209 1.3200001 4282863963
-0.072049767 -0.044503998 1.314 4282733147
-0.068404526 -0.044470128 1.3130001 4283060316
-0.064616658 -0.04433465 1.309 4283125594
-0.061083816 -0.04436852 1.3100001 4283125081
-0.057457712 -0.04433465 1.309 4282730836
-0.053878237 -0.04433465 1.309 4282599250
-0.050068211 -0.044131435 1.3030001 4282598737
-0.046540838 -0.044165306 1.304 4282730323
-0.043007992 -0.044199176 1.3050001 4283125081
-0.039530125 -0.044300783 1.3080001 4282927702
-0.035760973 -0.044063699 1.3010001 4282665813
-0.032030109 -0.043826614 1.294 4282666583
-0.028469633 -0.043792747 1.2930001 4282797912
-0.024991764 -0.043894354 1.296 4283059801
-0.021464387 -0.043928221 1.2970001 4283257180
-0.017890099 -0.043860484 1.2950001 4283388764
-0.014326748 -0.043792747 1.2930001 4283454557
-0.010782682 -0.043758877 1.2920001 4283191385
-0.0072272504 -0.043623399 1.2880001 4283454557
-0.0037109554 -0.04369114 1.2900001 4283192927
-0.0001832956 -0.043657269 1.289 4283456100
0.003338895 -0.043623399 1.2880001 4283653479
0.0068343095 -0.043454055 1.2830001 4284047466
0.010326562 -0.043386318 1.281 4284309868
0.013840266 -0.043420184 1.2820001 4284309868
0.017305316 -0.043318577 1.279 4285030509
0.020770226 -0.04325084 1.2770001 4285355111
0.024224194 -0.043183103 1.2750001 4286402409
0.027645493 -0.043081496 1.2720001 4287513703
0.030928042 -0.042810541 1.2640001 4285289833
0.034302853 -0.042708933 1.261 4284506220
0.038020507 -0.043013755 1.2700001 4284376944
0.041787382 -0.043318577 1.279 4284508788
0.045355629 -0.043386318 1.281 4284706167
0.048667833 -0.04321697 1.276 4284640374
0.052075319 -0.043149233 1.274 4284508275
0.055689916 -0.04325084 1.2770001 4284245615
0.059367258 -0.043386318 1.281 4284311408
0.062772013 -0.043318577 1.279 4284442737
0.065595873 -0.042878281 1.266 4284310383
0.069275953 -0.043013755 1.2700001 4284441455
0.073378883 -0.043386318 1.281 4284638321
0.077541977 -0.043758877 1.2920001 4284178797
0.081263229 -0.043860484 1.2950001 4283981931
0.084084071 -0.043487921 1.284 4283785064
0.088482045 -0.043928221 1.2970001 4283522146
0.092525385 -0.044165306 1.304 4282863703
0.096607015 -0.044402391 1.3110001 4282403665
0.10026839 -0.044436257 1.312 4282271051
0.1041727 -0.044571735 1.3160001 4282465861
0.10801699 -0.044673342 1.319 4285087573
0.11204694 -0.044842687 1.3240001 4283186249
0.11636633 -0.045113642 1.332 4282335817
0.12127005 -0.045587808 1.3460001 4282401869
0.12810697 -0.046739358 1.3800001 4282402386
-0.12282781 -0.042311907 1.3590001 4283259750
-0.11858574 -0.042125102 1.353 4283259237
-0.11429156 -0.041907158 1.3460001 4283127905
-0.10937824 -0.041440137 1.3310001 4283586146
-0.10494418 -0.041128796 1.3210001 4284306018
-0.10094835 -0.040973119 1.3160001 4286924135
-0.097275764 -0.040941983 1.3150001 4286137442
-0.094107322 -0.041128796 1.3210001 4283451992
-0.091043063 -0.041377869 1.3290001 4282601560
-0.0867512 -0.041066524 1.319 4282995549
-0.082766168 -0.040879715 1.3130001 4282667354
-0.078994855 -0.040786315 1.3100001 4282732377
-0.07552778 -0.040848583 1.312 4282732377
-0.071994938 -0.040879715 1.3130001 4282404182
-0.068248227 -0.040786315 1.3100001 4282666071
-0.06451793 -0.040692911 1.307 4282797399
-0.060943928 -0.040692911 1.307 4283125081
-0.057369925 -0.040692911 1.307 4283451479
-0.05383708 -0.040724043 1.3080001 4282794576
-0.050183486 -0.040661775 1.3060001 4282597708
-0.046540838 -0.040599506 1.304 4282926416
-0.042942081 -0.04056837 1.3030001 4282598991
-0.039409235 -0.040599506 1.304 4282272079
-0.035623536 -0.04035043 1.296 4282337359
-0.031931095 -0.040163621 1.2900001 4282271825
-0.028403576 -0.040163621 1.2900001 4282272595
-0.024933912 -0.040257026 1.2930001 4282337361
-0.021447839 -0.04035043 1.296 4282468434
-0.017917728 -0.040381562 1.2970001 4282665041
-0.014359989 -0.04035043 1.296 4283388764
-0.010757645 -0.040132489 1.289 4282862420
-0.0071935831 -0.039914545 1.2820001 4283059799
-0.0036908183 -0.039945677 1.2830001 4283126877
-0.0001827268 -0.040007945 1.2850001 4282995548
0.0033311183 -0.040007945 1.2850001 4283455842
0.0068396362 -0.039976813 1.284 4283915110
0.010334624 -0.039914545 1.2820001 4283914851
0.013829471 -0.039883409 1.281 4284178023
0.017224135 -0.039634336 1.273 4283980901
0.020688901 -0.0396032 1.2720001 4284309868
0.024148196 -0.039572064 1.271 4284047466
0.027580291 -0.039509792 1.2690001 4284702059
0.030928042 -0.039354123 1.2640001 4285555315
0.034248449 -0.039198451 1.2590001 4284243563
0.037900757 -0.039416391 1.266 4284310896
0.041624025 -0.039665468 1.274 4284442482
0.045249414 -0.039790004 1.2780001 4284179823
0.048629694 -0.039696604 1.2750001 4284246386
0.051789191 -0.039447524 1.2670001 4284311409
0.055297427 -0.03947866 1.268 4284311408
0.058625747 -0.039385255 1.2650001 4284246385
0.062084902 -0.039385255 1.2650001 4284376944
0.065440431 -0.039322987 1.263 4278190080
0.069330506 -0.039572064 1.271 4284440942
0.073207043 -0.039790004 1.2780001 4285032309
0.077601999 -0.040257026 1.2930001 4284244076
0.08069846 -0.040039081 1.286 4283718759
0.08369115 -0.039790004 1.2780001 4283521635
0.087185852 -0.039790004 1.2780001 4283257948
0.091673926 -0.04022589 1.2920001 4282664784
0.096459642 -0.040755179 1.309 4282402123
0.10026839 -0.040848583 1.312 4282793029
0.10393522 -0.040879715 1.3130001 4284954188
0.1078532 -0.041004255 1.317 4287380575
0.11272397 -0.041471273 1.332 4286595938
0.11855038 -0.042249639 1.3570001 4283515730
-0.13093115 -0.03879451 1.3660001 4278190080
-0.1233701 -0.038766108 1.365 4282996578
-0.11911161 -0.03859571 1.3590001 4283324516
-0.11335752 -0.037914105 1.335 4283389794
-0.10913171 -0.037715305 1.3280001 4283650656
-0.10518251 -0.037601706 1.3240001 4285156707
-0.10171543 -0.037658505 1.3260001 4286266975
-0.098089471 -0.037658505 1.3260001 4286073959
-0.093893602 -0.037431303 1.3180001 4282926675
-0.091180079 -0.037800506 1.3310001 4282469974
-0.08714582 -0.037630107 1.325 4282666584
-0.082955271 -0.037374504 1.3160001 4282535768
-0.07893455 -0.037175704 1.309 4282601561
-0.07552778 -0.037260905 1.312 4282338389
-0.072159432 -0.037374504 1.3160001 4282469205
-0.068560816 -0.037374504 1.3160001 4282337619
-0.064666025 -0.037204105 1.3100001 4282141009
-0.060990557 -0.037147306 1.3080001 4282862420
-0.057326026 -0.037090506 1.3060001 4283318351
-0.05383708 -0.037147306 1.3080001 4284693844
-0.050298765 -0.037175704 1.309 4284235603
-0.046933439 -0.037346106 1.3150001 4283056719
-0.043073907 -0.037118904 1.307 4282336846
-0.039590567 -0.037204105 1.3100001 4282271053
-0.03589841 -0.037090506 1.3060001 4281943630
-0.032376647 -0.037147306 1.3080001 4281943630
-0.028689817 -0.037005302 1.3030001 4281943630
-0.024953198 -0.036749706 1.294 4281943630
-0.021480937 -0.036863305 1.2980001 4282074700
-0.017959174 -0.036920104 1.3000001 4282599248
-0.014404311 -0.036920104 1.3000001 4282928983
-0.010791028 -0.036721304 1.2930001 4282402639
-0.0072272504 -0.036579303 1.2880001 4282861909
-0.0036994484 -0.0365225 1.286 4282534227
-0.0001830112 -0.036550902 1.2870001 4282534740
0.0033337106 -0.0365225 1.286 4282928985
0.0068396362 -0.036465701 1.284 4283388764
0.010350747 -0.036465701 1.284 4283717729
0.013807878 -0.036323704 1.279 4283717472
0.017183542 -0.0360681 1.2700001 4284178023
0.020575047 -0.0359261 1.2650001 4284178280
0.024053201 -0.035954501 1.266 4283981673
0.027602024 -0.0360681 1.2700001 4284308841
0.031050384 -0.036039699 1.2690001 4284439914
0.034493275 -0.036011301 1.268 4284374379
0.037870821 -0.0359261 1.2650001 4283916138
0.041395318 -0.035982899 1.2670001 4284113517
0.044789132 -0.0359261 1.2650001 4284245103
0.048172005 -0.0358693 1.263 4284114030
0.05158481 -0.035840902 1.2620001 4283916651
0.055210207 -0.035954501 1.266 4284114800
0.058672097 -0.035954501 1.266 4284245616
0.062133983 -0.035954501 1.266 4284246385
0.065595873 -0.035954501 1.266 4284442224
0.069385052 -0.036124904 1.2720001 4284573040
0.072977915 -0.036181703 1.274 4285096817
0.076941811 -0.036408901 1.2820001 4284177769
0.080572963 -0.036465701 1.284 4283849317
0.083756641 -0.036323704 1.279 4283455329
0.087390512 -0.036380503 1.281 4283059799
0.091886789 -0.036778104 1.2950001 4283124565
0.097491294 -0.037573308 1.3230001 4282729294
0.1012619 -0.037630107 1.325 4282925131
0.10464764 -0.037544906 1.322 4283708743
0.10859025 -0.037658505 1.3260001 4287317094
0.11382413 -0.038198106 1.345 4284301396
-0.13387781 -0.034853846 1.358 4283128164
-0.1294934 -0.034674183 1.3510001 4282997348
-0.12607843 -0.034751184 1.3540001 4282996578
-0.12273742 -0.034853846 1.358 4278190080
-0.11805985 -0.034571521 1.3470001 4282995038
-0.11293297 -0.034135208 1.33 4283388767
-0.10888518 -0.034006882 1.325 4283913057
-0.10526195 -0.034006882 1.325 4283846750
-0.10194556 -0.034109544 1.3290001 4283518812
-0.097497687 -0.033827219 1.3180001 4284107099
-0.093964837 -0.033852886 1.319 4283321434
-0.091111578 -0.034135208 1.33 4282272596
-0.087408908 -0.034109544 1.3290001 4282403412
-0.08308135 -0.033827219 1.3180001 4282404182
-0.078994855 -0.033621896 1.3100001 4282206803
-0.075297512 -0.033570565 1.3080001 4282141522
-0.072049767 -0.033724558 1.314 4282141009
-0.068612911 -0.033801556 1.317 4282075216
-0.064912841 -0.033750225 1.3150001 4282206032
-0.061177071 -0.033673227 1.312 4282402639
-0.057457712 -0.033596233 1.309 4283383374
-0.053960554 -0.033647563 1.3110001 4284953936
-0.05049089 -0.033724558 1.314 4285019727
-0.047183271 -0.033929884 1.322 4282793545
-0.043370511 -0.033775888 1.3160001 4282074698
-0.039741676 -0.033750225 1.3150001 4282074187
-0.036310717 -0.033904221 1.3210001 4282009423
-0.03277269 -0.033981215 1.3240001 4281877837
