# .PCD v0.7 - Point Cloud Data file format
VERSION 0.7
FIELDS x y z rgba
SIZE 4 4 4 4
TYPE F F F U
COUNT 1 1 1 1
WIDTH 1068
HEIGHT 1
VIEWPOINT 0 0 0 1 0 0 0
POINTS 1068
DATA ascii
-0.059298873 -0.057598554 1.4280001 4290492590
-0.056860086 -0.057638887 1.429 4290361006
-0.054417823 -0.057679225 1.4300001 4289440162
-0.051899459 -0.057638887 1.429 4288848028
-0.047168761 -0.057921235 1.4360001 4283979866
-0.044800747 -0.058082569 1.4400001 4282400836
-0.21908537 -0.056720246 1.4690001 4279835932
-0.21638823 -0.05668164 1.4680001 4280098076
-0.21369454 -0.056643028 1.4670001 4280886816
-0.21143614 -0.056720246 1.4690001 4286215787
-0.20902859 -0.056758862 1.47 4287202166
-0.2068985 -0.056874696 1.473 4286478182
-0.20475799 -0.05699053 1.4760001 4286674533
-0.20233309 -0.057029143 1.4770001 4286279774
-0.20017523 -0.057144973 1.48 4286740325
-0.19787341 -0.057222199 1.4820001 4286806118
-0.19582826 -0.057376642 1.4860001 4286674532
-0.19363914 -0.057492476 1.4890001 4287201646
-0.19105469 -0.057492476 1.4890001 4287070060
-0.18834366 -0.057453871 1.488 4287004012
-0.17367753 -0.055253014 1.4310001 4286084451
-0.17095448 -0.055175789 1.429 4279834119
-0.16823837 -0.055098567 1.427 4284044870
-0.16576153 -0.055098567 1.427 4290032034
-0.16339912 -0.05513718 1.4280001 4289834397
-0.16092055 -0.05513718 1.4280001 4290031260
-0.15833101 -0.055098567 1.427 4290162588
-0.15585417 -0.055098567 1.427 4290228380
-0.15359229 -0.055175789 1.429 4290031255
-0.15121773 -0.055214401 1.4300001 4290031254
-0.14925572 -0.055407457 1.4350001 4290228633
-0.1475832 -0.055716351 1.4430001 4290162840
-0.14538021 -0.055832189 1.4460001 4290097047
-0.14113712 -0.056141078 1.4540001 4288452223
-0.13928074 -0.056411356 1.4610001 4287925881
-0.13702567 -0.05652719 1.4640001 4287794040
-0.13512763 -0.056797475 1.4710001 4287399541
-0.13338555 -0.057144973 1.48 4287465596
-0.13117027 -0.05729942 1.4840001 4287334272
-0.071892574 -0.055291623 1.432 4290164139
-0.069164708 -0.055098567 1.427 4290032544
-0.066641137 -0.055059955 1.4260001 4290097819
-0.064076036 -0.054982733 1.424 4290163360
-0.061604403 -0.054982733 1.424 4290162850
-0.05909124 -0.054944124 1.4230001 4290163106
-0.056621343 -0.054944124 1.4230001 4290162849
-0.054265607 -0.055059955 1.4260001 4289899681
-0.051935777 -0.055214401 1.4300001 4289900198
-0.049626641 -0.055407457 1.4350001 4289834919
-0.047201611 -0.055484682 1.437 4289637543
-0.21759398 -0.053819329 1.4590001 4279967001
-0.21520899 -0.053856216 1.46 4279571471
-0.21296622 -0.053929992 1.462 4280163091
-0.21071647 -0.054003768 1.4640001 4287267957
-0.20845981 -0.054077543 1.4660001 4289109900
-0.20647712 -0.054225095 1.47 4289175182
-0.20448054 -0.054372646 1.4740001 4289306252
-0.20219609 -0.054446422 1.4760001 4288845701
-0.20003997 -0.054557085 1.4790001 4288780164
-0.19773991 -0.054630861 1.4810001 4288056185
-0.19569646 -0.054778412 1.485 4287003499
-0.193249 -0.0548153 1.4860001 4286675047
-0.19054143 -0.054778412 1.485 4286543461
-0.18796393 -0.054778412 1.485 4286675560
-0.17331342 -0.052675806 1.4280001 4286938735
-0.17059557 -0.05260203 1.4260001 4287399542
-0.16800258 -0.052565143 1.4250001 4290426019
-0.16552921 -0.052565143 1.4250001 4289899932
-0.16317026 -0.05260203 1.4260001 4289965211
-0.16046979 -0.052528255 1.424 4289899416
-0.15799814 -0.052528255 1.424 4290031256
-0.15563573 -0.052565143 1.4250001 4290294428
-0.15337732 -0.052638918 1.427 4290228634
-0.15111198 -0.052712694 1.429 4290228633
-0.14915171 -0.052897133 1.434 4290426012
-0.14748093 -0.053192236 1.442 4290031254
-0.14538021 -0.053339787 1.4460001 4289834132
-0.14113712 -0.053634889 1.4540001 4287201902
-0.13928074 -0.053893104 1.4610001 4287596661
-0.13693208 -0.05396688 1.4630001 4287202161
-0.13494392 -0.054188207 1.4690001 4287465336
-0.13311519 -0.054483309 1.4770001 4287465339
-0.13099349 -0.054667749 1.4820001 4287399809
-0.076863609 -0.052823357 1.432 4292730838
-0.074274212 -0.052749582 1.4300001 4290032551
-0.071591347 -0.05260203 1.4260001 4290163362
-0.069019303 -0.052528255 1.424 4290228894
-0.066500939 -0.052491367 1.4230001 4290294684
-0.063896045 -0.052380703 1.4200001 4290162846
-0.06130157 -0.05227004 1.4170001 4290162846
-0.058883615 -0.052306928 1.4180001 4290097052
-0.056581553 -0.052454479 1.4220001 4290097309
-0.054227553 -0.052565143 1.4250001 4290162848
-0.051935777 -0.052749582 1.4300001 4290097056
-0.049626641 -0.052934021 1.4350001 4289900449
-0.047234457 -0.053044684 1.4380001 4289374365
-0.21801411 -0.050812222 1.4450001 4279309072
-0.21550603 -0.050812222 1.4450001 4279900948
-0.21314535 -0.050847389 1.4460001 4279374344
-0.21107252 -0.050952878 1.4490001 4281610277
-0.20913322 -0.051093537 1.4530001 4289439379
-0.20689565 -0.051163863 1.455 4290162842
-0.20521297 -0.051374849 1.4610001 4290162588
-0.20378692 -0.051656164 1.4690001 4290162329
-0.20164815 -0.051761653 1.4720001 4290228122
-0.19990471 -0.051972639 1.478 4290425501
-0.19773991 -0.052078132 1.4810001 4289175436
-0.19516934 -0.052078132 1.4810001 4288254334
-0.19207859 -0.051937476 1.4770001 4286872426
-0.18913002 -0.051831983 1.4740001 4286214239
-0.1755458 -0.050144102 1.4260001 4286871657
-0.17282796 -0.050073776 1.424 4288385410
-0.17023668 -0.050038613 1.4230001 4290293920
-0.1676489 -0.050003447 1.4220001 4290359968
-0.16506456 -0.049968284 1.4210001 4290228382
-0.16259813 -0.049968284 1.4210001 4290228381
-0.16001903 -0.049933121 1.4200001 4290359966
-0.15766528 -0.049968284 1.4210001 4290228635
-0.15541729 -0.050038613 1.4230001 4290228634
-0.15326984 -0.050144102 1.4260001 4290426012
-0.15100624 -0.050214432 1.4280001 4290426012
-0.14904772 -0.050390255 1.4330001 4290162840
-0.14737865 -0.050671566 1.4410001 4289636496
-0.14527968 -0.050812222 1.4450001 4288255100
-0.14104004 -0.051093537 1.4530001 4287531124
-0.1391854 -0.051339686 1.46 4287399283
-0.13683848 -0.051410012 1.462 4287070318
-0.13494392 -0.051656164 1.4690001 4287136114
-0.13311519 -0.051937476 1.4770001 4287399291
-0.13090511 -0.052078132 1.4810001 4287399552
-0.076648913 -0.050214432 1.4280001 4290032554
-0.074066453 -0.050144102 1.4260001 4290163878
-0.071541145 -0.050108939 1.4250001 4290163359
-0.068970837 -0.050038613 1.4230001 4290096796
-0.066407472 -0.049968284 1.4210001 4290096795
-0.063716061 -0.049792461 1.416 4290228633
-0.061215051 -0.049757298 1.4150001 4290359966
-0.058842085 -0.049827628 1.4170001 4290162588
-0.056541763 -0.049968284 1.4210001 4290228381
-0.054189499 -0.050073776 1.424 4290360225
-0.051935777 -0.050284762 1.4300001 4290228641
-0.047168761 -0.050495747 1.4360001 4288979605
-0.044769637 -0.050601237 1.439 4287795082
-0.22194985 -0.048087467 1.4380001 4294177526
-0.21899608 -0.047987144 1.4350001 4292599000
-0.21620362 -0.047920264 1.4330001 4290888379
-0.21386549 -0.047953703 1.434 4290427822
-0.2113765 -0.047953703 1.434 4290690221
-0.20932451 -0.048054025 1.437 4290229410
-0.20754997 -0.048221227 1.442 4290031516
-0.20533149 -0.048288107 1.4440001 4290097049
-0.20394883 -0.048555631 1.452 4290294428
-0.20281585 -0.048890036 1.462 4290293913
-0.20082621 -0.0490238 1.4660001 4290491292
-0.19936371 -0.049291324 1.4740001 4289964948
-0.19720584 -0.049391646 1.4770001 4289241227
-0.19464222 -0.049391646 1.4770001 4287464818
-0.18011628 -0.04758586 1.4230001 4286740070
-0.17777123 -0.047619298 1.424 4286871399
-0.17493027 -0.047518976 1.4210001 4288845189
-0.17209974 -0.047418654 1.4180001 4290227355
-0.16963851 -0.047418654 1.4180001 4290293660
-0.16705941 -0.047385216 1.4170001 4290228123
-0.16459993 -0.047385216 1.4170001 4290228380
-0.16202602 -0.047351774 1.416 4290228635
-0.15968095 -0.047385216 1.4170001 4290228635
-0.15733242 -0.047418654 1.4180001 4290162842
-0.15519884 -0.047518976 1.4210001 4290228634
-0.15326984 -0.047686178 1.4260001 4290097047
-0.15100624 -0.047753058 1.4280001 4289833875
-0.14925572 -0.047987144 1.4350001 4289110152
-0.14748093 -0.048221227 1.442 4288057466
-0.14538021 -0.048354991 1.4460001 4287465329
-0.143562 -0.048589073 1.4530001 4287333744
-0.13909008 -0.048789717 1.4590001 4287136111
-0.13683848 -0.048890036 1.462 4287201904
-0.13494392 -0.049124122 1.4690001 4287070320
-0.13311519 -0.049391646 1.4770001 4287004529
-0.13081673 -0.049491968 1.48 4287136630
-0.12911442 -0.049826372 1.4900001 4287465857
-0.078628786 -0.047452096 1.419 4290032553
-0.076165833 -0.047452096 1.419 4290163876
-0.073702879 -0.047452096 1.419 4290294690
-0.071189716 -0.047418654 1.4180001 4290359968
-0.068680026 -0.047385216 1.4170001 4290228636
-0.066033609 -0.047251455 1.4130001 4290162842
-0.063491069 -0.047184572 1.411 4290162844
-0.061042003 -0.047184572 1.411 4290162843
-0.058717508 -0.047284894 1.414 4290294428
-0.05650197 -0.047485538 1.4200001 4290294428
-0.054113388 -0.047552418 1.4220001 4290294174
-0.051935777 -0.047819942 1.4300001 4290228640
-0.047234457 -0.048087467 1.4380001 4288123783
-0.044831857 -0.048187789 1.4410001 4286873978
-0.22102377 -0.045418553 1.432 4291216319
-0.21838565 -0.04538684 1.4310001 4290032294
-0.2156001 -0.045323402 1.429 4289966749
-0.21297066 -0.045291688 1.4280001 4289900697
-0.21063948 -0.045323402 1.429 4289834137
-0.20859617 -0.045418553 1.432 4290162588
-0.20683032 -0.045577139 1.437 4290031256
-0.20476271 -0.04567229 1.4400001 4290162842
-0.20338699 -0.045926023 1.4480001 4290097049
-0.20226094 -0.046243194 1.4580001 4289899156
-0.20041524 -0.04640178 1.4630001 4289964948
-0.19882269 -0.046623796 1.47 4289241225
-0.19653825 -0.046687227 1.4720001 4287859574
-0.19424687 -0.046750665 1.4740001 4286477923
-0.17973655 -0.045037955 1.4200001 4286674532
-0.17727186 -0.045037955 1.4200001 4288976774
-0.17443787 -0.044942804 1.4170001 4290292634
-0.17161427 -0.044847652 1.414 4290227354
-0.16915999 -0.044847652 1.414 4290227608
-0.16670571 -0.044847652 1.414 4290228122
-0.16425143 -0.044847652 1.414 4290162586
-0.16191158 -0.044879369 1.4150001 4290162842
-0.15945557 -0.044879369 1.4150001 4290228635
-0.15711051 -0.044911083 1.416 4290162842
-0.15519884 -0.045069668 1.4210001 4290294428
-0.15326984 -0.04522825 1.4260001 4290097049
-0.15111198 -0.045323402 1.429 4289373326
-0.14935975 -0.045545425 1.4360001 4288583810
-0.1475832 -0.045767441 1.4430001 4287530866
-0.14538021 -0.045862593 1.4460001 4287465074
-0.143562 -0.046084609 1.4530001 4287201903
-0.13899474 -0.046243194 1.4580001 4286872939
-0.13674487 -0.046338342 1.4610001 4287004526
-0.13485205 -0.046560362 1.4680001 4286609770
-0.13302505 -0.046814099 1.4760001 4287070322
-0.13081673 -0.046940964 1.48 4287202676
-0.12928773 -0.047321569 1.4920001 4287202940
-0.083436929 -0.044942804 1.4170001 4292861916
-0.080977447 -0.044942804 1.4170001 4290032299
-0.078296311 -0.044815935 1.4130001 4290098087
-0.0757901 -0.044784218 1.4120001 4290295203
-0.073339298 -0.044784218 1.4120001 4290360737
-0.07083828 -0.044752501 1.411 4290294431
-0.068292275 -0.044689067 1.409 4290359967
-0.065753207 -0.044625632 1.4070001 4290294426
-0.063356079 -0.04465735 1.4080001 4290294173
-0.06095548 -0.044689067 1.409 4290294174
-0.058717508 -0.044847652 1.414 4290491807
-0.05650197 -0.045037955 1.4200001 4290360221
-0.054189499 -0.04516482 1.424 4290031259
-0.051972095 -0.04538684 1.4310001 4288978062
-0.047300152 -0.04567229 1.4400001 4287531648
-0.044925194 -0.045799159 1.4440001 4287202688
-0.0022675234 -0.044815935 1.4130001 4290691005
0.00018462559 -0.044720784 1.4100001 4289506471
0.002628227 -0.04465735 1.4080001 4289966765
0.0050756927 -0.044689067 1.409 4289834666
0.0075266296 -0.044720784 1.4100001 4290164401
0.0099951848 -0.044815935 1.4130001 4290625210
0.012491775 -0.044974517 1.4180001 4291414986
0.014995176 -0.045101386 1.4220001 4292139224
-0.22288497 -0.042830314 1.4280001 4290755253
-0.21994336 -0.042740334 1.4250001 4289834403
-0.21731737 -0.042710342 1.424 4290163618
-0.21469486 -0.042680349 1.4230001 4290163099
-0.21222496 -0.042680349 1.4230001 4290097560
-0.20990248 -0.042710342 1.424 4290228633
-0.20772217 -0.042770326 1.4260001 4290162581
-0.20611066 -0.042950287 1.432 4290228122
-0.20390953 -0.043010276 1.434 4290293915
-0.20268469 -0.043280214 1.4430001 4289767824
-0.20142859 -0.043550149 1.452 4289175432
-0.19931932 -0.043640129 1.455 4287464815
-0.1970644 -0.043700118 1.457 4286477919
-0.18168801 -0.042470396 1.416 4286608482
-0.1789771 -0.042410411 1.414 4288977287
-0.17639799 -0.042380419 1.4130001 4290227354
-0.17369924 -0.04232043 1.411 4290095768
-0.17100742 -0.042260442 1.409 4290161816
-0.16856183 -0.042260442 1.409 4290227866
-0.16611622 -0.042260442 1.409 4290293915
-0.1637868 -0.042290438 1.4100001 4290359965
-0.16156831 -0.042350423 1.4120001 4290228635
-0.15956827 -0.042470396 1.416 4290097049
-0.15722147 -0.042500392 1.4170001 4290294428
-0.15541729 -0.042680349 1.4230001 4290360221
-0.15359229 -0.042860307 1.429 4289570705
-0.15142921 -0.042950287 1.432 4288452224
-0.14967178 -0.043160237 1.439 4287465074
-0.14778775 -0.043340199 1.4450001 4287464818
-0.14548074 -0.043400187 1.447 4287070061
-0.143562 -0.043580145 1.4530001 4286543717
-0.13909008 -0.043760106 1.4590001 4286675304
-0.13683848 -0.043850083 1.462 4286806889
-0.13494392 -0.044060037 1.4690001 4287004526
-0.13311519 -0.044299982 1.4770001 4286675562
-0.13081673 -0.044389963 1.48 4287136627
-0.12937438 -0.044779874 1.493 4287202683
-0.083201401 -0.042380419 1.4130001 4290427057
-0.080748856 -0.042380419 1.4130001 4290164136
-0.078185491 -0.04232043 1.411 4290163619
-0.075629078 -0.042260442 1.409 4290294946
-0.073183477 -0.042260442 1.409 4290360223
-0.070587263 -0.042170461 1.406 4290294427
-0.068098404 -0.042140469 1.4050001 4290294427
-0.065659747 -0.042140469 1.4050001 4290360219
-0.063311085 -0.042200457 1.4070001 4290426012
-0.06095548 -0.042260442 1.409 4290294426
-0.058759037 -0.042440403 1.4150001 4289899670
-0.056581553 -0.042650353 1.4220001 4289899415
-0.054227553 -0.042740334 1.4250001 4289109901
-0.052044731 -0.042980283 1.4330001 4287925629
-0.047332998 -0.043220226 1.4410001 4287465855
-0.044925194 -0.043310206 1.4440001 4287268481
-0.0022578947 -0.042200457 1.4070001 4290032045
0.00018397089 -0.042140469 1.4050001 4290361005
0.0026244938 -0.042170461 1.406 4290360746
0.0050720903 -0.04223045 1.4080001 4290360746
0.0075212913 -0.042260442 1.409 4289966247
0.0099881114 -0.042350423 1.4120001 4289638054
0.012491775 -0.042530384 1.4180001 4289638313
0.014984629 -0.042620361 1.4210001 4289375658
-0.22736347 -0.040284131 1.4250001 4292335826
-0.22457446 -0.040227596 1.4230001 4290163879
-0.22163631 -0.040142786 1.4200001 4289834907
-0.21917161 -0.040142786 1.4200001 4290163099
-0.21655431 -0.040114515 1.419 4290294174
-0.21409136 -0.040114515 1.419 4290228635
-0.21177754 -0.040142786 1.4200001 4290228120
-0.20975506 -0.040227596 1.4230001 4290359960
-0.2080135 -0.040368941 1.4280001 4290096788
-0.20596673 -0.040453751 1.4310001 4290162327
-0.20184192 -0.040623367 1.437 4289307020
-0.20018007 -0.040792987 1.4430001 4288122746
-0.19781244 -0.040821254 1.4440001 4286741093
-0.18607637 -0.039916627 1.4120001 4285950809
-0.18362556 -0.039916627 1.4120001 4286213724
-0.18091814 -0.039860092 1.4100001 4289174152
-0.17809108 -0.039775282 1.4070001 4290555804
-0.17564896 -0.039775282 1.4070001 4290424220
-0.17296062 -0.03971874 1.4050001 4290358684
-0.1704006 -0.039690472 1.404 4290227354
-0.16796368 -0.039690472 1.404 4290424990
-0.16576254 -0.039747011 1.406 4290359708
-0.16355447 -0.03980355 1.4080001 4290294172
-0.16156831 -0.039916627 1.4120001 4290360221
-0.15968095 -0.040057976 1.4170001 4290426014
-0.15744337 -0.040114515 1.419 4290162842
-0.15563573 -0.040284131 1.4250001 4288649603
-0.15380725 -0.040453751 1.4310001 4288189052
-0.15164071 -0.040538561 1.434 4287201901
-0.14987978 -0.040736444 1.4410001 4286872937
-0.14789003 -0.040877797 1.4460001 4287069804
-0.14558129 -0.040934332 1.4480001 4286609254
-0.14366083 -0.041103952 1.4540001 4286740840
-0.1391854 -0.041273568 1.46 4286872427
-0.13683848 -0.041330107 1.462 4287201391
-0.13494392 -0.041527994 1.4690001 4287135853
-0.13302505 -0.041725881 1.4760001 4287004526
-0.13063994 -0.04178242 1.478 4287268216
-0.12824789 -0.041838959 1.48 4287268220
-0.082789227 -0.039747011 1.406 4290098082
-0.080234535 -0.039690472 1.404 4290229410
-0.077742204 -0.039662201 1.4030001 4290097567
-0.075253345 -0.039633933 1.4020001 4290294174
-0.072716013 -0.039577395 1.4000001 4290426015
-0.070235834 -0.039549123 1.399 4290294427
-0.067807592 -0.039549123 1.399 4290294426
-0.065472811 -0.039605662 1.401 4290360219
-0.063266091 -0.039747011 1.406 4290294426
-0.060912218 -0.03980355 1.4080001 4289965718
-0.058800563 -0.040029705 1.416 4289505168
-0.056700923 -0.040284131 1.4250001 4288978314
-0.054341719 -0.040368941 1.4280001 4288123006
-0.049626641 -0.040566828 1.4350001 4287662717
-0.047365848 -0.040764716 1.442 4287268477
-0.044956304 -0.040849522 1.4450001 4287334018
-0.042800732 -0.041188758 1.457 4286742141
-0.0046799798 -0.039605662 1.401 4290163628
-0.0022466616 -0.039577395 1.4000001 4290163367
0.00018318524 -0.039549123 1.399 4290229159
0.0026151605 -0.039605662 1.401 4290097827
0.0050576809 -0.039690472 1.404 4290163619
0.0075052772 -0.039747011 1.406 4289965987
0.009981038 -0.03988836 1.411 4289834918
0.012500584 -0.040114515 1.419 4290098351
0.014995176 -0.040199324 1.4220001 4289638313
0.017598426 -0.040510289 1.4330001 4288454300
-0.22656569 -0.037695203 1.4200001 4289901221
-0.22378536 -0.03764211 1.4180001 4290164382
-0.22116807 -0.037615564 1.4170001 4290229145
-0.21870857 -0.037615564 1.4170001 4290360732
-0.21624909 -0.037615564 1.4170001 4290491292
-0.21378961 -0.037615564 1.4170001 4290491546
-0.21147926 -0.03764211 1.4180001 4290294167
-0.20946024 -0.037721746 1.4210001 4290162581
-0.20772217 -0.037854474 1.4260001 4289965202
-0.20567885 -0.037934113 1.429 4289570190
-0.20405172 -0.038093388 1.4350001 4289570192
-0.20184192 -0.038146481 1.437 4287531122
-0.19934772 -0.038146481 1.437 4286346335
-0.18568102 -0.037403196 1.409 4286213468
-0.18310538 -0.03737665 1.4080001 4289766290
-0.18053322 -0.037350107 1.4070001 4290555806
-0.17771135 -0.037270468 1.404 4290292890
-0.17514959 -0.037243918 1.4030001 4290227611
-0.17259131 -0.037217375 1.4020001 4290293404
-0.17003649 -0.037190828 1.401 4290096538
-0.1677244 -0.037217375 1.4020001 4290293917
-0.16564465 -0.037297014 1.4050001 4290162330
-0.16332215 -0.037323557 1.406 4290030743
-0.16156831 -0.037482832 1.4120001 4290491294
-0.15968095 -0.037615564 1.4170001 4290557343
-0.15755433 -0.037695203 1.4200001 4289044105
-0.15563573 -0.037827931 1.4250001 4287530866
-0.15380725 -0.037987206 1.4310001 4287070571
-0.15164071 -0.038066845 1.434 4286543972
-0.14977579 -0.03822612 1.4400001 4286543716
-0.14789003 -0.038385395 1.4460001 4286609509
-0.14558129 -0.038438488 1.4480001 4287004012
-0.14366083 -0.038597763 1.4540001 4286872426
-0.13909008 -0.038730495 1.4590001 4286938218
-0.13494392 -0.038995951 1.4690001 4287004267
-0.13284481 -0.03912868 1.4740001 4287136112
-0.13055155 -0.039208319 1.4770001 4287202164
-0.12816122 -0.039261412 1.4790001 4287334010
-0.090046309 -0.037297014 1.4050001 4292730587
-0.087545298 -0.037270468 1.404 4290295984
-0.084865898 -0.037164286 1.4000001 4289703325
-0.082259275 -0.037084647 1.3970001 4290032284
-0.079720214 -0.037031554 1.3950001 4290294687
-0.077243499 -0.037005007 1.3940001 4290097308
-0.074823938 -0.037005007 1.3940001 4290360222
-0.07240437 -0.037005007 1.3940001 4290426014
-0.070035011 -0.037031554 1.3950001 4290426014
-0.067662187 -0.0370581 1.396 4290360221
-0.065379351 -0.037137736 1.399 4290360220
-0.06322109 -0.037297014 1.4050001 4290228635
-0.060912218 -0.03737665 1.4080001 4290031513
-0.058842085 -0.037615564 1.4170001 4289307792
-0.056740712 -0.037854474 1.4260001 4287991932
-0.054379772 -0.037934113 1.429 4287465589
-0.049661223 -0.038119938 1.4360001 4287399543
-0.047365848 -0.038279209 1.442 4287202682
-0.044925194 -0.038332302 1.4440001 4287268481
-0.042771358 -0.038650855 1.4560001 4286347383
-0.0046766391 -0.037164286 1.4000001 4290294952
-0.0022418471 -0.037084647 1.3970001 4289966239
0.00018292337 -0.037084647 1.3970001 4290294436
0.0026114271 -0.037137736 1.399 4290360227
0.0050504762 -0.037217375 1.4020001 4290294688
0.0074946014 -0.037270468 1.404 4290228641
0.0099881114 -0.037482832 1.4120001 4290163366
0.012518202 -0.037721746 1.4210001 4289834664
0.015037355 -0.037854474 1.4260001 4289176734
-0.23509251 -0.03504904 1.4120001 4293717483
-0.23198265 -0.03494975 1.4080001 4293651686
-0.23002787 -0.035024218 1.411 4291677636
-0.22774008 -0.03504904 1.4120001 4290163877
-0.22512971 -0.035024218 1.411 4290032028
-0.22252283 -0.034999397 1.4100001 4290294940
-0.22023158 -0.035024218 1.411 4290294428
-0.21762817 -0.034999397 1.4100001 4290360219
-0.21533343 -0.035024218 1.411 4290425753
-0.21333699 -0.035098683 1.414 4290425753
-0.21103184 -0.035123505 1.4150001 4290228374
-0.20916545 -0.035222795 1.419 4290030995
-0.20743084 -0.035346907 1.424 4289833362
-0.20524706 -0.03539655 1.4260001 4289241740
-0.20305635 -0.035446197 1.4280001 4287465329
-0.20015639 -0.035371728 1.4250001 4285228113
-0.19740556 -0.035322085 1.4230001 4285425235
-0.1932918 -0.035024218 1.411 4285292879
-0.19057222 -0.034974571 1.409 4285621844
-0.18799311 -0.03494975 1.4080001 4285950296
-0.18502212 -0.034850463 1.404 4289832083
-0.18219507 -0.034775995 1.401 4290753185
-0.17976335 -0.034775995 1.401 4290227098
-0.17682533 -0.034676708 1.3970001 4290227611
-0.17452541 -0.03470153 1.3980001 4289833366
-0.17222199 -0.034726348 1.399 4290030745
-0.16979375 -0.034726348 1.399 4290293917
-0.16760477 -0.034775995 1.401 4290425503
-0.16552676 -0.034850463 1.404 4290293917
-0.16332215 -0.034900106 1.406 4290293916
-0.16168274 -0.035073865 1.4130001 4290293915
-0.15990633 -0.035222795 1.419 4289307020
-0.15766528 -0.035272442 1.4210001 4287399025
-0.15585417 -0.035421375 1.427 4287070060
-0.15391473 -0.035545483 1.432 4286675302
-0.15174645 -0.035619952 1.4350001 4286675047
-0.14977579 -0.035744064 1.4400001 4286675047
-0.14789003 -0.035892997 1.4460001 4286543461
-0.14558129 -0.03594264 1.4480001 4286872426
-0.143562 -0.036066752 1.4530001 4286543718
-0.14162245 -0.036215689 1.4590001 4286807145
-0.13937607 -0.03629015 1.462 4286872682
-0.13485205 -0.036439087 1.4680001 4287004265
-0.13248429 -0.03648873 1.47 4286938473
-0.13010961 -0.036538374 1.4720001 4287070575
-0.089854039 -0.034800816 1.4020001 4290361776
-0.087295875 -0.034751173 1.4000001 4289900452
-0.084744662 -0.03470153 1.3980001 4290097827
-0.082141511 -0.034627061 1.3950001 4290294945
-0.079605922 -0.034577414 1.393 4290360480
-0.07713268 -0.034552593 1.3920001 4290359967
-0.074716583 -0.034552593 1.3920001 4290491807
-0.072300494 -0.034552593 1.3920001 4290426014
-0.069984809 -0.03460224 1.3940001 4290360478
-0.067613713 -0.034627061 1.3950001 4290163099
-0.065426074 -0.034751173 1.4000001 4290031513
-0.063266091 -0.034900106 1.406 4289241997
-0.060998738 -0.034999397 1.4100001 4288584067
-0.058883615 -0.035197973 1.4180001 4288320896
-0.056700923 -0.035371728 1.4250001 4287202416
-0.054379772 -0.035471018 1.429 4287334003
-0.049661223 -0.035644777 1.4360001 4286742383
-0.047365848 -0.035793707 1.442 4286807924
-0.044956304 -0.035868172 1.4450001 4286873467
-0.042800732 -0.036166042 1.457 4286215795
-0.0046732989 -0.034726348 1.399 4289900449
-0.0022418471 -0.034676708 1.3970001 4290031262
0.00018292337 -0.034676708 1.3970001 4290097309
0.0026114271 -0.034726348 1.399 4290228895
0.0050540785 -0.034825638 1.4030001 4290294434
0.0075052772 -0.034900106 1.406 4289834653
0.0099951848 -0.035073865 1.4130001 4289966241
0.012544631 -0.035346907 1.424 4289242778
0.015058446 -0.035446197 1.4280001 4288716182
-0.24749748 -0.032314964 1.399 4293257706
-0.24541961 -0.032361161 1.401 4291480779
-0.24281447 -0.032338064 1.4000001 4290295990
-0.24038449 -0.032338064 1.4000001 4289901486
-0.23812447 -0.032361161 1.401 4289835692
-0.23569275 -0.032361161 1.401 4289966765
-0.23326105 -0.032361161 1.401 4290427316
-0.23099409 -0.032384258 1.4020001 4290163626
-0.22856064 -0.032384258 1.4020001 4289834914
-0.22628847 -0.032407355 1.4030001 4290032034
-0.22401285 -0.032430455 1.404 4290163351
-0.22126029 -0.032384258 1.4020001 4290097047
-0.21913901 -0.032430455 1.404 4290162842
-0.21670209 -0.032430455 1.404 4290359706
-0.21457037 -0.032476652 1.406 4290293913
-0.2125826 -0.032545947 1.409 4290293913
-0.21043529 -0.032592148 1.411 4289964948
-0.20857583 -0.032684542 1.4150001 4289504910
-0.2067025 -0.032776933 1.419 4288649603
-0.20423955 -0.032776933 1.419 4287531123
-0.20149219 -0.03273074 1.4170001 4286149215
-0.19720672 -0.032430455 1.404 4285820250
-0.19490853 -0.032453556 1.4050001 4285754201
-0.19233288 -0.032430455 1.404 4285227087
-0.18935494 -0.032338064 1.4000001 4285095245
-0.18679145 -0.032314964 1.399 4289174409
-0.18383609 -0.032222569 1.3950001 4290424220
-0.18128473 -0.032199472 1.3940001 4290292634
-0.17873687 -0.032176372 1.393 4290293146
-0.17631903 -0.032176372 1.393 4290424477
-0.17402604 -0.032199472 1.3940001 4290424989
-0.17185268 -0.032245666 1.396 4290293660
-0.16955101 -0.032268766 1.3970001 4290424991
-0.16748513 -0.032338064 1.4000001 4290556834
-0.16564465 -0.032453556 1.4050001 4290491296
-0.16343832 -0.032499753 1.4070001 4290293916
-0.16179717 -0.032661442 1.414 4289307020
-0.16001903 -0.032800034 1.4200001 4287727732
-0.15777624 -0.032846231 1.4220001 4286740581
-0.15585417 -0.032961726 1.427 4286608995
-0.15391473 -0.033077218 1.432 4286543460
-0.15174645 -0.033146512 1.4350001 4286609254
-0.14977579 -0.033262007 1.4400001 4286872426
-0.14778775 -0.033377498 1.4450001 4286872683
-0.14548074 -0.033423696 1.447 4286675303
-0.143562 -0.033562288 1.4530001 4286477924
-0.14162245 -0.033700883 1.4590001 4286609766
-0.13937607 -0.033770174 1.462 4286872938
-0.13702567 -0.033816371 1.4640001 4287070059
-0.1344846 -0.033816371 1.4640001 4287136107
-0.13194354 -0.033816371 1.4640001 4286873193
-0.08940541 -0.032222569 1.3950001 4290163624
-0.086859405 -0.032176372 1.393 4290097313
-0.084320337 -0.032130174 1.391 4290294433
-0.081905976 -0.032130174 1.391 4290360481
-0.079377331 -0.032083977 1.3890001 4290426016
-0.076855622 -0.03203778 1.3870001 4290294429
-0.07450188 -0.03206088 1.388 4290294685
-0.072144672 -0.032083977 1.3890001 4290426271
-0.069884405 -0.032153271 1.3920001 4290294685
-0.067565247 -0.032199472 1.3940001 4290031513
-0.065379351 -0.032314964 1.399 4289636755
-0.06322109 -0.032453556 1.4050001 4289110413
-0.060912218 -0.03252285 1.4080001 4287926139
-0.058800563 -0.032707639 1.416 4287597174
-0.056621343 -0.032869332 1.4230001 4287662967
-0.054265607 -0.032938626 1.4260001 4286939245
-0.049592059 -0.033123415 1.434 4287005554
-0.047365848 -0.033308201 1.442 4287268470
-0.044956304 -0.033377498 1.4450001 4287268471
-0.042859484 -0.033700883 1.4590001 4286545013
-0.0095842769 -0.032499753 1.4070001 4286347381
-0.0071218447 -0.032407355 1.4030001 4287136889
-0.0046732989 -0.032314964 1.399 4287992197
-0.0022418471 -0.032268766 1.3970001 4288781197
0.0001830543 -0.032291863 1.3980001 4289242000
0.0026132939 -0.032338064 1.4000001 4289570965
0.0050612832 -0.032453556 1.4050001 4290097055
0.007510616 -0.032499753 1.4070001 4289899676
0.010009333 -0.032684542 1.4150001 4289110932
0.01256225 -0.032938626 1.4260001 4288650128
0.015079536 -0.03303102 1.4300001 4288189838
0.017745797 -0.033377498 1.4450001 4287335046
-0.24678986 -0.029818077 1.3950001 4290822334
-0.24471889 -0.029860828 1.3970001 4290229936
-0.24229413 -0.029860828 1.3970001 4290097834
-0.23986936 -0.029860828 1.3970001 4290097575
-0.23744459 -0.029860828 1.3970001 4290097573
-0.23518805 -0.029882202 1.3980001 4290229158
-0.23276155 -0.029882202 1.3980001 4290163619
-0.23049979 -0.029903576 1.399 4290360227
-0.22790852 -0.029882202 1.3980001 4290228641
-0.22564332 -0.029903576 1.399 4290359968
-0.22321507 -0.029903576 1.399 4290096538
-0.22094464 -0.029924953 1.4000001 4290030745
-0.21851467 -0.029924953 1.4000001 4290162329
-0.21608469 -0.029924953 1.4000001 4290359708
-0.21395995 -0.029967701 1.4020001 4290556317
-0.21197912 -0.030031826 1.4050001 4290358938
-0.20983875 -0.030074576 1.4070001 4289833364
-0.20798622 -0.030160075 1.411 4289241740
-0.20582849 -0.030202826 1.4130001 4287004778
-0.20337595 -0.030202826 1.4130001 4285425492
-0.20063901 -0.030160075 1.411 4285491285
-0.19678535 -0.029946327 1.401 4285293906
-0.19435363 -0.029946327 1.401 4285030477
-0.19164793 -0.029903576 1.399 4286346337
-0.18881392 -0.02983945 1.396 4289372301
-0.18612385 -0.029796703 1.3940001 4290556317
-0.18344073 -0.029753951 1.3920001 4290424474
-0.18076454 -0.029711204 1.3900001 4290227095
-0.17835192 -0.029711204 1.3900001 4290293145
-0.17606588 -0.029732578 1.391 4290424731
-0.17377636 -0.029753951 1.3920001 4290490526
-0.17160648 -0.029796703 1.3940001 4290424733
-0.16930829 -0.029818077 1.3950001 4290490527
-0.16736551 -0.029903576 1.399 4290228125
-0.16552676 -0.030010452 1.404 4290096538
-0.16343832 -0.030074576 1.4070001 4289241228
-0.16179717 -0.0302242 1.414 4287201644
-0.16001903 -0.030352451 1.4200001 4286609507
-0.15766528 -0.030373825 1.4210001 4286608995
-0.15574494 -0.030480698 1.4260001 4286280031
-0.15380725 -0.030587574 1.4310001 4286411874
-0.15164071 -0.0306517 1.434 4286872426
-0.14977579 -0.03077995 1.4400001 4286675303
-0.14789003 -0.030908201 1.4460001 4286609767
-0.14558129 -0.030950949 1.4480001 4286412388
-0.14346321 -0.031036448 1.452 4286609767
-0.14142832 -0.031143324 1.457 4286741353
-0.1391854 -0.03120745 1.46 4286741351
-0.13674487 -0.031228824 1.4610001 4286675814
-0.13420902 -0.031228824 1.4610001 4287267950
-0.13167317 -0.031228824 1.4610001 4287267695
-0.089149043 -0.029732578 1.391 4290163619
-0.086672343 -0.029711204 1.3900001 4289965725
-0.084199101 -0.029689826 1.3890001 4290097309
-0.08172933 -0.029668452 1.388 4290228639
-0.07914874 -0.029604327 1.3850001 4290359967
-0.076744795 -0.029604327 1.3850001 4290228381
-0.074340858 -0.029604327 1.3850001 4290294685
-0.071988851 -0.029625701 1.386 4290163099
-0.069733791 -0.029689826 1.3890001 4289965721
-0.067419842 -0.029732578 1.391 4289965722
-0.065192416 -0.029818077 1.3950001 4289307792
-0.063041098 -0.029946327 1.401 4288847241
-0.060782433 -0.030031826 1.4050001 4287925885
-0.058551405 -0.030138701 1.4100001 4287004783
-0.0563826 -0.030288326 1.4170001 4286939247
-0.054075334 -0.030373825 1.4210001 4287070577
-0.051899459 -0.030544823 1.429 4286807405
-0.047234457 -0.030737199 1.4380001 4287070577
-0.044862971 -0.030822698 1.442 4287136370
-0.0096047129 -0.030138701 1.4100001 4286018671
-0.0071269213 -0.030010452 1.404 4286807924
-0.0046732989 -0.029903576 1.399 4286873970
-0.002243452 -0.029882202 1.3980001 4287004527
0.00018318524 -0.029903576 1.399 4288057213
0.0026170271 -0.029967701 1.4020001 4287925627
0.005068488 -0.030074576 1.4070001 4288123265
0.0075212913 -0.030117325 1.409 4287925886
0.01002348 -0.030288326 1.4170001 4287729279
0.01256225 -0.030480698 1.4260001 4288255370
0.015090082 -0.030587574 1.4310001 4287926666
0.017733516 -0.030865449 1.4440001 4287729804
-0.25127167 -0.027374281 1.393 4292204501
-0.24849656 -0.027334979 1.391 4290230451
-0.2457284 -0.027295675 1.3890001 4290032041
-0.24349268 -0.027315328 1.3900001 4290360745
-0.24108006 -0.027315328 1.3900001 4290097827
-0.23866744 -0.027315328 1.3900001 4290162848
-0.23642479 -0.027334979 1.391 4290228641
-0.23417866 -0.02735463 1.3920001 4290294175
-0.23176256 -0.02735463 1.3920001 4290294431
-0.22951123 -0.027374281 1.393 4290359967
-0.22709341 -0.027374281 1.393 4290425502
-0.22483687 -0.027393932 1.3940001 4290359708
-0.22225776 -0.027374281 1.393 4290228122
-0.21983993 -0.027374281 1.393 4290096536
-0.2174221 -0.027374281 1.393 4290227352
-0.21500428 -0.027374281 1.393 4290227352
-0.21258645 -0.027374281 1.393 4290227352
-0.21047038 -0.027413584 1.3950001 4290293145
-0.20834734 -0.027452886 1.3970001 4288912262
-0.20636478 -0.027511841 1.4000001 4286346335
-0.20422615 -0.027551142 1.4020001 4285359442
-0.2017927 -0.027551142 1.4020001 4285688407
-0.19907485 -0.027511841 1.4000001 4284109375
-0.19608304 -0.027433235 1.396 4284043582
-0.19324383 -0.027374281 1.393 4287399025
-0.19055201 -0.027334979 1.391 4289899158
-0.18786715 -0.027295675 1.3890001 4290096536
-0.18492219 -0.027217072 1.3850001 4290359194
-0.18238647 -0.027197419 1.3840001 4290556573
-0.17998427 -0.027197419 1.3840001 4290293401
-0.17771037 -0.027217072 1.3850001 4290293401
-0.17555958 -0.027256373 1.3870001 4290359195
-0.17340183 -0.027295675 1.3890001 4290358940
-0.17148337 -0.027374281 1.393 4290424990
-0.16918691 -0.027393932 1.3940001 4290359710
-0.16748513 -0.027511841 1.4000001 4289833366
-0.16576254 -0.027629748 1.406 4288385918
-0.16355447 -0.027669052 1.4080001 4287070057
-0.16179717 -0.027786959 1.414 4286083162
-0.15990633 -0.027885215 1.419 4286148955
-0.15755433 -0.027904866 1.4200001 4286280543
-0.15563573 -0.028003123 1.4250001 4286543716
-0.15380725 -0.028121032 1.4310001 4286675302
-0.15164071 -0.028179985 1.434 4286675047
-0.14987978 -0.028317545 1.4410001 4286741097
-0.14789003 -0.028415803 1.4460001 4286675560
-0.14548074 -0.028435452 1.447 4286083423
-0.14346321 -0.028533706 1.452 4286478180
-0.14123417 -0.028592661 1.455 4286807145
-0.13880406 -0.028612316 1.4560001 4286741607
-0.13627689 -0.028612316 1.4560001 4286938985
-0.12303842 -0.02735463 1.3920001 4287070317
-0.12062233 -0.02735463 1.3920001 4288517763
-0.11803641 -0.027315328 1.3900001 4289833625
-0.11554059 -0.027295675 1.3890001 4289965469
-0.11312972 -0.027295675 1.3890001 4289965727
-0.11079855 -0.027315328 1.3900001 4289965729
-0.1084639 -0.027334979 1.391 4290032037
-0.10612578 -0.02735463 1.3920001 4290032038
-0.1037842 -0.027374281 1.393 4289966246
-0.10136637 -0.027374281 1.393 4290097830
-0.098877504 -0.02735463 1.3920001 4290032036
-0.096253522 -0.027295675 1.3890001 4290097827
-0.093639955 -0.027236722 1.386 4290229412
-0.091168448 -0.027217072 1.3850001 4290163874
-0.088764511 -0.027217072 1.3850001 4290229152
-0.086360566 -0.027217072 1.3850001 4290228895
-0.083956622 -0.027217072 1.3850001 4290294174
-0.081552684 -0.027217072 1.3850001 4290294175
-0.079091594 -0.027197419 1.3840001 4290294174
-0.076689392 -0.027197419 1.3840001 4290359967
-0.074340858 -0.027217072 1.3850001 4290359967
-0.071884975 -0.027197419 1.3840001 4290162844
-0.06963338 -0.027256373 1.3870001 4289899929
-0.067274436 -0.027276024 1.388 4289439378
-0.065098956 -0.027374281 1.393 4287794554
-0.06295111 -0.02749219 1.399 4287334005
-0.060609385 -0.027531492 1.401 4286741355
-0.058426827 -0.027649399 1.4070001 4286872941
-0.056223441 -0.027767308 1.4130001 4287004527
-0.053885065 -0.027826261 1.416 4287070320
-0.05175418 -0.028003123 1.4250001 4287136113
-0.049592059 -0.028179985 1.434 4287004786
-0.047234457 -0.02825859 1.4380001 4286938994
-0.0095910896 -0.027669052 1.4080001 4285886824
-0.0071269213 -0.027590446 1.404 4286017893
-0.0046732989 -0.02749219 1.399 4286807405
-0.0022450567 -0.02749219 1.399 4287398772
0.00018331618 -0.027511841 1.4000001 4286938219
0.0026188937 -0.027570795 1.4030001 4287004525
0.0050720903 -0.027669052 1.4080001 4287004527
0.0075319679 -0.027728004 1.411 4286938991
0.010030554 -0.027865564 1.4180001 4287400314
0.01256225 -0.028022775 1.4260001 4287597440
0.015079536 -0.028101379 1.4300001 4287860873
0.017745797 -0.028396148 1.4450001 4287729804
-0.25573963 -0.024937382 1.391 4293717744
-0.25277895 -0.024883598 1.388 4292401365
-0.24964826 -0.024811886 1.3840001 4289769640
-0.24706741 -0.02479396 1.383 4290163623
-0.24466693 -0.02479396 1.383 4290097572
-0.24244164 -0.024811886 1.3840001 4290097055
-0.24003944 -0.024811886 1.3840001 4290097309
-0.23763722 -0.024811886 1.3840001 4290162332
-0.23540498 -0.024829814 1.3850001 4290162588
-0.23333749 -0.02486567 1.3870001 4290359709
-0.2310966 -0.024883598 1.388 4290425500
-0.22868745 -0.024883598 1.388 4290425499
-0.22627829 -0.024883598 1.388 4290425499
-0.22386913 -0.024883598 1.388 4290359706
-0.22130044 -0.02486567 1.3870001 4290228120
-0.21889302 -0.02486567 1.3870001 4290030741
-0.21632951 -0.024847742 1.386 4290227352
-0.21392384 -0.024847742 1.386 4290227352
-0.21136557 -0.024829814 1.3850001 4290227352
-0.20911248 -0.024847742 1.386 4290293145
-0.20670681 -0.024847742 1.386 4289503629
-0.20474334 -0.024901524 1.3890001 4288254334
-0.2026238 -0.024937382 1.391 4287530611
-0.20020944 -0.024937382 1.391 4285819993
-0.19765289 -0.024919452 1.3900001 4285819993
-0.1950998 -0.024901524 1.3890001 4288846470
-0.19241148 -0.02486567 1.3870001 4290228122
-0.18973008 -0.024829814 1.3850001 4290228122
-0.18692037 -0.024776032 1.3820001 4290228121
-0.1842546 -0.024740176 1.3800001 4290425500
-0.18172756 -0.024722248 1.3790001 4290557086
-0.17933403 -0.024722248 1.3790001 4290228122
-0.17719713 -0.024758104 1.381 4290228122
-0.17517985 -0.024811886 1.3840001 4290228123
-0.17302732 -0.024847742 1.386 4290228123
-0.17123717 -0.024937382 1.391 4290228123
-0.16906555 -0.024973236 1.393 4290096536
-0.16748513 -0.02509873 1.4000001 4288583297
-0.16576254 -0.025206296 1.406 4287991159
-0.16367063 -0.02526008 1.409 4286543713
-0.16179717 -0.025349718 1.414 4286083161
-0.15979363 -0.025421428 1.4180001 4286675042
-0.15755433 -0.025457282 1.4200001 4286346335
-0.15552652 -0.025528993 1.424 4286148956
-0.15380725 -0.025654487 1.4310001 4286872680
-0.15164071 -0.025708271 1.434 4286741095
-0.14987978 -0.025833763 1.4410001 4286609509
-0.14789003 -0.025923401 1.4460001 4286609766
-0.14558129 -0.025959257 1.4480001 4286346594
-0.1432656 -0.025995113 1.45 4286148957
-0.14084591 -0.026013041 1.4510001 4286477921
-0.13842274 -0.026030969 1.452 4286741349
-0.1224197 -0.024829814 1.3850001 4288451713
-0.11992911 -0.024811886 1.3840001 4290030745
-0.11718722 -0.024740176 1.3800001 4290293917
-0.11479195 -0.024740176 1.3800001 4290162588
-0.11239669 -0.024740176 1.3800001 4290228383
-0.10992172 -0.024722248 1.3790001 4290228639
-0.10760617 -0.024740176 1.3800001 4290097312
-0.10521091 -0.024740176 1.3800001 4290228642
-0.10281564 -0.024740176 1.3800001 4290294435
-0.10042038 -0.024740176 1.3800001 4290426021
-0.098025113 -0.024740176 1.3800001 4290163104
-0.095560551 -0.024722248 1.3790001 4290228640
-0.093167022 -0.024722248 1.3790001 4290360482
-0.090839326 -0.024740176 1.3800001 4290228638
-0.088444062 -0.024740176 1.3800001 4290162845
-0.086048797 -0.024740176 1.3800001 4290359967
-0.08371415 -0.024758104 1.381 4290359967
-0.081317149 -0.024758104 1.381 4290228381
-0.07886301 -0.024740176 1.3800001 4290228381
-0.076467745 -0.024740176 1.3800001 4290359967
-0.07407248 -0.024740176 1.3800001 4290359967
-0.071677215 -0.024740176 1.3800001 4290096795
-0.069332153 -0.024758104 1.381 4290031003
-0.066983625 -0.024776032 1.3820001 4289109901
-0.064725086 -0.024829814 1.3850001 4286938732
-0.062321145 -0.024829814 1.3850001 4287004525
-0.059873946 -0.024811886 1.3840001 4286872940
-0.057679363 -0.024901524 1.3890001 4286675562
-0.0095570292 -0.025152512 1.4030001 4288912530
-0.0071116933 -0.025116658 1.401 4288320133
-0.0046732989 -0.025080804 1.399 4288188288
-0.0022466616 -0.02509873 1.4000001 4288517251
0.00018344713 -0.025116658 1.401 4286675302
0.002622627 -0.025188368 1.4050001 4286215009
0.005079295 -0.025278006 1.4100001 4286807148
0.0075373058 -0.025313862 1.4120001 4286938991
0.010037628 -0.025439356 1.419 4287399544
0.012571059 -0.025582777 1.427 4287663233
0.015090082 -0.025654487 1.4310001 4287926666
0.017758079 -0.025923401 1.4460001 4287795599
-0.25741163 -0.022474967 1.3870001 4293322983
-0.25500423 -0.022474967 1.3870001 4291743433
-0.25223258 -0.022442559 1.3850001 4290295212
-0.2492875 -0.022393946 1.3820001 4290097827
-0.24671011 -0.022377744 1.381 4290229409
-0.24431311 -0.022377744 1.381 4290294688
-0.24174093 -0.022361539 1.3800001 4290294175
-0.2395191 -0.022377744 1.381 4290425760
-0.2371221 -0.022377744 1.381 4290294174
-0.23506506 -0.022410151 1.383 4290425501
-0.23283282 -0.022426354 1.3840001 4290556828
-0.23059709 -0.022442559 1.3850001 4290491292
-0.22819315 -0.022442559 1.3850001 4290491292
-0.22578922 -0.022442559 1.3850001 4290425499
-0.22338527 -0.022442559 1.3850001 4290425753
-0.22098133 -0.022442559 1.3850001 4290228120
-0.21841957 -0.022426354 1.3840001 4290228120
-0.21586128 -0.022410151 1.383 4290358938
-0.21330646 -0.022393946 1.3820001 4290358938
-0.21075512 -0.022377744 1.381 4290358938
-0.20835812 -0.022377744 1.381 4290293145
-0.20611025 -0.022393946 1.3820001 4290293145
-0.20371152 -0.022393946 1.3820001 4290096537
-0.20160413 -0.022426354 1.3840001 4290162331
-0.19934584 -0.022442559 1.3850001 4290096536
-0.1970841 -0.022458764 1.386 4290228122
-0.19453797 -0.022442559 1.3850001 4290030743
-0.19213402 -0.022442559 1.3850001 4290162328
-0.18945609 -0.022410151 1.383 4290228121
-0.18664986 -0.022361539 1.3800001 4290162327
-0.18398757 -0.022329131 1.378 4290228120
-0.18146399 -0.022312926 1.3770001 4290293913
-0.17907393 -0.022312926 1.3770001 4290162328
-0.1769405 -0.022345334 1.3790001 4290096536
-0.1749267 -0.022393946 1.3820001 4290228122
-0.17277765 -0.022426354 1.3840001 4290293658
-0.17099096 -0.022507373 1.3890001 4289899157
-0.16882281 -0.022539783 1.391 4288978055
-0.16724588 -0.022653211 1.3980001 4286346335
-0.16564465 -0.022766639 1.4050001 4286083163
-0.16355447 -0.022815252 1.4080001 4286017112
-0.16179717 -0.022912476 1.414 4286608735
-0.15968095 -0.022961086 1.4170001 4286937957
-0.15744337 -0.022993496 1.419 4286740578
-0.15552652 -0.023074515 1.424 4286280284
-0.15369977 -0.02317174 1.4300001 4286148956
-0.15164071 -0.023236556 1.434 4286346336
-0.14987978 -0.023349984 1.4410001 4286412129
-0.14778775 -0.0234148 1.4450001 4286412129
-0.14548074 -0.023447208 1.447 4286675558
-0.143068 -0.023463411 1.4480001 4286609763
-0.14055471 -0.023463411 1.4480001 4286280541
-0.13813674 -0.023479616 1.4490001 4286609507
-0.12188936 -0.022345334 1.3790001 4290228123
-0.11949583 -0.022345334 1.3790001 4290359708
-0.11701739 -0.022329131 1.378 4290228379
-0.11454241 -0.022312926 1.3770001 4290228636
-0.1122338 -0.022329131 1.378 4290162586
-0.1097623 -0.022312926 1.3770001 4290228637
-0.10729427 -0.022296721 1.376 4290162845
-0.10498219 -0.022312926 1.3770001 4290425761
-0.10259213 -0.022312926 1.3770001 4290360224
-0.10005654 -0.022280518 1.3750001 4290426017
-0.097740985 -0.022296721 1.376 4290228638
-0.095352665 -0.022296721 1.376 4290228638
-0.093031906 -0.022312926 1.3770001 4290426017
-0.090641849 -0.022312926 1.3770001 4290294174
-0.088251792 -0.022312926 1.3770001 4290294174
-0.085924082 -0.022329131 1.378 4290294174
-0.083532296 -0.022329131 1.378 4290491553
-0.081081621 -0.022312926 1.3770001 4290359967
-0.07874871 -0.022329131 1.378 4290425760
-0.076356918 -0.022329131 1.378 4290425760
-0.073965125 -0.022329131 1.378 4290425760
-0.071521394 -0.022312926 1.3770001 4290294175
-0.069131337 -0.022312926 1.3770001 4290096796
-0.06674128 -0.022312926 1.3770001 4289373073
-0.064491421 -0.022361539 1.3800001 4287991420
-0.062141154 -0.022377744 1.381 4287333490
-0.059700895 -0.022361539 1.3800001 4287859323
-0.057471737 -0.022426354 1.3840001 4287530358
-0.01197512 -0.022701824 1.401 4290031013
-0.0095161591 -0.022637006 1.3970001 4290031266
-0.0070913886 -0.022637006 1.3970001 4290556836
-0.0046666176 -0.022637006 1.3970001 4290490275
-0.0022466616 -0.022685619 1.4000001 4290227101
0.00018344713 -0.022701824 1.401 4289701525
0.0026244938 -0.022782844 1.406 4288846218
0.0050828974 -0.022863863 1.411 4287925629
0.0075479816 -0.022912476 1.414 4287201906
0.010044701 -0.023009699 1.4200001 4287333753
0.012571059 -0.023123128 1.427 4287860614
0.015111171 -0.023220351 1.4330001 4287795082
0.017758079 -0.023431003 1.4460001 4287532938
-0.25666928 -0.020026343 1.383 4290098609
-0.25408497 -0.020011861 1.3820001 4289966248
-0.25132197 -0.0199829 1.3800001 4290097829
-0.24856597 -0.01995394 1.378 4289966241
-0.24599554 -0.01993946 1.3770001 4290163102
-0.24360548 -0.01993946 1.3770001 4290359967
-0.24104023 -0.01992498 1.376 4290426014
-0.2386519 -0.01992498 1.376 4290359707
-0.23643531 -0.01993946 1.3770001 4290491292
-0.23421521 -0.01995394 1.378 4290557085
-0.23215988 -0.0199829 1.3800001 4290425500
-0.22976461 -0.0199829 1.3800001 4290425754
-0.22736935 -0.0199829 1.3800001 4290425753
-0.22497408 -0.0199829 1.3800001 4290425499
-0.22257882 -0.0199829 1.3800001 4290162327
-0.22018355 -0.0199829 1.3800001 4290228120
-0.21763048 -0.01996842 1.3790001 4290359706
-0.21508087 -0.01995394 1.378 4290293913
-0.21253473 -0.01993946 1.3770001 4290358936
-0.20983946 -0.019910499 1.3750001 4290161559
-0.20715111 -0.019881539 1.373 4290161559
-0.204768 -0.019881539 1.373 4290293915
-0.20253229 -0.019896019 1.3740001 4290293915
-0.20058444 -0.01993946 1.3770001 4290030743
-0.19833833 -0.01995394 1.378 4290162329
-0.19608873 -0.01996842 1.3790001 4290228122
-0.19383566 -0.0199829 1.3800001 4290096536
-0.19130167 -0.01996842 1.3790001 4290162329
-0.18849717 -0.01992498 1.376 4290096536
-0.18610886 -0.01992498 1.376 4290096534
-0.18358703 -0.019910499 1.3750001 4290162327
-0.18106864 -0.019896019 1.3740001 4290293913
-0.1786838 -0.019896019 1.3740001 4290030743
-0.17655557 -0.01992498 1.376 4289964950
-0.17454697 -0.01996842 1.3790001 4290162329
-0.17227829 -0.0199829 1.3800001 4289241227
-0.17049854 -0.020055303 1.3850001 4287925367
-0.16882281 -0.020142186 1.391 4286148956
-0.16652808 -0.020156665 1.3920001 4285491026
-0.16505516 -0.020272508 1.4000001 4285951577
-0.16297367 -0.020315949 1.4030001 4286346077
-0.16133946 -0.020417312 1.4100001 4286411356
-0.15968095 -0.020518674 1.4170001 4286411356
-0.15744337 -0.020547636 1.419 4286280029
-0.15552652 -0.020620037 1.424 4286543714
-0.15380725 -0.0207214 1.4310001 4286346335
-0.15174645 -0.020779321 1.4350001 4286280286
-0.14977579 -0.020851724 1.4400001 4286214492
-0.1475832 -0.020895163 1.4430001 4286214749
-0.14507858 -0.020895163 1.4430001 4286543970
-0.14267278 -0.020909645 1.4440001 4286412383
-0.12383226 -0.019896019 1.3740001 4290359708
-0.12135902 -0.019881539 1.373 4290557087
-0.11897591 -0.019881539 1.373 4290359708
-0.11659279 -0.019881539 1.373 4290228635
-0.11420968 -0.019881539 1.373 4290228635
-0.11190802 -0.019896019 1.3740001 4290031001
-0.10944346 -0.019881539 1.373 4290162588
-0.10690439 -0.019852577 1.3710001 4290425760
-0.10452475 -0.019852577 1.3710001 4290425760
-0.10214511 -0.019852577 1.3710001 4290359967
-0.099619925 -0.019823616 1.3690001 4290425760
-0.09731479 -0.019838098 1.3700001 4290359967
-0.095075473 -0.019867059 1.3720001 4290359967
-0.092761658 -0.019881539 1.373 4290557601
-0.090378545 -0.019881539 1.373 4290360221
-0.087931335 -0.019867059 1.3720001 4290294428
-0.085549958 -0.019867059 1.3720001 4290491808
-0.083229207 -0.019881539 1.373 4290426273
-0.080846086 -0.019881539 1.373 4290426273
-0.078462973 -0.019881539 1.373 4290491810
-0.07607986 -0.019881539 1.373 4290425760
-0.073696747 -0.019881539 1.373 4290623139
-0.071261689 -0.019867059 1.3720001 4290425760
-0.068830118 -0.019852577 1.3710001 4290359712
-0.066450469 -0.019852577 1.3710001 4290227869
-0.064117558 -0.019867059 1.3720001 4290162332
-0.061781179 -0.019881539 1.373 4290162076
-0.059441328 -0.019896019 1.3740001 4289964698
-0.057098001 -0.019910499 1.3750001 4289898906
-0.054790996 -0.01993946 1.3770001 4289898906
-0.052438997 -0.01995394 1.378 4288122494
-0.050010882 -0.01993946 1.3770001 4287332977
-0.01194093 -0.020229068 1.3970001 4290294687
-0.0095025348 -0.020200107 1.3950001 4290359967
-0.0070812362 -0.020200107 1.3950001 4290359457
-0.0046632774 -0.020214587 1.396 4290753443
-0.0022466616 -0.020272508 1.4000001 4290424733
0.00018357807 -0.020301469 1.4020001 4290030490
0.0026263604 -0.02037387 1.4070001 4289833624
0.0050901021 -0.020460753 1.4130001 4288386180
0.0075533199 -0.020489713 1.4150001 4287136113
0.010051775 -0.020576596 1.4210001 4287596925
0.012588678 -0.02069244 1.429 4287794821
0.015111171 -0.020750361 1.4330001 4287795082
0.017770359 -0.020953085 1.447 4287795599
-0.25629809 -0.017617021 1.381 4288256400
-0.25371724 -0.017604263 1.3800001 4289702815
