# .PCD v0.7 - Point Cloud Data file format
VERSION 0.7
FIELDS x y z rgba
SIZE 4 4 4 4
TYPE F F F U
COUNT 1 1 1 1
WIDTH 1070
HEIGHT 1
VIEWPOINT 0 0 0 1 0 0 0
POINTS 1070
DATA ascii
-0.14467925 -0.032130174 1.391 4290228378
-0.14216262 -0.032107078 1.3900001 4290228635
-0.13974999 -0.032107078 1.3900001 4290360222
-0.13733737 -0.032107078 1.3900001 4290162842
-0.13502182 -0.032130174 1.391 4290031256
-0.13260746 -0.032130174 1.391 4289965463
-0.13009952 -0.032107078 1.3900001 4289965463
-0.12768689 -0.032107078 1.3900001 4290162586
-0.12527427 -0.032107078 1.3900001 4290293915
-0.12286165 -0.032107078 1.3900001 4290293915
-0.12044903 -0.032107078 1.3900001 4290359708
-0.11803641 -0.032107078 1.3900001 4290491037
-0.11562379 -0.032107078 1.3900001 4290425501
-0.11321117 -0.032107078 1.3900001 4290293915
-0.11079855 -0.032107078 1.3900001 4290228120
-0.10838593 -0.032107078 1.3900001 4290359706
-0.1059733 -0.032107078 1.3900001 4290293914
-0.10356069 -0.032107078 1.3900001 4290294171
-0.10107529 -0.032083977 1.3890001 4290228635
-0.09866441 -0.032083977 1.3890001 4290228379
-0.096114933 -0.03203778 1.3870001 4290162843
-0.093707517 -0.03203778 1.3870001 4290228381
-0.091300108 -0.03203778 1.3870001 4290294174
-0.088956781 -0.03206088 1.388 4290425760
-0.086547628 -0.03206088 1.388 4290228382
-0.084017247 -0.032014679 1.386 4290228381
-0.081552684 -0.031991582 1.3850001 4290228381
-0.079091594 -0.031968486 1.3840001 4290162589
-0.076800212 -0.032014679 1.386 4290228381
-0.07450188 -0.03206088 1.388 4290359968
-0.072456315 -0.032222569 1.3950001 4290623141
-0.07053706 -0.032453556 1.4050001 4290359972
-0.068292275 -0.032545947 1.409 4290228390
-0.30199429 -0.030010452 1.404 4293257700
-0.29955736 -0.030010452 1.404 4290164399
-0.29712045 -0.030010452 1.404 4289374107
-0.29468352 -0.030010452 1.404 4289768603
-0.29245475 -0.030031826 1.4050001 4290031259
-0.29022253 -0.0300532 1.406 4290162842
-0.28778213 -0.0300532 1.406 4290294171
-0.28534177 -0.0300532 1.406 4290359707
-0.28290138 -0.0300532 1.406 4290425499
-0.28105938 -0.030117325 1.409 4290425499
-0.27900928 -0.030160075 1.411 4290031254
-0.25460011 -0.029882202 1.3980001 4287399023
-0.25145209 -0.029796703 1.3940001 4288254332
-0.24885385 -0.029775325 1.393 4289899158
-0.24625912 -0.029753951 1.3920001 4290293917
-0.24384302 -0.029753951 1.3920001 4290293917
-0.24142693 -0.029753951 1.3920001 4290491296
-0.23918253 -0.029775325 1.393 4290359710
-0.23676471 -0.029775325 1.393 4290227352
-0.23451513 -0.029796703 1.3940001 4290424731
-0.23209557 -0.029796703 1.3940001 4290228122
-0.23017028 -0.029860828 1.3970001 4290096538
-0.22807154 -0.029903576 1.399 4290162331
-0.21575409 -0.032041073 1.4990001 4287531130
-0.21315229 -0.032041073 1.4990001 4287465338
-0.21041001 -0.032019697 1.498 4287596924
-0.20725505 -0.031934198 1.4940001 4287795071
-0.20411395 -0.031848699 1.4900001 4287729024
-0.18489033 -0.029989075 1.4030001 4288781195
-0.18128473 -0.029796703 1.3940001 4289702293
-0.17860854 -0.029753951 1.3920001 4290162587
-0.17619245 -0.029753951 1.3920001 4290228380
-0.17365152 -0.029732578 1.391 4290360221
-0.17111406 -0.029711204 1.3900001 4290426014
-0.16870144 -0.029711204 1.3900001 4290293915
-0.16604955 -0.029668452 1.388 4290228122
-0.16364041 -0.029668452 1.388 4290293658
-0.16134742 -0.029689826 1.3890001 4290359193
-0.15893653 -0.029689826 1.3890001 4290424985
-0.15652564 -0.029689826 1.3890001 4290425243
-0.15411475 -0.029689826 1.3890001 4290359706
-0.15170388 -0.029689826 1.3890001 4290162327
-0.14918551 -0.029668452 1.388 4290228120
-0.14677636 -0.029668452 1.388 4290162327
-0.14436722 -0.029668452 1.388 4290228377
-0.14185579 -0.029647078 1.3870001 4290491551
-0.13944837 -0.029647078 1.3870001 4290360221
-0.13704096 -0.029647078 1.3870001 4290162842
-0.13473061 -0.029668452 1.388 4290162842
-0.13232146 -0.029668452 1.388 4290097049
-0.12991232 -0.029668452 1.388 4289965463
-0.12759502 -0.029689826 1.3890001 4290228378
-0.12509401 -0.029668452 1.388 4290293915
-0.12268487 -0.029668452 1.388 4290293915
-0.12027572 -0.029668452 1.388 4290293915
-0.11786657 -0.029668452 1.388 4290293915
-0.11537424 -0.029647078 1.3870001 4290228121
-0.11296683 -0.029647078 1.3870001 4290228119
-0.11055941 -0.029647078 1.3870001 4290228375
-0.10807402 -0.029625701 1.386 4290162326
-0.10574459 -0.029647078 1.3870001 4290293913
-0.10333718 -0.029647078 1.3870001 4290162328
-0.10085699 -0.029625701 1.386 4290162842
-0.098451309 -0.029625701 1.386 4290228380
-0.09590704 -0.029582953 1.3840001 4290162588
-0.093369707 -0.029540202 1.3820001 4290096795
-0.091036804 -0.029561576 1.383 4290162588
-0.088700421 -0.029582953 1.3840001 4290162588
-0.086360566 -0.029604327 1.3850001 4290228381
-0.083835386 -0.029561576 1.383 4290228381
-0.081376031 -0.029540202 1.3820001 4290162843
-0.078805856 -0.029476076 1.3790001 4290294172
-0.076523148 -0.029518828 1.381 4290294428
-0.074287184 -0.029582953 1.3840001 4290557345
-0.072300494 -0.029753951 1.3920001 4290491297
-0.070436649 -0.029989075 1.4030001 4290491301
-0.068292275 -0.030117325 1.409 4289702045
-0.30334705 -0.02749219 1.399 4293060334
-0.3007037 -0.027472537 1.3980001 4293520621
-0.29806384 -0.027452886 1.3970001 4290032555
-0.29542747 -0.027433235 1.396 4289242521
-0.29321432 -0.027452886 1.3970001 4289965727
-0.29078954 -0.027452886 1.3970001 4290162846
-0.28836477 -0.027452886 1.3970001 4290162586
-0.28593999 -0.027452886 1.3970001 4290228120
-0.28351524 -0.027452886 1.3970001 4290359705
-0.28149286 -0.02749219 1.399 4290425498
-0.27946359 -0.027531492 1.401 4290491547
-0.27742735 -0.027570795 1.4030001 4290162840
-0.27597219 -0.027669052 1.4080001 4289768082
-0.25350741 -0.02735463 1.3920001 4287333230
-0.25036979 -0.027276024 1.388 4288978055
-0.24778198 -0.027256373 1.3870001 4290162329
-0.2455515 -0.027276024 1.388 4290228635
-0.24331751 -0.027295675 1.3890001 4290162586
-0.24090663 -0.027295675 1.3890001 4290096795
-0.23866744 -0.027315328 1.3900001 4290228124
-0.23642479 -0.027334979 1.391 4290228124
-0.23384221 -0.027315328 1.3900001 4290228124
-0.23126309 -0.027295675 1.3890001 4290096538
-0.22901696 -0.027315328 1.3900001 4290030745
-0.22676736 -0.027334979 1.391 4290162331
-0.21402691 -0.029221505 1.4870001 4287464562
-0.21173033 -0.029260809 1.4890001 4287464562
-0.20942681 -0.029300109 1.4910001 4287530868
-0.20614524 -0.029201854 1.4860001 4287465078
-0.20301802 -0.02912325 1.4820001 4287728249
-0.18383609 -0.027413584 1.3950001 4288912264
-0.1806345 -0.027295675 1.3890001 4289701779
-0.1780953 -0.027276024 1.388 4290096794
-0.17581272 -0.027295675 1.3890001 4290294427
-0.17327701 -0.027276024 1.388 4290359708
-0.17074475 -0.027256373 1.3870001 4290359708
-0.16821596 -0.027236722 1.386 4290162329
-0.16557103 -0.027197419 1.3840001 4290162329
-0.16316882 -0.027197419 1.3840001 4290162329
-0.16076662 -0.027197419 1.3840001 4290228122
-0.15836442 -0.027197419 1.3840001 4290293915
-0.1560749 -0.027217072 1.3850001 4290491293
-0.15356 -0.027197419 1.3840001 4290425499
-0.15104857 -0.027177768 1.383 4290359706
-0.1486481 -0.027177768 1.383 4290293913
-0.14614189 -0.027158117 1.3820001 4290425499
-0.14384715 -0.027177768 1.383 4290293913
-0.14144668 -0.027177768 1.383 4290294426
-0.13904621 -0.027177768 1.383 4290228634
-0.13674456 -0.027197419 1.3840001 4290228634
-0.13434234 -0.027197419 1.3840001 4290162842
-0.13194014 -0.027197419 1.3840001 4290162842
-0.12963152 -0.027217072 1.3850001 4290294428
-0.12731944 -0.027236722 1.386 4290294172
-0.12482364 -0.027217072 1.3850001 4290359708
-0.12233131 -0.027197419 1.3840001 4290293915
-0.12001576 -0.027217072 1.3850001 4290228122
-0.1175269 -0.027197419 1.3840001 4290228120
-0.1150415 -0.027177768 1.383 4290228375
-0.11264104 -0.027177768 1.383 4290228374
-0.11024057 -0.027177768 1.383 4290162581
-0.1078401 -0.027177768 1.383 4290228374
-0.10543963 -0.027177768 1.383 4290425498
-0.10303915 -0.027177768 1.383 4290228120
-0.10056591 -0.027158117 1.3820001 4290359707
-0.098096147 -0.027138466 1.381 4290228123
-0.095560551 -0.027099162 1.3790001 4290162588
-0.093031906 -0.027059861 1.3770001 4290162588
-0.090773501 -0.027099162 1.3790001 4290096795
-0.088379972 -0.027099162 1.3790001 4290031002
-0.085986443 -0.027099162 1.3790001 4290162588
-0.083471678 -0.027059861 1.3770001 4290228635
-0.081081621 -0.027059861 1.3770001 4290228635
-0.078691565 -0.027059861 1.3770001 4290360220
-0.076467745 -0.027118815 1.3800001 4290228635
-0.074179828 -0.027158117 1.3820001 4290426014
-0.072248548 -0.027334979 1.391 4290491553
-0.070436649 -0.027570795 1.4030001 4290096543
-0.068292275 -0.027688703 1.409 4288320393
-0.3029134 -0.025044946 1.3970001 4293191658
-0.30005845 -0.025009092 1.3950001 4293191138
-0.29742378 -0.024991162 1.3940001 4289571743
-0.29500422 -0.024991162 1.3940001 4289505433
-0.29279456 -0.025009092 1.3950001 4289965723
-0.2901651 -0.024991162 1.3940001 4290228379
-0.28774554 -0.024991162 1.3940001 4290359706
-0.28532597 -0.024991162 1.3940001 4290228375
-0.28290641 -0.024991162 1.3940001 4290228374
-0.28088924 -0.02502702 1.396 4290162581
-0.27886516 -0.025062874 1.3980001 4290162581
-0.27663639 -0.025080804 1.399 4290228376
-0.27499217 -0.025152512 1.4030001 4290031254
-0.25537193 -0.024901524 1.3890001 4288517504
-0.25205046 -0.024811886 1.3840001 4288649090
-0.2492875 -0.024776032 1.3820001 4289635985
-0.24688877 -0.024776032 1.3820001 4290097049
-0.24466693 -0.02479396 1.383 4290097049
-0.2426168 -0.024829814 1.3850001 4290031256
-0.24038631 -0.024847742 1.386 4290162842
-0.23780893 -0.024829814 1.3850001 4290162588
-0.23557495 -0.024847742 1.386 4290162331
-0.23316927 -0.024847742 1.386 4290096538
-0.2304306 -0.024811886 1.3840001 4290030745
-0.22819315 -0.024829814 1.3850001 4290162331
-0.22595224 -0.024847742 1.386 4290162331
-0.22386913 -0.024883598 1.388 4289701780
-0.22177909 -0.024919452 1.3900001 4288385920
-0.2196821 -0.024955308 1.3920001 4287004267
-0.21773428 -0.025009092 1.3950001 4286608739
-0.21531297 -0.025009092 1.3950001 4287135083
-0.20802218 -0.02655087 1.4810001 4287662196
-0.18251826 -0.024829814 1.3850001 4289109640
-0.17998427 -0.024811886 1.3840001 4289899157
-0.17758206 -0.024811886 1.3840001 4290228121
-0.17517985 -0.024811886 1.3840001 4290293912
-0.17277765 -0.024811886 1.3840001 4290293913
-0.17025234 -0.02479396 1.383 4290162328
-0.1677305 -0.024776032 1.3820001 4290096536
-0.16521214 -0.024758104 1.381 4290162329
-0.16269723 -0.024740176 1.3800001 4290162329
-0.16030197 -0.024740176 1.3800001 4290228122
-0.1579067 -0.024740176 1.3800001 4290162329
-0.15551144 -0.024740176 1.3800001 4290425500
-0.15311618 -0.024740176 1.3800001 4290359706
-0.1506117 -0.024722248 1.3790001 4290359706
-0.14811069 -0.024704322 1.378 4290228120
-0.14561315 -0.024686392 1.3770001 4290228376
-0.1433271 -0.024704322 1.378 4290228633
-0.14103758 -0.024722248 1.3790001 4290097047
-0.13874459 -0.024740176 1.3800001 4290228633
-0.13634934 -0.024740176 1.3800001 4290228633
-0.13395406 -0.024740176 1.3800001 4290162840
-0.13155881 -0.024740176 1.3800001 4290162841
-0.12916353 -0.024740176 1.3800001 4290228635
-0.12686014 -0.024758104 1.381 4290294172
-0.12446314 -0.024758104 1.381 4290359708
-0.12197775 -0.024740176 1.3800001 4290293915
-0.11958248 -0.024740176 1.3800001 4290293915
-0.11701739 -0.024704322 1.378 4290162328
-0.1146256 -0.024704322 1.378 4290293913
-0.11231525 -0.024722248 1.3790001 4290294168
-0.10984201 -0.024704322 1.378 4290162581
-0.10745022 -0.024704322 1.378 4290359960
-0.10505842 -0.024704322 1.378 4290359705
-0.10259213 -0.024686392 1.3770001 4290162585
-0.10012931 -0.024668464 1.376 4290294428
-0.097740985 -0.024668464 1.376 4290162587
-0.095144771 -0.024614682 1.373 4290359710
-0.092761658 -0.024614682 1.373 4290294172
-0.090378545 -0.024614682 1.373 4290097050
-0.087995432 -0.024614682 1.373 4290097049
-0.085612319 -0.024614682 1.373 4290097049
-0.083168581 -0.024596754 1.3720001 4290097049
-0.080787204 -0.024596754 1.3720001 4290162842
-0.078348681 -0.024578827 1.3710001 4290228634
-0.07619068 -0.024650538 1.3750001 4290162841
-0.073965125 -0.024704322 1.378 4290228381
-0.072144672 -0.024901524 1.3890001 4290359968
-0.070436649 -0.025152512 1.4030001 4289702299
-0.068340741 -0.025278006 1.4100001 4288321162
-0.30096194 -0.022491172 1.388 4291415235
-0.29812256 -0.022458764 1.386 4290756274
-0.29571688 -0.022458764 1.386 4289966240
-0.29331121 -0.022458764 1.386 4290229407
-0.29090554 -0.022458764 1.386 4290031510
-0.28849986 -0.022458764 1.386 4290097047
-0.28588778 -0.022442559 1.3850001 4290294168
-0.28327915 -0.022426354 1.3840001 4290359960
-0.28087693 -0.022426354 1.3840001 4290294167
-0.27887714 -0.022458764 1.386 4289965202
-0.27687043 -0.022491172 1.388 4290162326
-0.27465901 -0.022507373 1.3890001 4290228120
-0.27244413 -0.022523578 1.3900001 4289964950
-0.27022576 -0.022539783 1.391 4289570194
-0.26723385 -0.022491172 1.388 4288649092
-0.25963172 -0.022458764 1.386 4289635987
-0.25722605 -0.022458764 1.386 4289701780
-0.25445268 -0.022426354 1.3840001 4289964950
-0.25150409 -0.022377744 1.381 4290096536
-0.24874635 -0.022345334 1.3790001 4290030743
-0.24635282 -0.022345334 1.3790001 4290097049
-0.24431311 -0.022377744 1.381 4290097049
-0.24191611 -0.022377744 1.381 4290097049
-0.2395191 -0.022377744 1.381 4289965463
-0.23729382 -0.022393946 1.3820001 4290030743
-0.23506506 -0.022410151 1.383 4290162329
-0.23249635 -0.022393946 1.3820001 4290424731
-0.2299311 -0.022377744 1.381 4290358940
-0.2275341 -0.022377744 1.381 4290358940
-0.22530013 -0.022393946 1.3820001 4290228124
-0.22306269 -0.022410151 1.383 4290162331
-0.22082178 -0.022426354 1.3840001 4289899159
-0.2187352 -0.022458764 1.386 4290096536
-0.2164856 -0.022474967 1.3870001 4290425244
-0.2140782 -0.022474967 1.3870001 4290161559
-0.20703897 -0.023884716 1.4740001 4287530609
-0.18225469 -0.022410151 1.383 4288912004
-0.17972417 -0.022393946 1.3820001 4290162071
-0.17719713 -0.022377744 1.381 4290228122
-0.17480013 -0.022377744 1.381 4290425499
-0.17240313 -0.022377744 1.381 4290359707
-0.16988303 -0.022361539 1.3800001 4290162328
-0.1673664 -0.022345334 1.3790001 4290096537
-0.16485325 -0.022329131 1.378 4290096537
-0.16234355 -0.022312926 1.3770001 4290293915
-0.15995349 -0.022312926 1.3770001 4290359708
-0.15767786 -0.022329131 1.378 4290228120
-0.15528607 -0.022329131 1.378 4290227864
-0.15289427 -0.022329131 1.378 4290359450
-0.15039326 -0.022312926 1.3770001 4290293913
-0.14789572 -0.022296721 1.376 4290228120
-0.14540166 -0.022280518 1.3750001 4290294169
-0.14311908 -0.022296721 1.376 4290359962
-0.14083304 -0.022312926 1.3770001 4290162584
-0.13854352 -0.022329131 1.378 4290162840
-0.13615173 -0.022329131 1.378 4290360219
-0.13366286 -0.022312926 1.3770001 4290228633
-0.13127281 -0.022312926 1.3770001 4290359963
-0.12888275 -0.022312926 1.3770001 4290228378
-0.12649269 -0.022312926 1.3770001 4290293915
-0.12419277 -0.022329131 1.378 4290293915
-0.12162419 -0.022296721 1.376 4290293915
-0.11923587 -0.022296721 1.376 4290359707
-0.11684755 -0.022296721 1.376 4290359449
-0.11445923 -0.022296721 1.376 4290424984
-0.11207091 -0.022296721 1.376 4290359447
-0.10968259 -0.022296721 1.376 4290228118
-0.10721629 -0.022280518 1.3750001 4290228374
-0.10482971 -0.022280518 1.3750001 4290228376
-0.10236862 -0.022264315 1.3740001 4290162842
-0.099838227 -0.022231907 1.3720001 4289965463
-0.097385824 -0.022215702 1.3710001 4289833877
-0.094936885 -0.022199498 1.3700001 4289965208
-0.092558973 -0.022199498 1.3700001 4290162587
-0.090181068 -0.022199498 1.3700001 4290031002
-0.087803163 -0.022199498 1.3700001 4290162587
-0.085425258 -0.022199498 1.3700001 4290228380
-0.082986727 -0.022183293 1.3690001 4290228380
-0.080551669 -0.02216709 1.368 4290031256
-0.078291535 -0.022199498 1.3700001 4290097306
-0.07607986 -0.022248112 1.373 4290031513
-0.073857777 -0.022296721 1.376 4290097308
-0.072040796 -0.022474967 1.3870001 4290228382
-0.070386447 -0.022718027 1.4020001 4289899678
-0.068340741 -0.022847658 1.4100001 4288715664
-0.3053396 -0.020069784 1.386 4292533984
-0.30227825 -0.020026343 1.383 4289901741
-0.29901043 -0.01996842 1.3790001 4290361518
-0.29640183 -0.01995394 1.378 4290294950
-0.29422337 -0.01996842 1.3790001 4290294688
-0.29182985 -0.01996842 1.3790001 4290228892
-0.28901654 -0.01993946 1.3770001 4290360220
-0.28662649 -0.01993946 1.3770001 4290359964
-0.28402999 -0.01992498 1.376 4290359705
-0.28184637 -0.01993946 1.3770001 4290294168
-0.27965927 -0.01995394 1.378 4290228118
-0.27746868 -0.01996842 1.3790001 4289964948
-0.2754741 -0.019997383 1.381 4290162327
-0.2730771 -0.019997383 1.381 4290228121
-0.27048409 -0.0199829 1.3800001 4290096536
-0.2682831 -0.019997383 1.381 4290096538
-0.26569358 -0.0199829 1.3800001 4290096538
-0.2632983 -0.0199829 1.3800001 4290228124
-0.26090303 -0.0199829 1.3800001 4290030745
-0.25832045 -0.01996842 1.3790001 4290096538
-0.25555575 -0.01993946 1.3770001 4290293915
-0.25298184 -0.01992498 1.376 4290228122
-0.25041139 -0.019910499 1.3750001 4290030743
-0.24784443 -0.019896019 1.3740001 4290162840
-0.24545959 -0.019896019 1.3740001 4290228633
-0.24325164 -0.019910499 1.3750001 4290097047
-0.24104023 -0.01992498 1.376 4290097049
-0.2386519 -0.01992498 1.376 4290097049
-0.23643531 -0.01993946 1.3770001 4289965209
-0.23404525 -0.01993946 1.3770001 4289899159
-0.23148695 -0.01992498 1.376 4289833366
-0.22909862 -0.01992498 1.376 4290228124
-0.22654556 -0.019910499 1.3750001 4290228124
-0.22415897 -0.019910499 1.3750001 4290228124
-0.22193368 -0.01992498 1.376 4290293915
-0.21954535 -0.01992498 1.376 4290359708
-0.21747267 -0.01995394 1.378 4290228122
-0.21508087 -0.01995394 1.378 4290227352
-0.21268909 -0.01995394 1.378 4290358936
-0.21075512 -0.019997383 1.381 4290095764
-0.20911248 -0.020069784 1.386 4290029971
-0.20685595 -0.020084264 1.3870001 4289964178
-0.18478869 -0.020040821 1.3840001 4288319354
-0.18159579 -0.01995394 1.378 4289174664
-0.17907393 -0.01993946 1.3770001 4290556573
-0.17655557 -0.01992498 1.376 4290359706
-0.17416725 -0.01992498 1.376 4290228121
-0.17165409 -0.019910499 1.3750001 4290162329
-0.16926751 -0.019910499 1.3750001 4290162329
-0.16663818 -0.019881539 1.373 4290228122
-0.16425507 -0.019881539 1.373 4290228122
-0.16187195 -0.019881539 1.373 4290293915
-0.159605 -0.019896019 1.3740001 4290425500
-0.15733458 -0.019910499 1.3750001 4290293913
-0.154948 -0.019910499 1.3750001 4290228121
-0.15256141 -0.019910499 1.3750001 4290359707
-0.1500656 -0.019896019 1.3740001 4290030999
-0.14735831 -0.019852577 1.3710001 4290096791
-0.14497866 -0.019852577 1.3710001 4290228377
-0.14270304 -0.019867059 1.3720001 4290293913
-0.14032166 -0.019867059 1.3720001 4290162583
-0.13814135 -0.019896019 1.3740001 4290162840
-0.13575651 -0.019896019 1.3740001 4290228633
-0.1332746 -0.019881539 1.373 4290096791
-0.13079615 -0.019867059 1.3720001 4290228378
-0.12822758 -0.019838098 1.3700001 4290162329
-0.12584966 -0.019838098 1.3700001 4290096536
-0.12356188 -0.019852577 1.3710001 4289964950
-0.12127064 -0.019867059 1.3720001 4290096536
-0.11888926 -0.019867059 1.3720001 4290162329
-0.11659279 -0.019881539 1.373 4290293913
-0.11420968 -0.019881539 1.373 4290162327
-0.11182657 -0.019881539 1.373 4290228119
-0.10936374 -0.019867059 1.3720001 4290096534
-0.10698237 -0.019867059 1.3720001 4289965461
-0.10452475 -0.019852577 1.3710001 4290097048
-0.1020706 -0.019838098 1.3700001 4290031255
-0.099619925 -0.019823616 1.3690001 4290097049
-0.097243756 -0.019823616 1.3690001 4290162587
-0.09486758 -0.019823616 1.3690001 4290294174
-0.092491411 -0.019823616 1.3690001 4290096795
-0.090115242 -0.019823616 1.3690001 4290228381
-0.087674975 -0.019809138 1.368 4290162588
-0.085300542 -0.019809138 1.368 4290228381
-0.082865492 -0.019794656 1.3670001 4290162844
-0.080492795 -0.019794656 1.3670001 4290097308
-0.078177236 -0.019809138 1.368 4290228892
-0.07602445 -0.019867059 1.3720001 4290031514
-0.073804095 -0.019910499 1.3750001 4290031516
-0.071936913 -0.020055303 1.3850001 4290228641
-0.070336238 -0.020286988 1.401 4290031265
-0.068243809 -0.020388352 1.4080001 4289110680
-0.30445841 -0.017629776 1.3820001 4291480772
-0.30162251 -0.017604263 1.3800001 4290098855
-0.29879361 -0.017578751 1.378 4290427042
-0.29618672 -0.017565994 1.3770001 4290229405
-0.29358327 -0.017553236 1.376 4290228892
-0.29098335 -0.017540481 1.3750001 4290294428
-0.28838688 -0.017527722 1.3740001 4290294426
-0.28600204 -0.017527722 1.3740001 4290228632
-0.28361717 -0.017527722 1.3740001 4290294426
-0.28143701 -0.017540481 1.3750001 4290294426
-0.27925336 -0.017553236 1.376 4290294170
-0.27746868 -0.017591506 1.3790001 4290096791
-0.27507517 -0.017591506 1.3790001 4290293915
-0.27268162 -0.017591506 1.3790001 4290228122
-0.2700921 -0.017578751 1.378 4290162330
-0.26770031 -0.017578751 1.378 4290228124
-0.26530853 -0.017578751 1.378 4290293916
-0.26272592 -0.017565994 1.3770001 4290162330
-0.26052493 -0.017578751 1.378 4289964950
-0.25794581 -0.017565994 1.3770001 4290096536
-0.25518456 -0.017540481 1.3750001 4290228121
-0.25261414 -0.017527722 1.3740001 4290359706
-0.25022927 -0.017527722 1.3740001 4290096534
-0.24766405 -0.017514966 1.373 4290162840
-0.24492367 -0.017489452 1.3710001 4290162840
-0.24254401 -0.017489452 1.3710001 4290162840
-0.24016437 -0.017489452 1.3710001 4290097047
-0.23778473 -0.017489452 1.3710001 4290162842
-0.23557679 -0.017502209 1.3720001 4290228635
-0.23336537 -0.017514966 1.373 4289964952
-0.23081402 -0.017502209 1.3720001 4290030745
-0.22843266 -0.017502209 1.3720001 4290030743
-0.22605127 -0.017502209 1.3720001 4290293915
-0.22350687 -0.017489452 1.3710001 4290425501
-0.22128852 -0.017502209 1.3720001 4290425501
-0.21890715 -0.017502209 1.3720001 4290557085
-0.21668358 -0.017514966 1.373 4290228120
-0.21445654 -0.017527722 1.3740001 4290359706
-0.21191736 -0.017514966 1.373 4290359706
-0.20999207 -0.017553236 1.376 4290162327
-0.208509 -0.017629776 1.3820001 4290162327
-0.20670681 -0.017680805 1.386 4289767569
-0.20489076 -0.01773183 1.3900001 4289307018
-0.18692037 -0.017629776 1.3820001 4288253559
-0.18398757 -0.017578751 1.378 4288187767
-0.18093687 -0.017514966 1.373 4288451196
-0.17842372 -0.017502209 1.3720001 4289899155
-0.17591402 -0.017489452 1.3710001 4290228120
-0.17340781 -0.017476697 1.3700001 4290096535
-0.1710299 -0.017476697 1.3700001 4290030743
-0.16852888 -0.017463939 1.3690001 4290030743
-0.16603135 -0.017451184 1.368 4290228122
-0.16365691 -0.017451184 1.368 4290293915
-0.16128246 -0.017451184 1.368 4290228122
-0.15902421 -0.017463939 1.3690001 4290228379
-0.15676245 -0.017476697 1.3700001 4290097049
-0.15438455 -0.017476697 1.3700001 4290228379
-0.1521176 -0.017489452 1.3710001 4290293915
-0.14919187 -0.017425669 1.3660001 4290162585
-0.1468209 -0.017425669 1.3660001 4290031256
-0.14434418 -0.017412914 1.365 4290162842
-0.14207898 -0.017425669 1.3660001 4290162585
-0.13981028 -0.017438427 1.3670001 4290162328
-0.13763867 -0.017463939 1.3690001 4290228378
-0.1353613 -0.017476697 1.3700001 4290096535
-0.13278925 -0.017451184 1.368 4290030742
-0.13031949 -0.017438427 1.3670001 4290228122
-0.12794678 -0.017438427 1.3670001 4290293915
-0.12548223 -0.017425669 1.3660001 4290096536
-0.12329151 -0.017451184 1.368 4290096536
-0.12109385 -0.017476697 1.3700001 4290030743
-0.11871595 -0.017476697 1.3700001 4290096536
-0.11642296 -0.017489452 1.3710001 4290097049
-0.1141265 -0.017502209 1.3720001 4290294428
-0.11166368 -0.017489452 1.3710001 4290228635
-0.10928404 -0.017489452 1.3710001 4290162841
-0.10690439 -0.017489452 1.3710001 4289965463
-0.10452475 -0.017489452 1.3710001 4290162842
-0.1020706 -0.017476697 1.3700001 4290096794
-0.099619925 -0.017463939 1.3690001 4290162588
-0.097243756 -0.017463939 1.3690001 4289965209
-0.09486758 -0.017463939 1.3690001 4289899416
-0.092423849 -0.017451184 1.368 4290228381
-0.08998359 -0.017438427 1.3670001 4290096796
-0.087610893 -0.017438427 1.3670001 4289899417
-0.085238196 -0.017438427 1.3670001 4289636501
-0.082865492 -0.017438427 1.3670001 4289768344
-0.080492795 -0.017438427 1.3670001 4289899930
-0.078177236 -0.017451184 1.368 4289899930
-0.07602445 -0.017502209 1.3720001 4289571479
-0.073696747 -0.017514966 1.373 4289176722
-0.071781091 -0.017629776 1.3820001 4289110931
-0.30269596 -0.015159427 1.3740001 4290033065
-0.30009255 -0.015148395 1.373 4290164127
-0.29727578 -0.015126327 1.3710001 4290163866
-0.29489616 -0.015126327 1.3710001 4290228891
-0.29230312 -0.015115296 1.3700001 4290228635
-0.28971359 -0.015104261 1.3690001 4290162840
-0.28691766 -0.015082196 1.3670001 4290162839
-0.28454497 -0.015082196 1.3670001 4290162840
-0.28237867 -0.01509323 1.368 4290360219
-0.2804136 -0.015115296 1.3700001 4290426012
-0.27864453 -0.015148395 1.373 4290360220
-0.27646261 -0.015159427 1.3740001 4290294428
-0.27387831 -0.015148395 1.373 4290293915
-0.27129745 -0.015137361 1.3720001 4290162331
-0.26872009 -0.015126327 1.3710001 4290096538
-0.26634043 -0.015126327 1.3710001 4290162329
-0.26376826 -0.015115296 1.3700001 4290228122
-0.26139033 -0.015115296 1.3700001 4290228122
-0.25901243 -0.015115296 1.3700001 4290096536
-0.2564472 -0.015104261 1.3690001 4290228121
-0.25388545 -0.01509323 1.368 4290293913
-0.25151101 -0.01509323 1.368 4290294167
-0.24931869 -0.015104261 1.3690001 4290096788
-0.24694252 -0.015104261 1.3690001 4290228631
-0.24456635 -0.015104261 1.3690001 4290097046
-0.24201328 -0.01509323 1.368 4290162840
-0.23963884 -0.01509323 1.368 4290162840
-0.23743783 -0.015104261 1.3690001 4290228633
-0.23506166 -0.015104261 1.3690001 4290228635
-0.23285545 -0.015115296 1.3700001 4290293915
-0.23047756 -0.015115296 1.3700001 4290293915
-0.22793315 -0.015104261 1.3690001 4290162329
-0.225557 -0.015104261 1.3690001 4290228122
-0.22318083 -0.015104261 1.3690001 4290359706
-0.22080465 -0.015104261 1.3690001 4290425499
-0.21842848 -0.015104261 1.3690001 4290293913
-0.21621013 -0.015115296 1.3700001 4290293913
-0.21383221 -0.015115296 1.3700001 4290293913
-0.21145432 -0.015115296 1.3700001 4290293913
-0.20953423 -0.015148395 1.373 4290162842
-0.20805638 -0.015214592 1.3790001 4290162329
-0.2062594 -0.015258726 1.383 4289833364
-0.20474334 -0.015324922 1.3890001 4288649090
-0.18678513 -0.01523666 1.381 4289109123
-0.18358703 -0.015170461 1.3750001 4288714365
-0.18054153 -0.015115296 1.3700001 4289241225
-0.17803358 -0.015104261 1.3690001 4290096534
-0.17552908 -0.01509323 1.368 4290359706
-0.17315465 -0.01509323 1.368 4290162328
-0.17078021 -0.01509323 1.368 4290096536
-0.16840577 -0.01509323 1.368 4290030743
-0.16578862 -0.015071162 1.3660001 4290162329
-0.16341765 -0.015071162 1.3660001 4290228122
-0.16104668 -0.015071162 1.3660001 4290228122
-0.15867573 -0.015071162 1.3660001 4290096536
-0.15641919 -0.015082196 1.3670001 4290228122
-0.15404648 -0.015082196 1.3670001 4290162329
-0.15145187 -0.015060131 1.365 4290162072
-0.14886421 -0.015038065 1.363 4290096793
-0.14639096 -0.01502703 1.3620001 4290031256
-0.14402695 -0.01502703 1.3620001 4289899670
-0.14176695 -0.015038065 1.363 4290162586
-0.13950346 -0.015049096 1.3640001 4290228122
-0.13723651 -0.015060131 1.365 4290162329
-0.13496609 -0.015071162 1.3660001 4290096536
-0.13259512 -0.015071162 1.3660001 4290096536
-0.13022415 -0.015071162 1.3660001 4290030743
-0.1278532 -0.015071162 1.3660001 4289964950
-0.12548223 -0.015071162 1.3660001 4289899157
-0.12320139 -0.015082196 1.3670001 4289767571
-0.12100547 -0.015104261 1.3690001 4289636241
-0.1186293 -0.015104261 1.3690001 4289636498
-0.11642296 -0.015126327 1.3710001 4289438864
-0.11404331 -0.015126327 1.3710001 4289965463
-0.11166368 -0.015126327 1.3710001 4290097049
-0.10928404 -0.015126327 1.3710001 4289636499
-0.10690439 -0.015126327 1.3710001 4289636756
-0.1044485 -0.015115296 1.3700001 4289373585
-0.1020706 -0.015115296 1.3700001 4289373328
-0.099619925 -0.015104261 1.3690001 4289373072
-0.097172722 -0.01509323 1.368 4289768087
-0.094798282 -0.01509323 1.368 4289373329
-0.092423849 -0.01509323 1.368 4288780936
-0.08998359 -0.015082196 1.3670001 4288517764
-0.087610893 -0.015082196 1.3670001 4288386178
-0.085238196 -0.015082196 1.3670001 4288254592
-0.082865492 -0.015082196 1.3670001 4288780936
-0.080492795 -0.015082196 1.3670001 4288649350
-0.078177236 -0.01509323 1.368 4287531125
-0.07596904 -0.015126327 1.3710001 4287991679
-0.073643073 -0.015137361 1.3720001 4288321414
-0.071677215 -0.015225626 1.3800001 4287466107
-0.30463675 -0.012772513 1.3720001 4293125092
-0.30115387 -0.012725966 1.3670001 4289769384
-0.29856259 -0.012716657 1.3660001 4290032036
-0.29597479 -0.012707347 1.365 4290097054
-0.29360557 -0.012707347 1.365 4290294175
-0.29123634 -0.012707347 1.365 4290162587
-0.28844386 -0.012688728 1.363 4290491805
-0.2860781 -0.012688728 1.363 4290426011
-0.28371233 -0.012688728 1.363 4290360218
-0.28196585 -0.012716657 1.3660001 4290360219
-0.27979955 -0.012725966 1.3670001 4290426012
-0.27783275 -0.012744584 1.3690001 4290228635
-0.27545658 -0.012744584 1.3690001 4290360221
-0.27288094 -0.012735275 1.368 4290293916
-0.27030876 -0.012725966 1.3670001 4290228124
-0.26774007 -0.012716657 1.3660001 4290162331
-0.26517484 -0.012707347 1.365 4290162329
-0.26261306 -0.012698038 1.3640001 4290096536
-0.26024556 -0.012698038 1.3640001 4290228122
-0.25787807 -0.012698038 1.3640001 4290096536
-0.25551057 -0.012698038 1.3640001 4290228120
-0.25314307 -0.012698038 1.3640001 4290228120
-0.25059175 -0.012688728 1.363 4290162581
-0.24840809 -0.012698038 1.3640001 4290359960
-0.24604061 -0.012698038 1.3640001 4290557339
-0.24367312 -0.012698038 1.3640001 4290360217
-0.24112871 -0.012688728 1.363 4290228631
-0.23876296 -0.012688728 1.363 4290228631
-0.23657064 -0.012698038 1.3640001 4290228633
-0.23437487 -0.012707347 1.365 4290228376
-0.23200564 -0.012707347 1.365 4290228122
-0.22980464 -0.012716657 1.3660001 4290228122
-0.22743368 -0.012716657 1.3660001 4290162329
-0.22506271 -0.012716657 1.3660001 4290359706
-0.22252871 -0.012707347 1.365 4290359706
-0.22015949 -0.012707347 1.365 4290425499
-0.21779026 -0.012707347 1.365 4290293913
-0.21557885 -0.012716657 1.3660001 4290425500
-0.21336398 -0.012725966 1.3670001 4290359707
-0.21114561 -0.012735275 1.368 4290293915
-0.20922901 -0.012763203 1.3710001 4289965464
-0.20760375 -0.012809751 1.376 4290031256
-0.2055137 -0.012828369 1.378 4289833877
-0.20415373 -0.012893535 1.3850001 4288978055
-0.20189546 -0.012902845 1.386 4287991416
-0.19948977 -0.012902845 1.386 4288583295
-0.1972263 -0.012912153 1.3870001 4289306504
-0.19481888 -0.012912153 1.3870001 4289832846
-0.19227274 -0.012902845 1.386 4289701258
-0.19041502 -0.012940082 1.3900001 4289701260
-0.18651462 -0.012837679 1.3790001 4289701517
-0.18331999 -0.012781822 1.373 4288846464
-0.18027796 -0.012735275 1.368 4289372811
-0.17790352 -0.012735275 1.368 4290228121
-0.17540078 -0.012725966 1.3670001 4290228122
-0.17302808 -0.012725966 1.3670001 4290425501
-0.17065538 -0.012725966 1.3670001 4290162586
-0.16828267 -0.012725966 1.3670001 4289767827
-0.16566724 -0.012707347 1.365 4289964950
-0.16317838 -0.012698038 1.3640001 4290096536
-0.16057509 -0.012679419 1.3620001 4290096536
-0.15821107 -0.012679419 1.3620001 4290096536
-0.15550378 -0.01265149 1.3590001 4290162329
-0.15325767 -0.0126608 1.36 4290162073
-0.15078615 -0.01265149 1.3590001 4290096280
-0.1482089 -0.012632872 1.3570001 4290162329
-0.14585355 -0.012632872 1.3570001 4289965463
-0.14339247 -0.012623562 1.3560001 4290228378
-0.14114286 -0.012632872 1.3570001 4290228122
-0.1388898 -0.012642181 1.358 4290096537
-0.13683435 -0.012670109 1.3610001 4290162331
-0.13466968 -0.012688728 1.363 4290031001
-0.13240097 -0.012698038 1.3640001 4290030745
-0.13012882 -0.012707347 1.365 4289636243
-0.1278532 -0.012716657 1.3660001 4289636243
-0.12557408 -0.012725966 1.3670001 4290096538
-0.12329151 -0.012735275 1.368 4289570450
-0.12109385 -0.012753895 1.3700001 4288978312
-0.11871595 -0.012753895 1.3700001 4289175947
-0.11650788 -0.012772513 1.3720001 4288649347
-0.1141265 -0.012772513 1.3720001 4288188798
-0.11174512 -0.012772513 1.3720001 4288320384
-0.10936374 -0.012772513 1.3720001 4288123005
-0.10698237 -0.012772513 1.3720001 4288517763
-0.10460099 -0.012772513 1.3720001 4288649606
-0.1022196 -0.012772513 1.3720001 4287860346
-0.099692695 -0.012753895 1.3700001 4287728504
-0.09731479 -0.012753895 1.3700001 4287334003
-0.094936885 -0.012753895 1.3700001 4287005038
-0.092558973 -0.012753895 1.3700001 4287333748
-0.090115242 -0.012744584 1.3690001 4287530870
-0.087674975 -0.012735275 1.368 4287201905
-0.085238196 -0.012725966 1.3670001 4287333492
-0.082865492 -0.012725966 1.3670001 4287465077
-0.080492795 -0.012725966 1.3670001 4287136111
-0.07812009 -0.012725966 1.3670001 4286938990
-0.075802803 -0.012735275 1.368 4286873198
-0.073428363 -0.012735275 1.368 4286741612
-0.071313635 -0.012781822 1.373 4286083682
-0.30419266 -0.010392493 1.3700001 4292335064
-0.30005234 -0.010331807 1.3620001 4289637025
-0.29768831 -0.010331807 1.3620001 4289966241
-0.29510748 -0.010324221 1.3610001 4290294947
-0.29253009 -0.010316635 1.36 4290360223
-0.29016954 -0.010316635 1.36 4290425756
-0.28780898 -0.010316635 1.36 4290491805
-0.28565833 -0.010324221 1.3610001 4290425756
-0.28329605 -0.010324221 1.3610001 4290426012
-0.28114018 -0.010331807 1.3620001 4290426012
-0.27877614 -0.010331807 1.3620001 4290294426
-0.27661508 -0.010339392 1.363 4290294428
-0.27445051 -0.010346978 1.3640001 4290162585
-0.27188355 -0.010339392 1.363 4290162329
-0.26951781 -0.010339392 1.363 4290228124
-0.26695603 -0.010331807 1.3620001 4290162331
-0.26439777 -0.010324221 1.3610001 4290096536
-0.26203549 -0.010324221 1.3610001 4290293915
-0.25967318 -0.010324221 1.3610001 4290096536
-0.25712186 -0.010316635 1.36 4290228122
-0.25476131 -0.010316635 1.36 4290425499
-0.25202957 -0.010301463 1.358 4290228120
-0.24948862 -0.010293878 1.3570001 4290030995
-0.24695118 -0.010286292 1.3560001 4290162581
-0.24459757 -0.010286292 1.3560001 4290294424
-0.24224396 -0.010286292 1.3560001 4290360217
-0.23989035 -0.010286292 1.3560001 4290228631
-0.23753674 -0.010286292 1.3560001 4290162838
-0.23535657 -0.010293878 1.3570001 4290097047
-0.23300123 -0.010293878 1.3570001 4290294426
-0.23081584 -0.010301463 1.358 4290293913
-0.22879525 -0.010316635 1.36 4290162327
-0.22676769 -0.010331807 1.3620001 4290228122
-0.22456843 -0.010339392 1.363 4290096536
-0.22220267 -0.010339392 1.363 4290162329
-0.21999821 -0.010346978 1.3640001 4290425501
-0.21763071 -0.010346978 1.3640001 4290491807
-0.21542104 -0.010354565 1.365 4290228379
-0.2132079 -0.01036215 1.3660001 4290228636
-0.21099128 -0.010369736 1.3670001 4289965463
-0.2090764 -0.010392493 1.3700001 4289767830
-0.20730199 -0.010422836 1.3740001 4289833623
-0.20521542 -0.010438007 1.376 4289504658
-0.20341671 -0.010468351 1.3800001 4288451969
-0.20160413 -0.010498693 1.3840001 4287662708
-0.19934584 -0.010506279 1.3850001 4288649088
-0.19694191 -0.010506279 1.3850001 4289504396
-0.19439751 -0.010498693 1.3840001 4289832847
-0.19199531 -0.010498693 1.3840001 4289964432
-0.18877116 -0.010453179 1.378 4290096018
-0.1862441 -0.010445593 1.3770001 4290030225
-0.18318647 -0.010407664 1.3720001 4288977794
-0.18040974 -0.010384907 1.3690001 4288978053
-0.17790352 -0.010377321 1.368 4289701777
-0.17552908 -0.010377321 1.368 4289899157
-0.17315465 -0.010377321 1.368 4289175691
-0.17078021 -0.010377321 1.368 4288978568
-0.16828267 -0.010369736 1.3670001 4288715140
-0.16566724 -0.010354565 1.365 4289241227
-0.16305876 -0.010339392 1.363 4289833364
-0.1602214 -0.010309049 1.3590001 4289570192
-0.15728179 -0.010271121 1.3540001 4289964950
-0.15481722 -0.010263535 1.353 4290162329
-0.15246883 -0.010263535 1.353 4290293915
-0.15012042 -0.010263535 1.353 4290162329
-0.14766282 -0.01025595 1.3520001 4290228122
-0.14531615 -0.01025595 1.3520001 4290293915
-0.14296949 -0.01025595 1.3520001 4290359708
-0.14062282 -0.01025595 1.3520001 4290228122
-0.13837843 -0.010263535 1.353 4290162330
-0.13633165 -0.010286292 1.3560001 4290228124
-0.13437326 -0.010316635 1.36 4290031002
-0.13220684 -0.010331807 1.3620001 4290030745
-0.13012882 -0.010354565 1.365 4289438865
-0.12804037 -0.010377321 1.368 4288846728
-0.12575781 -0.010384907 1.3690001 4287530868
-0.12356188 -0.010400078 1.3710001 4287333489
-0.12127064 -0.010407664 1.3720001 4287531123
-0.11888926 -0.010407664 1.3720001 4287662965
-0.11659279 -0.01041525 1.373 4287662965
-0.11429286 -0.010422836 1.3740001 4287794294
-0.11190802 -0.010422836 1.3740001 4287662709
-0.10944346 -0.01041525 1.373 4286938730
-0.10706034 -0.01041525 1.373 4286543973
-0.10467723 -0.01041525 1.373 4287202160
-0.10229412 -0.01041525 1.373 4287070574
-0.099910997 -0.01041525 1.373 4287333490
-0.097527884 -0.01041525 1.373 4287070577
-0.095144771 -0.01041525 1.373 4286872941
-0.092761658 -0.01041525 1.373 4287004527
-0.090246893 -0.010400078 1.3710001 4286938734
-0.087674975 -0.010377321 1.368 4287136113
-0.085238196 -0.010369736 1.3670001 4287267699
-0.082683638 -0.010346978 1.3640001 4287136112
-0.080257259 -0.010339392 1.363 4286872939
-0.077777214 -0.010324221 1.3610001 4286610280
-0.075414926 -0.010324221 1.3610001 4286149474
-0.073052637 -0.010324221 1.3610001 4286083682
-0.070534535 -0.010301463 1.358 4286675819
-0.30374858 -0.0080193672 1.368 4290362297
-0.29983205 -0.0079783332 1.3610001 4289703587
-0.29725119 -0.0079724705 1.36 4290032031
-0.29467383 -0.0079666078 1.3590001 4289966492
-0.29231501 -0.0079666078 1.3590001 4290031771
-0.28995618 -0.0079666078 1.3590001 4290294428
-0.28780898 -0.0079724705 1.36 4290228891
-0.28565833 -0.0079783332 1.3610001 4290097303
-0.28350419 -0.0079841949 1.3620001 4290097047
-0.28114018 -0.0079841949 1.3620001 4290294426
-0.27898082 -0.0079900566 1.363 4290294169
-0.27641213 -0.0079841949 1.3620001 4290228376
-0.27404812 -0.0079841949 1.3620001 4290162328
-0.27188355 -0.0079900566 1.363 4290162072
-0.26951781 -0.0079900566 1.363 4290424731
-0.26695603 -0.0079841949 1.3620001 4290490524
-0.26459202 -0.0079841949 1.3620001 4290293915
-0.26222801 -0.0079841949 1.3620001 4290228122
-0.25967318 -0.0079783332 1.3610001 4290096536
-0.2573109 -0.0079783332 1.3610001 4290162329
-0.25438663 -0.0079607461 1.358 4290228122
-0.2514728 -0.0079431599 1.355 4290425500
-0.24820167 -0.0079138493 1.35 4289964948
-0.24585848 -0.0079138493 1.35 4290228120
-0.24351528 -0.0079138493 1.35 4290294167
-0.24135073 -0.007919712 1.3510001 4290162581
-0.23900579 -0.007919712 1.3510001 4290228374
-0.2364857 -0.0079138493 1.35 4290491546
-0.23431593 -0.007919712 1.3510001 4290228374
-0.23214272 -0.0079255737 1.3520001 4290294167
-0.23013599 -0.0079372982 1.3540001 4290293913
-0.22845878 -0.0079607461 1.358 4290162327
-0.2266012 -0.0079783332 1.3610001 4290096534
-0.22456843 -0.0079900566 1.363 4290030743
-0.22236569 -0.0079959184 1.3640001 4290293915
-0.22015949 -0.0080017811 1.365 4290360221
-0.21794982 -0.0080076437 1.3660001 4290623139
-0.21573667 -0.0080135055 1.3670001 4289767830
-0.21352005 -0.0080193672 1.368 4289636244
-0.21129997 -0.008025229 1.3690001 4289570707
-0.20922901 -0.0080369534 1.3710001 4289768084
-0.20745288 -0.0080604022 1.3750001 4289570705
-0.20521542 -0.008066264 1.376 4289110154
-0.20341671 -0.0080897128 1.3800001 4287728501
-0.20145845 -0.0081072999 1.383 4287662708
-0.19905798 -0.0081072999 1.383 4288714883
-0.19665751 -0.0081072999 1.383 4289241225
-0.19383566 -0.0080897128 1.3800001 4289833362
-0.19144039 -0.0080897128 1.3800001 4289964690
-0.18890814 -0.0080838511 1.3790001 4290095762
-0.18637937 -0.0080779884 1.378 4289898384
-0.1834535 -0.0080545405 1.3740001 4288188023
-0.18080509 -0.0080428161 1.3720001 4287070056
-0.17829366 -0.0080369534 1.3710001 4286806886
-0.17591402 -0.0080369534 1.3710001 4287201645
-0.17353438 -0.0080369534 1.3710001 4287859576
-0.17115474 -0.0080369534 1.3710001 4288385919
-0.16865198 -0.0080310917 1.3700001 4288188541
-0.16578862 -0.0080076437 1.3660001 4287530611
-0.16317838 -0.0079959184 1.3640001 4287727733
-0.15916033 -0.0079138493 1.35 4288911750
-0.15646866 -0.0078962632 1.3470001 4289635472
-0.15390182 -0.0078845387 1.345 4290227609
-0.15156731 -0.0078845387 1.345 4290227609
-0.14934376 -0.0078904005 1.3460001 4290162072
-0.14700751 -0.0078904005 1.3460001 4290228122
-0.14467126 -0.0078904005 1.3460001 4290228120
-0.14222924 -0.0078845387 1.345 4290293915
-0.13999875 -0.0078904005 1.3460001 4290293915
-0.1376625 -0.0078904005 1.3460001 4290293915
-0.1357284 -0.0079138493 1.35 4290162330
-0.13407683 -0.0079548843 1.3570001 4290162331
-0.13201271 -0.0079724705 1.36 4289964952
-0.13022415 -0.0080076437 1.3660001 4288649092
-0.12832117 -0.0080369534 1.3710001 4287399282
-0.1260334 -0.0080428161 1.3720001 4285623127
-0.12374214 -0.0080486778 1.373 4286478692
-0.12144741 -0.0080545405 1.3740001 4286412898
-0.11906256 -0.0080545405 1.3740001 4286478691
-0.11676264 -0.0080604022 1.3750001 4286807911
-0.11445923 -0.008066264 1.376 4286610277
-0.11198946 -0.0080604022 1.3750001 4286412641
-0.10960288 -0.0080604022 1.3750001 4286610022
-0.10721629 -0.0080604022 1.3750001 4286543974
-0.10475347 -0.0080545405 1.3740001 4286543974
-0.10236862 -0.0080545405 1.3740001 4286609767
-0.10005654 -0.0080604022 1.3750001 4286675560
-0.097669952 -0.0080604022 1.3750001 4286675561
-0.095283367 -0.0080604022 1.3750001 4286807148
-0.092896782 -0.0080604022 1.3750001 4286675562
-0.090378545 -0.0080486778 1.373 4286741355
-0.087674975 -0.0080193672 1.368 4287004526
-0.085113481 -0.0080017811 1.365 4286938732
-0.08231993 -0.0079607461 1.358 4286675302
-0.079786204 -0.0079431599 1.355 4288122749
-0.077091441 -0.0079079876 1.3490001 4289241487
-0.074528344 -0.0078845387 1.345 4289241487
-0.072193831 -0.0078845387 1.345 4289702038
-0.069807373 -0.007878677 1.3440001 4290162590
-0.06762521 -0.0078962632 1.3470001 4289636247
-0.30374858 -0.0056614135 1.368 4289309350
-0.29983205 -0.0056324443 1.3610001 4288979864
-0.29725119 -0.005628306 1.36 4289308307
-0.29489064 -0.005628306 1.36 4289571734
-0.29253009 -0.005628306 1.36 4289768599
-0.29016954 -0.005628306 1.36 4289965463
-0.28780898 -0.005628306 1.36 4289899926
-0.28586823 -0.0056365826 1.3620001 4289834131
-0.28371233 -0.0056407209 1.363 4289899668
-0.28114018 -0.0056365826 1.3620001 4289307531
-0.27898082 -0.0056407209 1.363 4289833619
-0.27661508 -0.0056407209 1.363 4290096277
-0.27424932 -0.0056407209 1.363 4290556315
-0.27208301 -0.0056448597 1.3640001 4290556315
-0.26971555 -0.0056448597 1.3640001 4290622110
-0.26715204 -0.0056407209 1.363 4290358938
-0.26478627 -0.0056407209 1.363 4289899157
-0.26242054 -0.0056407209 1.363 4289833364
-0.25986397 -0.0056365826 1.3620001 4289635985
-0.25749996 -0.0056365826 1.3620001 4289701779
-0.25457397 -0.0056241676 1.3590001 4289504399
-0.25128722 -0.005603475 1.3540001 4289504399
-0.24801782 -0.0055827829 1.3490001 4288978055
-0.24549425 -0.0055786446 1.348 4289964948
-0.2433349 -0.0055827829 1.3490001 4290293913
-0.24099344 -0.0055827829 1.3490001 4290294167
-0.23865199 -0.0055827829 1.3490001 4290359960
-0.23631053 -0.0055827829 1.3490001 4290294167
-0.23396908 -0.0055827829 1.3490001 4290294167
-0.23197101 -0.0055910596 1.3510001 4290359960
-0.22996603 -0.0055993367 1.353 4290294167
-0.22812232 -0.0056117517 1.3560001 4290293913
-0.22676769 -0.0056365826 1.3620001 4290228120
-0.22473319 -0.0056448597 1.3640001 4289833620
-0.22269174 -0.0056531369 1.3660001 4288781189
-0.22048207 -0.0056572752 1.3670001 4288123005
-0.21826892 -0.0056614135 1.368 4287662454
-0.21621013 -0.0056696902 1.3700001 4287859833
-0.21414438 -0.0056779673 1.3720001 4287794040
-0.21191736 -0.0056821061 1.373 4287465075
-0.20983946 -0.0056903828 1.3750001 4288715396
-0.20760375 -0.0056945211 1.376 4288649603
-0.2055137 -0.0057027983 1.378 4287860087
-0.20356412 -0.0057152133 1.381 4287267950
-0.20145845 -0.0057234904 1.383 4288123260
-0.19905798 -0.0057234904 1.383 4288978569
-0.19651532 -0.005719352 1.3820001 4289636499
-0.19397613 -0.0057152133 1.381 4289833621
-0.19144039 -0.0057110754 1.3800001 4289833619
-0.18890814 -0.0057069366 1.3790001 4289899155
-0.18651462 -0.0057069366 1.3790001 4289898642
-0.18372053 -0.0056945211 1.376 4287924853
-0.18106864 -0.0056862445 1.3740001 4286675300
-0.1786838 -0.0056862445 1.3740001 4286543715
-0.17629895 -0.0056862445 1.3740001 4287004267
-0.1739141 -0.0056862445 1.3740001 4287596404
-0.17152925 -0.0056862445 1.3740001 4287596148
-0.1688982 -0.0056779673 1.3720001 4287267440
-0.16603135 -0.0056614135 1.368 4287464562
-0.16317838 -0.0056448597 1.3640001 4287266669
-0.15880665 -0.0055745058 1.3470001 4287464047
-0.15623634 -0.0055662286 1.345 4289043078
-0.15355855 -0.0055538137 1.342 4290029973
-0.15122923 -0.0055538137 1.342 4290293145
-0.14889993 -0.0055538137 1.342 4290293400
-0.14657062 -0.0055538137 1.342 4290359706
-0.14424132 -0.0055538137 1.342 4290359706
-0.14170052 -0.0055455365 1.34 4290491292
-0.13937469 -0.0055455365 1.34 4290359707
-0.13715112 -0.0055496753 1.3410001 4290425501
-0.13522571 -0.0055662286 1.345 4290228122
-0.13378042 -0.005603475 1.3540001 4290162330
-0.13181858 -0.0056200288 1.358 4289372815
-0.13031949 -0.0056572752 1.3670001 4288123005
-0.12841478 -0.0056779673 1.3720001 4286083422
-0.12612525 -0.0056821061 1.373 4285886043
-0.12392239 -0.0056903828 1.3750001 4286478435
-0.12162419 -0.0056945211 1.376 4286610020
-0.11923587 -0.0056945211 1.376 4286478691
-0.11684755 -0.0056945211 1.376 4286281310
-0.11454241 -0.0056986595 1.3770001 4286281311
-0.11215236 -0.0056986595 1.3770001 4286412642
-0.10968259 -0.0056945211 1.376 4286543973
-0.10729427 -0.0056945211 1.376 4286477924
-0.10490595 -0.0056945211 1.376 4286149216
-0.10244312 -0.0056903828 1.3750001 4286412388
-0.10012931 -0.0056945211 1.376 4286280802
-0.097740985 -0.0056945211 1.376 4286346595
-0.095352665 -0.0056945211 1.376 4286543974
-0.092964344 -0.0056945211 1.376 4286412388
-0.090378545 -0.0056821061 1.373 4286807145
-0.087610893 -0.0056572752 1.3670001 4286938731
-0.084988773 -0.0056407209 1.363 4288188541
-0.082077451 -0.005603475 1.3540001 4289175434
-0.079432897 -0.0055827829 1.3490001 4290228122
-0.076691419 -0.0055538137 1.342 4290425760
-0.074140459 -0.0055372594 1.3380001 4290491554
-0.071764417 -0.0055331215 1.337 4290359968
-0.069547676 -0.0055413982 1.3390001 4290294175
-0.067323983 -0.0055496753 1.3410001 4290228383
-0.06543263 -0.0055869212 1.35 4289965471
-0.30330452 -0.00329863 1.3660001 4288520088
-0.29961175 -0.0032841412 1.36 4287992713
-0.29703262 -0.0032817263 1.3590001 4288058244
-0.29467383 -0.0032817263 1.3590001 4287992191
-0.29253009 -0.0032841412 1.36 4288451969
-0.29016954 -0.0032841412 1.36 4288123000
-0.28802061 -0.0032865561 1.3610001 4288518015
-0.28586823 -0.0032889708 1.3620001 4289176202
-0.2839205 -0.0032938006 1.3640001 4288780931
-0.281553 -0.0032938006 1.3640001 4288320123
-0.2791855 -0.0032938006 1.3640001 4289043846
-0.27702099 -0.0032962151 1.365 4289108869
-0.27465177 -0.0032962151 1.365 4289240455
-0.27228251 -0.0032962151 1.365 4289174664
-0.26991329 -0.0032962151 1.365 4289109384
-0.26754406 -0.0032962151 1.365 4287662195
-0.26517484 -0.0032962151 1.365 4287530609
-0.26280561 -0.0032962151 1.365 4287925367
-0.26024556 -0.0032938006 1.3640001 4287662197
-0.25749996 -0.0032889708 1.3620001 4287728247
-0.25419933 -0.0032768967 1.3570001 4287662454
-0.24998811 -0.0032527489 1.3470001 4286873192
-0.24673085 -0.0032406745 1.342 4288254332
-0.24440154 -0.0032406745 1.342 4290096534
-0.24207224 -0.0032406745 1.342 4290228120
-0.23992157 -0.0032430894 1.3430001 4290293913
-0.23759052 -0.0032430894 1.3430001 4290294167
-0.23525949 -0.0032430894 1.3430001 4290359960
-0.23310187 -0.0032455043 1.3440001 4290294167
-0.23128422 -0.0032527489 1.3470001 4290294424
-0.22928616 -0.0032575782 1.3490001 4290228633
-0.22795409 -0.0032720673 1.355 4290360219
-0.22676769 -0.0032889708 1.3620001 4290359706
-0.22473319 -0.0032938006 1.3640001 4289373326
-0.22285476 -0.0033010449 1.3670001 4286741606
-0.22064336 -0.0033034596 1.368 4286609766
-0.21842848 -0.0033058745 1.3690001 4286478180
-0.21636793 -0.0033107041 1.3710001 4287004524
-0.21430047 -0.0033155337 1.373 4287465075
-0.21207169 -0.0033179484 1.3740001 4287135853
