# .PCD v0.7 - Point Cloud Data file format
VERSION 0.7
FIELDS x y z rgba
SIZE 4 4 4 4
TYPE F F F U
COUNT 1 1 1 1
WIDTH 1072
HEIGHT 1
VIEWPOINT 0 0 0 1 0 0 0
POINTS 1072
DATA ascii
-0.13646437 -0.079711899 1.779 4289444032
-0.13115583 -0.07944306 1.7730001 4289904067
-0.12623632 -0.079398245 1.7720001 4289443001
-0.12152777 -0.07948786 1.774 4278190080
-0.23940837 -0.076656327 1.8220001 4289379269
-0.23249614 -0.07602524 1.807 4289247683
-0.22642151 -0.075646587 1.7980001 4289181636
-0.22088888 -0.075436227 1.7930001 4288984770
-0.21562453 -0.075310007 1.7900001 4289050563
-0.21061203 -0.075267933 1.789 4289247942
-0.20571999 -0.075267933 1.789 4288985283
-0.20049118 -0.075141713 1.7860001 4289116356
-0.1953883 -0.075057574 1.784 4288590012
-0.18965565 -0.074720994 1.7760001 4288195254
-0.18438293 -0.074552692 1.7720001 4288326840
-0.17953737 -0.074552692 1.7720001 4288195254
-0.17528333 -0.074805133 1.7780001 4287998388
-0.16955872 -0.07442648 1.7690001 4288063668
-0.16518694 -0.074636839 1.774 4287603117
-0.16051669 -0.074720994 1.7760001 4287537324
-0.15583549 -0.074805133 1.7780001 4287603117
-0.15080371 -0.074720994 1.7760001 4288195254
-0.14561851 -0.074552692 1.7720001 4288984511
-0.14021687 -0.074258193 1.7650001 4289313476
-0.13477679 -0.073921606 1.7570001 4289445062
-0.12960239 -0.073711246 1.7520001 4289576646
-0.124954 -0.073795393 1.7540001 4289576646
-0.1205687 -0.074047826 1.7600001 4289970377
-0.11647943 -0.074510626 1.771 4290101192
-0.1128343 -0.075310007 1.7900001 4278190080
-0.24923606 -0.07163471 1.8210001 4288918718
-0.2421104 -0.071005307 1.8050001 4288853182
-0.23559782 -0.070533253 1.7930001 4288853184
-0.22992286 -0.070297219 1.7870001 4288918977
-0.22453256 -0.070139863 1.7830001 4288787391
-0.21941054 -0.070061192 1.7810001 4288853184
-0.21417899 -0.069943175 1.7780001 4288918977
-0.20943475 -0.069982514 1.779 4288787391
-0.20457006 -0.069982514 1.779 4288655805
-0.19936863 -0.069864504 1.7760001 4288853184
-0.19407403 -0.069707148 1.7720001 4288655805
-0.18890812 -0.069589131 1.7690001 4288721598
-0.18396671 -0.069549792 1.7680001 4288590012
-0.17923342 -0.069589131 1.7690001 4288590012
-0.17232579 -0.068763033 1.748 4288392633
-0.16783342 -0.068881042 1.751 4288590012
-0.16351087 -0.069077738 1.756 4288523706
-0.1590706 -0.069235086 1.7600001 4288786878
-0.15417022 -0.069195747 1.7590001 4288852671
-0.14893565 -0.068999059 1.7540001 4289511114
-0.14364626 -0.068763033 1.748 4289379015
-0.13854857 -0.068605676 1.7440001 4289313476
-0.13354945 -0.068487667 1.7410001 4289379269
-0.12864071 -0.068408988 1.7390001 4289181890
-0.12402789 -0.068487667 1.7410001 4288852925
-0.11995216 -0.068881042 1.751 4288852925
-0.11555865 -0.069117069 1.7570001 4289050304
-0.11132144 -0.069471113 1.766 4289246911
-0.10703501 -0.069825165 1.7750001 4290101192
-0.10315989 -0.070493907 1.7920001 4278190080
-0.25962216 -0.066764981 1.8240001 4289313474
-0.25128394 -0.065886497 1.8000001 4289510855
-0.24499317 -0.065520458 1.7900001 4288787389
-0.23929359 -0.065300837 1.784 4288655803
-0.23375823 -0.065117821 1.779 4288655805
-0.22825021 -0.064934798 1.774 4288984770
-0.22289549 -0.064788386 1.7700001 4288787391
-0.21768582 -0.06467858 1.7670001 4288721598
-0.21237209 -0.064532168 1.7630001 4288458426
-0.20755115 -0.064532168 1.7630001 4288590014
-0.2026152 -0.064495556 1.7620001 4288655805
-0.19790927 -0.064532168 1.7630001 4288721598
-0.19275975 -0.064422354 1.7600001 4288787389
-0.18784022 -0.064385749 1.7590001 4289051072
-0.18001267 -0.063324243 1.7300001 4289182147
-0.17528197 -0.063324243 1.7300001 4289248194
-0.17045268 -0.063287646 1.7290001 4289379780
-0.16572471 -0.063287646 1.7290001 4289247940
-0.16118298 -0.063360848 1.7310001 4289313733
-0.1567207 -0.063470654 1.7340001 4289313733
-0.15197906 -0.063470654 1.7340001 4289379526
-0.14689776 -0.063324243 1.7300001 4289313733
-0.1420027 -0.063251033 1.728 4289116354
-0.13719803 -0.063214429 1.7270001 4288918977
-0.13270566 -0.063324243 1.7300001 4288853184
-0.12797496 -0.063324243 1.7300001 4288721085
-0.12331549 -0.063360848 1.7310001 4288523706
-0.11919861 -0.063690275 1.7400001 4288457913
-0.11476941 -0.063873298 1.7450001 4288457913
-0.11018679 -0.063983113 1.748 4288721085
-0.10570838 -0.064166129 1.7530001 4288786362
-0.10143289 -0.064495556 1.7620001 4289312704
-0.097492002 -0.065081216 1.7780001 4290297801
-0.094349273 -0.066289134 1.8110001 4278190080
-0.2621437 -0.061201464 1.807 4289510852
-0.2543557 -0.06052408 1.7870001 4289116097
-0.24863152 -0.060320865 1.7810001 4288853182
-0.24348761 -0.060253128 1.779 4288787643
-0.23822053 -0.060151525 1.7760001 4288721596
-0.23296985 -0.060049914 1.7730001 4288853182
-0.22760689 -0.05991444 1.7690001 4288721598
-0.22239175 -0.059812829 1.766 4288721598
-0.21706982 -0.059677351 1.7620001 4288918977
-0.21164933 -0.059508007 1.7570001 4288984770
-0.2064916 -0.0594064 1.7540001 4288853184
-0.20123531 -0.059270926 1.7500001 4289247429
-0.193868 -0.058491934 1.7270001 4289115843
-0.18892646 -0.058424193 1.725 4289182147
-0.18388908 -0.05832259 1.7220001 4289182147
-0.1792843 -0.058356456 1.723 4289050561
-0.17447142 -0.05832259 1.7220001 4289116608
-0.16986118 -0.058356456 1.723 4289248194
-0.16495793 -0.05828872 1.7210001 4289248194
-0.16025183 -0.05828872 1.7210001 4288984768
-0.15563612 -0.05832259 1.7220001 4289051074
-0.15101494 -0.058356456 1.723 4288853695
-0.14630337 -0.058356456 1.723 4288787391
-0.14150964 -0.05832259 1.7220001 4288655805
-0.13680081 -0.05832259 1.7220001 4288129461
-0.13232212 -0.058424193 1.725 4288195254
-0.12767905 -0.058458067 1.7260001 4288392120
-0.12360045 -0.058762889 1.7350001 4288128948
-0.11913009 -0.058898363 1.7390001 4287931569
-0.11457209 -0.058999971 1.7420001 4287865776
-0.10987162 -0.059033841 1.743 4288128948
-0.10534657 -0.059169315 1.7470001 4288063666
-0.10097235 -0.0594064 1.7540001 4288588983
-0.09666951 -0.059711225 1.7630001 4288588981
-0.092682138 -0.060253128 1.779 4289049274
-0.089397073 -0.061336938 1.8110001 4292863724
-0.26486787 -0.055793185 1.7920001 4289248194
-0.25779155 -0.055326167 1.7770001 4289050561
-0.25207829 -0.055139359 1.771 4288984768
-0.24681668 -0.055045955 1.7680001 4288918975
-0.24211894 -0.055077091 1.7690001 4289247940
-0.23661093 -0.054921415 1.7640001 4289116354
-0.23139305 -0.054828014 1.761 4289182149
-0.22567692 -0.05461007 1.7540001 4289116356
-0.22062875 -0.054547802 1.7520001 4289050563
-0.2154683 -0.054454397 1.7490001 4289182147
-0.2104447 -0.054392129 1.7470001 4289116354
-0.20272437 -0.053613763 1.7220001 4288918975
-0.19778557 -0.053551495 1.72 4289181890
-0.19285768 -0.053489227 1.7180001 4289116097
-0.18805028 -0.053458091 1.7170001 4289050304
-0.18303478 -0.05336469 1.7140001 4288984511
-0.17845187 -0.053395823 1.715 4288853182
-0.17376219 -0.053395823 1.715 4288918975
-0.16917108 -0.053426959 1.7160001 4288721596
-0.16447866 -0.053426959 1.7160001 4288853182
-0.15969314 -0.053395823 1.715 4288787902
-0.15509383 -0.053426959 1.7160001 4288524730
-0.15048906 -0.053458091 1.7170001 4288327351
-0.14596373 -0.053520359 1.7190001 4288327353
-0.14126311 -0.053520359 1.7190001 4288064181
-0.13656248 -0.053520359 1.7190001 4287932595
-0.13201529 -0.053582627 1.7210001 4287800496
-0.12745713 -0.053644896 1.723 4288063155
-0.12338673 -0.053925108 1.7320001 4288063155
-0.11871907 -0.053956244 1.733 4287865776
-0.1141117 -0.054018516 1.7350001 4287997362
-0.10943036 -0.054049645 1.7360001 4288129461
-0.10510537 -0.054267589 1.743 4288063155
-0.10062695 -0.054423265 1.748 4288129461
-0.096340515 -0.05470347 1.7570001 4288128950
-0.09205696 -0.055014823 1.7670001 4288326327
-0.088162988 -0.05560638 1.7860001 4288457138
-0.26811215 -0.050580543 1.7810001 4288787391
-0.26146832 -0.050239742 1.7690001 4288919490
-0.25561547 -0.050040942 1.7620001 4288853697
-0.2505126 -0.049984142 1.7600001 4288919490
-0.24528106 -0.049898937 1.7570001 4288853184
-0.24033965 -0.049870539 1.756 4288787391
-0.23486719 -0.049728539 1.751 4288721598
-0.22981627 -0.049671739 1.7490001 4288722111
-0.22439028 -0.049529739 1.7440001 4288918977
-0.2196213 -0.049529739 1.7440001 4288919490
-0.21263482 -0.049018539 1.7260001 4288853695
-0.20767412 -0.04896174 1.7240001 4288984768
-0.20237119 -0.048819736 1.7190001 4288918975
-0.1973256 -0.048734538 1.7160001 4289050561
-0.19240867 -0.048677739 1.7140001 4288984768
-0.18772173 -0.048677739 1.7140001 4288984768
-0.18292798 -0.048649337 1.7130001 4288853182
-0.17813972 -0.048620939 1.7120001 4288655803
-0.17345823 -0.048620939 1.7120001 4288590525
-0.16877675 -0.048620939 1.7120001 4288656318
-0.16419111 -0.048649337 1.7130001 4288393146
-0.15932068 -0.048592538 1.7110001 4288327353
-0.1547323 -0.048620939 1.7120001 4288393146
-0.15005083 -0.048620939 1.7120001 4288195767
-0.14562409 -0.048706137 1.715 4287932595
-0.14093439 -0.048706137 1.715 4287866802
-0.13640361 -0.048762936 1.7170001 4287866802
-0.13186187 -0.048819736 1.7190001 4287800496
-0.12745713 -0.048933335 1.723 4287734703
-0.12345798 -0.04921734 1.733 4287734703
-0.11878757 -0.049245737 1.7340001 4287668910
-0.11404593 -0.049245737 1.7340001 4287800496
-0.10955644 -0.049359336 1.738 4287734703
-0.10522597 -0.04955814 1.7450001 4287932082
-0.10074209 -0.049700141 1.7500001 4287668910
-0.096176021 -0.04981374 1.7540001 4287866289
-0.091692276 -0.049984142 1.7600001 4287865776
-0.087422535 -0.050296541 1.771 4288456884
-0.08341904 -0.050807741 1.789 4288457137
-0.079887733 -0.051688146 1.8200001 4278190080
-0.28175271 -0.046352018 1.8060001 4288786360
-0.27221596 -0.045582056 1.7760001 4288590012
-0.26510137 -0.045197073 1.761 4288261560
-0.25954685 -0.045068741 1.756 4288458939
-0.25372955 -0.044889081 1.7490001 4288656318
-0.24880455 -0.044863418 1.748 4288590525
-0.24332663 -0.044735089 1.743 4288393146
-0.23856038 -0.044735089 1.743 4288590012
-0.23298933 -0.044581097 1.7370001 4288458426
-0.2266627 -0.044273108 1.725 4288590012
-0.221431 -0.044170447 1.7210001 4288721598
-0.21634713 -0.044093449 1.7180001 4288985281
-0.21152605 -0.044067785 1.7170001 4288656316
-0.20658997 -0.044016454 1.715 4288721596
-0.20154713 -0.043939456 1.7120001 4288787389
-0.19675064 -0.043913789 1.7110001 4288853182
-0.1918474 -0.043862458 1.7090001 4288787389
-0.18706459 -0.043836795 1.7080001 4288722109
-0.18207368 -0.043759797 1.705 4288524732
-0.17741133 -0.043759797 1.705 4288458939
-0.17285031 -0.043785464 1.7060001 4288524732
-0.16828382 -0.043811128 1.7070001 4288524732
-0.16371188 -0.043836795 1.7080001 4288195767
-0.15904133 -0.043836795 1.7080001 4288129974
-0.15437078 -0.043836795 1.7080001 4287932595
-0.14978789 -0.043862458 1.7090001 4288129974
-0.14528444 -0.043913789 1.7110001 4287866802
-0.14068787 -0.043939456 1.7120001 4287603630
-0.13616528 -0.043990787 1.7140001 4287603630
-0.13163173 -0.044042118 1.7160001 4287668910
-0.12775303 -0.044324439 1.7270001 4287537324
-0.12310178 -0.044350106 1.728 4287208359
-0.11844505 -0.04437577 1.7290001 4287339945
-0.11378285 -0.044401437 1.7300001 4287668910
-0.10924126 -0.044478431 1.733 4287603117
-0.10492446 -0.044658095 1.7400001 4287471531
-0.10039668 -0.044760756 1.7440001 4287537324
-0.095956691 -0.044914749 1.7500001 4287800496
-0.091483891 -0.045068741 1.756 4287734703
-0.087076992 -0.045274064 1.7640001 4287865776
-0.082719609 -0.045530718 1.774 4288326581
-0.078570895 -0.045941371 1.7900001 4287995816
-0.32641959 -0.042078499 1.835 4294242293
-0.31579694 -0.041344702 1.8030001 4294570746
-0.31000453 -0.041230045 1.7980001 4294965503
-0.30661502 -0.041436426 1.807 4294965759
-0.30200765 -0.041482288 1.8090001 4294768383
-0.29673252 -0.041436426 1.807 4294375167
-0.29179123 -0.041436426 1.807 4293126645
-0.28494507 -0.041161254 1.7950001 4288587956
-0.27754045 -0.040794358 1.779 4288260534
-0.27052993 -0.04047332 1.7650001 4288261047
-0.26449919 -0.040289875 1.7570001 4288261560
-0.25880784 -0.040152285 1.751 4288327353
-0.25300419 -0.03999177 1.7440001 4288393146
-0.24795054 -0.039945908 1.7420001 4288393146
-0.24248901 -0.039831255 1.7370001 4288393146
-0.23691797 -0.039693665 1.7310001 4288327353
-0.23178212 -0.039624874 1.728 4288458939
-0.22639991 -0.039510217 1.723 4288524732
-0.22130236 -0.039441425 1.72 4288590012
-0.21596934 -0.039326768 1.715 4288458939
-0.21127965 -0.039326768 1.715 4288590525
-0.2062286 -0.039257977 1.7120001 4288655805
-0.20154713 -0.039257977 1.7120001 4288524219
-0.19663565 -0.039212115 1.71 4288392633
-0.19173513 -0.039166253 1.7080001 4288458426
-0.18684554 -0.039120391 1.7060001 4288458939
-0.18196689 -0.039074525 1.7040001 4288195767
-0.17720322 -0.039051596 1.7030001 4288261560
-0.17264767 -0.039074525 1.7040001 4288195767
-0.16818523 -0.039120391 1.7060001 4288064181
-0.16371188 -0.039166253 1.7080001 4288129974
-0.15904133 -0.039166253 1.7080001 4287932082
-0.15437078 -0.039166253 1.7080001 4287866289
-0.14970024 -0.039166253 1.7080001 4287734703
-0.14511462 -0.039189182 1.7090001 4287800496
-0.14044133 -0.039189182 1.7090001 4287800496
-0.13600639 -0.039257977 1.7120001 4287274152
-0.13155504 -0.039326768 1.715 4287537324
-0.12767905 -0.039579011 1.7260001 4287471018
-0.12310178 -0.039624874 1.728 4287405225
-0.11844505 -0.039647803 1.7290001 4287274152
-0.11384862 -0.039693665 1.7310001 4287339945
-0.10924126 -0.039739527 1.733 4287471531
-0.10486416 -0.039877117 1.7390001 4287406251
-0.10039668 -0.03999177 1.7440001 4287472044
-0.095847026 -0.040083494 1.748 4287471531
-0.091327593 -0.040198151 1.7530001 4287471531
-0.086780816 -0.040312804 1.7580001 4287799983
-0.082393207 -0.040519182 1.7670001 4287668397
-0.07808806 -0.040794358 1.779 4288062126
-0.074417002 -0.041459359 1.8080001 4288192938
-0.072585464 -0.043316774 1.8890001 4278190080
-0.32481861 -0.036878902 1.8260001 4293649643
-0.3136951 -0.036172021 1.7910001 4293122530
-0.30707344 -0.035970055 1.7810001 4293319911
-0.30254266 -0.036010448 1.7830001 4293254118
-0.29766703 -0.036010448 1.7830001 4292794598
-0.29262719 -0.035990253 1.7820001 4289309623
-0.28775427 -0.035990253 1.7820001 4288981688
-0.28208765 -0.035889272 1.7770001 4288785335
-0.27566835 -0.035687305 1.7670001 4288392120
-0.26945701 -0.035505537 1.7580001 4288129974
-0.26344541 -0.035343964 1.7500001 4288064181
-0.25762537 -0.035202589 1.743 4288064181
-0.25213379 -0.035101607 1.738 4288063668
-0.24709652 -0.03506121 1.7360001 4288063668
-0.24207021 -0.035020817 1.7340001 4288063668
-0.23678109 -0.034940034 1.7300001 4288326840
-0.23137973 -0.034839049 1.725 4288392633
-0.22561152 -0.034677476 1.7170001 4288392631
-0.22027305 -0.034576494 1.7120001 4288524217
-0.21483599 -0.034455318 1.7060001 4288590010
-0.21004771 -0.034435119 1.705 4288655805
-0.20526491 -0.034414921 1.7040001 4288655805
-0.2006053 -0.034414921 1.7040001 4288655805
-0.1960607 -0.034435119 1.705 4288129461
-0.19128609 -0.034414921 1.7040001 4288195254
-0.18651699 -0.034394726 1.7030001 4288721598
-0.18153974 -0.034334134 1.7 4288458426
-0.17689106 -0.034334134 1.7 4288261047
-0.17234373 -0.034354333 1.7010001 4288063668
-0.16788949 -0.034394726 1.7030001 4288261047
-0.16342433 -0.034435119 1.705 4287734703
-0.15876198 -0.034435119 1.705 4287734703
-0.15400925 -0.034414921 1.7040001 4287668910
-0.14952494 -0.034455318 1.7060001 4287603117
-0.14502971 -0.034495708 1.7080001 4287076773
-0.14052351 -0.034536101 1.71 4287603117
-0.13592695 -0.034556299 1.7110001 4287603117
-0.13140161 -0.034596693 1.7130001 4287405738
-0.12738316 -0.034778461 1.7220001 4287471018
-0.12281682 -0.034818854 1.7240001 4287602604
-0.11837655 -0.034899641 1.728 4287010980
-0.11378285 -0.034940034 1.7300001 4287010980
-0.10911518 -0.034960229 1.7310001 4287471531
-0.10468325 -0.03506121 1.7360001 4287472044
-0.10016642 -0.035142001 1.7400001 4287340458
-0.095792197 -0.035283376 1.7470001 4287274665
-0.091223396 -0.035364158 1.751 4287471531
-0.086632721 -0.035444949 1.7550001 4287602604
-0.082206689 -0.035606518 1.7630001 4287405225
-0.077956378 -0.035869073 1.7760001 4287865262
-0.07404656 -0.036333594 1.7990001 4288259505
-0.070779465 -0.037202045 1.8420001 4289245113
-0.33086672 -0.032479394 1.8600001 4294636539
-0.31614724 -0.031518985 1.8050001 4293846001
-0.30828035 -0.031222129 1.7880001 4293714417
-0.30254266 -0.031134818 1.7830001 4293057002
-0.29750007 -0.031117355 1.7820001 4290492360
-0.2939409 -0.031257056 1.7900001 4287730851
-0.28856167 -0.031204669 1.7870001 4288916667
-0.2817702 -0.030995123 1.7750001 4288720571
-0.27551234 -0.030837964 1.766 4288128948
-0.26899719 -0.030645883 1.7550001 4287997875
-0.26299378 -0.030506186 1.7470001 4288063668
-0.25718197 -0.030383952 1.7400001 4287997875
-0.25169855 -0.03029664 1.7350001 4287866289
-0.2466695 -0.030261716 1.733 4287734703
-0.24179101 -0.030244254 1.7320001 4287932082
-0.23650736 -0.030174406 1.728 4288392633
-0.23097733 -0.030069636 1.7220001 4288261560
-0.22548011 -0.029964862 1.7160001 4288393146
-0.2200157 -0.02986009 1.71 4288524219
-0.21483599 -0.029790243 1.7060001 4288787391
-0.2099245 -0.029755317 1.7040001 4288590012
-0.20526491 -0.029755317 1.7040001 4288458426
-0.2006053 -0.029755317 1.7040001 4288195254
-0.19571573 -0.029720392 1.702 4288129461
-0.19106159 -0.029720392 1.702 4288326840
-0.18618841 -0.029685469 1.7 4289247942
-0.18153974 -0.029685469 1.7 4288984770
-0.17689106 -0.029685469 1.7 4288129461
-0.17244504 -0.029720392 1.702 4287800496
-0.16788949 -0.029737854 1.7030001 4287932082
-0.16323262 -0.029737854 1.7030001 4287537837
-0.15857574 -0.029737854 1.7030001 4287406251
-0.15391888 -0.029737854 1.7030001 4287340458
-0.14934964 -0.029755317 1.7040001 4287077286
-0.14502971 -0.029825168 1.7080001 4287339945
-0.14052351 -0.02986009 1.71 4287010980
-0.13600639 -0.029895015 1.7120001 4287142566
-0.1313249 -0.029895015 1.7120001 4287142566
-0.12745713 -0.030087098 1.723 4287536811
-0.12295929 -0.030139484 1.7260001 4287208359
-0.11851355 -0.030209331 1.7300001 4286945187
-0.11384862 -0.030226793 1.7310001 4286879394
-0.10924126 -0.030261716 1.733 4287142053
-0.10468325 -0.030314103 1.7360001 4286945187
-0.10022398 -0.030401414 1.7410001 4287010980
-0.095737368 -0.030488724 1.7460001 4287471531
-0.091171302 -0.030558571 1.7500001 4287274152
-0.086534001 -0.03061096 1.7530001 4287405738
-0.082113437 -0.030750655 1.761 4287668397
-0.077824689 -0.030960198 1.7730001 4287536297
-0.07384076 -0.031326901 1.794 4287930542
-0.070241511 -0.031920612 1.8280001 4288784820
-0.32648113 -0.027452117 1.8640001 4293320427
-0.31276318 -0.026715741 1.8140001 4293386222
-0.30474854 -0.026450645 1.7960001 4292728550
-0.29933649 -0.026406463 1.7930001 4288914098
-0.29377666 -0.026347553 1.789 4287995052
-0.28791577 -0.026259188 1.7830001 4288785851
-0.28081772 -0.026053004 1.7690001 4288392120
-0.27426428 -0.025891 1.7580001 4288261047
-0.26792425 -0.025743725 1.748 4288063668
-0.26194 -0.025625905 1.7400001 4288129461
-0.25673854 -0.025581723 1.7370001 4288129461
-0.25126335 -0.025508083 1.7320001 4288063668
-0.24638484 -0.025493355 1.7310001 4288261047
-0.24109298 -0.025434447 1.7270001 4288458939
-0.23595989 -0.025390266 1.7240001 4288524732
-0.23030667 -0.02528717 1.7170001 4288196281
-0.22495453 -0.025213534 1.7120001 4288393146
-0.21937239 -0.025110442 1.705 4288326840
-0.21433227 -0.025066257 1.702 4288129461
-0.20943174 -0.025036803 1.7 4288326840
-0.20478308 -0.025036803 1.7 4288129461
-0.20001668 -0.025022075 1.6990001 4288129461
-0.19525574 -0.025007349 1.6980001 4287931569
-0.19061255 -0.025007349 1.6980001 4288063155
-0.18596935 -0.025007349 1.6980001 4288458167
-0.18132615 -0.025007349 1.6980001 4288063409
-0.17668296 -0.025007349 1.6980001 4288063668
-0.17214109 -0.025022075 1.6990001 4287603630
-0.16759373 -0.025036803 1.7 4287603630
-0.16284922 -0.025022075 1.6990001 4287537837
-0.15820329 -0.025022075 1.6990001 4287340458
-0.15355736 -0.025022075 1.6990001 4287274665
-0.14899907 -0.025036803 1.7 4287143079
-0.14469005 -0.025095712 1.7040001 4287208359
-0.14027697 -0.025139896 1.7070001 4287208359
-0.13576806 -0.025169352 1.7090001 4287339945
-0.13117148 -0.025184078 1.71 4287208359
-0.12730919 -0.025346082 1.7210001 4287537324
-0.12281682 -0.025390266 1.7240001 4287076773
-0.11837655 -0.025449174 1.728 4286813601
-0.11371708 -0.025463901 1.7290001 4286813601
-0.10911518 -0.025493355 1.7310001 4286615709
-0.10450236 -0.025522811 1.733 4286747806
-0.099936143 -0.025566993 1.7360001 4287142564
-0.09551803 -0.025655359 1.7420001 4287010980
-0.091067098 -0.025743725 1.748 4286747808
-0.086632721 -0.025846818 1.7550001 4287076773
-0.082206689 -0.025964636 1.7630001 4286945187
-0.077868588 -0.026126642 1.774 4286945187
-0.073676124 -0.026362281 1.7900001 4286944674
-0.069741987 -0.026730468 1.8150001 4288193198
-0.066920303 -0.02761412 1.8750001 4293849851
-0.33103505 -0.02266681 1.8900001 4278190080
-0.31621152 -0.021995202 1.8340001 4292926184
-0.30678469 -0.021683384 1.8080001 4291216594
-0.30033818 -0.021575445 1.7990001 4287467422
-0.29426932 -0.021491494 1.7920001 4288785335
-0.28791577 -0.021383557 1.7830001 4288983743
-0.28081772 -0.021215655 1.7690001 4288128948
-0.27426428 -0.021083733 1.7580001 4288326840
-0.2682308 -0.020987788 1.7500001 4288261047
-0.2622411 -0.020891843 1.7420001 4287997875
-0.25673854 -0.020831879 1.7370001 4288063668
-0.25126335 -0.020771913 1.7320001 4288326840
-0.24610017 -0.020735934 1.7290001 4288590012
-0.24053459 -0.020663975 1.723 4288524732
-0.23500182 -0.020592019 1.7170001 4288195767
-0.22963601 -0.020532053 1.7120001 4288195767
-0.22456034 -0.020496074 1.7090001 4288063668
-0.21950106 -0.020460095 1.7060001 4287997875
-0.21458411 -0.020436108 1.7040001 4287734703
-0.20967813 -0.020412123 1.702 4287997362
-0.20490353 -0.020400131 1.7010001 4288194741
-0.20001668 -0.020376144 1.6990001 4288260020
-0.19502577 -0.020340165 1.6960001 4288128434
-0.19038804 -0.020340165 1.6960001 4287536297
-0.18575031 -0.020340165 1.6960001 4287799983
-0.18121938 -0.020352157 1.697 4287865776
-0.17657891 -0.020352157 1.697 4287472044
-0.17214109 -0.020376144 1.6990001 4287472044
-0.16749515 -0.020376144 1.6990001 4287340972
-0.16294506 -0.020388136 1.7 4287209386
-0.15829641 -0.020388136 1.7 4287012007
-0.15364774 -0.020388136 1.7 4286880421
-0.14908671 -0.020400131 1.7010001 4286748321
-0.14477496 -0.020448102 1.705 4286682528
-0.14027697 -0.020472087 1.7070001 4286945185
-0.13584749 -0.020508068 1.71 4286747806
-0.1313249 -0.020532053 1.7120001 4287010978
-0.12738316 -0.020651983 1.7220001 4286813601
-0.12288806 -0.020687962 1.725 4286879394
-0.11844505 -0.020735934 1.7290001 4286682015
-0.11384862 -0.02075992 1.7310001 4286615709
-0.10917822 -0.020771913 1.7320001 4286615709
-0.10462295 -0.020807892 1.7350001 4286615709
-0.10005128 -0.020843871 1.738 4286878881
-0.095572866 -0.020903837 1.743 4286747808
-0.091171302 -0.020987788 1.7500001 4286550429
-0.086780816 -0.021083733 1.7580001 4286879907
-0.082299948 -0.021167684 1.7650001 4286748321
-0.077824689 -0.021263627 1.7730001 4286550429
-0.073552646 -0.02143153 1.7870001 4287010982
-0.069549859 -0.021707369 1.8100001 4287733163
-0.066028029 -0.02218709 1.8500001 4288785075
-0.32259092 -0.017322676 1.8710001 4292006622
-0.30966929 -0.016896784 1.825 4290493898
-0.30133986 -0.016711615 1.8050001 4288060588
-0.29426932 -0.016591253 1.7920001 4289114816
-0.28743133 -0.01648015 1.7800001 4288917950
-0.28034148 -0.016350532 1.766 4288260534
-0.27379626 -0.016248688 1.7550001 4288195254
-0.26792425 -0.016183877 1.748 4288195254
-0.26194 -0.016109811 1.7400001 4288261047
-0.25629511 -0.01605426 1.7340001 4288326840
-0.25068307 -0.015998708 1.728 4288524219
-0.24524616 -0.015952416 1.723 4288458939
-0.23955737 -0.015887605 1.7160001 4288064181
-0.2343175 -0.015850572 1.7120001 4287866548
-0.22923361 -0.015822798 1.7090001 4287668912
-0.22442892 -0.015813539 1.7080001 4287734705
-0.21937239 -0.015785763 1.705 4287603119
-0.21420632 -0.01574873 1.7010001 4287997362
-0.20918533 -0.015720952 1.6980001 4288325813
-0.2044217 -0.015711695 1.697 4288193712
-0.19919258 -0.015665403 1.692 4288391091
-0.19422081 -0.015637627 1.6890001 4288193198
-0.18948999 -0.015628368 1.6880001 4287864747
-0.18509318 -0.015646884 1.6900001 4287996333
-0.18079221 -0.015674662 1.6930001 4287865262
-0.17668296 -0.015720952 1.6980001 4287339945
-0.17214109 -0.015730212 1.6990001 4287208872
-0.16759373 -0.015739469 1.7 4287077800
-0.16284922 -0.015730212 1.6990001 4286946214
-0.15829641 -0.015739469 1.7 4286748835
-0.15355736 -0.015730212 1.6990001 4286814114
-0.14899907 -0.015739469 1.7 4286616222
-0.14460513 -0.015767246 1.7030001 4286484634
-0.1401948 -0.01579502 1.7060001 4286615963
-0.13584749 -0.015832055 1.71 4286484375
-0.13147832 -0.015869088 1.7140001 4286353302
-0.12723522 -0.01592464 1.72 4286418841
-0.12274557 -0.015952416 1.723 4286353563
-0.11823953 -0.015980192 1.7260001 4286156184
-0.11384862 -0.016026484 1.7310001 4286616222
-0.10924126 -0.016045002 1.733 4286681502
-0.10468325 -0.016072776 1.7360001 4286681502
-0.099936143 -0.016072776 1.7360001 4286549916
-0.09551803 -0.016128328 1.7420001 4286747295
-0.091067098 -0.016183877 1.748 4286813601
-0.086682089 -0.016257947 1.756 4286748321
-0.082160063 -0.016313497 1.7620001 4286682528
-0.077824689 -0.016415343 1.7730001 4286682528
-0.07359381 -0.01655422 1.7880001 4286616481
-0.069434583 -0.016730132 1.807 4287405225
-0.065706812 -0.01704492 1.8410001 4288391345
-0.31560817 -0.012134643 1.8600001 4290099140
-0.30367714 -0.011867159 1.8190001 4288981690
-0.29492617 -0.011717107 1.7960001 4288983743
-0.28743133 -0.011612724 1.7800001 4288392120
-0.28050023 -0.011527912 1.7670001 4288128948
-0.27379626 -0.011449623 1.7550001 4287800496
-0.26777098 -0.011397432 1.7470001 4288195254
-0.26178947 -0.011345239 1.7390001 4288064181
-0.25614733 -0.011306096 1.733 4288261560
-0.25053799 -0.011266951 1.7270001 4288129974
-0.24481913 -0.011221284 1.72 4287932595
-0.23941776 -0.011188664 1.715 4287603376
-0.23418061 -0.011162568 1.7110001 4287405740
-0.22923361 -0.011149519 1.7090001 4287471278
-0.22442892 -0.011142995 1.7080001 4287537326
-0.21937239 -0.011123423 1.705 4287865778
-0.21433227 -0.011103852 1.702 4287996333
-0.20930853 -0.01108428 1.6990001 4290232779
-0.2044217 -0.011071231 1.697 4294508543
-0.19919258 -0.011038612 1.692 4292007647
-0.19364586 -0.010986419 1.6840001 4289968064
-0.18904096 -0.010986419 1.6840001 4291811553
-0.18465507 -0.010999468 1.6860001 4288324782
-0.18100579 -0.011058183 1.6950001 4287338918
-0.17678702 -0.01108428 1.6990001 4287273639
-0.17234373 -0.011097328 1.7010001 4287208361
-0.16759373 -0.011090804 1.7 4287209388
-0.16294506 -0.011090804 1.7 4286748837
-0.15838952 -0.011097328 1.7010001 4286748321
-0.15373813 -0.011097328 1.7010001 4286550942
-0.14908671 -0.011097328 1.7010001 4286747808
-0.14460513 -0.011110376 1.7030001 4286418584
-0.14027697 -0.011136472 1.7070001 4286746777
-0.13600639 -0.011169092 1.7120001 4286418582
-0.13193858 -0.011221284 1.72 4286155412
-0.12745713 -0.011240855 1.723 4285760911
-0.12281682 -0.011247381 1.7240001 4286090391
-0.11837655 -0.011273475 1.728 4286024598
-0.11391439 -0.011299571 1.7320001 4286024598
-0.10943036 -0.011325668 1.7360001 4286484636
-0.10486416 -0.011345239 1.7390001 4286549916
-0.10010884 -0.011345239 1.7390001 4286549916
-0.095627695 -0.01137786 1.7440001 4286549916
-0.091171302 -0.011417004 1.7500001 4286681502
-0.086731449 -0.011462673 1.7570001 4286616222
-0.082206689 -0.011501815 1.7630001 4286616222
-0.077780798 -0.011560532 1.7720001 4286419356
-0.07359381 -0.011664917 1.7880001 4286748321
-0.069396161 -0.011782348 1.8060001 4287207078
-0.06559974 -0.011991116 1.8380001 4288259505
-0.30517966 -0.0069271922 1.8280001 4289376705
-0.29509038 -0.0068097175 1.7970001 4289049536
-0.28726983 -0.006741507 1.779 4288589499
-0.28034148 -0.0066922437 1.766 4288194741
-0.27364025 -0.0066467691 1.7540001 4287866289
-0.26746443 -0.0066126641 1.7450001 4288063668
-0.26133785 -0.0065785586 1.7360001 4287932595
-0.2557039 -0.0065558217 1.7300001 4287604144
-0.24995771 -0.0065292954 1.723 4287472558
-0.24439213 -0.0065065585 1.7170001 4287406765
-0.23913856 -0.0064914003 1.7130001 4287537837
-0.2343175 -0.0064876112 1.7120001 4287471531
-0.22950187 -0.0064838217 1.7110001 4287208361
-0.22442892 -0.006472453 1.7080001 4287602604
-0.21911506 -0.0064535057 1.7030001 4287536297
-0.21408041 -0.0064421371 1.7 4287600548
-0.20918533 -0.006434558 1.6980001 4292468200
-0.20418076 -0.0064231898 1.6950001 4294704895
-0.19895715 -0.006404242 1.6900001 4294966783
-0.19353087 -0.0063777161 1.6830001 4294901247
-0.18870418 -0.0063701365 1.6810001 4294573311
-0.18465507 -0.0063890847 1.6860001 4294639359
-0.18068542 -0.0064118211 1.692 4287205790
-0.17657891 -0.0064307684 1.697 4287009953
-0.17203976 -0.006434558 1.6980001 4286944674
-0.16749515 -0.006438348 1.6990001 4286682017
-0.16275337 -0.006434558 1.6980001 4286550942
-0.15829641 -0.0064421371 1.7 4286616222
-0.15364774 -0.0064421371 1.7 4286549916
-0.14908671 -0.0064459266 1.7010001 4286549916
-0.14443532 -0.0064459266 1.7010001 4286352791
-0.14011262 -0.0064610844 1.705 4286352789
-0.13584749 -0.0064800321 1.71 4286089617
-0.13193858 -0.0065179272 1.72 4285892751
-0.12730919 -0.0065217162 1.7210001 4285695118
-0.12274557 -0.0065292954 1.723 4285893012
-0.11810253 -0.0065330849 1.7240001 4285761426
-0.11371708 -0.0065520322 1.7290001 4286221977
-0.10917822 -0.0065634008 1.7320001 4286418843
-0.10468325 -0.0065785586 1.7360001 4286484123
-0.099936143 -0.0065785586 1.7360001 4286484123
-0.095463201 -0.0065975059 1.7410001 4286549916
-0.091015004 -0.0066202432 1.7470001 4286484123
-0.086583361 -0.0066467691 1.7540001 4286353563
-0.082113437 -0.006673296 1.761 4286287770
-0.077736907 -0.006711191 1.771 4286353309
-0.073470324 -0.0067642438 1.7850001 4286484895
-0.069319308 -0.0068362444 1.8040001 4287207848
-0.065456972 -0.0069499286 1.8340001 4288062126
-0.30534661 -0.0019295634 1.8290001 4289311679
-0.2954188 -0.0018979139 1.7990001 4292339700
-0.28726983 -0.0018768142 1.779 4288326327
-0.28065896 -0.0018652093 1.7680001 4288063155
-0.27426428 -0.0018546595 1.7580001 4287800496
-0.26777098 -0.0018430548 1.7470001 4287801009
-0.26163894 -0.0018335598 1.738 4287406765
-0.25585172 -0.001826175 1.7310001 4287012007
-0.25024784 -0.0018198451 1.725 4286946214
-0.2446768 -0.0018135152 1.7190001 4287274665
-0.23955737 -0.0018103502 1.7160001 4287274665
-0.23472807 -0.0018092953 1.715 4287143079
-0.22963601 -0.0018061303 1.7120001 4287077286
-0.22442892 -0.0018019103 1.7080001 4287142053
-0.21937239 -0.0017987455 1.705 4287404711
-0.21408041 -0.0017934706 1.7 4287731621
-0.20943174 -0.0017934706 1.7 4291151827
-0.20454215 -0.0017913606 1.6980001 4294440702
-0.19942805 -0.0017871406 1.6940001 4294636539
-0.19399084 -0.0017797558 1.687 4294900223
-0.18948999 -0.0017808108 1.6880001 4294703615
-0.18531221 -0.0017850307 1.692 4286612623
-0.18132615 -0.0017913606 1.6980001 4286547860
-0.17657891 -0.0017903056 1.697 4286549402
-0.17203976 -0.0017913606 1.6980001 4286615709
-0.16739658 -0.0017913606 1.6980001 4286682015
-0.16284922 -0.0017924155 1.6990001 4286485149
-0.15829641 -0.0017934706 1.7 4286682015
-0.15364774 -0.0017934706 1.7 4286352537
-0.14899907 -0.0017934706 1.7 4286681502
-0.14452022 -0.0017955805 1.702 4286286744
-0.14003044 -0.0017976905 1.7040001 4286023826
-0.13584749 -0.0018040204 1.71 4285958033
-0.13193858 -0.0018145702 1.72 4285695118
-0.12738316 -0.0018166802 1.7220001 4285366155
-0.12274557 -0.0018177351 1.723 4285497741
-0.11817103 -0.0018198451 1.725 4285497741
-0.11371708 -0.001824065 1.7290001 4286024085
-0.10924126 -0.0018282849 1.733 4286287257
-0.10474356 -0.0018325049 1.7370001 4286287257
-0.10016642 -0.0018356699 1.7400001 4286221464
-0.095682524 -0.0018409448 1.7450001 4286418330
-0.091223396 -0.0018472746 1.751 4286353050
-0.086731449 -0.0018536046 1.7570001 4286287516
-0.082346581 -0.0018630994 1.766 4286287516
-0.077868588 -0.0018715393 1.774 4286287516
-0.073511481 -0.0018841991 1.7860001 4286484895
-0.069319308 -0.0019031888 1.8040001 4287273641
-0.06559974 -0.0019390582 1.8380001 4288325298
-0.30484575 0.0030668164 1.8260001 4289114300
-0.29443353 0.0030113922 1.7930001 4292668149
-0.28694689 0.0029845198 1.7770001 4288260534
-0.28050023 0.0029677241 1.7670001 4287931569
-0.27426428 0.0029526085 1.7580001 4287669423
-0.26792425 0.0029358133 1.748 4287603630
-0.26178947 0.0029206974 1.7390001 4287537837
-0.25585172 0.0029072613 1.7310001 4287143079
-0.24995771 0.0028938251 1.723 4287208872
-0.2446768 0.002887107 1.7190001 4287208872
-0.23955737 0.0028820685 1.7160001 4286879653
-0.23459122 0.0028787095 1.7140001 4286879653
-0.22950187 0.0028736705 1.7110001 4287011493
-0.22429752 0.0028669524 1.7070001 4287142568
-0.21937239 0.0028635939 1.705 4287272871
-0.21420632 0.0028568758 1.7010001 4287336863
-0.20943174 0.0028551961 1.7 4290756300
-0.20454215 0.0028518368 1.6980001 4294637823
-0.19942805 0.0028451188 1.6940001 4294637567
-0.19433582 0.0028384007 1.6900001 4294571775
-0.18971449 0.0028384007 1.6900001 4288979889
-0.18542175 0.0028434396 1.6930001 4285495172
-0.18111259 0.0028484778 1.6960001 4286088340
-0.17647485 0.0028484778 1.6960001 4286155158
-0.17183712 0.0028484778 1.6960001 4286024085
-0.16729797 0.0028501577 1.697 4286156184
-0.16265751 0.0028501577 1.697 4286550942
-0.15811017 0.0028518368 1.6980001 4286550429
-0.15355736 0.0028535163 1.6990001 4286550429
-0.14899907 0.0028551961 1.7 4286155158
-0.14452022 0.0028585552 1.702 4286681502
-0.14003044 0.0028619142 1.7040001 4286418330
-0.13560916 0.0028669524 1.7070001 4286023572
-0.13170846 0.0028837482 1.7170001 4285891986
-0.12716123 0.002887107 1.7190001 4285826193
-0.1226031 0.0028904662 1.7210001 4285826193
-0.11810253 0.0028955047 1.7240001 4285957779
-0.11358554 0.0029005432 1.7270001 4286220951
-0.10917822 0.0029089409 1.7320001 4286287257
-0.10474356 0.0029173386 1.7370001 4286221464
-0.10022398 0.0029240567 1.7410001 4286353050
-0.095682524 0.0029307748 1.7450001 4286089880
-0.091223396 0.0029408517 1.751 4286418845
-0.086780816 0.0029526085 1.7580001 4286287516
-0.082439832 0.0029694038 1.7680001 4286156700
-0.07800027 0.0029845198 1.7770001 4286353309
-0.07359381 0.0030029945 1.7880001 4286419102
-0.069434583 0.0030349053 1.807 4287076775
-0.065706812 0.0030920096 1.8410001 4288325811
-0.30484575 0.0080600316 1.8260001 4289312193
-0.29426932 0.0079099536 1.7920001 4289247429
-0.28662395 0.0078349151 1.7750001 4288457913
-0.28050023 0.007799603 1.7670001 4287931569
-0.27426428 0.0077598765 1.7580001 4287603630
-0.26792425 0.0077157365 1.748 4287339945
-0.26194 0.007680424 1.7400001 4287208359
-0.25614733 0.007649526 1.733 4287076773
-0.25053799 0.0076230415 1.7270001 4287010980
-0.24510381 0.0076009715 1.7220001 4287010980
-0.24011578 0.0075921435 1.72 4287010980
-0.23472807 0.007570073 1.715 4286945187
-0.22963601 0.007556831 1.7120001 4286879396
-0.22456034 0.007543589 1.7090001 4286813603
-0.21975838 0.007539175 1.7080001 4287009699
-0.21458411 0.0075215185 1.7040001 4287271072
-0.20955493 0.007508277 1.7010001 4289375417
-0.20466261 0.0074994485 1.6990001 4294769919
-0.19978122 0.0074906205 1.697 4294637823
-0.19502577 0.0074862065 1.6960001 4293651447
-0.19038804 0.0074862065 1.6960001 4284572787
-0.18585984 0.0074906205 1.697 4284969857
-0.18143295 0.0074994485 1.6990001 4285497230
-0.17657891 0.0074906205 1.697 4285760400
-0.17203976 0.007495035 1.6980001 4286221464
-0.1671994 0.0074862065 1.6960001 4286484636
-0.16265751 0.0074906205 1.697 4286682528
-0.15801705 0.0074906205 1.697 4286418843
-0.15355736 0.0074994485 1.6990001 4286353050
-0.14908671 0.007508277 1.7010001 4286353050
-0.14460513 0.0075171045 1.7030001 4286681502
-0.14003044 0.0075215185 1.7040001 4286615709
-0.13560916 0.0075347605 1.7070001 4286220951
-0.13155504 0.007570073 1.715 4286089365
-0.12716123 0.007587729 1.7190001 4286286744
-0.12267434 0.0076009715 1.7220001 4286155158
-0.11830804 0.0076230415 1.7270001 4286286744
-0.11378285 0.007636284 1.7300001 4286484636
-0.10943036 0.007662768 1.7360001 4286353050
-0.10498476 0.007684838 1.7410001 4286287257
-0.10045424 0.0077024945 1.7450001 4286221464
-0.095847026 0.0077157365 1.748 4286221466
-0.091327593 0.0077378065 1.7530001 4285892501
-0.086928904 0.007773119 1.761 4286155930
-0.082579724 0.0078172591 1.771 4286353309
-0.07817585 0.0078614 1.7810001 4286221466
-0.07384076 0.0079187825 1.794 4286616224
-0.069665134 0.0080026491 1.8130001 4287207846
-0.30484575 0.013053247 1.8260001 4289312706
-0.29443353 0.012817344 1.7930001 4288392374
-0.28710836 0.012710116 1.7780001 4288129461
-0.28065896 0.01263863 1.7680001 4287735216
-0.27426428 0.012567145 1.7580001 4287472558
-0.26792425 0.01249566 1.748 4287405738
-0.26239163 0.012459916 1.743 4287143079
-0.25659072 0.012409877 1.7360001 4286945187
-0.25097319 0.012366986 1.7300001 4287010467
-0.24553081 0.012331243 1.725 4286878881
-0.24039498 0.012309797 1.7220001 4286813088
-0.23500182 0.012274054 1.7170001 4286944674
-0.22963601 0.012238312 1.7120001 4286615709
-0.22482312 0.012231163 1.7110001 4286681504
-0.21988705 0.012216865 1.7090001 4286943906
-0.21471006 0.012188272 1.705 4286942107
-0.20955493 0.012159677 1.7010001 4286480784
-0.20490353 0.012159677 1.7010001 4294244607
-0.20013441 0.012152529 1.7 4293586169
-0.19537075 0.012145381 1.6990001 4288586160
-0.19061255 0.012138233 1.6980001 4285034367
-0.18585984 0.012131084 1.697 4284838784
-0.18121938 0.012131084 1.697 4284970886
-0.17647485 0.012123935 1.6960001 4285826706
-0.17203976 0.012138233 1.6980001 4286418843
-0.16729797 0.012131084 1.697 4286616222
-0.16256167 0.012123935 1.6960001 4286353050
-0.15811017 0.012138233 1.6980001 4286418843
-0.15355736 0.012145381 1.6990001 4286353050
-0.14917436 0.012166826 1.702 4286353050
-0.14469005 0.012181124 1.7040001 4286418843
-0.14011262 0.012188272 1.705 4286944674
-0.13560916 0.012202569 1.7070001 4287075746
-0.13147832 0.012252609 1.7140001 4287273125
-0.12716123 0.012288352 1.7190001 4286746779
-0.12274557 0.012316946 1.723 4286944158
-0.11837655 0.012352688 1.728 4286813342
-0.11384862 0.012374135 1.7310001 4287010467
-0.1094934 0.012417026 1.7370001 4286484123
-0.10504506 0.012452768 1.7420001 4286155671
-0.10056938 0.012488511 1.7470001 4286155671
-0.095901862 0.012502807 1.7490001 4285958294
-0.091431782 0.012545699 1.7550001 4286024087
-0.087027632 0.012602888 1.7630001 4286287259
-0.082766235 0.01268867 1.7750001 4286353052
-0.078395315 0.012767305 1.7860001 4286418332
-0.074087724 0.012867384 1.8000001 4286747297
-0.069857262 0.012996058 1.8180001 4287865262
-0.3050127 0.018056344 1.8270001 4289378501
-0.29476196 0.017740086 1.7950001 4288392120
-0.28726983 0.017581958 1.779 4288392635
-0.28081772 0.017483126 1.7690001 4287866548
-0.27457628 0.017394179 1.7600001 4287603376
-0.26807752 0.017285464 1.7490001 4287340458
-0.2622411 0.017216284 1.7420001 4287406251
-0.25659072 0.017156987 1.7360001 4287076773
-0.25111827 0.017107571 1.7310001 4287142053
-0.24567316 0.017058155 1.7260001 4286813342
-0.24025537 0.01700874 1.7210001 4286484375
-0.23500182 0.016969208 1.7170001 4288852923
-0.22990426 0.016939558 1.7140001 4289313476
-0.22495453 0.016919792 1.7120001 4286747295
-0.21988705 0.016890142 1.7090001 4286812574
-0.21458411 0.016840728 1.7040001 4286679192
-0.20955493 0.016811078 1.7010001 4285757831
-0.20478308 0.016801197 1.7 4291678431
-0.20013441 0.016801197 1.7 4293586428
-0.19548574 0.016801197 1.7 4284441201
-0.19061255 0.016781431 1.6980001 4285165953
-0.18585984 0.016771547 1.697 4285694093
-0.18111259 0.016761664 1.6960001 4285628814
-0.1763708 0.016751781 1.6950001 4285958292
-0.17193843 0.016771547 1.697 4286089878
-0.16729797 0.016771547 1.697 4286418843
-0.16275337 0.016781431 1.6980001 4286287257
-0.15820329 0.016791314 1.6990001 4286287257
-0.15364774 0.016801197 1.7 4286155671
-0.14917436 0.016820962 1.702 4286286744
-0.14460513 0.016830845 1.7030001 4286155158
-0.14011262 0.016850611 1.705 4287207846
-0.13560916 0.016870378 1.7070001 4287404711
-0.13101807 0.016880259 1.7080001 4287141537
-0.12716123 0.016988974 1.7190001 4286944158
-0.12281682 0.017038388 1.7240001 4287141537
-0.11844505 0.017087804 1.7290001 4286813342
-0.11398017 0.017127337 1.733 4286484123
-0.10955644 0.017176753 1.738 4286352537
-0.10504506 0.017216284 1.7420001 4286024085
-0.10056938 0.0172657 1.7470001 4286155671
-0.096066363 0.017315114 1.7520001 4286024085
-0.091535985 0.01736453 1.7570001 4286024087
-0.087076992 0.017433712 1.7640001 4286089880
-0.082719609 0.017532542 1.774 4286089880
-0.078483112 0.017670903 1.7880001 4286615711
-0.074252367 0.017829033 1.8040001 4286747298
-0.07001096 0.018006928 1.8220001 4287930542
-0.30551356 0.023090146 1.83 4289510085
-0.2954188 0.022699002 1.7990001 4288655803
-0.28807724 0.022509737 1.784 4288261047
-0.2811352 0.022345711 1.771 4287932341
-0.27488831 0.022232153 1.7620001 4287471790
-0.2682308 0.02208074 1.7500001 4287471533
-0.26254216 0.022005035 1.7440001 4287274154
-0.25688636 0.021929329 1.738 4287010982
-0.25126335 0.021853626 1.7320001 4286878881
-0.24553081 0.021765301 1.725 4286680986
-0.24025537 0.021714831 1.7210001 4286286226
-0.23500182 0.021664361 1.7170001 4293128953
-0.23003839 0.021639125 1.715 4293326847
-0.22508591 0.02161389 1.7130001 4286286998
-0.21975838 0.021550803 1.7080001 4286418584
-0.21471006 0.02151295 1.705 4286351510
-0.20967813 0.021475097 1.702 4286416533
-0.20502399 0.021475097 1.702 4286481813
-0.20036985 0.021475097 1.702 4293192699
-0.19548574 0.021449862 1.7 4284639863
-0.19061255 0.021424627 1.6980001 4285167236
-0.18585984 0.021412009 1.697 4285431435
-0.18111259 0.021399392 1.6960001 4285694607
-0.17647485 0.021399392 1.6960001 4285892499
-0.17193843 0.021412009 1.697 4285826706
-0.16749515 0.021437244 1.6990001 4286155671
-0.16284922 0.021437244 1.6990001 4286353048
-0.15829641 0.021449862 1.7 4286352537
-0.15364774 0.021449862 1.7 4286220437
-0.14917436 0.021475097 1.702 4286089365
-0.14460513 0.021487715 1.7030001 4286023572
-0.1401948 0.021525567 1.7060001 4286220951
-0.13576806 0.02156342 1.7090001 4286483607
-0.13117148 0.021576038 1.71 4286549400
-0.12730919 0.021714831 1.7210001 4286221205
-0.12288806 0.021765301 1.725 4286615963
-0.11858205 0.021841006 1.7310001 4286484377
-0.11404593 0.021878859 1.7340001 4286089878
-0.10961947 0.021941949 1.7390001 4286155671
-0.10504506 0.021979799 1.7420001 4285892501
-0.10062695 0.022055507 1.748 4285958294
-0.09623085 0.02214383 1.7550001 4285761172
-0.091848575 0.02224477 1.7630001 4286155673
-0.087373175 0.022333093 1.7700001 4286155673
-0.082999378 0.022459269 1.7800001 4286418332
-0.078702584 0.022623297 1.7930001 4286615969
-0.074540481 0.022850413 1.8110001 4287142056
-0.29574722 0.027649088 1.8010001 4288524219
-0.28807724 0.027388101 1.784 4288261047
-0.28129396 0.027203878 1.7720001 4287998134
-0.27504432 0.027065709 1.7630001 4287537583
-0.26853737 0.026896836 1.7520001 4287405740
-0.26269272 0.026789373 1.7450001 4287339947
-0.25718197 0.026712611 1.7400001 4287076262
-0.2514084 0.026605148 1.733 4286813088
-0.24553081 0.026482331 1.725 4286615709
-0.24011578 0.026405569 1.72 4286615961
-0.23500182 0.026359515 1.7170001 4292602354
-0.22990426 0.026313458 1.7140001 4293326846
-0.22482312 0.026267402 1.7110001 4286286998
-0.2196297 0.026205992 1.7070001 4286549916
-0.21458411 0.026159938 1.7040001 4286352023
-0.20955493 0.026113881 1.7010001 4286219924
-0.20478308 0.026098529 1.7 4285298822
-0.19989894 0.026067825 1.6980001 4292601075
-0.19502577 0.026037121 1.6960001 4285034880
-0.19027577 0.026021767 1.6950001 4285628300
-0.18564078 0.026021767 1.6950001 4285628814
-0.18089901 0.026006415 1.6940001 4285891986
-0.1763708 0.026021767 1.6950001 4286023574
-0.17183712 0.026037121 1.6960001 4285760913
-0.16739658 0.026067825 1.6980001 4285826704
-0.16275337 0.026067825 1.6980001 4285958290
-0.15820329 0.026083177 1.6990001 4286286998
-0.15346698 0.026067825 1.6980001 4286023826
-0.14908671 0.026113881 1.7010001 4286155412
-0.14452022 0.026129235 1.702 4286286998
-0.1401948 0.02619064 1.7060001 4286286744
-0.13560916 0.026205992 1.7070001 4286286744
-0.13117148 0.02625205 1.71 4286417816
-0.12723522 0.026405569 1.72 4286220951
-0.12295929 0.026497683 1.7260001 4286418330
-0.11851355 0.026559092 1.7300001 4286155158
-0.11404593 0.0266205 1.7340001 4285826195
-0.10955644 0.026681907 1.738 4286024087
-0.10510537 0.026758667 1.743 4286024087
-0.10062695 0.026835429 1.748 4285826965
-0.096340515 0.026973596 1.7570001 4285827735
-0.091952771 0.027096415 1.7650001 4285761943
-0.087521262 0.02721923 1.7730001 4286024345
-0.083139263 0.027372751 1.7830001 4286352797
-0.078790367 0.027556976 1.7950001 4286747557
-0.074663959 0.027848667 1.8140001 4287536814
-0.29722515 0.032736719 1.8100001 4288853184
-0.28920758 0.032393076 1.7910001 4288458685
-0.28224641 0.03215795 1.7780001 4287998134
-0.27582437 0.031977084 1.7680001 4287800498
-0.26961026 0.031814303 1.7590001 4287405485
-0.26389703 0.031705782 1.7530001 4287273899
-0.2580688 0.031579178 1.7460001 4287142313
-0.25227883 0.03145257 1.7390001 4286813603
-0.24638484 0.03130788 1.7310001 4286549916
-0.2409534 0.031217447 1.7260001 4287142307
-0.23554929 0.031127013 1.7210001 4287076514
-0.2304408 0.031072754 1.7180001 4287208098
-0.22521731 0.031000407 1.7140001 4287273893
-0.22014438 0.030946147 1.7110001 4286221464
-0.21508785 0.030891888 1.7080001 4285892499
-0.21017091 0.030855713 1.7060001 4285760400
-0.20514446 0.030801456 1.7030001 4286023058
-0.20025212 0.030765282 1.7010001 4287865262
-0.19537075 0.030729109 1.6990001 4285825679
-0.19061255 0.030711023 1.6980001 4285891986
-0.18575031 0.030674849 1.6960001 4285826193
-0.18121938 0.030692935 1.697 4285957779
-0.17668296 0.030711023 1.6980001 4285957779
-0.1722424 0.030747196 1.7 4285891986
-0.16759373 0.030747196 1.7 4285629327
-0.16304092 0.030765282 1.7010001 4285760913
-0.15838952 0.030765282 1.7010001 4286023572
-0.15364774 0.030747196 1.7 4286023572
-0.14917436 0.03078337 1.702 4286089619
-0.14477496 0.030837627 1.705 4286220951
-0.14044133 0.030909974 1.7090001 4286220951
-0.13584749 0.03092806 1.71 4286155158
-0.13140161 0.030982321 1.7130001 4286155158
-0.12753111 0.031181272 1.7240001 4286220951
-0.12317301 0.031271707 1.7290001 4286089365
-0.11871907 0.031344052 1.733 4286155671
-0.11424325 0.031416398 1.7370001 4285892501
-0.10980857 0.031506833 1.7420001 4286089880
-0.10534657 0.031597264 1.7470001 4285958552
-0.10097235 0.031723868 1.7540001 4286221723
-0.096559845 0.031850476 1.761 4285893528
-0.092213258 0.032013256 1.7700001 4285761942
-0.087866805 0.032194123 1.7800001 4286090138
-0.083558924 0.032411162 1.7920001 4286419103
-0.079141527 0.032610111 1.8030001 4286879141
-0.29001498 0.037394688 1.7960001 4288590014
-0.28256389 0.03706155 1.7800001 4288195513
-0.2761364 0.036853336 1.7700001 4287866291
-0.27007011 0.036686771 1.7620001 4287471278
-0.26404756 0.036520202 1.7540001 4287142313
-0.25821659 0.036374453 1.7470001 4286945189
-0.25242391 0.036228705 1.7400001 4286682017
-0.24695419 0.036124602 1.7350001 4286813603
-0.2413722 0.035999674 1.7290001 4286550429
-0.23568615 0.035853926 1.7220001 4286484636
-0.2304408 0.035770644 1.7180001 4286418843
-0.22534871 0.035708178 1.715 4286418843
-0.22027305 0.035645716 1.7120001 4286221464
-0.21533969 0.035604071 1.71 4285761426
-0.21017091 0.035520788 1.7060001 4285826706
-0.20502399 0.035437506 1.702 4286023572
-0.20001668 0.03537504 1.6990001 4286089878
-0.19514076 0.035333399 1.697 4285891986
-0.19038804 0.035312578 1.6960001 4285891986
-0.18553127 0.035270937 1.6940001 4285826193
-0.18089901 0.035270937 1.6940001 4285760400
-0.17657891 0.035333399 1.697 4285891986
-0.17203976 0.035354219 1.6980001 4285694607
-0.16739658 0.035354219 1.6980001 4285957779
-0.16294506 0.035395861 1.7 4285760400
-0.15838952 0.035416685 1.7010001 4285826193
-0.15373813 0.035416685 1.7010001 4285957779
-0.14917436 0.035437506 1.702 4285958292
-0.14469005 0.035479147 1.7040001 4286418330
-0.14044133 0.03558325 1.7090001 4287076260
-0.13592695 0.035624895 1.7110001 4286484123
-0.13147832 0.035687357 1.7140001 4286089365
-0.12760508 0.035916388 1.725 4286220951
