# .PCD v0.7 - Point Cloud Data file format
VERSION 0.7
FIELDS x y z rgba
SIZE 4 4 4 4
TYPE F F F U
COUNT 1 1 1 1
WIDTH 1095
HEIGHT 1
VIEWPOINT 0 0 0 1 0 0 0
POINTS 1095
DATA ascii
-0.097085275 0.029119402 1.6100001 4288326581
-0.092740275 0.029137488 1.6110001 4287931569
-0.088499486 0.029191749 1.6140001 4288063155
-0.084294379 0.029264096 1.618 4287734190
-0.080067396 0.029336443 1.6220001 4287734190
-0.075865164 0.029426875 1.6270001 4287668397
-0.07159169 0.029499222 1.631 4287931569
-0.067296349 0.029571569 1.6350001 4288128948
-0.063055977 0.029680086 1.641 4288194227
-0.058996934 0.029897127 1.6530001 4288325298
-0.055102963 0.030240772 1.6720001 4288785333
-0.051437516 0.03078337 1.702 4278190080
-0.22774783 0.034646302 1.664 4289641411
-0.22118561 0.034333985 1.649 4288984511
-0.21575662 0.034188237 1.6420001 4288721085
-0.21113789 0.034167416 1.641 4288326840
-0.20665056 0.034167416 1.641 4288458939
-0.20191684 0.034125775 1.6390001 4288327353
-0.19683266 0.034021668 1.6340001 4288261560
-0.19224676 0.034000847 1.6330001 4288064181
-0.1877813 0.034000847 1.6330001 4288129461
-0.18331584 0.034000847 1.6330001 4288457913
-0.17830278 0.033896741 1.628 4288392631
-0.17342384 0.033813458 1.6240001 4288392631
-0.16856678 0.033730175 1.6200001 4288063666
-0.1637316 0.033646889 1.6160001 4288195254
-0.15911546 0.033605248 1.6140001 4287932082
-0.15451027 0.033563606 1.6120001 4287932082
-0.15000911 0.033542782 1.6110001 4288392120
-0.14542307 0.033501141 1.6090001 4288918464
-0.14067265 0.033417858 1.605 4288984257
-0.13619885 0.033397038 1.6040001 4289181636
-0.13197705 0.033438679 1.6060001 4289181890
-0.12750599 0.033417858 1.605 4289181890
-0.12296368 0.033376217 1.603 4289116097
-0.11828437 0.033292931 1.5990001 4289313476
-0.11391189 0.033292931 1.5990001 4288984511
-0.1094709 0.03327211 1.598 4288787132
-0.10529846 0.033334572 1.6010001 4288589753
-0.10104658 0.033376217 1.603 4288326327
-0.096783772 0.033417858 1.605 4287997362
-0.092394888 0.033417858 1.605 4287799983
-0.088060826 0.033438679 1.6060001 4287799983
-0.083877593 0.033521961 1.6100001 4287668397
-0.079771213 0.033646889 1.6160001 4287668397
-0.075538762 0.033730175 1.6200001 4287734190
-0.071328327 0.033834279 1.6250001 4287734190
-0.067008235 0.033896741 1.628 4287799983
-0.062748574 0.034000847 1.6330001 4287668397
-0.058640029 0.034209058 1.6430001 4287668397
-0.054542702 0.034458913 1.6550001 4287996848
-0.050530862 0.034812871 1.6720001 4288850361
-0.046700917 0.03537504 1.6990001 4291482075
-0.043985702 0.036999088 1.7770001 4278190080
-0.23229806 0.039196528 1.664 4289574848
-0.2252842 0.038772527 1.646 4288983739
-0.21997841 0.038631193 1.6400001 4288655292
-0.21536243 0.038607638 1.6390001 4288260534
-0.21113789 0.038654748 1.641 4288194741
-0.20652461 0.038631193 1.6400001 4288326840
-0.20179364 0.038584083 1.6380001 4288261560
-0.19695313 0.038513415 1.6350001 4288129974
-0.19224676 0.038466305 1.6330001 4287998388
-0.18720633 0.038348526 1.628 4288129461
-0.18241778 0.038277857 1.6250001 4288063668
-0.17731707 0.038136523 1.6190001 4287932082
-0.17267632 0.038089413 1.6170001 4288129461
-0.16794246 0.038018744 1.6140001 4287932082
-0.16332632 0.037971634 1.6120001 4288392633
-0.15852395 0.037877414 1.608 4288655805
-0.15374346 0.037783191 1.6040001 4288787391
-0.14898485 0.037688967 1.6 4288852671
-0.14442886 0.037641857 1.598 4288589753
-0.13997148 0.037618302 1.5970001 4288787132
-0.13560447 0.037618302 1.5970001 4288721339
-0.13131963 0.037641857 1.598 4288655546
-0.12687044 0.037618302 1.5970001 4288655546
-0.12242673 0.037594743 1.5960001 4288523960
-0.11806244 0.037594743 1.5960001 4288260788
-0.11369817 0.037594743 1.5960001 4288523960
-0.1093339 0.037594743 1.5960001 4288129202
-0.10516693 0.037665412 1.5990001 4288195254
-0.10104658 0.037759636 1.603 4287932082
-0.09666317 0.037759636 1.603 4287537324
-0.092394888 0.037806746 1.605 4287865262
-0.08800599 0.037806746 1.605 4287668397
-0.083773397 0.037877414 1.608 4287405740
-0.079524398 0.037948079 1.6110001 4287471533
-0.075305618 0.038042303 1.6150001 4287603117
-0.071064964 0.038136523 1.6190001 4287471531
-0.066802427 0.038230747 1.623 4287602604
-0.062633298 0.038395636 1.6300001 4287668397
-0.058497261 0.038607638 1.6390001 4287536811
-0.054377921 0.038866747 1.6500001 4287667883
-0.050198421 0.03912586 1.6610001 4288259509
-0.046123687 0.039526306 1.6780001 4288587702
-0.042376772 0.040327195 1.7120001 4289771457
-0.23656361 0.043694172 1.6620001 4278190080
-0.22922681 0.043168366 1.6420001 4289050304
-0.22377867 0.042984337 1.6350001 4288721085
-0.21850294 0.042826597 1.6290001 4288457913
-0.21417983 0.042852886 1.6300001 4289050050
-0.20985124 0.042879175 1.631 4288589499
-0.20539124 0.042879175 1.631 4287865776
-0.20068488 0.042826597 1.6290001 4288129461
-0.19562806 0.042695146 1.6240001 4287997875
-0.19095175 0.042642567 1.6220001 4288064181
-0.18582644 0.042484824 1.6160001 4287866289
-0.18107072 0.042405955 1.613 4288063668
-0.17622185 0.042300794 1.6090001 4288524219
-0.17150165 0.042221926 1.6060001 4288787391
-0.16679788 0.042143054 1.603 4288458426
-0.16211049 0.042064182 1.6 4288721598
-0.1576367 0.042037893 1.5990001 4288655805
-0.15297666 0.041959021 1.5960001 4288458426
-0.14833304 0.041880153 1.5930001 4288524217
-0.14379621 0.041827574 1.5910001 4288524217
-0.13953325 0.04185386 1.5920001 4288787389
-0.13517991 0.04185386 1.5920001 4288524217
-0.13074438 0.041827574 1.5910001 4288655803
-0.12631434 0.041801285 1.59 4288524217
-0.12196647 0.041801285 1.59 4288392374
-0.11754463 0.041774992 1.5890001 4288392374
-0.11334196 0.041827574 1.5910001 4288063409
-0.10899136 0.041827574 1.5910001 4287734703
-0.10490384 0.041932732 1.595 4287603117
-0.10079444 0.042037893 1.5990001 4287537324
-0.096421964 0.042037893 1.5990001 4287471531
-0.09210705 0.042064182 1.6 4287471531
-0.087786667 0.042090476 1.6010001 4287537324
-0.083617106 0.042195633 1.605 4287339945
-0.079326943 0.042248216 1.6070001 4287010980
-0.075025849 0.042300794 1.6090001 4287339432
-0.070757702 0.042379662 1.6120001 4287405225
-0.066596627 0.042537406 1.618 4287339432
-0.062441174 0.042721435 1.6250001 4287339432
-0.05828312 0.042931758 1.6330001 4287471018
-0.054048359 0.043115791 1.6400001 4287405225
-0.049805537 0.04332611 1.6480001 4287865008
-0.045738861 0.043746751 1.664 4288193714
-0.041733202 0.044325136 1.6860001 4288521648
-0.25540829 0.050154552 1.728 4278190080
-0.24183372 0.048384048 1.6670001 4278190080
-0.2341439 0.047745507 1.6450001 4289181120
-0.22783078 0.047368187 1.6320001 4288524219
-0.22282058 0.047252089 1.628 4288589499
-0.21769814 0.047106966 1.623 4288852671
-0.21339144 0.04713599 1.6240001 4288655292
-0.20895059 0.04713599 1.6240001 4288523706
-0.20413196 0.047048915 1.6210001 4288326327
-0.19957612 0.047019888 1.6200001 4288392120
-0.19454391 0.046874769 1.6150001 4288261047
-0.19000995 0.046845745 1.6140001 4288524219
-0.1849065 0.046671599 1.608 4288721598
-0.1802849 0.046613548 1.6060001 4288655805
-0.1754552 0.046497449 1.6020001 4288524219
-0.17086093 0.046439398 1.6 4288721598
-0.16638166 0.046410378 1.5990001 4288590012
-0.16180654 0.046352327 1.5970001 4288261047
-0.15734094 0.046323299 1.5960001 4288392633
-0.15268911 0.046236228 1.5930001 4288590012
-0.14814681 0.046178177 1.5910001 4288590012
-0.14352506 0.046091102 1.5880001 4288326840
-0.13927031 0.04612013 1.5890001 4288326840
-0.13484025 0.046091102 1.5880001 4288195254
-0.13049786 0.046091102 1.5880001 4288326838
-0.12607601 0.046062078 1.5870001 4288392631
-0.12173635 0.046062078 1.5870001 4288195252
-0.11747065 0.046091102 1.5880001 4288129459
-0.11305701 0.046062078 1.5870001 4288195252
-0.10878585 0.046091102 1.5880001 4287932082
-0.10464076 0.046178177 1.5910001 4287668910
-0.10054229 0.046294279 1.595 4287339945
-0.096301354 0.046352327 1.5970001 4287405738
-0.09210705 0.046439398 1.6 4287339945
-0.087841496 0.046497449 1.6020001 4287405738
-0.083669208 0.046613548 1.6060001 4287274152
-0.079326943 0.046642572 1.6070001 4287142566
-0.075119101 0.04675867 1.6110001 4287208359
-0.070801593 0.046816718 1.613 4287142053
-0.066678949 0.047019888 1.6200001 4287339432
-0.062441174 0.047165018 1.6250001 4287273639
-0.058211736 0.047339164 1.631 4287273639
-0.053916533 0.047484286 1.636 4287339432
-0.049624205 0.047658436 1.6420001 4287668397
-0.045518965 0.048064776 1.6560001 4287339432
-0.041485671 0.048645273 1.6760001 4287798954
-0.037607219 0.049574062 1.7080001 4288719540
-0.034402244 0.05177993 1.784 4278190080
-0.2477224 0.053228311 1.6760001 4278190080
-0.23806186 0.052116737 1.641 4288983741
-0.23200884 0.051767386 1.6300001 4288655292
-0.22643475 0.051513314 1.6220001 4288655292
-0.22172564 0.051449794 1.6200001 4288589499
-0.2167592 0.051322762 1.6160001 4288523706
-0.21207744 0.051259246 1.6140001 4288195254
-0.20727795 0.051163964 1.6110001 4288261047
-0.20236896 0.051036928 1.6070001 4288721598
-0.19785139 0.05100517 1.6060001 4288655805
-0.19285747 0.050846372 1.6010001 4288524219
-0.18859723 0.050878134 1.6020001 4288458426
-0.18398657 0.050814614 1.6 4288392633
-0.17949909 0.050782859 1.5990001 4288458426
-0.17490758 0.050719339 1.5970001 4288524219
-0.17032698 0.050655819 1.595 4288458426
-0.16575734 0.050592303 1.5930001 4288392633
-0.1610973 0.050497022 1.59 4288261047
-0.15665086 0.050465263 1.5890001 4288392120
-0.15220986 0.050433502 1.5880001 4288589499
-0.14768124 0.050369985 1.5860001 4288129974
-0.14316353 0.050306465 1.5840001 4288261047
-0.13883208 0.050306465 1.5840001 4288261047
-0.1344157 0.050274707 1.5830001 4288063668
-0.13000479 0.050242953 1.582 4288195252
-0.12559935 0.050211191 1.5810001 4288129459
-0.1212761 0.050211191 1.5810001 4288129459
-0.11710078 0.050274707 1.5830001 4287866287
-0.11291453 0.050338227 1.585 4287997873
-0.10858033 0.050338227 1.585 4287668908
-0.10437768 0.050401747 1.5870001 4287405738
-0.10010105 0.050433502 1.5880001 4287405738
-0.095999859 0.050560541 1.5920001 4287142566
-0.091761641 0.050624058 1.5940001 4287010980
-0.087622166 0.050751098 1.598 4287274152
-0.08351291 0.050909892 1.603 4287274152
-0.079277582 0.05100517 1.6060001 4287339945
-0.074979216 0.05106869 1.608 4287207846
-0.070757702 0.051195726 1.6120001 4286747295
-0.066596627 0.051386278 1.618 4287076260
-0.062364317 0.051545076 1.623 4287273639
-0.058033284 0.05164035 1.626 4287076260
-0.053718798 0.051767386 1.6300001 4287339945
-0.049442872 0.051957943 1.636 4287339945
-0.045299064 0.052339051 1.6480001 4287603117
-0.041262899 0.052942473 1.6670001 4287536811
-0.037298962 0.053799972 1.6940001 4287930540
-0.033553757 0.055260897 1.7400001 4289245113
-0.24402724 0.056949008 1.651 4289443262
-0.23661114 0.056259137 1.631 4288588983
-0.23087013 0.05594869 1.6220001 4288260534
-0.22573675 0.055776224 1.6170001 4288128948
-0.22117817 0.055741731 1.6160001 4288260534
-0.21635683 0.055638246 1.613 4288589499
-0.21168324 0.055569261 1.6110001 4288392633
-0.20689195 0.05546578 1.608 4288326840
-0.20211709 0.055362295 1.605 4288261047
-0.19748181 0.05529331 1.603 4288195254
-0.192737 0.055189829 1.6 4287997875
-0.18824406 0.055155341 1.5990001 4288195254
-0.1836416 0.055086352 1.5970001 4288326840
-0.17882556 0.054948375 1.5930001 4288392633
-0.17446949 0.054948375 1.5930001 4288392633
-0.17000663 0.054913878 1.5920001 4288261047
-0.16544518 0.054844894 1.59 4288392633
-0.16079335 0.054741412 1.5870001 4288524219
-0.15625651 0.054672427 1.585 4288129461
-0.15192232 0.054672427 1.585 4288063668
-0.147495 0.054637928 1.5840001 4288261047
-0.14307316 0.054603439 1.5830001 4288129461
-0.13874443 0.054603439 1.5830001 4287932082
-0.13433078 0.054568946 1.582 4287866289
-0.12984043 0.054499958 1.58 4287866289
-0.12551992 0.054499958 1.58 4287866289
-0.12119939 0.054499958 1.58 4287800496
-0.11702681 0.054568946 1.582 4287734703
-0.11305701 0.054741412 1.5870001 4287537324
-0.10871734 0.054741412 1.5870001 4287208359
-0.10437768 0.054741412 1.5870001 4287274152
-0.10010105 0.054775905 1.5880001 4287010980
-0.095999859 0.054913878 1.5920001 4287076773
-0.091876782 0.055051856 1.5960001 4287142566
-0.087676995 0.055155341 1.5990001 4287274152
-0.08351291 0.05529331 1.603 4287208359
-0.079277582 0.055396792 1.6060001 4286944674
-0.075072475 0.055534769 1.6100001 4287207846
-0.070845492 0.055672742 1.6140001 4287141539
-0.066596627 0.055810712 1.618 4286549916
-0.062325895 0.05594869 1.6220001 4287142053
-0.057997596 0.056052174 1.6250001 4286813088
-0.053718798 0.05622464 1.6300001 4287010467
-0.049473096 0.056466091 1.6370001 4286944674
-0.045299064 0.056845523 1.6480001 4287010980
-0.041213389 0.057431914 1.6650001 4287010980
-0.037166853 0.05822527 1.6880001 4287338918
-0.033245217 0.05946704 1.7240001 4288653234
-0.24809031 0.061351996 1.6480001 4278190080
-0.24092335 0.060681891 1.6300001 4288786103
-0.23501536 0.060309608 1.6200001 4288194741
-0.22987378 0.06012347 1.6150001 4287734190
-0.22489913 0.059974555 1.6110001 4288326327
-0.22035699 0.059937328 1.6100001 4288128948
-0.21582028 0.059900098 1.6090001 4288195254
-0.21102627 0.059788417 1.6060001 4288195254
-0.20624864 0.059676729 1.603 4288129461
-0.20136149 0.059527822 1.5990001 4287997875
-0.19674264 0.059453364 1.5970001 4287997875
-0.19225515 0.059416134 1.5960001 4288063155
-0.18765543 0.059341677 1.5940001 4288063155
-0.18306665 0.059267219 1.5920001 4288063155
-0.17815201 0.059081081 1.5870001 4288194741
-0.17370284 0.059043851 1.5860001 4288194741
-0.16915232 0.058969393 1.5840001 4288129461
-0.16471681 0.058932167 1.5830001 4288195254
-0.16008411 0.058820486 1.58 4288326840
-0.15556642 0.058746029 1.5780001 4288063668
-0.15134721 0.058783256 1.5790001 4288063155
-0.14693631 0.058746029 1.5780001 4287996848
-0.14280201 0.058820486 1.58 4287865776
-0.1384815 0.058820486 1.58 4287668910
-0.13399114 0.058746029 1.5780001 4287668910
-0.12942955 0.058634341 1.575 4287734703
-0.1251227 0.058634341 1.575 4287668910
-0.12089255 0.058671571 1.5760001 4287537324
-0.11673091 0.058746029 1.5780001 4287536811
-0.11255834 0.058820486 1.58 4287405225
-0.10851183 0.058969393 1.5840001 4287339432
-0.1041146 0.058932167 1.5830001 4287010467
-0.099911936 0.059006624 1.585 4287010467
-0.095818952 0.059155539 1.5890001 4286944674
-0.091646515 0.059267219 1.5920001 4286878881
-0.087457672 0.059378907 1.595 4286878881
-0.083252423 0.059490588 1.598 4286944674
-0.079030767 0.059602272 1.6010001 4287405225
-0.074839331 0.059751187 1.605 4286813088
-0.070669912 0.059937328 1.6100001 4286615963
-0.066473149 0.06012347 1.6150001 4286681502
-0.062210619 0.060272381 1.6190001 4286484123
-0.057890523 0.060384065 1.6220001 4286550170
-0.053619929 0.060570206 1.6270001 4286813088
-0.04938243 0.060830802 1.6340001 4286878881
-0.04518912 0.061203085 1.6440001 4286484636
-0.041015368 0.061687052 1.6570001 4286747808
-0.036946673 0.062468845 1.6780001 4286878883
-0.032917392 0.063548461 1.7070001 4288193198
-0.029225992 0.065744922 1.766 4294376191
-0.29168302 0.068695821 1.7190001 4294901502
-0.28130621 0.067337088 1.6850001 4294901503
-0.27686274 0.067377046 1.6860001 4294901503
-0.25959939 0.06649787 1.664 4278190080
-0.2518304 0.065658659 1.6430001 4278190080
-0.24568166 0.065219067 1.6320001 4288719540
-0.24033211 0.064979292 1.626 4287799467
-0.23501536 0.06473951 1.6200001 4288128948
-0.22987378 0.064539701 1.6150001 4287997875
-0.22475955 0.064339891 1.6100001 4287865776
-0.2202201 0.064299926 1.6090001 4287866289
-0.21568614 0.064259961 1.608 4287800496
-0.21115766 0.064219996 1.6070001 4287866289
-0.20624864 0.064060144 1.603 4287800496
-0.20123558 0.063860334 1.598 4288063155
-0.19661944 0.063780412 1.5960001 4287799983
-0.19213471 0.063740447 1.595 4287997362
-0.18765543 0.063700482 1.5940001 4288194227
-0.18295164 0.063580595 1.5910001 4287865776
-0.17815201 0.06342075 1.5870001 4287932082
-0.17348377 0.063300855 1.5840001 4288129461
-0.16893874 0.063220933 1.582 4287800496
-0.1645087 0.063180968 1.5810001 4288195254
-0.15998279 0.063101046 1.5790001 4288129461
-0.15546784 0.063021116 1.577 4288194741
-0.15115552 0.063021116 1.577 4287931823
-0.14684319 0.063021116 1.577 4287799983
-0.14271162 0.063101046 1.5790001 4287734190
-0.13839383 0.063101046 1.5790001 4288063155
-0.13390623 0.063021116 1.577 4288260534
-0.12942955 0.062941194 1.575 4288524219
-0.1251227 0.062941194 1.575 4287471531
-0.12089255 0.062981158 1.5760001 4287339432
-0.11673091 0.063061081 1.5780001 4287668397
-0.11248709 0.063101046 1.5790001 4287273639
-0.10851183 0.063300855 1.5840001 4287207846
-0.10418037 0.063300855 1.5840001 4286878881
-0.099974982 0.063380785 1.5860001 4286813088
-0.095879249 0.06354063 1.59 4286747295
-0.091704078 0.063660525 1.5930001 4286681502
-0.087512508 0.063780412 1.5960001 4287010467
-0.083252423 0.063860334 1.598 4287076260
-0.0789814 0.063940264 1.6 4287273639
-0.074885957 0.064180039 1.6060001 4286944674
-0.070801593 0.064459778 1.613 4286615963
-0.06655547 0.064619623 1.6170001 4286418330
-0.062210619 0.064699553 1.6190001 4286615709
-0.057890523 0.06481944 1.6220001 4286286744
-0.053652886 0.065059215 1.628 4286549916
-0.049412657 0.065338954 1.6350001 4286549916
-0.045161631 0.065658659 1.6430001 4286682015
-0.040941112 0.066098243 1.654 4286418845
-0.036836579 0.066857532 1.6730001 4287010469
-0.032782406 0.067936525 1.7 4287733161
-0.028944653 0.069894701 1.7490001 4288456110
-0.2991423 0.074079596 1.7350001 4278190080
-0.2825202 0.071090788 1.6650001 4294966783
-0.27429441 0.070151456 1.6430001 4294900991
-0.2694732 0.070066057 1.641 4278190080
-0.26514733 0.070108756 1.6420001 4278190080
-0.26018104 0.069980666 1.6390001 4294506493
-0.25507513 0.069809876 1.6350001 4292073181
-0.24983785 0.069596395 1.6300001 4292007647
-0.24492897 0.069468305 1.6270001 4289047992
-0.2398887 0.069297515 1.623 4287865262
-0.23487028 0.069126725 1.6190001 4287603117
-0.22973144 0.068913236 1.6140001 4287471531
-0.22461994 0.068699747 1.6090001 4287603117
-0.2198095 0.068571664 1.6060001 4287668910
-0.21528374 0.068528958 1.605 4287603117
-0.21063207 0.068443567 1.603 4287800496
-0.20573398 0.068272784 1.5990001 4287734703
-0.20085779 0.068101995 1.595 4287668910
-0.19624984 0.068016596 1.5930001 4287799983
-0.19165286 0.067931205 1.5910001 4287799983
-0.18730225 0.067931205 1.5910001 4287931569
-0.18260667 0.067803107 1.5880001 4287931569
-0.17792749 0.067675017 1.585 4287800496
-0.17315522 0.067504227 1.5810001 4287866289
-0.16872516 0.067461535 1.58 4287866289
-0.16419654 0.067376144 1.5780001 4287866289
-0.15978016 0.067333438 1.577 4287997875
-0.15536925 0.067290746 1.5760001 4288260534
-0.15077212 0.067162648 1.5730001 4287997362
-0.14637761 0.067119956 1.572 4287734190
-0.14216936 0.067162648 1.5730001 4287734190
-0.13786797 0.067162648 1.5730001 4288392120
-0.13348167 0.067119956 1.572 4288655805
-0.12910084 0.067077257 1.5710001 4288195254
-0.12488437 0.067119956 1.572 4287471531
-0.12073914 0.067205355 1.5740001 4287273639
-0.11643502 0.067205355 1.5740001 4287471018
-0.11220214 0.067248046 1.575 4286878881
-0.10830631 0.067504227 1.5810001 4287076260
-0.10404882 0.067546934 1.582 4286549916
-0.099848904 0.067632318 1.5840001 4286813088
-0.095638044 0.067717716 1.5860001 4286944160
-0.091473818 0.067845806 1.5890001 4286944160
-0.087402835 0.068059295 1.5940001 4286878365
-0.083200321 0.068187386 1.5970001 4286549916
-0.0789814 0.068315476 1.6 4286681502
-0.074839331 0.068528958 1.605 4286352537
-0.070669912 0.068742454 1.6100001 4286220951
-0.066514313 0.068998635 1.6160001 4286352537
-0.06213377 0.069041327 1.6170001 4286484123
-0.057819135 0.069169417 1.6200001 4286352537
-0.053554017 0.069382906 1.6250001 4286352537
-0.049352214 0.069724478 1.6330001 4286549916
-0.045106657 0.070066057 1.641 4286550429
-0.040866852 0.070493035 1.651 4286682015
-0.036704469 0.071176186 1.6670001 4286747295
-0.032608852 0.072200924 1.6910001 4287338403
-0.028729511 0.074122295 1.7360001 4288192683
-0.2991423 0.078823969 1.7350001 4278190080
-0.28285956 0.075734615 1.6670001 4294966015
-0.2739605 0.074553393 1.641 4294965759
-0.26832369 0.074235372 1.6340001 4294966015
-0.26385549 0.074235372 1.6340001 4294966271
-0.25922859 0.074189939 1.6330001 4294966015
-0.25476313 0.074189939 1.6330001 4294374398
-0.25045094 0.074235372 1.6340001 4293783547
-0.2458322 0.074189939 1.6330001 4288652723
-0.24092335 0.074053645 1.6300001 4287338918
-0.23559566 0.073781051 1.6240001 4287207846
-0.23001611 0.073417604 1.6160001 4287208872
-0.22475955 0.07314501 1.6100001 4287537837
-0.21994638 0.073008716 1.6070001 4287537324
-0.21528374 0.072917849 1.605 4287471531
-0.21063207 0.072826989 1.603 4287208359
-0.20573398 0.072645262 1.5990001 4287339945
-0.2009837 0.072508968 1.5960001 4287405738
-0.19612667 0.072327241 1.5920001 4287339945
-0.19153239 0.072236374 1.59 4287274665
-0.18718451 0.072236374 1.59 4287537324
-0.18249168 0.072100081 1.5870001 4287537324
-0.17803976 0.072054647 1.5860001 4287603117
-0.17326473 0.071872927 1.582 4287932082
-0.16872516 0.07178206 1.58 4288063668
-0.16409248 0.071645759 1.577 4288063668
-0.15967883 0.071600333 1.5760001 4288129461
-0.15527067 0.071554899 1.575 4288261047
-0.15077212 0.071464032 1.5730001 4287668397
-0.14637761 0.071418606 1.572 4287668397
-0.14216936 0.071464032 1.5730001 4287668397
-0.13786797 0.071464032 1.5730001 4287668397
-0.13348167 0.071418606 1.572 4288129459
-0.12918301 0.071418606 1.572 4287274150
-0.12504326 0.071509473 1.5740001 4287471529
-0.12081584 0.071554899 1.575 4287207846
-0.11650899 0.071554899 1.575 4287142053
-0.11234462 0.071645759 1.577 4286747295
-0.1081008 0.0716912 1.5780001 4286681502
-0.10418037 0.07196378 1.5840001 4286681502
-0.099974982 0.072054647 1.5860001 4286615709
-0.095758639 0.072145507 1.5880001 4286089619
-0.091704078 0.072372675 1.5930001 4286484377
-0.087567337 0.072554402 1.5970001 4286286998
-0.083408713 0.072736122 1.6010001 4286286744
-0.079277582 0.072963282 1.6060001 4286286744
-0.075072475 0.07314501 1.6100001 4286220951
-0.070801593 0.073281303 1.613 4286155158
-0.066514313 0.073417604 1.6160001 4286155158
-0.062210619 0.073553897 1.6190001 4286023572
-0.057890523 0.073690191 1.6220001 4286286744
-0.053586971 0.073871918 1.626 4286549916
-0.04938243 0.074235372 1.6340001 4286286744
-0.045106657 0.074553393 1.641 4286352537
-0.040842097 0.074962273 1.6500001 4286549916
-0.036638413 0.075598322 1.664 4286681502
-0.032551002 0.076688677 1.6880001 4287141539
-0.028613666 0.078551374 1.7290001 4288522161
-0.28879842 0.081978858 1.702 4293518058
-0.27629778 0.079715051 1.6550001 4293254886
-0.2694732 0.079040721 1.641 4293714669
-0.26417845 0.078799888 1.636 4293385704
-0.25986353 0.078848056 1.6370001 4293254634
-0.25523114 0.078799888 1.636 4292268768
-0.25091076 0.078848056 1.6370001 4286349452
-0.24613328 0.07875172 1.6350001 4287929259
-0.24107113 0.078559063 1.631 4287601577
-0.23545058 0.078173734 1.623 4287405225
-0.22987378 0.077788398 1.6150001 4287208359
-0.22461994 0.077499405 1.6090001 4287339945
-0.21967264 0.07730674 1.605 4287339945
-0.21488135 0.077162243 1.6020001 4287339945
-0.21010646 0.077017747 1.5990001 4287274152
-0.20521934 0.076825082 1.595 4287208872
-0.20048 0.076680578 1.5920001 4286879907
-0.19575708 0.076536082 1.5890001 4286879907
-0.19117101 0.076439746 1.5870001 4287208872
-0.1865959 0.076343417 1.585 4287603117
-0.18191671 0.076198921 1.582 4287668910
-0.17747848 0.076150753 1.5810001 4287800496
-0.17282665 0.076006256 1.5780001 4287866289
-0.16819122 0.075861752 1.575 4287800496
-0.16367628 0.075765416 1.5730001 4287866289
-0.15917224 0.075669087 1.5710001 4287669423
-0.15477775 0.075620919 1.5700001 4287866289
-0.15038872 0.075572751 1.5690001 4287471018
-0.14609827 0.075572751 1.5690001 4287668397
-0.1418982 0.075620919 1.5700001 4287142053
-0.13751738 0.075572751 1.5690001 4287273639
-0.13322693 0.075572751 1.5690001 4287142566
-0.12893648 0.075572751 1.5690001 4287142564
-0.12480493 0.075669087 1.5710001 4287142566
-0.12058572 0.075717255 1.572 4287142053
-0.11636104 0.075765416 1.5730001 4286944674
-0.11220214 0.075861752 1.575 4286944674
-0.10789528 0.075861752 1.575 4286549916
-0.10385151 0.076054417 1.5790001 4286418330
-0.099722825 0.076198921 1.582 4286484123
-0.095638044 0.076391578 1.5860001 4286155158
-0.091588944 0.07663241 1.5910001 4286352537
-0.087457672 0.076825082 1.595 4286155412
-0.083408713 0.077114075 1.6010001 4286155158
-0.079277582 0.077354908 1.6060001 4285957779
-0.074979216 0.077451237 1.608 4285826193
-0.070669912 0.077547573 1.6100001 4286089365
-0.066349678 0.077643901 1.6120001 4285891986
-0.062095344 0.077836573 1.6160001 4285957779
-0.057747755 0.077932894 1.618 4286286744
-0.053521059 0.078221895 1.6240001 4286286744
-0.049291763 0.078559063 1.631 4286155158
-0.045106657 0.079040721 1.641 4286220951
-0.040817346 0.07942605 1.649 4286484123
-0.03659438 0.080052212 1.6620001 4286681502
-0.032454584 0.081063703 1.6830001 4287009951
-0.028514372 0.082990348 1.723 4288193196
-0.29439795 0.088312715 1.7350001 4293649390
-0.2806384 0.085564084 1.6810001 4293056739
-0.27095109 0.083986156 1.6500001 4292924642
-0.26498586 0.083528049 1.641 4292924901
-0.26033977 0.083477154 1.6400001 4292531171
-0.2561672 0.083578952 1.6420001 4288650413
-0.2518304 0.083629854 1.6430001 4286086798
-0.24688599 0.083477154 1.6400001 4287732393
-0.24151455 0.083171748 1.6340001 4287470250
-0.2358858 0.082764544 1.626 4287142053
-0.23044312 0.082408234 1.6190001 4287274152
-0.22517835 0.082102835 1.613 4287208359
-0.22008324 0.081848331 1.608 4287208359
-0.21514963 0.081644729 1.6040001 4287339945
-0.21023786 0.081441127 1.6 4287405738
-0.20547666 0.081288427 1.5970001 4287077286
-0.20035407 0.08098302 1.5910001 4287406251
-0.19575708 0.080881216 1.5890001 4287406251
-0.19105056 0.080728509 1.5860001 4287537837
-0.18647818 0.080626711 1.5840001 4287472044
-0.18180174 0.080474012 1.5810001 4287603630
-0.1771417 0.080321312 1.5780001 4287668910
-0.17249808 0.080168605 1.575 4287537324
-0.16787086 0.080015905 1.572 4287537324
-0.16346815 0.079965003 1.5710001 4287537324
-0.15907092 0.0799141 1.5700001 4287537324
-0.15458058 0.079812303 1.5680001 4287734190
-0.15029286 0.079812303 1.5680001 4287471018
-0.14591204 0.079761401 1.567 4287536811
-0.14180782 0.079863198 1.5690001 4287470504
-0.13751738 0.079863198 1.5690001 4287404711
-0.13322693 0.079863198 1.5690001 4287075746
-0.12877214 0.079761401 1.567 4286944928
-0.1245666 0.079812303 1.5680001 4286944674
-0.12035559 0.079863198 1.5690001 4286944674
-0.11636104 0.0800668 1.5730001 4286813088
-0.11220214 0.080168605 1.575 4286484123
-0.1080323 0.08027041 1.577 4286813088
-0.10391729 0.080423109 1.58 4286681502
-0.099785872 0.080575809 1.5830001 4286352537
-0.095698342 0.080779418 1.5870001 4286286744
-0.091646515 0.081033915 1.5920001 4285891986
-0.087512508 0.081237517 1.5960001 4286089365
-0.083408713 0.081492022 1.6010001 4285957779
-0.079277582 0.081746526 1.6060001 4285497228
-0.074979216 0.081848331 1.608 4285628814
-0.070669912 0.081950136 1.6100001 4285694607
-0.066308513 0.08200103 1.6110001 4285891986
-0.062056918 0.082204632 1.6150001 4285760913
-0.057783447 0.082408234 1.6190001 4286089878
-0.053586971 0.082764544 1.626 4286089365
-0.04932199 0.083069943 1.6320001 4286220951
-0.045079168 0.083477154 1.6400001 4286352537
-0.04074309 0.083782561 1.646 4286484123
-0.03659438 0.084596969 1.6620001 4286484123
-0.032473866 0.085716784 1.6840001 4286944674
-0.028530922 0.087752812 1.7240001 4288193966
-0.28364345 0.091126226 1.6990001 4293649390
-0.27226481 0.08892718 1.6580001 4293187560
-0.2653088 0.088122651 1.6430001 4292728037
-0.26049852 0.088015385 1.641 4289636797
-0.2564792 0.088176288 1.6440001 4285821829
-0.2518304 0.088122651 1.6430001 4286744987
-0.24673545 0.087908112 1.6390001 4287798958
-0.24092335 0.087425396 1.6300001 4287339434
-0.23516044 0.08694268 1.6210001 4287142566
-0.22958912 0.086513594 1.613 4287274152
-0.22461994 0.086299054 1.6090001 4287471531
-0.21953578 0.086030878 1.6040001 4287405738
-0.21474722 0.085869975 1.6010001 4287274152
-0.20971227 0.085601799 1.5960001 4287340458
-0.204962 0.085440896 1.5930001 4287537837
-0.19997628 0.085172713 1.5880001 4288064181
-0.19551067 0.085119084 1.5870001 4287801009
-0.19068918 0.084904544 1.5830001 4287537837
-0.18612501 0.084797271 1.5810001 4287472044
-0.18134177 0.084582731 1.577 4287537324
-0.17680493 0.084475458 1.575 4287537324
-0.17216951 0.084314555 1.572 4287207846
-0.16765729 0.084207281 1.5700001 4287274152
-0.16326004 0.084153645 1.5690001 4287274152
-0.15886828 0.084100015 1.5680001 4287339432
-0.15438341 0.083992742 1.5660001 4287865262
-0.15000531 0.083939113 1.5650001 4287799469
-0.14553957 0.083831839 1.5630001 4286680473
-0.14126553 0.083831839 1.5630001 4287469473
-0.13672857 0.083670929 1.5600001 4287403167
-0.1322929 0.083563656 1.5580001 4286416785
-0.12786818 0.08345639 1.5560001 4286219406
-0.12377217 0.083563656 1.5580001 4286877852
-0.11989534 0.083831839 1.5630001 4286878367
-0.11606514 0.084153645 1.5690001 4286418330
-0.11205967 0.084368184 1.5730001 4286418330
-0.10789528 0.084475458 1.575 4286549402
-0.1036542 0.084529094 1.5760001 4286549402
-0.099659793 0.084797271 1.5810001 4286352023
-0.095517442 0.084958173 1.5840001 4286089619
-0.091358677 0.085119084 1.5870001 4285958033
-0.087238334 0.085333623 1.5910001 4285957779
-0.083200321 0.085655436 1.5970001 4285760400
-0.079030767 0.085869975 1.6010001 4285497228
-0.074746072 0.085977241 1.603 4285168263
-0.070406541 0.086030878 1.6040001 4285365642
-0.066102713 0.086138152 1.6060001 4285563021
-0.06186479 0.086352691 1.6100001 4285891986
-0.057676375 0.086674504 1.6160001 4286089878
-0.053521059 0.087103583 1.6240001 4285957779
-0.049291763 0.087479033 1.631 4286286744
-0.045051679 0.087908112 1.6390001 4286286744
-0.040792596 0.088390827 1.6480001 4286549916
-0.036616396 0.089195363 1.6630001 4286418330
-0.032493148 0.090375334 1.6850001 4286878881
-0.028564021 0.09257438 1.7260001 4288258989
-0.28631461 0.09667407 1.715 4293583597
-0.27439958 0.094193809 1.6710001 4292793316
-0.26660061 0.093066409 1.651 4291741657
-0.26129222 0.092784561 1.646 4286939797
-0.25725925 0.092953667 1.649 4286414993
-0.25229022 0.092784561 1.646 4287009440
-0.24703653 0.092502721 1.641 4287602606
-0.24077553 0.091826282 1.6290001 4287273641
-0.23516044 0.091375321 1.6210001 4287142055
-0.22973144 0.090980731 1.6140001 4287142566
-0.22489913 0.090811625 1.6110001 4287142566
-0.21967264 0.090473399 1.605 4287208359
-0.21501549 0.090360664 1.603 4287142566
-0.20997508 0.090078823 1.598 4287274152
-0.20521934 0.08990971 1.595 4287537837
-0.20010221 0.089571491 1.5890001 4287669169
-0.19551067 0.089458749 1.5870001 4287734962
-0.19068918 0.089233272 1.5830001 4287471790
-0.18600728 0.089064166 1.58 4287208872
-0.18134177 0.088895053 1.577 4286945700
-0.17691718 0.088838682 1.5760001 4286945187
-0.17227904 0.088669568 1.5730001 4286879394
-0.16787086 0.088613205 1.572 4286682015
-0.16346815 0.088556834 1.5710001 4287142564
-0.1589696 0.088444091 1.5690001 4287404196
-0.15458058 0.08838772 1.5680001 4287864233
-0.15029286 0.08838772 1.5680001 4292929266
-0.14591204 0.088331357 1.567 4294573567
-0.14135592 0.088162243 1.5640001 4293783031
-0.13664091 0.087880395 1.559 4292861929
-0.13203816 0.087654918 1.5550001 4294835711
-0.12753947 0.087485813 1.552 4294770687
-0.12369273 0.087767661 1.557 4292468201
-0.12004876 0.088218614 1.5650001 4286679446
-0.11643502 0.088725939 1.5740001 4286219924
-0.11227337 0.088838682 1.5760001 4286286744
-0.1081008 0.088951424 1.5780001 4286220951
-0.10378575 0.088951424 1.5780001 4286155158
-0.099785872 0.089233272 1.5830001 4286220951
-0.095577739 0.089346007 1.585 4286352537
-0.091473818 0.089571491 1.5890001 4286024085
-0.08729317 0.089740597 1.5920001 4285958292
-0.083200321 0.090022445 1.5970001 4285760400
-0.0789814 0.090191558 1.6 4285497228
-0.074746072 0.090360664 1.603 4285497228
-0.07036265 0.090360664 1.603 4285628814
-0.066102713 0.09052977 1.6060001 4285497228
-0.061903216 0.090811625 1.6110001 4285958292
-0.057854827 0.091375321 1.6210001 4286024085
-0.053652886 0.091769911 1.628 4286155671
-0.04938243 0.092108123 1.6340001 4286484636
-0.045079168 0.092446342 1.6400001 4286418330
-0.040866852 0.093066409 1.651 4286220951
-0.036704469 0.093968332 1.6670001 4286484125
-0.032589566 0.09526483 1.6900001 4286878883
-0.028597118 0.097406879 1.728 4288127403
-0.27735537 0.099827051 1.6890001 4292531426
-0.26837689 0.098231241 1.6620001 4290887375
-0.2622447 0.097640187 1.6520001 4286480273
-0.25710326 0.097403772 1.6480001 4286942877
-0.25198367 0.09716735 1.6440001 4287404457
-0.24628383 0.096694522 1.636 4287339434
-0.24047992 0.09616258 1.6270001 4287339434
-0.23487028 0.095689744 1.6190001 4287339434
-0.22944677 0.09527602 1.6120001 4287208359
-0.22434074 0.094980501 1.6070001 4287142566
-0.2193989 0.094744086 1.603 4287208359
-0.21474722 0.094625875 1.6010001 4287274152
-0.20971227 0.094330356 1.5960001 4287339432
-0.20483334 0.094093934 1.5920001 4287405738
-0.19985034 0.093798414 1.5870001 4287339945
-0.19514111 0.093621098 1.5840001 4287274665
-0.19032779 0.093384683 1.58 4287011493
-0.18577182 0.09326648 1.5780001 4286814114
-0.1811118 0.093089163 1.575 4286616222
-0.17669268 0.093030058 1.5740001 4286813601
-0.17216951 0.092911847 1.572 4286813088
-0.16765729 0.092793643 1.5700001 4287010721
-0.163156 0.09267544 1.5680001 4287010721
-0.15866564 0.092557229 1.5660001 4287075485
-0.15448199 0.092616327 1.567 4286679186
-0.15019701 0.092616327 1.567 4291152081
-0.14600515 0.09267544 1.5680001 4294638335
-0.14126553 0.092379913 1.5630001 4294834943
-0.13646562 0.092025287 1.557 4294702845
-0.13169852 0.09167067 1.5510001 4294440189
-0.12737511 0.091611557 1.5500001 4294111994
-0.12369273 0.092025287 1.557 4291020754
-0.12012547 0.092557229 1.5660001 4286811543
-0.11636104 0.09297096 1.5730001 4286417816
-0.1121309 0.093030058 1.5740001 4286220951
-0.10796379 0.093148261 1.5760001 4286418330
-0.10358843 0.093089163 1.575 4285891986
-0.099344611 0.093148261 1.5760001 4286352537
-0.095457144 0.093561999 1.5830001 4285892499
-0.091358677 0.093798414 1.5870001 4286221464
-0.087128676 0.093916617 1.5890001 4286089878
-0.08304403 0.094212152 1.5940001 4286286744
-0.078833312 0.094389454 1.5970001 4286155158
-0.074559554 0.094507672 1.5990001 4285694607
-0.070230968 0.09456677 1.6 4286024085
-0.065979235 0.094744086 1.603 4285826706
-0.06186479 0.09515781 1.6100001 4286287257
-0.057783447 0.095689744 1.6190001 4286484636
-0.053619929 0.09616258 1.6270001 4286221464
-0.049412657 0.096635416 1.6350001 4286089878
-0.045161631 0.097108252 1.6430001 4286220953
-0.040965863 0.097817503 1.6550001 4286155160
-0.036770526 0.098704062 1.6700001 4286615711
-0.03264742 0.10006347 1.6930001 4287469991
-0.28211755 0.10623896 1.7180001 4292531940
-0.27160648 0.10401276 1.682 4290822095
-0.26383215 0.10277599 1.6620001 4286941337
-0.2580393 0.10228128 1.654 4287073950
-0.25229022 0.10178657 1.646 4287404457
-0.24658491 0.10129186 1.6380001 4287536813
-0.24092335 0.10079715 1.6300001 4287405225
-0.23559566 0.10042612 1.6240001 4287076773
-0.2303008 0.10005508 1.618 4286879394
-0.22503874 0.099684052 1.6120001 4286813601
-0.21994638 0.099374861 1.6070001 4286813601
-0.21488135 0.099065661 1.6020001 4286945700
-0.20971227 0.09869463 1.5960001 4287339432
-0.20470467 0.098385438 1.5910001 4287010980
-0.19997628 0.098199919 1.5880001 4287010980
-0.1953875 0.098076247 1.5860001 4287208359
-0.19056872 0.097828887 1.582 4287010467
-0.18600728 0.097705208 1.58 4286747808
-0.18122678 0.097457848 1.5760001 4286550429
-0.17691718 0.097457848 1.5760001 4286747808
-0.17238855 0.097334176 1.5740001 4286813088
-0.16787086 0.097210497 1.572 4286550170
-0.16336411 0.097086824 1.5700001 4286812570
-0.15876697 0.096901305 1.567 4287140508
-0.15458058 0.096963152 1.5680001 4286876823
-0.15029286 0.096963152 1.5680001 4286940559
-0.14619139 0.097086824 1.5700001 4294111224
-0.14162706 0.096901305 1.567 4294306804
-0.13690385 0.096592113 1.562 4294438390
-0.13220799 0.096282922 1.557 4294571005
-0.127786 0.096159235 1.5550001 4294769407
-0.12408993 0.096592113 1.562 4285427837
-0.1204323 0.097086824 1.5700001 4285693064
-0.11658296 0.097457848 1.5760001 4285365128
-0.1121309 0.097334176 1.5740001 4285497228
-0.10789528 0.097396016 1.575 4285694607
-0.10358843 0.097396016 1.575 4286089878
-0.09947069 0.097581536 1.5780001 4286024085
-0.095577739 0.098014399 1.585 4286089878
-0.091473818 0.098261759 1.5890001 4286089365
-0.087238334 0.098385438 1.5910001 4286287257
-0.082991935 0.098509111 1.5930001 4286352791
-0.078783952 0.09869463 1.5960001 4286155412
-0.074466296 0.09875647 1.5970001 4286352791
-0.070230968 0.098941989 1.6 4286221464
-0.066061549 0.099251181 1.605 4286353563
-0.062018495 0.099807724 1.6140001 4286353050
-0.057890523 0.10030244 1.6220001 4286418843
-0.05368584 0.10073531 1.6290001 4286220953
-0.049533539 0.1013537 1.6390001 4285891988
-0.045326553 0.10197208 1.649 4286286746
-0.041114379 0.10271414 1.6610001 4286286747
-0.036880616 0.10357989 1.6750001 4286549665
-0.032782406 0.10512585 1.7 4287601579
-0.27515897 0.11003282 1.7040001 4290954962
-0.26541957 0.10796648 1.6720001 4287205538
-0.25819531 0.10686873 1.6550001 4287009442
-0.25229022 0.10628758 1.646 4287601836
-0.24673545 0.10583556 1.6390001 4287471020
-0.24121894 0.10538354 1.6320001 4287076773
-0.23603088 0.10506067 1.6270001 4286945187
-0.23058546 0.10460867 1.6200001 4286747808
-0.22503874 0.10409208 1.6120001 4286813601
-0.21953578 0.1035755 1.6040001 4286682274
-0.21434483 0.10318806 1.598 4286813860
-0.20918669 0.10280062 1.5920001 4287010980
-0.20444734 0.10260689 1.5890001 4286747808
-0.19985034 0.10247775 1.5870001 4286682015
-0.1953875 0.10241318 1.5860001 4286813601
-0.19080965 0.10228403 1.5840001 4286550429
-0.18600728 0.10202573 1.58 4286550429
-0.18134177 0.10183202 1.577 4286484636
-0.17680493 0.10170287 1.575 4286615709
-0.17238855 0.10163829 1.5740001 4286549916
-0.16776407 0.10144457 1.5710001 4286549916
-0.16336411 0.10138001 1.5700001 4286418584
-0.15866564 0.10112171 1.5660001 4286812059
-0.15438341 0.10112171 1.5660001 4286745239
-0.14990947 0.10099257 1.5640001 4286085252
-0.14581892 0.10112171 1.5660001 4294637567
-0.14144629 0.10105714 1.5650001 4294504185
-0.13690385 0.10086342 1.562 4294833148
-0.13212307 0.10047598 1.5560001 4294307835
-0.12786818 0.10047598 1.5560001 4290559176
-0.1240105 0.10079885 1.5610001 4285822854
-0.12020218 0.10118628 1.567 4285627787
-0.1162131 0.10144457 1.5710001 4285102470
-0.11191718 0.10144457 1.5710001 4285168263
-0.10768977 0.10150915 1.572 4285365642
-0.10339112 0.10150915 1.572 4285892499
-0.099344611 0.10176744 1.5760001 4286089878
-0.095035024 0.10176744 1.5760001 4285761426
-0.09118598 0.10228403 1.5840001 4285893012
-0.086964175 0.10241318 1.5860001 4286089876
-0.082783535 0.10260689 1.5890001 4286615963
-0.078586496 0.10280062 1.5920001 4286813342
-0.074373044 0.10299434 1.595 4287010721
-0.070187069 0.10325263 1.5990001 4286615709
-0.066061549 0.10364006 1.605 4286615709
-0.062018495 0.10422122 1.6140001 4286549916
-0.057819135 0.10460867 1.6200001 4286220951
-0.053652886 0.10512526 1.628 4286286744
-0.049503323 0.10577098 1.6380001 4286220951
-0.045326553 0.10648128 1.649 4286220953
-0.041139133 0.10732075 1.6620001 4286220954
-0.036946673 0.10835391 1.6780001 4286681505
-0.032878824 0.11009739 1.705 4287733163
-0.26668951 0.11307704 1.6800001 4287469223
-0.25850734 0.11152896 1.6570001 4287404200
-0.25229022 0.11078858 1.646 4287733422
-0.24703653 0.11045204 1.641 4288457915
-0.24166237 0.11004819 1.6350001 4287339432
-0.23646609 0.10971165 1.6300001 4286747808
-0.23101248 0.10924049 1.623 4286945187
-0.22545755 0.10870204 1.6150001 4286550942
-0.21994638 0.10816357 1.6070001 4286550942
-0.21474722 0.10775972 1.6010001 4286550942
-0.20971227 0.10742319 1.5960001 4286616222
-0.204962 0.10722126 1.5930001 4286682015
-0.20035407 0.10708665 1.5910001 4286287257
-0.19588026 0.10701934 1.59 4286484636
-0.19117101 0.10681742 1.5870001 4286550429
-0.18647818 0.10661549 1.5840001 4286287257
-0.18180174 0.10641357 1.5810001 4286287257
-0.17736621 0.10634626 1.58 4286484123
-0.17271712 0.10614435 1.577 4286484123
-0.16819122 0.10600972 1.575 4286286744
-0.16367628 0.10587511 1.5730001 4286550170
-0.15907092 0.10567319 1.5700001 4286614682
-0.15467915 0.10560588 1.5690001 4286614166
-0.15019701 0.10547126 1.567 4286283145
-0.14600515 0.10553858 1.5680001 4293321967
-0.14171743 0.10553858 1.5680001 4294373113
-0.13725443 0.10540395 1.5660001 4294242040
-0.13271746 0.10520203 1.5630001 4294111483
-0.12836124 0.10513472 1.562 4284967798
-0.12432826 0.10533665 1.5650001 4284969087
-0.12035559 0.10560588 1.5690001 4284969857
-0.1162131 0.10574049 1.5710001 4285168263
-0.11198842 0.1058078 1.572 4285168263
-0.10775828 0.10587511 1.5730001 4285628814
-0.10352267 0.10594241 1.5740001 4285826193
-0.099407651 0.10614435 1.577 4286089878
-0.095155627 0.10621165 1.5780001 4286024085
-0.091243543 0.10668279 1.585 4285827219
-0.087019011 0.10681742 1.5870001 4285958292
-0.082835637 0.10701934 1.59 4286353048
-0.078685217 0.10728858 1.5940001 4287142307
-0.074512929 0.1075578 1.598 4286549916
-0.070406541 0.10796165 1.6040001 4286484123
-0.066308513 0.10843281 1.6110001 4286352537
-0.062172193 0.10890395 1.618 4286352537
-0.057961904 0.10930781 1.6240001 4286155158
-0.053751752 0.10977896 1.631 4286220953
-0.049563762 0.11038473 1.6400001 4286155160
-0.045436502 0.11125972 1.6530001 4286220953
-0.041238144 0.11213472 1.6660001 4286352540
-0.037078779 0.11334627 1.6840001 4286813091
-0.26732451 0.11795118 1.6840001 4287469991
-0.25835133 0.11599 1.6560001 4287536297
-0.25198367 0.11514949 1.6440001 4287404711
-0.24658491 0.11472924 1.6380001 4293391871
-0.24136676 0.11437903 1.6330001 4289970638
-0.23603088 0.11395877 1.6270001 4286813088
-0.23087013 0.11360856 1.6220001 4286879396
-0.22531794 0.11304822 1.6140001 4286682017
-0.21994638 0.11255793 1.6070001 4286616224
-0.21488135 0.11220771 1.6020001 4286616222
-0.20997508 0.11192755 1.598 4286550429
-0.204962 0.11157733 1.5930001 4286353050
-0.20010221 0.11129716 1.5890001 4286155671
-0.19551067 0.11115708 1.5870001 4286353050
-0.1909301 0.111017 1.585 4286485149
-0.18624271 0.11080687 1.582 4285958805
-0.18168674 0.11066678 1.58 4286090391
-0.1771417 0.1105267 1.5780001 4286221977
-0.17271712 0.11045667 1.577 4286353050
-0.16808444 0.11024653 1.5740001 4286220951
-0.16357221 0.11010645 1.572 4286089619
-0.1589696 0.10989632 1.5690001 4286549402
-0.15458058 0.10982629 1.5680001 4286285201
-0.15010116 0.1096862 1.5660001 4286348938
-0.14591204 0.10975623 1.567 4289111730
-0.14171743 0.10982629 1.5680001 4294045433
-0.13734208 0.10975623 1.567 4293979638
-0.1329722 0.1096862 1.5660001 4292993517
-0.12868994 0.1096862 1.5660001 4284441969
-0.12448715 0.10975623 1.567 4284837501
-0.12027889 0.10982629 1.5680001 4284772991
-0.11599118 0.10982629 1.5680001 4285036677
-0.11170346 0.10982629 1.5680001 4285365642
-0.10755277 0.10996637 1.5700001 4285760400
-0.1034569 0.1101765 1.5730001 4285826193
-0.099281579 0.11031657 1.575 4285957779
-0.095035024 0.11038662 1.5760001 4285760913
-0.090840571 0.1105267 1.5780001 4285826704
-0.086909346 0.111017 1.585 4285826193
-0.082679346 0.11115708 1.5870001 4285957779
-0.078635857 0.11157733 1.5930001 4286483609
-0.074559554 0.11199759 1.5990001 4286155158
-0.070494339 0.11248788 1.6060001 4286089365
-0.066308513 0.1128381 1.6110001 4286155671
-0.062095344 0.11318831 1.6160001 4285958292
-0.057854827 0.11353852 1.6210001 4285892501
-0.053718798 0.1141689 1.6300001 4286220953
-0.049593989 0.11493937 1.641 4286352539
-0.045436502 0.11577987 1.6530001 4286286746
-0.0413124 0.11690055 1.669 4286418332
-0.037188869 0.1183014 1.6890001 4287207848
-0.26859444 0.12313832 1.692 4287798956
-0.25944337 0.12102779 1.6630001 4287536297
-0.2525968 0.11993613 1.6480001 4287273125
-0.24673545 0.11928114 1.6390001 4292865530
-0.24136676 0.11884449 1.6330001 4289970638
-0.23617592 0.1184806 1.628 4287076260
-0.23101248 0.11811671 1.623 4286944676
-0.22559714 0.11760728 1.6160001 4286682017
-0.22035699 0.11717061 1.6100001 4286747808
-0.21555202 0.11695229 1.6070001 4286484634
-0.21050066 0.1165884 1.6020001 4286418330
-0.20547666 0.11622451 1.5970001 4286221205
-0.20035407 0.11578786 1.5910001 4286286998
-0.19575708 0.1156423 1.5890001 4286221462
-0.1909301 0.11535119 1.585 4285958292
-0.18636045 0.11520565 1.5830001 4285958805
-0.18180174 0.11506009 1.5810001 4286156184
-0.17736621 0.11498731 1.58 4286156184
-0.1726076 0.1146962 1.5760001 4286287257
-0.16808444 0.11455065 1.5740001 4286023572
-0.16357221 0.1144051 1.572 4285826193
-0.15917224 0.11433232 1.5710001 4286089367
-0.15467915 0.11418677 1.5690001 4286351510
-0.15029286 0.11411399 1.5680001 4286086794
-0.14600515 0.11411399 1.5680001 4285296251
-0.14198859 0.11433232 1.5710001 4294045690
-0.13778031 0.1144051 1.572 4293387760
-0.13365149 0.11455065 1.5740001 4289507002
-0.1292652 0.11447788 1.5730001 4284837240
-0.12488437 0.1144051 1.572 4285101443
-0.12050901 0.11433232 1.5710001 4284641919
-0.11613913 0.11425955 1.5700001 4284905091
-0.1117747 0.11418677 1.5690001 4285563021
-0.10762127 0.11433232 1.5710001 4285628814
-0.10352267 0.11455065 1.5740001 4285957779
-0.09947069 0.11484176 1.5780001 4285760400
-0.095215932 0.11491454 1.5790001 4285826193
-0.090955712 0.11498731 1.58 4285628814
-0.08707384 0.11556952 1.5880001 4285891986
-0.082783535 0.1156423 1.5890001 4285826193
-0.078783952 0.11615174 1.5960001 4286286744
-0.074746072 0.11666118 1.603 4285957779
-0.07062602 0.11709784 1.6090001 4286155671
-0.066390827 0.11738895 1.613 4285958292
-0.06213377 0.11768005 1.6170001 4286221723
-0.057926208 0.11811671 1.623 4285892758
-0.053817667 0.11884449 1.6330001 4286024344
-0.049745094 0.11979058 1.646 4286155673
-0.045601428 0.12073668 1.659 4286484125
-0.04146092 0.12190111 1.6750001 4286944676
-0.037298962 0.12328386 1.6940001 4287471018
-0.26022345 0.12595282 1.6680001 4287668397
-0.25305659 0.12466914 1.651 4287602604
-0.24703653 0.12391403 1.641 4287405225
-0.24151455 0.12338545 1.6340001 4287536811
-0.23632102 0.12300789 1.6290001 4287076260
-0.23101248 0.12255482 1.623 4287076262
-0.22545755 0.12195074 1.6150001 4286615711
-0.22035699 0.12157317 1.6100001 4286550431
-0.21528374 0.12119562 1.605 4286418843
-0.21036927 0.12089358 1.6010001 4286352537
-0.20521934 0.12044051 1.595 4286155412
-0.20010221 0.11998744 1.5890001 4286286998
-0.19526429 0.11968539 1.585 4285892497
-0.19068918 0.11953437 1.5830001 4286024085
-0.18612501 0.11938336 1.5810001 4286155671
-0.18180174 0.11938336 1.5810001 4285760913
-0.17725396 0.11923233 1.5790001 4285958292
-0.17249808 0.11893028 1.575 4285365896
-0.16787086 0.11870375 1.572 4285365896
-0.16346815 0.11862823 1.5710001 4286220435
-0.15907092 0.11855272 1.5700001 4286023826
-0.15458058 0.11840171 1.5680001 4285760400
-0.15019701 0.11832619 1.567 4285890443
-0.14600515 0.11840171 1.5680001 4285823622
-0.1418982 0.11855272 1.5700001 4289310137
-0.13769267 0.11862823 1.5710001 4293455096
-0.13356659 0.11877926 1.5730001 4285362557
-0.12918301 0.11870375 1.572 4284640376
-0.12472548 0.11855272 1.5700001 4284575612
-0.12035559 0.11847722 1.5690001 4285234056
-0.11606514 0.11847722 1.5690001 4285563021
-0.11184595 0.11855272 1.5700001 4285694607
-0.10762127 0.11862823 1.5710001 4285760400
-0.1034569 0.11877926 1.5730001 4285760400
-0.099281579 0.11893028 1.575 4285628814
-0.095035024 0.11900579 1.5760001 4285694861
-0.090725437 0.11900579 1.5760001 4285431689
-0.086580351 0.11923233 1.5790001 4285694861
-0.082731441 0.11991192 1.5880001 4285826706
-0.078783952 0.12051602 1.5960001 4286024085
-0.074746072 0.1210446 1.603 4285958292
-0.07062602 0.12149766 1.6090001 4286089878
-0.066390827 0.12179971 1.613 4286155671
-0.062210619 0.12225278 1.6190001 4286024598
-0.057997596 0.12270585 1.6250001 4286221723
-0.053850621 0.12338545 1.6340001 4286155930
-0.049805537 0.1244426 1.6480001 4286221211
-0.045656402 0.12542425 1.6610001 4286418332
-0.041584682 0.12685896 1.6800001 4286813088
