# .PCD v0.7 - Point Cloud Data file format
VERSION 0.7
FIELDS x y z rgba
SIZE 4 4 4 4
TYPE F F F U
COUNT 1 1 1 1
WIDTH 1052
HEIGHT 1
VIEWPOINT 0 0 0 1 0 0 0
POINTS 1052
DATA ascii
-0.084261291 -0.0059221364 1.4310001 4279771424
-0.083019398 -0.0059221364 1.4310001 4279837217
-0.081777506 -0.0059221364 1.4310001 4279771424
-0.080760732 -0.0059386906 1.4350001 4279903010
-0.079626195 -0.0059469673 1.437 4279903010
-0.07843364 -0.0059511056 1.4380001 4279903010
-0.077131994 -0.0059469673 1.437 4279837217
-0.075832084 -0.005942829 1.4360001 4279837217
-0.074481972 -0.0059345518 1.434 4279903010
-0.068824366 -0.0057731518 1.3950001 4279837217
-0.067565247 -0.0057690134 1.3940001 4279771424
-0.062531315 -0.0058641983 1.4170001 4279902240
-0.06130157 -0.0058641983 1.4170001 4279968033
-0.060114224 -0.0058683362 1.4180001 4279968033
-0.058883615 -0.0058683362 1.4180001 4279968033
-0.057653002 -0.0058683362 1.4180001 4279902240
-0.056422394 -0.0058683362 1.4180001 4279902240
-0.055113938 -0.00586006 1.416 4279968033
-0.053808954 -0.0058517829 1.414 4280033824
-0.05243307 -0.0058352291 1.4100001 4280033824
-0.051209401 -0.0058352291 1.4100001 4280099617
-0.049950283 -0.0058310903 1.409 4280099617
-0.048762068 -0.0058352291 1.4100001 4280099617
-0.047572114 -0.0058393674 1.411 4280099617
-0.04638043 -0.0058435057 1.4120001 4280165410
-0.045282941 -0.00586006 1.416 4280165410
-0.044116292 -0.0058683362 1.4180001 4280165410
-0.042946167 -0.0058766133 1.4200001 4280099617
-0.041890081 -0.0059014442 1.4260001 4279968801
-0.040709544 -0.0059097214 1.4280001 4279968801
-0.039525531 -0.005917998 1.4300001 4280034594
-0.038391601 -0.0059345518 1.434 4280100387
-0.037173007 -0.0059386906 1.4350001 4280034596
-0.035927642 -0.0059386906 1.4350001 4280034596
-0.034658112 -0.0059345518 1.434 4280034596
-0.033390313 -0.0059304135 1.4330001 4280100389
-0.032079387 -0.005917998 1.4300001 4280297514
-0.030730536 -0.0058973054 1.4250001 4280297514
-0.029452458 -0.0058890292 1.4230001 4280428330
-0.028177848 -0.0058807521 1.4210001 4280559916
-0.026849827 -0.00586006 1.416 4280691502
-0.025566671 -0.0058476441 1.4130001 4280625709
-0.024305947 -0.0058393674 1.411 4280494123
-0.023081411 -0.0058393674 1.411 4280559916
-0.021872368 -0.0058435057 1.4120001 4280494123
-0.020705454 -0.00586006 1.416 4280559916
-0.019517843 -0.005872475 1.419 4280428330
-0.018325025 -0.0058848904 1.4220001 4280494123
-0.017114982 -0.0058931671 1.424 4280691502
-0.10311281 -0.0046429918 1.4170001 4280692527
-0.10166737 -0.0046331622 1.414 4280824112
-0.10029816 -0.0046266085 1.4120001 4280758319
-0.098651774 -0.0046069487 1.406 4280758319
-0.097362272 -0.0046036723 1.4050001 4280626733
-0.096142948 -0.0046036723 1.4050001 4280626733
-0.094856054 -0.0046003954 1.404 4280560940
-0.093704291 -0.0046036723 1.4050001 4280429354
-0.092550792 -0.0046069487 1.406 4280758319
-0.091590419 -0.0046200552 1.4100001 4281021491
-0.090430848 -0.0046233316 1.411 4281153077
-0.089332752 -0.0046298853 1.4130001 4280758319
-0.088418253 -0.0046462682 1.4180001 4280297768
-0.087249137 -0.0046495451 1.419 4279968803
-0.086138889 -0.0046560983 1.4210001 4279837217
-0.085144684 -0.0046692048 1.4250001 4279837217
-0.083907999 -0.0046692048 1.4250001 4279771424
-0.082729325 -0.0046724817 1.4260001 4279837217
-0.081548922 -0.0046757581 1.427 4279903010
-0.080591887 -0.004692141 1.432 4279903010
-0.079459958 -0.0046986942 1.434 4279903010
-0.078324549 -0.0047052475 1.4360001 4279837217
-0.077078313 -0.0047052475 1.4360001 4279837217
-0.075779282 -0.0047019711 1.4350001 4279903010
-0.074533917 -0.0047019711 1.4350001 4279968803
-0.069783993 -0.0045545227 1.3900001 4279968803
-0.068577684 -0.0045545227 1.3900001 4279771424
-0.067322902 -0.0045512463 1.3890001 4279705631
-0.066212662 -0.0045577995 1.391 4279837217
-0.065052219 -0.0045610759 1.3920001 4279968803
-0.063935898 -0.0045676292 1.3940001 4279903010
-0.062398925 -0.0046331622 1.414 4280033826
-0.061171785 -0.0046331622 1.414 4280099619
-0.059987042 -0.0046364386 1.4150001 4280099619
-0.058800563 -0.0046397154 1.416 4280033826
-0.057612345 -0.0046429918 1.4170001 4280033826
-0.0563826 -0.0046429918 1.4170001 4280033826
-0.05515286 -0.0046429918 1.4170001 4280033826
-0.053885065 -0.0046397154 1.416 4280099617
-0.052507445 -0.0046266085 1.4120001 4280033824
-0.051245719 -0.0046233316 1.411 4280099617
-0.049985737 -0.0046200552 1.4100001 4280165410
-0.048692901 -0.004613502 1.4080001 4280165410
-0.047504682 -0.0046167783 1.409 4280165410
-0.046281885 -0.0046167783 1.409 4280231203
-0.045155026 -0.0046266085 1.4120001 4280231203
-0.043991845 -0.0046331622 1.414 4280231203
-0.04279495 -0.0046364386 1.4150001 4280231203
-0.0417432 -0.0046560983 1.4210001 4280166180
-0.040567003 -0.0046626516 1.4230001 4280100387
-0.03938733 -0.0046692048 1.4250001 4280100387
-0.038257737 -0.0046823113 1.429 4280231973
-0.037043486 -0.0046855882 1.4300001 4280231975
-0.035827499 -0.0046888646 1.4310001 4280166182
-0.034561437 -0.0046855882 1.4300001 4280231975
-0.033273812 -0.0046790349 1.4280001 4280363561
-0.032012086 -0.0046757581 1.427 4280494893
-0.030665841 -0.0046593747 1.4220001 4280494893
-0.029411063 -0.0046560983 1.4210001 4280625709
-0.028138189 -0.0046495451 1.419 4280757295
-0.026792942 -0.0046298853 1.4130001 4280888881
-0.025548575 -0.0046266085 1.4120001 4280823088
-0.024288721 -0.0046200552 1.4100001 4280691502
-0.023065055 -0.0046200552 1.4100001 4280757295
-0.021825897 -0.0046167783 1.409 4280691502
-0.020661587 -0.0046298853 1.4130001 4280757295
-0.019462824 -0.0046364386 1.4150001 4280559916
-0.018260593 -0.0046429918 1.4170001 4280625709
-0.10311281 -0.0034217853 1.4170001 4280626479
-0.10173927 -0.0034169557 1.4150001 4280758321
-0.10029816 -0.0034097114 1.4120001 4280889135
-0.098651774 -0.0033952224 1.406 4280823342
-0.097362272 -0.0033928077 1.4050001 4280757806
-0.096074514 -0.0033903928 1.404 4280823342
-0.094788499 -0.0033879781 1.4030001 4280626733
-0.093637593 -0.0033903928 1.404 4280626733
-0.092484966 -0.0033928077 1.4050001 4280692526
-0.091525465 -0.0034024669 1.409 4280955698
-0.090366751 -0.0034048818 1.4100001 4281153077
-0.089269534 -0.0034097114 1.4120001 4280824112
-0.088355899 -0.0034217853 1.4170001 4280297768
-0.087187648 -0.0034242002 1.4180001 4279837217
-0.086017653 -0.0034266151 1.419 4279705631
-0.085025176 -0.0034362741 1.4230001 4279771424
-0.08384911 -0.003438689 1.424 4279771424
-0.082613297 -0.003438689 1.424 4279771424
-0.08143463 -0.003441104 1.4250001 4279837217
-0.080535613 -0.0034555928 1.4310001 4279903010
-0.079404548 -0.0034604224 1.4330001 4279903010
-0.078215465 -0.0034628371 1.434 4279903010
-0.075726472 -0.0034628371 1.434 4280034596
-0.074481972 -0.0034628371 1.434 4279968803
-0.069783993 -0.0033565855 1.3900001 4280034596
-0.068528347 -0.0033541706 1.3890001 4279903010
-0.067322902 -0.0033541706 1.3890001 4279837217
-0.066212662 -0.0033590002 1.391 4279837217
-0.065098956 -0.00336383 1.393 4279903010
-0.063981764 -0.0033686596 1.3950001 4279903010
-0.062266536 -0.0034072965 1.411 4280033826
-0.061085265 -0.0034097114 1.4120001 4280099365
-0.059859861 -0.0034097114 1.4120001 4280099365
-0.058759037 -0.0034169557 1.4150001 4280033826
-0.057531029 -0.0034169557 1.4150001 4280033826
-0.05634281 -0.0034193706 1.416 4280033824
-0.055113938 -0.0034193706 1.416 4280033824
-0.053885065 -0.0034193706 1.416 4280165410
-0.052544631 -0.0034121261 1.4130001 4280231203
-0.051282041 -0.0034097114 1.4120001 4280231201
-0.049985737 -0.0034048818 1.4100001 4280099615
-0.048658319 -0.0033976373 1.4070001 4280099617
-0.047437254 -0.0033976373 1.4070001 4280231203
-0.046216194 -0.0033976373 1.4070001 4280296996
-0.045123044 -0.0034072965 1.411 4280428582
-0.043929622 -0.0034097114 1.4120001 4280494377
-0.042764705 -0.0034145408 1.414 4280428584
-0.041713823 -0.0034290296 1.4200001 4280231975
-0.040509984 -0.0034314445 1.4210001 4280231975
-0.039332055 -0.0034362741 1.4230001 4280231721
-0.038204193 -0.0034459336 1.427 4280363307
-0.036965773 -0.0034459336 1.427 4280429354
-0.03575239 -0.0034483483 1.4280001 4280429354
-0.034513101 -0.0034483483 1.4280001 4280495147
-0.033250507 -0.0034459336 1.427 4280560940
-0.031989656 -0.0034435187 1.4260001 4280626479
-0.030644275 -0.0034314445 1.4210001 4280692272
-0.029390363 -0.0034290296 1.4200001 4280823088
-0.028138189 -0.0034266151 1.419 4280954674
-0.026792942 -0.0034121261 1.4130001 4281086514
-0.025548575 -0.0034097114 1.4120001 4281020721
-0.024271496 -0.0034024669 1.409 4280888882
-0.023048695 -0.0034024669 1.409 4280823089
-0.021825897 -0.0034024669 1.409 4280757295
-0.020632342 -0.0034072965 1.411 4280888881
-0.019435316 -0.0034121261 1.4130001 4280888881
-0.018234817 -0.0034169557 1.4150001 4280823088
-0.10318558 -0.002202132 1.4180001 4280692272
-0.10173927 -0.0021974731 1.4150001 4280758065
-0.10036919 -0.0021943669 1.4130001 4280757806
-0.098581605 -0.002181943 1.4050001 4280823342
-0.097362272 -0.002181943 1.4050001 4280889135
-0.096074514 -0.0021803901 1.404 4280823342
-0.094720937 -0.0021772843 1.4020001 4280823342
-0.09357091 -0.0021788373 1.4030001 4280823342
-0.092419133 -0.0021803901 1.404 4280758319
-0.091395549 -0.0021850492 1.4070001 4281021491
-0.090302669 -0.0021881552 1.409 4281087284
-0.089206308 -0.0021912612 1.411 4280758319
-0.088231191 -0.0021974731 1.4150001 4280231975
-0.087126158 -0.002200579 1.4170001 4279903010
-0.085957035 -0.002202132 1.4180001 4279837217
-0.084905677 -0.002206791 1.4210001 4279771424
-0.083731346 -0.0022083439 1.4220001 4279705631
-0.082555279 -0.0022098969 1.4230001 4279771424
-0.081377476 -0.0022114499 1.424 4279837217
-0.080479331 -0.0022207678 1.4300001 4279837217
-0.07934913 -0.0022238737 1.432 4279837217
-0.078106374 -0.0022238737 1.432 4279903010
-0.076595232 -0.0022161088 1.427 4279968803
-0.075356811 -0.0022161088 1.427 4279968803
-0.074118391 -0.0022161088 1.427 4279903010
-0.069783993 -0.0021586483 1.3900001 4279968803
-0.068528347 -0.0021570954 1.3890001 4279903010
-0.067322902 -0.0021570954 1.3890001 4279903010
-0.066212662 -0.0021602013 1.391 4279903010
-0.065098956 -0.0021633073 1.393 4279903010
-0.06402763 -0.0021679664 1.396 4279968803
-0.06213415 -0.0021866022 1.4080001 4280099619
-0.060998738 -0.0021897082 1.4100001 4280099619
-0.059817467 -0.0021912612 1.411 4280099619
-0.058675982 -0.0021943669 1.4130001 4280165412
-0.057490371 -0.0021959201 1.414 4280296998
-0.056263231 -0.0021959201 1.414 4280296996
-0.055113938 -0.0021990261 1.416 4280231203
-0.053885065 -0.0021990261 1.416 4280231203
-0.052581813 -0.0021959201 1.414 4280231203
-0.051282041 -0.0021928141 1.4120001 4280231203
-0.049985737 -0.0021897082 1.4100001 4280231203
-0.048658319 -0.0021850492 1.4070001 4280296996
-0.047403537 -0.002183496 1.406 4280296996
-0.046183344 -0.002183496 1.406 4280362789
-0.045027107 -0.0021866022 1.4080001 4280560168
-0.043898508 -0.0021912612 1.411 4280625963
-0.042704221 -0.0021928141 1.4120001 4280494377
-0.041655071 -0.002202132 1.4180001 4280363559
-0.040481474 -0.0022052377 1.4200001 4280429352
-0.03924913 -0.0022052377 1.4200001 4280494893
-0.038123876 -0.0022114499 1.424 4280560686
-0.036939867 -0.0022145559 1.4260001 4280692526
-0.035702314 -0.0022145559 1.4260001 4280692526
-0.034488928 -0.0022161088 1.427 4280626733
-0.033227209 -0.0022145559 1.4260001 4280692526
-0.031967219 -0.0022130029 1.4250001 4280692272
-0.030644275 -0.002206791 1.4210001 4280823858
-0.029369667 -0.002203685 1.419 4280954674
-0.028118361 -0.002202132 1.4180001 4281020467
-0.02677398 -0.0021928141 1.4120001 4281152307
-0.025530482 -0.0021912612 1.411 4281218100
-0.024271496 -0.0021881552 1.409 4281086261
-0.023032337 -0.0021866022 1.4080001 4280823089
-0.021810405 -0.0021866022 1.4080001 4280954674
-0.020603096 -0.0021881552 1.409 4281086260
-0.019421561 -0.0021928141 1.4120001 4281020467
-0.018221932 -0.0021959201 1.414 4280954674
-0.10304005 -0.00097868149 1.416 4280626734
-0.10159546 -0.00097660802 1.4130001 4280692526
-0.10022712 -0.00097522564 1.411 4280757549
-0.098581605 -0.00097107876 1.4050001 4280823342
-0.097292975 -0.00097038754 1.404 4280889135
-0.095937662 -0.00096900528 1.4020001 4280823342
-0.094585806 -0.00096762291 1.4000001 4280889135
-0.093370818 -0.00096762291 1.4000001 4280889135
-0.092155829 -0.00096762291 1.4000001 4280889392
-0.091135725 -0.00096969638 1.4030001 4281152563
-0.089982219 -0.00097038754 1.404 4281218100
-0.088890202 -0.0009717698 1.406 4280889135
-0.087857068 -0.00097384339 1.409 4280362791
-0.086695753 -0.00097453455 1.4100001 4280099619
-0.085532703 -0.00097522564 1.411 4280033826
-0.084487423 -0.00097729906 1.414 4279902240
-0.083201401 -0.00097660802 1.4130001 4279836447
-0.081975125 -0.00097660802 1.4130001 4279902240
-0.07643421 -0.00098421075 1.424 4279903010
-0.07519839 -0.00098421075 1.424 4279903010
-0.073910631 -0.0009835196 1.4230001 4279903010
-0.069934607 -0.0009627848 1.393 4279968803
-0.068676353 -0.00096209365 1.3920001 4279903010
-0.067371376 -0.00096071127 1.3900001 4279903010
-0.066260263 -0.00096209365 1.3920001 4279968803
-0.065145679 -0.00096347602 1.3940001 4279968803
-0.06402763 -0.00096485828 1.396 4279968803
-0.0630861 -0.00096900528 1.4020001 4280099619
-0.061957631 -0.00097038754 1.404 4280165412
-0.060782433 -0.00097107876 1.4050001 4280231205
-0.058509883 -0.00097384339 1.409 4280296998
-0.057327736 -0.00097453455 1.4100001 4280362791
-0.055036094 -0.00097729906 1.414 4280428582
-0.053847011 -0.00097799033 1.4150001 4280362789
-0.052619003 -0.00097799033 1.4150001 4280362789
-0.051354676 -0.00097729906 1.414 4280362789
-0.050056636 -0.0009759168 1.4120001 4280494375
-0.048692901 -0.00097315217 1.4080001 4280560168
-0.047437254 -0.00097246101 1.4070001 4280494375
-0.046183344 -0.0009717698 1.406 4280494377
-0.044995129 -0.00097246101 1.4070001 4280625963
-0.043836284 -0.00097384339 1.409 4280691756
-0.042673975 -0.00097522564 1.411 4280560170
-0.041625693 -0.00097937265 1.4170001 4280560938
-0.040452968 -0.00098075496 1.419 4280692524
-0.039276771 -0.00098213728 1.4210001 4280758065
-0.038150646 -0.00098490191 1.4250001 4280758065
-0.036939867 -0.00098559307 1.4260001 4280824112
-0.035702314 -0.00098559307 1.4260001 4280824112
-0.034440592 -0.00098490191 1.4250001 4280758319
-0.033157308 -0.0009835196 1.4230001 4280758319
-0.031877492 -0.00098213728 1.4210001 4280758065
-0.030558012 -0.00097937265 1.4170001 4280758065
-0.029328272 -0.00097937265 1.4170001 4280823858
-0.028098531 -0.00097937265 1.4170001 4280955444
-0.026792942 -0.00097660802 1.4130001 4281086514
-0.025548575 -0.0009759168 1.4120001 4281086514
-0.024237042 -0.00097246101 1.4070001 4281020468
-0.02299962 -0.0009717698 1.406 4280954675
-0.021763936 -0.00097107876 1.4050001 4281152053
-0.020559229 -0.0009717698 1.406 4281217846
-0.019366542 -0.00097315217 1.4080001 4281152053
-0.018170385 -0.00097453455 1.4100001 4281086260
-0.10296727 0.00024149241 1.4150001 4280495148
-0.10152356 0.00024098041 1.4120001 4280692526
-0.10015609 0.00024063908 1.4100001 4280823342
-0.098581605 0.00023978575 1.4050001 4280889135
-0.097223684 0.00023944442 1.4030001 4280889135
-0.095869228 0.00023910309 1.401 4280823342
-0.09445069 0.00023859109 1.3980001 4280889135
-0.093237437 0.00023859109 1.3980001 4280889135
-0.092155829 0.00023893242 1.4000001 4280889135
-0.091005802 0.00023910309 1.401 4281152307
-0.089918129 0.00023944442 1.4030001 4281218100
-0.088763759 0.00023961508 1.404 4280954928
-0.08773236 0.00024012709 1.4070001 4280428584
-0.086511292 0.00024012709 1.4070001 4280099619
-0.085411474 0.00024046842 1.409 4280033826
-0.08430817 0.00024080975 1.411 4279968033
-0.083083637 0.00024080975 1.411 4279902240
-0.076219507 0.00024234575 1.4200001 4279968803
-0.074987158 0.00024234575 1.4200001 4279903010
-0.069984809 0.00023790843 1.3940001 4279968803
-0.068725698 0.00023773775 1.393 4279968803
-0.067468308 0.00023756709 1.3920001 4279968803
-0.066307865 0.00023773775 1.393 4280034596
-0.065145679 0.00023790843 1.3940001 4280034596
-0.063981764 0.0002380791 1.3950001 4280034596
-0.062996097 0.00023893242 1.4000001 4280231205
-0.061869375 0.00023927375 1.4020001 4280231205
-0.060695913 0.00023944442 1.4030001 4280362791
-0.059647892 0.00024012709 1.4070001 4280362791
-0.058468353 0.00024029776 1.4080001 4280428584
-0.057287082 0.00024046842 1.409 4280428584
-0.054997172 0.00024115108 1.4130001 4280560170
-0.052656189 0.00024166307 1.416 4280625961
-0.051390998 0.00024149241 1.4150001 4280625961
-0.050092086 0.00024115108 1.4130001 4280691754
-0.048727483 0.00024046842 1.409 4280691756
-0.047470968 0.00024029776 1.4080001 4280691756
-0.046216194 0.00024012709 1.4070001 4280625963
-0.045027107 0.00024029776 1.4080001 4280625963
-0.043836284 0.00024046842 1.409 4280495147
-0.042673975 0.00024080975 1.411 4280429354
-0.041684445 0.00024217508 1.419 4280692524
-0.040509984 0.00024251641 1.4210001 4280824110
-0.039359692 0.00024302841 1.424 4280824112
-0.034440592 0.00024319907 1.4250001 4280758319
-0.033157308 0.00024285774 1.4230001 4280758319
-0.031855054 0.00024234575 1.4200001 4280758065
-0.030558012 0.00024183374 1.4170001 4280758065
-0.029328272 0.00024183374 1.4170001 4280889651
-0.028098531 0.00024183374 1.4170001 4281021237
-0.026792942 0.00024115108 1.4130001 4281020721
-0.025548575 0.00024098041 1.4120001 4281020721
-0.024219817 0.00023995641 1.406 4281086261
-0.022983262 0.00023978575 1.4050001 4281152054
-0.021748444 0.00023961508 1.404 4281217846
-0.020544607 0.00023978575 1.4050001 4281283639
-0.019339032 0.00023995641 1.406 4281217846
-0.018144611 0.00024029776 1.4080001 4281152053
-0.098651774 0.0014516828 1.406 4280824112
-0.097292975 0.0014496177 1.404 4280824112
-0.095458657 0.0014403253 1.3950001 4280758319
-0.094180442 0.0014392928 1.3940001 4280824112
-0.092970662 0.0014392928 1.3940001 4280758319
-0.091760881 0.0014392928 1.3940001 4280823342
-0.090551101 0.0014392928 1.3940001 4281086514
-0.08940541 0.0014403253 1.3950001 4281283893
-0.088510863 0.0014454877 1.4000001 4281020721
-0.087358236 0.0014465202 1.401 4280560170
-0.086203866 0.0014475527 1.4020001 4280165412
-0.085108377 0.0014496177 1.404 4280033826
-0.083889917 0.0014496177 1.404 4280033826
-0.082671456 0.0014496177 1.404 4280033826
-0.081336968 0.0014475527 1.4020001 4280033826
-0.08006309 0.0014465202 1.401 4280034596
-0.078734681 0.0014444554 1.399 4279968803
-0.077409729 0.0014423903 1.3970001 4279903010
-0.077015504 0.0014578777 1.4120001 4279968803
-0.075736426 0.0014568452 1.411 4279968803
-0.074459076 0.0014558126 1.4100001 4279903010
-0.072975717 0.0014506502 1.4050001 4279903010
-0.071705312 0.0014496177 1.404 4280034596
-0.070035011 0.0014403253 1.3950001 4280034342
-0.068775028 0.0014392928 1.3940001 4280034342
-0.067468308 0.0014372278 1.3920001 4280100389
-0.066260263 0.0014372278 1.3920001 4280166182
-0.065052219 0.0014372278 1.3920001 4280166182
-0.06389004 0.0014382603 1.393 4280166182
-0.062771119 0.0014403253 1.3950001 4280297768
-0.0616046 0.0014413578 1.396 4280363561
-0.060436338 0.0014423903 1.3970001 4280428584
-0.059223954 0.0014423903 1.3970001 4280494377
-0.057928517 0.0014403253 1.3950001 4280560170
-0.056717869 0.0014403253 1.3950001 4280625963
-0.052507445 0.0014578777 1.4120001 4280757549
-0.051282041 0.0014578777 1.4120001 4280691756
-0.050092086 0.0014589102 1.4130001 4280757549
-0.048762068 0.0014558126 1.4100001 4280757549
-0.0475384 0.0014558126 1.4100001 4280757549
-0.046281885 0.0014547801 1.409 4280560940
-0.045059085 0.0014547801 1.409 4280560940
-0.043898508 0.0014568452 1.411 4280560940
-0.042704221 0.0014578777 1.4120001 4280560940
-0.041684445 0.0014651051 1.419 4280692524
-0.040509984 0.0014671701 1.4210001 4280824110
-0.039359692 0.0014702675 1.424 4280889651
-0.034392256 0.0014692351 1.4230001 4280824112
-0.033110704 0.0014671701 1.4210001 4280889905
-0.031832624 0.0014651051 1.419 4280692272
-0.030536449 0.0014620076 1.416 4280889651
-0.029328272 0.0014630401 1.4170001 4281087030
-0.028118361 0.0014640725 1.4180001 4281087030
-0.026811901 0.0014599427 1.414 4281086514
-0.025548575 0.0014578777 1.4120001 4281218100
-0.024202591 0.0014506502 1.4050001 4281349433
-0.022950545 0.0014485853 1.4030001 4281283640
-0.021717465 0.0014475527 1.4020001 4281349432
-0.020486116 0.0014465202 1.401 4281283639
-0.019311523 0.0014496177 1.404 4281283639
-0.018118836 0.0014516828 1.406 4281217846
-0.098721929 0.0026653034 1.4070001 4280823857
-0.097292975 0.0026596205 1.404 4280889650
-0.095390223 0.0026406772 1.3940001 4280889907
-0.094112888 0.0026387828 1.393 4280955698
-0.092770584 0.0026349942 1.391 4280758319
-0.091629229 0.0026368885 1.3920001 4280692269
-0.090486147 0.0026387828 1.393 4280889905
-0.089341313 0.0026406772 1.3940001 4281086514
-0.088384427 0.0026482546 1.3980001 4281020721
-0.087233528 0.0026501487 1.399 4280691756
-0.086080886 0.002652043 1.4000001 4280231205
-0.084987141 0.0026558316 1.4020001 4280099619
-0.083770417 0.0026558316 1.4020001 4280165412
-0.082553692 0.0026558316 1.4020001 4280165412
-0.081220932 0.002652043 1.4000001 4280099619
-0.079948798 0.0026501487 1.399 4280099619
-0.078622118 0.0026463603 1.3970001 4280099619
-0.077298909 0.0026425715 1.3950001 4280099619
-0.076906413 0.0026709861 1.4100001 4280165412
-0.075575396 0.0026671977 1.4080001 4280034596
-0.074300654 0.0026653034 1.4070001 4280034596
-0.072871834 0.0026577259 1.4030001 4280034341
-0.071654245 0.0026577259 1.4030001 4280100135
-0.070386447 0.0026558316 1.4020001 4280165928
-0.068824366 0.0026425715 1.3950001 4280231721
-0.067565247 0.0026406772 1.3940001 4280297768
-0.066260263 0.0026368885 1.3920001 4280297768
-0.065052219 0.0026368885 1.3920001 4280363561
-0.063844174 0.0026368885 1.3920001 4280363561
-0.062681124 0.0026387828 1.393 4280429354
-0.061516337 0.0026406772 1.3940001 4280495147
-0.060306553 0.0026406772 1.3940001 4280494377
-0.059096772 0.0026406772 1.3940001 4280625963
-0.05784547 0.0026387828 1.393 4280691756
-0.056595895 0.0026368885 1.3920001 4280757549
-0.05243307 0.0026709861 1.4100001 4280823342
-0.051209401 0.0026709861 1.4100001 4280626733
-0.050021186 0.0026728804 1.411 4280560940
-0.048762068 0.0026709861 1.4100001 4280560940
-0.0475384 0.0026709861 1.4100001 4280626733
-0.046281885 0.002669092 1.409 4280692526
-0.045059085 0.002669092 1.409 4280626733
-0.043898508 0.0026728804 1.411 4280626733
-0.042704221 0.0026747747 1.4120001 4280758319
-0.041655071 0.0026861408 1.4180001 4280692526
-0.040481474 0.0026899294 1.4200001 4280824112
-0.039304409 0.0026937181 1.4220001 4280889651
-0.034368083 0.0026937181 1.4220001 4280824112
-0.033087399 0.0026899294 1.4200001 4280955698
-0.031832624 0.0026880351 1.419 4280889651
-0.030536449 0.0026823522 1.416 4280955444
-0.029328272 0.0026842465 1.4170001 4281021237
-0.028118361 0.0026861408 1.4180001 4281021237
-0.026811901 0.0026785636 1.414 4281152307
-0.025548575 0.0026747747 1.4120001 4281283893
-0.024202591 0.0026615148 1.4050001 4281349433
-0.022950545 0.0026577259 1.4030001 4281349433
-0.021701973 0.0026539373 1.401 4281349432
-0.020486116 0.0026539373 1.401 4281283639
-0.019297769 0.0026577259 1.4030001 4281349432
-0.01810595 0.0026615148 1.4050001 4281283639
-0.098792098 0.0038806475 1.4080001 4280758579
-0.097292975 0.0038696232 1.404 4280824371
-0.095253371 0.0038365494 1.3920001 4280955701
-0.093977757 0.0038337929 1.391 4281021493
-0.092703894 0.0038310371 1.3900001 4280889651
-0.091497585 0.0038310371 1.3900001 4280692526
-0.090356223 0.0038337929 1.391 4280889905
-0.08921314 0.0038365494 1.3920001 4280889648
-0.088194758 0.0038448179 1.3950001 4280824112
-0.087108813 0.0038503301 1.3970001 4280692012
-0.085896432 0.0038503301 1.3970001 4280362791
-0.084805287 0.0038558424 1.399 4280231205
-0.083650909 0.0038585986 1.4000001 4280296998
-0.082435921 0.0038585986 1.4000001 4280296998
-0.081162922 0.0038558424 1.399 4280231205
-0.079834506 0.0038503301 1.3970001 4280165412
-0.078509562 0.0038448179 1.3950001 4280231205
-0.077188089 0.0038393056 1.393 4280231205
-0.076742783 0.0038778912 1.4070001 4280296998
-0.075414367 0.003872379 1.4050001 4280297255
-0.074142233 0.0038696232 1.404 4280362791
-0.072819896 0.0038641109 1.4020001 4280231721
-0.071552098 0.0038613547 1.401 4280297514
-0.070286036 0.0038585986 1.4000001 4280363307
-0.068824366 0.0038448179 1.3950001 4280429100
-0.067516781 0.0038393056 1.393 4280495147
-0.066212662 0.0038337929 1.391 4280495147
-0.065005481 0.0038337929 1.391 4280495147
-0.063798301 0.0038337929 1.391 4280495147
-0.062591128 0.0038337929 1.391 4280495147
-0.061428078 0.0038365494 1.3920001 4280560940
-0.060220033 0.0038365494 1.3920001 4280560940
-0.059011988 0.0038365494 1.3920001 4280626733
-0.05780394 0.0038365494 1.3920001 4280692526
-0.056555238 0.0038337929 1.391 4280692526
-0.052321512 0.0038778912 1.4070001 4280758319
-0.051136766 0.0038806475 1.4080001 4280692526
-0.049950283 0.003883404 1.409 4280692526
-0.048762068 0.0038861597 1.4100001 4280626733
-0.0475384 0.0038861597 1.4100001 4280626733
-0.046281885 0.003883404 1.409 4280758319
-0.045059085 0.003883404 1.409 4280758319
-0.043898508 0.0038889162 1.411 4280758319
-0.042704221 0.003891672 1.4120001 4280824112
-0.041625693 0.0039054528 1.4170001 4280824112
-0.040452968 0.0039109653 1.419 4280889905
-0.039276771 0.0039164773 1.4210001 4280889651
-0.034343917 0.0039164773 1.4210001 4280889905
-0.033087399 0.0039137215 1.4200001 4281021491
-0.031810191 0.003908209 1.4180001 4281152823
-0.030536449 0.0039026965 1.416 4281021237
-0.029328272 0.0039054528 1.4170001 4281020467
-0.028118361 0.003908209 1.4180001 4281086260
-0.026811901 0.0038971843 1.414 4281152307
-0.025548575 0.003891672 1.4120001 4281218100
-0.024202591 0.003872379 1.4050001 4281283639
-0.022950545 0.0038668667 1.4030001 4281481018
-0.021701973 0.0038613547 1.401 4281415225
-0.020471495 0.0038585986 1.4000001 4281283639
-0.019284016 0.0038641109 1.4020001 4281415225
-0.01810595 0.003872379 1.4050001 4281349432
-0.095184937 0.005032592 1.391 4280824372
-0.093910202 0.0050289743 1.3900001 4280955957
-0.092570499 0.0050217384 1.388 4280824371
-0.091300108 0.0050181202 1.3870001 4280758319
-0.090161353 0.0050217384 1.388 4280824112
-0.089020871 0.0050253561 1.3890001 4280824112
-0.088005096 0.0050362102 1.3920001 4280824112
-0.086797044 0.0050362102 1.3920001 4280757549
-0.085650489 0.0050398284 1.393 4280428584
-0.084562808 0.0050470643 1.3950001 4280362791
-0.083352156 0.0050470643 1.3950001 4280362791
-0.082141511 0.0050470643 1.3950001 4280362791
-0.080930859 0.0050470643 1.3950001 4280231205
-0.079605922 0.0050398284 1.393 4280428327
-0.078340724 0.0050362102 1.3920001 4280493864
-0.077077262 0.005032592 1.391 4280428584
-0.075924635 0.0050362102 1.3920001 4280428584
-0.074823938 0.0050434461 1.3940001 4280494377
-0.07366696 0.0050470643 1.3950001 4280494377
-0.072560191 0.0050543002 1.3970001 4280429354
-0.071347803 0.0050543002 1.3970001 4280429354
-0.070035011 0.0050470643 1.3950001 4280494893
-0.068824366 0.0050470643 1.3950001 4280494893
-0.067565247 0.0050434461 1.3940001 4280560940
-0.066307865 0.0050398284 1.393 4280626733
-0.065098956 0.0050398284 1.393 4280560940
-0.06389004 0.0050398284 1.393 4280495147
-0.062681124 0.0050398284 1.393 4280495147
-0.061516337 0.0050434461 1.3940001 4280560940
-0.060306553 0.0050434461 1.3940001 4280560940
-0.059096772 0.0050434461 1.3940001 4280692526
-0.057886992 0.0050434461 1.3940001 4280824112
-0.056636553 0.0050398284 1.393 4280824112
-0.05550722 0.0050470643 1.3950001 4280824112
-0.054374415 0.0050543002 1.3970001 4280889905
-0.053200081 0.0050579179 1.3980001 4280889905
-0.052209947 0.0050796256 1.404 4280824112
-0.051064126 0.0050868616 1.406 4280758319
-0.049914833 0.0050940975 1.4080001 4280824112
-0.04879665 0.0051049516 1.411 4280758319
-0.0475384 0.0051013334 1.4100001 4280626733
-0.046281885 0.0050977156 1.409 4280758319
-0.045027107 0.0050940975 1.4080001 4280758319
-0.043805175 0.0050940975 1.4080001 4280758319
-0.042613484 0.0050977156 1.409 4280824112
-0.041361313 0.0050940975 1.4080001 4280955444
-0.040110875 0.0050904793 1.4070001 4280889651
-0.038862169 0.0050868616 1.406 4280889652
-0.035552092 0.0051375134 1.4200001 4280955444
-0.034271412 0.0051302775 1.4180001 4280955698
-0.033017498 0.0051266593 1.4170001 4281021491
-0.031765323 0.0051230411 1.416 4281152824
-0.030493317 0.0051158052 1.414 4281218617
-0.029266179 0.0051158052 1.414 4281217846
-0.027999382 0.0051085693 1.4120001 4281086260
-0.026736056 0.0051013334 1.4100001 4281218100
-0.025476201 0.0050940975 1.4080001 4281349686
-0.024150914 0.0050723897 1.4020001 4281415225
-0.022917829 0.0050687715 1.401 4281415225
-0.021686483 0.0050651538 1.4000001 4281546811
-0.020471495 0.0050651538 1.4000001 4281349432
-0.019284016 0.0050723897 1.4020001 4281415225
-0.018093064 0.0050796256 1.404 4281349432
-0.095184937 0.0062313909 1.391 4280758578
-0.093910202 0.0062269112 1.3900001 4280955444
-0.092637196 0.0062224311 1.3890001 4280955444
-0.091300108 0.0062134718 1.3870001 4280824112
-0.090161353 0.0062179519 1.388 4280889905
-0.089020871 0.0062224311 1.3890001 4280955185
-0.088005096 0.006235871 1.3920001 4281020721
-0.086797044 0.006235871 1.3920001 4280757805
-0.085650489 0.0062403507 1.393 4280494377
-0.08450219 0.0062448303 1.3940001 4280428584
-0.08329241 0.0062448303 1.3940001 4280362791
-0.082141511 0.0062493104 1.3950001 4280428584
-0.080814831 0.0062403507 1.393 4280428584
-0.079548769 0.006235871 1.3920001 4280494377
-0.078284442 0.0062313909 1.391 4280560170
-0.07702186 0.0062269112 1.3900001 4280625963
-0.075924635 0.006235871 1.3920001 4280625963
-0.074770264 0.0062403507 1.393 4280495147
-0.07361415 0.0062448303 1.3940001 4280560940
-0.072508253 0.0062537896 1.396 4280626733
-0.071296737 0.0062537896 1.396 4280626733
-0.070035011 0.0062493104 1.3950001 4280560940
-0.068775028 0.0062448303 1.3940001 4280626733
-0.067565247 0.0062448303 1.3940001 4280560686
-0.066355459 0.0062448303 1.3940001 4280560686
-0.065145679 0.0062448303 1.3940001 4280626480
-0.063981764 0.0062493104 1.3950001 4280626480
-0.062816113 0.0062537896 1.396 4280626480
-0.061648723 0.0062582698 1.3970001 4280692273
-0.060436338 0.0062582698 1.3970001 4280626479
-0.059181564 0.0062537896 1.396 4280692272
-0.057970047 0.0062537896 1.396 4280823858
-0.056717869 0.0062493104 1.3950001 4280955444
-0.05554701 0.0062537896 1.396 4281021237
-0.054374415 0.0062582698 1.3970001 4280889651
-0.053200081 0.0062627494 1.3980001 4280823858
-0.052209947 0.0062896283 1.404 4280823858
-0.051064126 0.0062985881 1.406 4280889651
-0.049914833 0.0063075474 1.4080001 4280823858
-0.04879665 0.0063209869 1.411 4280823858
-0.0475384 0.0063165068 1.4100001 4280823858
-0.046281885 0.0063120276 1.409 4280823858
-0.045027107 0.0063075474 1.4080001 4280823858
-0.043774065 0.0063030673 1.4070001 4280823858
-0.042553 0.0063030673 1.4070001 4280889651
-0.041302558 0.0062985881 1.406 4281021237
-0.040053856 0.006294108 1.4050001 4281087030
-0.038806885 0.0062896283 1.404 4281021491
-0.034247242 0.0063478653 1.4170001 4281086514
-0.0329942 0.0063433857 1.416 4281152307
-0.031742893 0.006338906 1.4150001 4281218100
-0.030450189 0.0063254666 1.4120001 4281218100
-0.029224787 0.0063254666 1.4120001 4281152307
-0.027939893 0.0063120276 1.409 4281086514
-0.026698133 0.0063075474 1.4080001 4281218100
-0.025440011 0.0062985881 1.406 4281349686
-0.024133688 0.0062761889 1.401 4281415479
-0.022901472 0.0062717092 1.4000001 4281415479
-0.021670992 0.0062672296 1.399 4281481018
-0.020471495 0.0062717092 1.4000001 4281415225
-0.019284016 0.006280669 1.4020001 4281349432
-0.018080177 0.0062851482 1.4030001 4281415225
-0.095253371 0.0074355318 1.3920001 4280692785
-0.093910202 0.0074248482 1.3900001 4280823858
-0.092637196 0.0074195066 1.3890001 4280955444
-0.091300108 0.0074088238 1.3870001 4280955444
-0.090161353 0.007414165 1.388 4280823857
-0.089020871 0.0074195066 1.3890001 4281086515
-0.08794187 0.0074301902 1.391 4281152307
-0.086797044 0.0074355318 1.3920001 4280889135
-0.085650489 0.007440873 1.393 4280625963
-0.08450219 0.0074462146 1.3940001 4280428584
-0.08329241 0.0074462146 1.3940001 4280362791
-0.082082622 0.0074462146 1.3940001 4280494377
-0.080756813 0.0074355318 1.3920001 4280494377
-0.079548769 0.0074355318 1.3920001 4280625963
-0.078228168 0.0074248482 1.3900001 4280691756
-0.076966442 0.0074195066 1.3890001 4280560940
-0.075870089 0.0074301902 1.391 4280560940
-0.074770264 0.007440873 1.393 4280560940
-0.07361415 0.0074462146 1.3940001 4280626733
-0.072456315 0.0074515566 1.3950001 4280626733
-0.071194589 0.0074462146 1.3940001 4280626733
-0.069984809 0.0074462146 1.3940001 4280626733
-0.068775028 0.0074462146 1.3940001 4280758319
-0.067565247 0.0074462146 1.3940001 4280692272
-0.06645067 0.0074568982 1.396 4280626479
-0.065239154 0.0074568982 1.396 4280626479
-0.064073496 0.0074622394 1.3970001 4280758065
-0.06295111 0.007472923 1.399 4280758066
-0.061781112 0.0074782646 1.4000001 4280692273
-0.060566124 0.0074782646 1.4000001 4280692272
-0.059308745 0.007472923 1.399 4280758065
-0.058053095 0.007467581 1.3980001 4280889651
-0.056839842 0.007467581 1.3980001 4281021237
-0.0555868 0.0074622394 1.3970001 4280955444
-0.054413337 0.007467581 1.3980001 4280889651
-0.053238139 0.007472923 1.399 4280889651
-0.052247137 0.0075049726 1.4050001 4280955444
-0.051100448 0.0075156554 1.4070001 4281021237
-0.049950283 0.007526339 1.409 4280955444
-0.04879665 0.0075370218 1.411 4280889651
-0.0475384 0.0075316811 1.4100001 4280955444
-0.046281885 0.007526339 1.409 4281021237
-0.044995129 0.0075156554 1.4070001 4281021237
-0.043742951 0.0075103138 1.406 4280955444
-0.042522755 0.0075103138 1.406 4280955444
-0.041243806 0.007499631 1.404 4281153077
-0.040025346 0.007499631 1.404 4281153077
-0.038779248 0.0074942894 1.4030001 4281021491
-0.034223072 0.0075637302 1.416 4281152307
-0.032970898 0.0075583882 1.4150001 4281218100
-0.031720456 0.0075530475 1.414 4281086514
-0.030428622 0.0075370218 1.411 4281086514
-0.029183391 0.0075316811 1.4100001 4281086514
-0.027900234 0.0075156554 1.4070001 4281152307
-0.026660208 0.0075103138 1.406 4281218100
-0.025403826 0.007499631 1.404 4281283893
-0.02411646 0.0074782646 1.4000001 4281349686
-0.022885114 0.007472923 1.399 4281349686
-0.021670992 0.007472923 1.399 4281415225
-0.020456871 0.007472923 1.399 4281349432
-0.01927026 0.0074836067 1.401 4281415225
-0.018080177 0.0074942894 1.4030001 4281415225
-0.095253371 0.0086351931 1.3920001 4280758579
-0.093910202 0.0086227851 1.3900001 4280692272
-0.092637196 0.0086165816 1.3890001 4280758065
-0.091300108 0.0086041754 1.3870001 4280889651
-0.090161353 0.008610378 1.388 4280955444
-0.088956781 0.008610378 1.388 4281152053
-0.087878652 0.0086227851 1.3900001 4281217846
-0.086672343 0.0086227851 1.3900001 4280954928
-0.085527509 0.0086289886 1.391 4280691756
-0.084380955 0.0086351931 1.3920001 4280494377
-0.08317291 0.0086351931 1.3920001 4280428584
-0.082023747 0.0086413957 1.393 4280494377
-0.080814831 0.0086413957 1.393 4280560170
-0.079548769 0.0086351931 1.3920001 4280560940
-0.078284442 0.0086289886 1.391 4280626733
-0.07702186 0.0086227851 1.3900001 4280692526
-0.075924635 0.0086351931 1.3920001 4280758319
-0.074770264 0.0086413957 1.393 4280758319
-0.07361415 0.0086475993 1.3940001 4280758319
-0.072300494 0.0086351931 1.3920001 4280692526
-0.071041375 0.0086289886 1.391 4280692526
-0.069884405 0.0086351931 1.3920001 4280758319
-0.068725698 0.0086413957 1.393 4280758319
-0.067613713 0.0086538028 1.3950001 4280758319
-0.066593468 0.008678616 1.399 4280692526
-0.065426074 0.0086848196 1.4000001 4280692272
-0.064256959 0.008691024 1.401 4280758065
-0.061957631 0.0087096337 1.404 4280758065
-0.060782433 0.0087158373 1.4050001 4280758065
-0.05947832 0.0087034302 1.4030001 4280823858
-0.058219202 0.0086972266 1.4020001 4280889651
-0.056961816 0.008691024 1.401 4280955444
-0.05566638 0.008678616 1.399 4281021237
-0.054491181 0.0086848196 1.4000001 4280955444
-0.053276192 0.0086848196 1.4000001 4281021237
-0.052247137 0.0087158373 1.4050001 4281021237
-0.051100448 0.0087282434 1.4070001 4281087030
-0.049914833 0.008734447 1.4080001 4281021237
-0.048762068 0.008746855 1.4100001 4281021237
-0.047504682 0.0087406514 1.409 4281021237
-0.046249039 0.008734447 1.4080001 4281087030
-0.04493117 0.0087158373 1.4050001 4281152823
-0.043680727 0.0087096337 1.404 4281087030
-0.042432025 0.0087034302 1.4030001 4281021237
-0.041038178 0.0086662089 1.3970001 4281153077
-0.039882809 0.008678616 1.399 4281153077
-0.037588425 0.0087096337 1.404 4280889905
-0.036421776 0.0087220399 1.406 4280955698
-0.035251655 0.008734447 1.4080001 4281021491
-0.034126397 0.0087592611 1.4120001 4281087284
-0.032877691 0.0087530576 1.411 4281087284
-0.031585857 0.008734447 1.4080001 4281152307
-0.030320795 0.0087220399 1.406 4281152307
-0.029079903 0.0087158373 1.4050001 4281152307
-0.027781257 0.008691024 1.401 4281218100
-0.026546437 0.0086848196 1.4000001 4281218100
-0.025313355 0.008678616 1.399 4281218100
-0.024064783 0.0086662089 1.3970001 4281218100
-0.022852397 0.0086662089 1.3970001 4281218100
-0.021640012 0.0086662089 1.3970001 4281349432
-0.020471495 0.0086848196 1.4000001 4281349432
-0.019284016 0.0086972266 1.4020001 4281349432
-0.018093064 0.0087096337 1.404 4281415225
-0.016922679 0.008734447 1.4080001 4281350203
-0.0157119 0.0087406514 1.409 4281350203
-0.014499383 0.008746855 1.4100001 4281350203
-0.013294546 0.0087592611 1.4120001 4281415996
-0.095184937 0.009827788 1.391 4280955958
-0.093910202 0.009820722 1.3900001 4280692273
-0.092637196 0.009813657 1.3890001 4280823858
-0.091300108 0.009799527 1.3870001 4280889651
-0.090096399 0.009799527 1.3870001 4281021237
-0.088956781 0.009806592 1.388 4281152053
-0.087815426 0.009813657 1.3890001 4281152053
-0.086609982 0.009813657 1.3890001 4280954674
-0.085466027 0.009820722 1.3900001 4280691758
-0.084380955 0.009834853 1.3920001 4280559916
-0.08317291 0.009834853 1.3920001 4280559916
-0.082023747 0.009841918 1.393 4280625708
-0.080872841 0.009848983 1.3940001 4280691502
-0.079605922 0.009841918 1.393 4280626733
-0.078340724 0.009834853 1.3920001 4280626733
-0.07713268 0.009834853 1.3920001 4280758319
-0.075979181 0.009841918 1.393 4280758319
-0.074770264 0.009841918 1.393 4280824112
-0.07361415 0.009848983 1.3940001 4280824112
-0.072248548 0.009827788 1.391 4280824112
-0.070990309 0.009820722 1.3900001 4280824112
-0.069884405 0.009834853 1.3920001 4280889905
-0.068725698 0.009841918 1.393 4280758319
-0.067565247 0.009848983 1.3940001 4280758319
-0.066593468 0.00988431 1.399 4280824112
-0.065426074 0.009891375 1.4000001 4280758065
-0.064256959 0.0098984409 1.401 4280692272
-0.061957631 0.009919636 1.404 4280823858
-0.060782433 0.0099267019 1.4050001 4280823858
-0.05947832 0.0099125709 1.4030001 4280823858
-0.058219202 0.009905505 1.4020001 4280823858
-0.056921154 0.009891375 1.4000001 4280955444
-0.05566638 0.00988431 1.399 4281021237
-0.054491181 0.009891375 1.4000001 4281087030
-0.053276192 0.009891375 1.4000001 4281021750
-0.052247137 0.0099267019 1.4050001 4281021750
-0.051064126 0.009933766 1.406 4280955957
-0.049914833 0.0099478969 1.4080001 4281021750
-0.048727483 0.0099549629 1.409 4281087030
-0.047470968 0.0099478969 1.4080001 4281087030
-0.046216194 0.0099408319 1.4070001 4281087030
-0.044899188 0.009919636 1.404 4281152823
-0.043649618 0.0099125709 1.4030001 4281153077
-0.042190075 0.009856049 1.3950001 4281153077
-0.0410088 0.009863114 1.396 4281087284
-0.039825793 0.009870179 1.3970001 4281087284
-0.037561655 0.0099125709 1.4030001 4280955698
-0.03639587 0.0099267019 1.4050001 4281021491
-0.035201579 0.009933766 1.406 4281087284
-0.034078062 0.0099620279 1.4100001 4281087284
-0.032854393 0.0099620279 1.4100001 4281087284
-0.031563427 0.0099408319 1.4070001 4281283893
-0.030299231 0.0099267019 1.4050001 4281218100
-0.029059203 0.009919636 1.404 4281218100
-0.027741596 0.00988431 1.399 4281283893
-0.026527476 0.00988431 1.399 4281283893
-0.025277168 0.009870179 1.3970001 4281218100
-0.024047555 0.009863114 1.396 4281218100
-0.022852397 0.009870179 1.3970001 4281218100
-0.021640012 0.009870179 1.3970001 4281349686
-0.020486116 0.0098984409 1.401 4281349686
-0.019284016 0.009905505 1.4020001 4281152823
-0.018093064 0.009919636 1.404 4281218616
-0.016934698 0.0099549629 1.409 4281284409
-0.0157119 0.0099549629 1.409 4281284409
-0.014509665 0.0099690929 1.411 4281284410
-0.095184937 0.011026587 1.391 4281284923
-0.093842641 0.011010733 1.3890001 4280889652
-0.092570499 0.011002805 1.388 4280823859
-0.091300108 0.010994879 1.3870001 4280889652
-0.090096399 0.010994879 1.3870001 4280955445
-0.088956781 0.011002805 1.388 4281218103
-0.087752201 0.011002805 1.388 4281217846
-0.086609982 0.011010733 1.3890001 4280954674
-0.085404545 0.011010733 1.3890001 4280823088
-0.084320337 0.011026587 1.391 4280691502
-0.08317291 0.011034514 1.3920001 4280691502
-0.082023747 0.01104244 1.393 4280757295
-0.080930859 0.011058295 1.3950001 4280823088
-0.079663061 0.011050368 1.3940001 4280626733
-0.07845328 0.011050368 1.3940001 4280626733
-0.077188089 0.01104244 1.393 4280692526
-0.075979181 0.01104244 1.393 4280758319
-0.074823938 0.011050368 1.3940001 4280824112
-0.07366696 0.011058295 1.3950001 4280758319
-0.072248548 0.011026587 1.391 4280824112
-0.070939228 0.011010733 1.3890001 4280889905
-0.069834195 0.011026587 1.391 4281021491
-0.068676353 0.011034514 1.3920001 4280824112
-0.067516781 0.01104244 1.393 4280758319
-0.066593468 0.011090003 1.399 4280758319
-0.065426074 0.01109793 1.4000001 4280692526
-0.064302824 0.011113784 1.4020001 4280626733
-0.063176088 0.011129639 1.404 4280758065
-0.061957631 0.011129639 1.404 4280823858
-0.060782433 0.011137567 1.4050001 4280955444
-0.059435926 0.011113784 1.4020001 4280889651
-0.058177672 0.011105858 1.401 4280955444
-0.056921154 0.01109793 1.4000001 4281021237
-0.05566638 0.011090003 1.399 4281021237
-0.054491181 0.01109793 1.4000001 4281087030
-0.053276192 0.01109793 1.4000001 4281021750
-0.052209947 0.011129639 1.404 4281021750
-0.051064126 0.011145493 1.406 4281021750
-0.049914833 0.011161347 1.4080001 4281087543
-0.048692901 0.011161347 1.4080001 4281152823
-0.047437254 0.01115342 1.4070001 4281087030
-0.046150498 0.011137567 1.4050001 4281087284
-0.04486721 0.011121712 1.4030001 4281153077
-0.043649618 0.011121712 1.4030001 4281218870
-0.042129584 0.01104244 1.393 4281153077
-0.040950049 0.011050368 1.3940001 4281087284
-0.039797284 0.011066223 1.396 4281087284
-0.038723964 0.011105858 1.401 4281087284
-0.036344063 0.011121712 1.4030001 4281153077
-0.035176545 0.011137567 1.4050001 4281153077
-0.034053888 0.011169274 1.409 4281153077
-0.032831091 0.011169274 1.409 4281087284
-0.031563427 0.01115342 1.4070001 4281153077
-0.030299231 0.011137567 1.4050001 4281087284
-0.029038507 0.011121712 1.4030001 4281218100
-0.027701939 0.011074149 1.3970001 4281283893
-0.02647059 0.011066223 1.396 4281283893
-0.025259074 0.011066223 1.396 4281218100
-0.024047555 0.011066223 1.396 4281218100
-0.022852397 0.011074149 1.3970001 4281283893
-0.021640012 0.011074149 1.3970001 4281218870
-0.020486116 0.011105858 1.401 4281153077
-0.019284016 0.011113784 1.4020001 4281087030
-0.018093064 0.011129639 1.404 4281152823
-0.016934698 0.011169274 1.409 4281284409
-0.01572305 0.011177202 1.4100001 4281350202
-0.091300108 0.01219023 1.3870001 4280758066
-0.090161353 0.012199018 1.388 4281021238
-0.088956781 0.012199018 1.388 4281218360
-0.087752201 0.012199018 1.388 4281152824
-0.086547628 0.012199018 1.388 4281086260
-0.085343055 0.012199018 1.388 4280888881
-0.084138475 0.012199018 1.388 4280823088
-0.082993656 0.012207808 1.3890001 4280757295
-0.081905976 0.012225386 1.391 4280757295
-0.080814831 0.012242964 1.393 4280823088
-0.079605922 0.012242964 1.393 4280692526
-0.078397006 0.012242964 1.393 4280692526
-0.077188089 0.012242964 1.393 4280758319
-0.075924635 0.012234175 1.3920001 4280824112
-0.074716583 0.012234175 1.3920001 4280824112
-0.073402926 0.012216597 1.3900001 4280758319
-0.072144672 0.012207808 1.3890001 4280824112
-0.070837088 0.01219023 1.3870001 4280824112
-0.069783993 0.012216597 1.3900001 4280889905
-0.068676353 0.012234175 1.3920001 4280889905
-0.067565247 0.012251752 1.3940001 4280824112
-0.065426074 0.012304486 1.4000001 4280560940
-0.064302824 0.012322064 1.4020001 4280692526
-0.063131101 0.012330852 1.4030001 4280823858
-0.061913505 0.012330852 1.4030001 4280823858
-0.060695913 0.012330852 1.4030001 4280955444
-0.059393529 0.012313275 1.401 4280955444
-0.058177672 0.012313275 1.401 4281021237
-0.056921154 0.012304486 1.4000001 4281021237
-0.055745959 0.012313275 1.401 4280955444
-0.054569028 0.012322064 1.4020001 4281021237
-0.053390354 0.012330852 1.4030001 4281021750
-0.052247137 0.01234843 1.4050001 4281087543
-0.051027808 0.01234843 1.4050001 4281153336
-0.04984393 0.012357219 1.406 4281153336
-0.048554566 0.012339641 1.404 4281218616
-0.047268681 0.012322064 1.4020001 4281152823
-0.045986261 0.012304486 1.4000001 4281153077
-0.044483457 0.012225386 1.391 4281153077
-0.043214053 0.012207808 1.3890001 4281153077
-0.041948125 0.01219023 1.3870001 4281021491
-0.04077379 0.012199018 1.388 4281087284
-0.039626233 0.012216597 1.3900001 4281087284
-0.038558125 0.012260541 1.3950001 4281153077
-0.037374251 0.01226933 1.396 4281218870
-0.036188636 0.012278119 1.3970001 4281153077
-0.035076395 0.012313275 1.401 4281218870
-0.033860538 0.012313275 1.401 4281153077
-0.032667983 0.012322064 1.4020001 4281087284
-0.031428825 0.012313275 1.401 4281153077
-0.030191405 0.012304486 1.4000001 4281153077
-0.028935021 0.012286908 1.3980001 4281283893
-0.027662279 0.012260541 1.3950001 4281283893
-0.02647059 0.01226933 1.396 4281283893
-0.025259074 0.01226933 1.396 4281283893
-0.024047555 0.01226933 1.396 4281283893
-0.022836039 0.01226933 1.396 4281283893
-0.021624522 0.01226933 1.396 4281349686
-0.020442247 0.012286908 1.3980001 4281283893
-0.01924275 0.012295697 1.399 4281152823
-0.018041516 0.012304486 1.4000001 4281218616
-0.016886624 0.01234843 1.4050001 4281350202
-0.015667295 0.01234843 1.4050001 4281350202
-0.014458248 0.012357219 1.406 4281284409
-0.013256884 0.012374797 1.4080001 4281218616
-0.091365926 0.013395232 1.388 4280758066
-0.090226315 0.013404883 1.3890001 4280823859
-0.089020871 0.013404883 1.3890001 4281021238
-0.087815426 0.013404883 1.3890001 4281087031
-0.086547628 0.013395232 1.388 4281021237
-0.085343055 0.013395232 1.388 4280955444
-0.084138475 0.013395232 1.388 4280823858
-0.082933903 0.013395232 1.388 4280692015
-0.081788212 0.013404883 1.3890001 4280560686
-0.080698796 0.013424185 1.391 4280626479
-0.079491623 0.013424185 1.391 4280889135
-0.078284442 0.013424185 1.391 4280823342
-0.077077262 0.013424185 1.391 4280954928
-0.075870089 0.013424185 1.391 4281020721
-0.074662909 0.013424185 1.391 4281086514
-0.073297307 0.013395232 1.388 4280954928
-0.072092734 0.013395232 1.388 4280758319
-0.070837088 0.013385582 1.3870001 4280758319
-0.069834195 0.013424185 1.391 4280824112
-0.068725698 0.013443486 1.393 4280889905
-0.067613713 0.013462787 1.3950001 4280824112
-0.065472811 0.013520692 1.401 4280692272
-0.064302824 0.013530343 1.4020001 4280758065
-0.063131101 0.013539993 1.4030001 4280889651
-0.061913505 0.013539993 1.4030001 4280889651
-0.060652651 0.013530343 1.4020001 4280955444
-0.059393529 0.013520692 1.401 4280955444
-0.058177672 0.013520692 1.401 4281021237
-0.056961816 0.013520692 1.401 4280955444
-0.055785753 0.013530343 1.4020001 4280955444
-0.054607946 0.013539993 1.4030001 4281021237
-0.053428408 0.013549645 1.404 4281021750
-0.052247137 0.013559295 1.4050001 4281087543
-0.051027808 0.013559295 1.4050001 4281153336
-0.04980848 0.013559295 1.4050001 4281219129
-0.048485406 0.013530343 1.4020001 4281284409
-0.04720125 0.013511041 1.4000001 4281284409
-0.045690633 0.013424185 1.391 4281284663
-0.044451475 0.013414534 1.3900001 4281218870
-0.043182939 0.013395232 1.388 4281153077
-0.041917879 0.01337593 1.386 4281087284
-0.040744416 0.013385582 1.3870001 4281153077
-0.039569218 0.013395232 1.388 4281153077
-0.038475204 0.013433835 1.3920001 4281218870
-0.037320703 0.013453136 1.3940001 4281218870
