# .PCD v0.7 - Point Cloud Data file format
VERSION 0.7
FIELDS x y z rgba
SIZE 4 4 4 4
TYPE F F F U
COUNT 1 1 1 1
WIDTH 699
HEIGHT 1
VIEWPOINT 0 0 0 1 0 0 0
POINTS 699
DATA ascii
-0.15986772 -0.10845163 1.3560001 4292403427
-0.15704948 -0.10813172 1.3520001 4292732392
-0.15447395 -0.10797177 1.35 4293061357
-0.15213075 -0.10797177 1.35 4293324529
-0.14978756 -0.10797177 1.35 4293324274
-0.14788124 -0.10829168 1.3540001 4293258482
-0.15939614 -0.10580134 1.3520001 4292929771
-0.15670098 -0.10556658 1.3490001 4292929771
-0.15401626 -0.10533181 1.3460001 4292863978
-0.15168001 -0.10533181 1.3460001 4293061357
-0.14978756 -0.10564484 1.35 4293258736
-0.15939614 -0.10347097 1.3520001 4293389551
-0.15658481 -0.10316484 1.348 4293323758
-0.1533297 -0.10255259 1.34 4293127150
-0.15100387 -0.10255259 1.34 4292863978
-0.14889993 -0.10270565 1.342 4292995564
-0.14689828 -0.10293524 1.345 4292863978
-0.14467126 -0.10301178 1.3460001 4292929771
-0.14244075 -0.10308831 1.3470001 4293324275
-0.15321527 -0.10016809 1.3390001 4293192429
-0.15077849 -0.10009328 1.3380001 4293324528
-0.14845613 -0.10009328 1.3380001 4293324529
-0.14624298 -0.10016809 1.3390001 4293127150
-0.14402637 -0.10024289 1.34 4293061357
-0.14191201 -0.10039251 1.342 4292995564
-0.13989474 -0.10061693 1.345 4293192689
-0.13776478 -0.10076655 1.3470001 4293324275
-0.15344413 -0.098006286 1.3410001 4293192172
-0.15100387 -0.097933203 1.34 4293389551
-0.14856707 -0.097860113 1.3390001 4293324016
-0.14624298 -0.097860113 1.3390001 4293192943
-0.14391887 -0.097860113 1.3390001 4293258736
-0.14180627 -0.098006286 1.3410001 4293061357
-0.13979073 -0.098225541 1.3440001 4293061357
-0.13745795 -0.098225541 1.3440001 4293192689
-0.15390182 -0.095980309 1.345 4293257965
-0.15145463 -0.095908955 1.3440001 4293389551
-0.14867803 -0.095623508 1.34 4293455087
-0.14602454 -0.095409431 1.337 4293455344
-0.14359643 -0.095338069 1.3360001 4293323758
-0.14127754 -0.095338069 1.3360001 4293324529
-0.13906266 -0.095409431 1.337 4293192943
-0.13684431 -0.095480792 1.3380001 4292995564
-0.13482356 -0.09569487 1.3410001 4293192689
-0.15190537 -0.093870915 1.348 4293257965
-0.14889993 -0.093453094 1.342 4293455344
-0.14602454 -0.093104906 1.337 4293521137
-0.14359643 -0.093035273 1.3360001 4293389552
-0.14096029 -0.092826359 1.3330001 4293455345
-0.1386466 -0.092826359 1.3330001 4293258736
-0.13633291 -0.092826359 1.3330001 4293192689
-0.13411978 -0.092895992 1.3340001 4293061103
-0.13200197 -0.093035273 1.3360001 4293126896
-0.12987721 -0.093174547 1.3380001 4293390068
-0.15291958 -0.092158653 1.3570001 4292336863
-0.14967662 -0.091615349 1.3490001 4293126379
-0.14678906 -0.091275781 1.3440001 4293521138
-0.14370392 -0.090800382 1.337 4293389552
-0.14106604 -0.090596646 1.3340001 4293389552
-0.13854261 -0.090460822 1.332 4293389552
-0.13612838 -0.090392902 1.3310001 4293258736
-0.13361709 -0.090257078 1.3290001 4293192943
-0.13121152 -0.090189166 1.3280001 4292929771
-0.1290036 -0.090257078 1.3290001 4293061357
-0.12688752 -0.090392902 1.3310001 4293258482
-0.15348303 -0.09015061 1.3620001 4292205278
-0.15089712 -0.090018235 1.36 4292665828
-0.14744437 -0.08935634 1.35 4293257965
-0.14477873 -0.089157768 1.3470001 4293586931
-0.14180627 -0.088760629 1.3410001 4293389552
-0.13885464 -0.088363491 1.335 4293455345
-0.13623065 -0.088164918 1.332 4293324529
-0.133416 -0.087833971 1.327 4293258736
-0.13081631 -0.087635398 1.3240001 4293192943
-0.12851825 -0.087635398 1.3240001 4293061357
-0.12631552 -0.087701589 1.325 4293127150
-0.1242965 -0.087900154 1.3280001 4293258482
-0.12217522 -0.088032536 1.33 4293258482
-0.120047 -0.088164918 1.332 4293390068
-0.15393379 -0.088060863 1.3660001 4291744726
-0.15134092 -0.087931938 1.3640001 4292073691
-0.14788124 -0.08728727 1.3540001 4292534242
-0.14531615 -0.087158337 1.3520001 4293060586
-0.14222924 -0.08670707 1.345 4293455345
-0.13916667 -0.086255811 1.3380001 4293455345
-0.13653748 -0.086062416 1.335 4293521138
-0.13361709 -0.08567562 1.3290001 4293324529
-0.13091512 -0.085417747 1.325 4293258736
-0.12851825 -0.085353285 1.3240001 4293192943
-0.12612486 -0.085288815 1.3230001 4293192689
-0.12410932 -0.085482217 1.3260001 4293126896
-0.12189964 -0.085546687 1.327 4293324275
-0.11995688 -0.085804544 1.3310001 4293324275
-0.15472262 -0.086145557 1.373 4291415762
-0.1521176 -0.086020067 1.3710001 4291678934
-0.14919187 -0.085706361 1.3660001 4292073691
-0.14617601 -0.085329905 1.36 4292468449
-0.14307523 -0.084890708 1.353 4293126379
-0.13979073 -0.084326021 1.3440001 4293455344
-0.13715112 -0.084137797 1.3410001 4293455345
-0.1339187 -0.08357311 1.332 4293455345
-0.13101393 -0.083196655 1.3260001 4293521140
-0.12842119 -0.083008431 1.3230001 4293324529
-0.12593418 -0.082882948 1.3210001 4293258736
-0.12382853 -0.083008431 1.3230001 4293192943
-0.12189964 -0.083259404 1.327 4293127150
-0.15539876 -0.084145099 1.3790001 4291218383
-0.15267237 -0.083962046 1.376 4291481555
-0.14973795 -0.083656944 1.3710001 4291678934
-0.1468209 -0.083351851 1.3660001 4291942105
-0.14360397 -0.082863703 1.358 4292402656
-0.1405188 -0.082436569 1.3510001 4292994793
-0.1376625 -0.082131475 1.3460001 4293521138
-0.13442141 -0.0815823 1.337 4293586931
-0.13121152 -0.081033133 1.3280001 4293652724
-0.12861532 -0.080850072 1.325 4293586931
-0.12593418 -0.080606006 1.3210001 4293586931
-0.12364133 -0.080606006 1.3210001 4293586931
-0.1215322 -0.080728039 1.3230001 4293455345
-0.11959637 -0.08097212 1.327 4293323760
-0.11755826 -0.081155173 1.33 4293258482
-0.15562414 -0.081886776 1.381 4291481555
-0.15289427 -0.081708893 1.378 4291547347
-0.14984718 -0.081353121 1.3720001 4291744726
-0.14703587 -0.081115931 1.368 4291744726
-0.14392121 -0.080700874 1.3610001 4291942105
-0.14083083 -0.080285802 1.3540001 4292336863
-0.1380716 -0.080048628 1.35 4292731621
-0.13472302 -0.079455666 1.34 4293521137
-0.13150795 -0.078922011 1.3310001 4293586930
-0.12890652 -0.078744121 1.3280001 4293455345
-0.12602952 -0.078388348 1.322 4293521138
-0.12373492 -0.078388348 1.322 4293389552
-0.1215322 -0.078447647 1.3230001 4293389552
-0.11950625 -0.078625537 1.3260001 4293521395
-0.11746988 -0.07880342 1.3290001 4293324275
-0.15905096 -0.080024563 1.3900001 4291218383
-0.15573682 -0.07956399 1.3820001 4291547348
-0.15300523 -0.079391271 1.3790001 4291744726
-0.14995639 -0.079045847 1.373 4291876312
-0.14714335 -0.078815557 1.3690001 4291744726
-0.14434418 -0.078585267 1.365 4291810519
-0.14145491 -0.078297406 1.36 4291876312
-0.13858299 -0.078009553 1.355 4292402656
-0.13542679 -0.077548981 1.3470001 4292797414
-0.13219957 -0.077030838 1.3380001 4293586930
-0.129586 -0.076858118 1.335 4293652724
-0.12669685 -0.076512687 1.3290001 4293323759
-0.12392212 -0.076224834 1.3240001 4293257966
-0.12144033 -0.076109685 1.322 4293126380
-0.119326 -0.076224834 1.3240001 4293126380
-0.11720471 -0.076339975 1.3260001 4293060846
-0.11533645 -0.076627828 1.3310001 4292929517
-0.15939423 -0.077796228 1.393 4291284175
-0.15562414 -0.077126056 1.381 4291547347
-0.15278332 -0.076902658 1.3770001 4291744726
-0.14973795 -0.076567568 1.3710001 4291678933
-0.14714335 -0.076455876 1.3690001 4291744726
-0.14476718 -0.076455876 1.3690001 4291678933
-0.14187095 -0.076176636 1.3640001 4291613140
-0.13919663 -0.076009095 1.3610001 4291810519
-0.13613056 -0.075618155 1.3540001 4292205277
-0.13299 -0.075171374 1.3460001 4292665828
-0.13026547 -0.074947976 1.342 4293389552
-0.12736417 -0.074612901 1.3360001 4293652724
-0.12420291 -0.074110262 1.327 4293126380
-0.12162406 -0.073942721 1.3240001 4292731622
-0.119326 -0.073942721 1.3240001 4292665829
-0.11711631 -0.073998563 1.325 4292797671
-0.11507647 -0.074166112 1.3280001 4292666600
-0.1133659 -0.074557044 1.335 4292929516
-0.11138148 -0.074780434 1.3390001 4293324275
-0.15950866 -0.075449303 1.3940001 4291415761
-0.15562414 -0.074745692 1.381 4291613140
-0.15278332 -0.074529193 1.3770001 4291613140
-0.14984718 -0.074258573 1.3720001 4291613140
-0.14725083 -0.074150324 1.3700001 4291547347
-0.14497866 -0.074204445 1.3710001 4291547347
-0.14228699 -0.074042074 1.368 4291481554
-0.13960573 -0.073879696 1.365 4291481554
-0.13643219 -0.073446706 1.3570001 4291678933
-0.13338521 -0.073067836 1.35 4292007898
-0.13065375 -0.072851337 1.3460001 4292402656
-0.12765017 -0.072472468 1.3390001 4293257966
-0.12476449 -0.072147727 1.3330001 4293323759
-0.12180778 -0.071768858 1.3260001 4292731622
-0.11941611 -0.071714729 1.325 4292797415
-0.11720471 -0.071768858 1.3260001 4292929257
-0.11516314 -0.071931228 1.3290001 4292732392
-0.11328098 -0.072201848 1.3340001 4292797928
-0.11121511 -0.072364219 1.337 4293192175
-0.1559622 -0.072522536 1.3840001 4291415761
-0.15322714 -0.072365329 1.381 4291349968
-0.15028404 -0.072103329 1.376 4291415761
-0.14789572 -0.072103329 1.376 4291415761
-0.14561315 -0.072155729 1.3770001 4291284175
-0.14353512 -0.072312929 1.3800001 4291284175
-0.14032166 -0.071893722 1.3720001 4291218382
-0.13723651 -0.071526915 1.365 4291284175
-0.13397804 -0.071055315 1.3560001 4291415761
-0.13133323 -0.070898116 1.353 4291810519
-0.12822217 -0.070478901 1.345 4292468449
-0.12523247 -0.070112102 1.3380001 4292994793
-0.12226709 -0.069745295 1.3310001 4292797415
-0.11968649 -0.069588095 1.3280001 4292863208
-0.11738148 -0.069588095 1.3280001 4293126380
-0.11507647 -0.069588095 1.3280001 4293060587
-0.11311115 -0.069797695 1.332 4292928744
-0.11096556 -0.069902495 1.3340001 4292994794
-0.10922027 -0.070269302 1.3410001 4293389554
-0.15630028 -0.070289031 1.3870001 4291481298
-0.1377392 -0.069427527 1.3700001 4290889417
-0.13447206 -0.068971433 1.3610001 4291152588
-0.13152736 -0.068667367 1.355 4291547346
-0.12841283 -0.068261951 1.3470001 4291876312
-0.12551327 -0.067957893 1.3410001 4292600035
-0.12291011 -0.067805856 1.3380001 4292929001
-0.11986674 -0.067400441 1.33 4292929001
-0.11746988 -0.067349762 1.3290001 4293126380
-0.11516314 -0.067349762 1.3290001 4293060587
-0.11311115 -0.067501798 1.332 4293060587
-0.11088238 -0.067552477 1.3330001 4292994537
-0.10897593 -0.067805856 1.3380001 4292994796
-0.10705212 -0.068059243 1.3430001 4293324019
-0.10479905 -0.068109922 1.3440001 4293324277
-0.16552921 -0.069758557 1.4250001 4291744727
-0.16271256 -0.069611698 1.4220001 4291942106
-0.1377392 -0.067066126 1.3700001 4290955210
-0.13457087 -0.066674493 1.3620001 4291284175
-0.1317215 -0.066429727 1.3570001 4291481554
-0.12850817 -0.065989144 1.348 4291678933
-0.12560686 -0.06569542 1.342 4292271070
-0.12309384 -0.065597519 1.34 4292797414
-0.120047 -0.065205894 1.332 4292994793
-0.11764666 -0.065156937 1.3310001 4292994794
-0.11533645 -0.065156937 1.3310001 4293126380
-0.11311115 -0.065205894 1.332 4293192173
-0.11096556 -0.065303795 1.3340001 4293060587
-0.10897593 -0.065499611 1.3380001 4292929002
-0.10705212 -0.065744378 1.3430001 4293126382
-0.10487703 -0.065842286 1.345 4293324020
-0.17094998 -0.068483099 1.45 4291876313
-0.13447206 -0.064279653 1.3610001 4291284175
-0.13162443 -0.064043507 1.3560001 4291415761
-0.12850817 -0.063665666 1.348 4291744726
-0.12560686 -0.063382283 1.342 4291876312
-0.12318569 -0.063335061 1.3410001 4292073691
-0.12058775 -0.063193366 1.3380001 4292731621
-0.11791183 -0.063004449 1.3340001 4292994794
-0.11550975 -0.06295722 1.3330001 4293126380
-0.11319606 -0.06295722 1.3330001 4293126380
-0.11096556 -0.063004449 1.3340001 4293060587
-0.10889448 -0.063146137 1.337 4293060587
-0.1068927 -0.063335061 1.3410001 4293060588
-0.10472108 -0.06342952 1.3430001 4293323761
-0.12850817 -0.061342184 1.348 4291613140
-0.12570047 -0.061114654 1.3430001 4291810519
-0.12327755 -0.061069146 1.342 4291810519
-0.120768 -0.060978137 1.34 4292205278
-0.118177 -0.060841616 1.337 4292929001
-0.11576971 -0.060796116 1.3360001 4293126380
-0.1133659 -0.060750607 1.335 4293060587
-0.11104874 -0.060750607 1.335 4293126380
-0.10889448 -0.060841616 1.337 4293126380
-0.10673328 -0.060932625 1.3390001 4292994794
-0.10456513 -0.061023645 1.3410001 4293126381
-0.10261875 -0.061251171 1.3460001 4293323761
-0.10072953 -0.061524209 1.3520001 4293389811
-0.0985284 -0.061615221 1.3540001 4293390068
-0.12869883 -0.059106272 1.35 4291415761
-0.12579405 -0.058843575 1.3440001 4291810519
-0.12336943 -0.058799792 1.3430001 4291876055
-0.12094825 -0.058756005 1.342 4291941849
-0.11844217 -0.058668442 1.34 4292468450
-0.11594302 -0.058580879 1.3380001 4292994794
-0.11353574 -0.058537096 1.337 4293126380
-0.11121511 -0.058537096 1.337 4293126380
-0.10889448 -0.058537096 1.337 4293192173
-0.10681298 -0.058668442 1.34 4293192173
-0.10456513 -0.058712229 1.3410001 4293060588
-0.10261875 -0.058931138 1.3460001 4293126381
-0.10072953 -0.059193835 1.3520001 4293324274
-0.09860117 -0.059325181 1.355 4293390068
-0.1288895 -0.056863457 1.3520001 4291349968
-0.12588765 -0.056569044 1.345 4291744469
-0.12355313 -0.056569044 1.345 4291941848
-0.1211285 -0.056526989 1.3440001 4291942105
-0.11879572 -0.056526989 1.3440001 4292073691
-0.1165496 -0.056569044 1.345 4292731621
-0.11404525 -0.05648493 1.3430001 4293192173
-0.11163103 -0.056442872 1.342 4293126380
-0.10922027 -0.056400813 1.3410001 4293323759
-0.1068927 -0.056400813 1.3410001 4293455345
-0.10464311 -0.056442872 1.342 4293257966
-0.10261875 -0.056611106 1.3460001 4293060587
-0.10080403 -0.056905519 1.353 4293060587
-0.09860117 -0.056989636 1.355 4293192174
-0.12908016 -0.054613754 1.3540001 4291349712
-0.12598126 -0.054291073 1.3460001 4291547090
-0.12355313 -0.054250736 1.345 4291941848
-0.12130876 -0.054291073 1.3460001 4292007641
-0.11914928 -0.054371744 1.348 4292007641
-0.11689622 -0.054412078 1.3490001 4292402399
-0.11463968 -0.054452412 1.35 4293060329
-0.11229648 -0.054452412 1.35 4293257710
-0.10970895 -0.054331407 1.3470001 4293389552
-0.10721155 -0.054250736 1.345 4293323759
-0.104955 -0.054291073 1.3460001 4293257966
-0.1288895 -0.052202709 1.3520001 4291284175
-0.12598126 -0.051971037 1.3460001 4291349711
-0.12355313 -0.051932428 1.345 4291810262
-0.12130876 -0.051971037 1.3460001 4292204507
-0.11914928 -0.052048262 1.348 4292401886
-0.11698287 -0.052125484 1.35 4292402142
-0.11480951 -0.052202709 1.3520001 4292862694
-0.11246285 -0.052202709 1.3520001 4293257709
-0.10995329 -0.052125484 1.35 4293257709
-0.10745068 -0.052048262 1.348 4293126124
-0.10526691 -0.052125484 1.35 4293126380
-0.12850817 -0.04972478 1.348 4291349968
-0.12570047 -0.049540341 1.3430001 4291349711
-0.12336943 -0.049540341 1.3430001 4291612113
-0.12103838 -0.049540341 1.3430001 4291809492
-0.11897251 -0.049651004 1.3460001 4291612113
-0.1167229 -0.049687892 1.3470001 4291414734
-0.11455476 -0.049761668 1.3490001 4291414734
-0.11237967 -0.049835443 1.3510001 4292073177
-0.11019763 -0.049909219 1.353 4292928744
-0.10840721 -0.050167434 1.36 4293257709
-0.12841283 -0.047366135 1.3470001 4291349455
-0.12570047 -0.047225479 1.3430001 4291414991
-0.12327755 -0.047190316 1.342 4291414734
-0.12103838 -0.047225479 1.3430001 4291348941
-0.11879572 -0.047260646 1.3440001 4291217355
-0.1165496 -0.047295809 1.345 4291217355
-0.11438492 -0.047366135 1.3470001 4291283148
-0.11229648 -0.047471628 1.35 4291480527
-0.11019763 -0.04757712 1.353 4292204507
-0.10848692 -0.047858436 1.3610001 4293126123
-0.13378042 -0.045278464 1.3540001 4291086796
-0.13104202 -0.0451447 1.35 4291349456
-0.12822217 -0.044977497 1.345 4291349198
-0.12551327 -0.044843737 1.3410001 4291414734
-0.12309384 -0.044810295 1.34 4291348941
-0.12085813 -0.044843737 1.3410001 4291282890
-0.11861894 -0.044877175 1.342 4291282891
-0.1163763 -0.044910617 1.3430001 4291414477
-0.11421508 -0.044977497 1.345 4291546064
-0.1122133 -0.045111258 1.3490001 4291809235
-0.11011618 -0.04521158 1.3520001 4292072664
-0.10864634 -0.045579426 1.363 4292731108
-0.13397804 -0.043008074 1.3560001 4291151820
-0.13104202 -0.042817771 1.35 4291348942
-0.12793617 -0.042564038 1.342 4291414477
-0.12532607 -0.042468887 1.3390001 4291414476
-0.12300197 -0.042468887 1.3390001 4291348682
-0.12067787 -0.042468887 1.3390001 4291348682
-0.11844217 -0.042500604 1.34 4291414475
-0.11620298 -0.042532321 1.3410001 4291546061
-0.11421508 -0.04265919 1.345 4291611599
-0.11229648 -0.042817771 1.35 4291809493
-0.11027908 -0.04294464 1.3540001 4291809493
-0.10880576 -0.043293525 1.365 4292072922
-0.13387924 -0.040640809 1.355 4291480528
-0.13094497 -0.040460851 1.3490001 4291611857
-0.12812683 -0.040310886 1.3440001 4291677648
-0.12560686 -0.040250897 1.342 4291611854
-0.12318569 -0.040220905 1.3410001 4291546061
-0.12085813 -0.040220905 1.3410001 4291743440
-0.11861894 -0.040250897 1.342 4291809233
-0.1163763 -0.04028089 1.3430001 4291808720
-0.11430001 -0.04037087 1.3460001 4291742928
-0.11254603 -0.040580824 1.353 4291611600
-0.11044197 -0.040670801 1.3560001 4291545808
-0.10904489 -0.041030724 1.368 4292138458
-0.13427445 -0.038418341 1.3590001 4291546063
-0.1314303 -0.038276996 1.3540001 4291480270
-0.12850817 -0.038107377 1.348 4291611599
-0.12588765 -0.038022567 1.345 4291677390
-0.12355313 -0.038022567 1.345 4291677391
-0.1211285 -0.037994299 1.3440001 4291742927
-0.11888411 -0.038022567 1.345 4291611084
-0.11663625 -0.038050838 1.3460001 4291545034
-0.11463968 -0.038163915 1.35 4291544779
-0.11287876 -0.038361803 1.3570001 4291610830
-0.11076776 -0.038446609 1.36 4291611088
-0.10928404 -0.038757578 1.3710001 4291808980
-0.13407683 -0.036022808 1.3570001 4291677393
-0.13123617 -0.03589008 1.3520001 4291676623
-0.1286035 -0.035810441 1.3490001 4291610829
-0.12598126 -0.035730802 1.3460001 4291413449
-0.12364501 -0.035730802 1.3460001 4291413449
-0.12121862 -0.035704259 1.345 4291478728
-0.11897251 -0.035730802 1.3460001 4291478728
-0.1167229 -0.035757348 1.3470001 4291675337
-0.11472459 -0.035863534 1.3510001 4291806925
-0.11287876 -0.036022808 1.3570001 4291741390
-0.11093065 -0.036155537 1.3620001 4291347146
-0.10936374 -0.036420997 1.3720001 4291150023
-0.13506489 -0.033932038 1.3670001 4291478988
-0.13210978 -0.033783104 1.3610001 4291676110
-0.1288895 -0.033559702 1.3520001 4291609803
-0.12635563 -0.033510059 1.35 4291609546
-0.12392059 -0.033485238 1.3490001 4291740874
-0.12157913 -0.033485238 1.3490001 4291674824
-0.11941445 -0.033534884 1.3510001 4291608518
-0.11706952 -0.033534884 1.3510001 4291476932
-0.11506427 -0.033634171 1.355 4291476420
-0.11321149 -0.033783104 1.3610001 4291279042
-0.11117499 -0.033882394 1.365 4290819261
-0.10960288 -0.034130614 1.3750001 4290755008
-0.1353613 -0.031645101 1.3700001 4291214019
-0.13230392 -0.031483412 1.363 4291345348
-0.1291755 -0.031298626 1.355 4291344834
-0.12654284 -0.031229328 1.3520001 4291344321
-0.1241043 -0.031206232 1.3510001 4291475650
-0.12184951 -0.031229328 1.3520001 4291278271
-0.11967961 -0.031275526 1.3540001 4291080379
-0.11741614 -0.031298626 1.355 4290948280
-0.11531902 -0.03136792 1.358 4290947766
-0.11346104 -0.031506512 1.3640001 4290684595
-0.11133789 -0.03157581 1.3670001 4290685108
-0.1097623 -0.031806797 1.3770001 4290686392
-0.1353613 -0.029283701 1.3700001 4290817722
-0.13230392 -0.029134076 1.363 4290883001
-0.1291755 -0.028963078 1.355 4290750901
-0.12654284 -0.028898953 1.3520001 4290750644
-0.1241043 -0.028877579 1.3510001 4290618545
-0.12193963 -0.028920326 1.353 4290683824
-0.11976802 -0.028963078 1.355 4290551982
-0.11750279 -0.028984452 1.3560001 4290485676
-0.11540394 -0.029048577 1.3590001 4290551211
-0.11346104 -0.029155454 1.3640001 4290748333
-0.11141933 -0.029240953 1.368 4290748847
-0.1097623 -0.029433329 1.3770001 4290684081
-0.12965216 -0.026725788 1.36 4290617518
-0.12691721 -0.026647182 1.3560001 4290485419
-0.12447175 -0.026627531 1.355 4290484648
-0.12221 -0.026647182 1.3560001 4290418597
-0.12012157 -0.026706137 1.3590001 4290483620
-0.11784942 -0.026725788 1.36 4290549156
-0.11574362 -0.026784742 1.363 4290614693
-0.11396013 -0.0269223 1.3700001 4290680998
-0.11190802 -0.027000906 1.3740001 4291075243
-0.11063912 -0.027276024 1.388 4291993009
-0.10939961 -0.027570795 1.4030001 4287910763
-0.10742186 -0.027688703 1.409 4289034892
-0.13022415 -0.024489189 1.3660001 4290747049
-0.127666 -0.024453333 1.3640001 4290746278
-0.12511478 -0.024417479 1.3620001 4290745507
-0.12275076 -0.024417479 1.3620001 4290613408
-0.12047514 -0.024435407 1.363 4290547613
-0.11819603 -0.024453333 1.3640001 4290547356
-0.11633804 -0.0245609 1.3700001 4290547098
-0.1146256 -0.024704322 1.378 4291073185
-0.11255959 -0.024776032 1.3820001 4292319402
-0.11095797 -0.024955308 1.3920001 4291193221
-0.10939961 -0.025152512 1.4030001 4288162895
-0.10734562 -0.025242152 1.4080001 4287048780
-0.10594481 -0.025493139 1.4220001 4289822097
-0.13060549 -0.022199498 1.3700001 4291401895
-0.12804037 -0.02216709 1.368 4291138723
-0.12548223 -0.022134682 1.3660001 4290808475
-0.12284089 -0.022086071 1.363 4291005854
-0.1206519 -0.022118479 1.365 4290807960
-0.11845598 -0.022150887 1.3670001 4290938262
-0.11659279 -0.022248112 1.373 4291396759
-0.11495832 -0.022393946 1.3820001 4291129736
-0.11288538 -0.022458764 1.386 4290005352
-0.1111971 -0.0226046 1.3950001 4289080143
-0.10947758 -0.022750435 1.404 4289342545
-0.10742186 -0.022831455 1.409 4289015121
-0.10587031 -0.023025904 1.4210001 4287770962
-0.14563999 -0.020620037 1.424 4288488268
-0.14286672 -0.020576596 1.4210001 4288488523
-0.14010388 -0.020533156 1.4180001 4288293966
-0.12860195 -0.019896019 1.3740001 4290009717
-0.12621711 -0.019896019 1.3740001 4290601597
-0.12374214 -0.019881539 1.373 4290403961
-0.12144741 -0.019896019 1.3740001 4289941869
-0.11923587 -0.01992498 1.376 4289414498
-0.1171023 -0.01996842 1.3790001 4288754514
-0.11579014 -0.020156665 1.3920001 4288750665
-0.1136184 -0.020200107 1.3950001 4289341005
-0.11175508 -0.020301469 1.4020001 4289734736
-0.10994543 -0.020417312 1.4100001 4289932628
-0.10780305 -0.020475235 1.414 4289604948
-0.10609382 -0.020620037 1.424 4289212502
-0.1042771 -0.020750361 1.4330001 4288034903
-0.10214502 -0.020822762 1.4380001 4290152603
-0.14915171 -0.018293126 1.434 4288159557
-0.1459468 -0.01820383 1.427 4289275213
-0.14326888 -0.018178314 1.4250001 4289142856
-0.14040029 -0.018127289 1.4210001 4289669457
-0.13754559 -0.018076262 1.4170001 4289735763
-0.13489544 -0.018050747 1.4150001 4289210959
-0.13028669 -0.017757343 1.3920001 4288751692
-0.12741131 -0.017693561 1.3870001 4288884304
-0.12437301 -0.017604263 1.3800001 4289212755
-0.12197775 -0.017604263 1.3800001 4288882764
-0.1197558 -0.017629776 1.3820001 4289342544
-0.11812133 -0.017744588 1.391 4289407309
-0.11637243 -0.017846642 1.399 4289603406
-0.11410709 -0.017872155 1.401 4289668429
-0.11223335 -0.017961452 1.4080001 4290063187
-0.11041329 -0.018063506 1.416 4289932115
-0.1082605 -0.018114531 1.4200001 4289932372
-0.10639184 -0.018216586 1.4280001 4289538899
-0.10456818 -0.018331397 1.437 4289213272
-0.10221604 -0.01835691 1.439 4287707223
-0.099995561 -0.018407935 1.4430001 4292260033
-0.14935975 -0.015843477 1.4360001 4289407570
-0.14604908 -0.015755212 1.4280001 4289471821
-0.14336942 -0.015733147 1.4260001 4289208135
-0.14059789 -0.015700048 1.4230001 4289668943
-0.1378368 -0.015666949 1.4200001 4289669713
-0.13527678 -0.015655916 1.419 4289538641
-0.13056751 -0.015391122 1.3950001 4289407825
-0.12759502 -0.015324922 1.3890001 4290132318
-0.12455326 -0.015247691 1.3820001 4290066268
-0.12206615 -0.01523666 1.381 4289473618
-0.11992911 -0.015269757 1.3840001 4289736020
-0.11820623 -0.015358022 1.3920001 4289932885
-0.1165388 -0.015457321 1.401 4289668943
-0.11426997 -0.015479386 1.4030001 4289800016
-0.11239277 -0.015556618 1.4100001 4289866322
-0.11056924 -0.015644882 1.4180001 4289800786
-0.10841298 -0.015689015 1.4220001 4290063445
-0.10654084 -0.015777279 1.4300001 4289801043
-0.10449541 -0.015843477 1.4360001 4289670741
-0.10214502 -0.015865542 1.4380001 4288621905
-0.099856973 -0.015898643 1.4410001 4287973474
-0.097626068 -0.015942775 1.4450001 4292854223
-0.095249638 -0.015964841 1.447 4294177271
-0.15280393 -0.0134521 1.4450001 4288751439
-0.14998381 -0.013424171 1.442 4289603922
-0.14717411 -0.013396244 1.439 4289602894
-0.14457589 -0.013386934 1.4380001 4289537357
-0.14188236 -0.013368315 1.4360001 4289932115
-0.13900161 -0.013331077 1.432 4289735250
-0.13632543 -0.013312459 1.4300001 4289473104
-0.13187784 -0.01311696 1.409 4289604947
-0.1281462 -0.012986629 1.3950001 4290723428
-0.12428289 -0.012837679 1.3790001 4290262877
-0.12180097 -0.012828369 1.378 4289604690
-0.11966915 -0.012856297 1.381 4289801299
-0.11820623 -0.012958701 1.3920001 4290063957
-0.11687153 -0.013079723 1.4050001 4289800529
-0.11467721 -0.013107652 1.4080001 4289997908
-0.11295074 -0.013191436 1.4170001 4289800786
-0.10902289 -0.013312459 1.4300001 4290326873
-0.10676435 -0.013340387 1.4330001 4289866579
-0.10456818 -0.013377625 1.437 4289802070
-0.10214502 -0.013386934 1.4380001 4289474645
-0.09971837 -0.013396244 1.439 4288755288
-0.097558513 -0.01344279 1.4440001 4288635512
-0.095183812 -0.013461409 1.4460001 4294106858
-0.15280393 -0.010961425 1.4450001 4289144399
-0.14987978 -0.010931082 1.4410001 4289339979
-0.14727637 -0.010923496 1.4400001 4289405770
-0.14457589 -0.010908325 1.4380001 4289800271
-0.14188236 -0.010893153 1.4360001 4290063188
-0.13909869 -0.010870395 1.4330001 4289800529
-0.13642076 -0.010855224 1.4310001 4289669970
-0.12338164 -0.010384907 1.3690001 4290196827
-0.12091707 -0.010377321 1.368 4289604690
-0.11888926 -0.010407664 1.3720001 4289669456
-0.11703789 -0.010673166 1.4070001 4289800529
-0.11508445 -0.01071868 1.4130001 4289932115
-0.11350872 -0.010802125 1.424 4290129494
-0.10909913 -0.010855224 1.4310001 4289932115
-0.10676435 -0.010870395 1.4330001 4289669200
-0.10456818 -0.010900739 1.437 4289801556
-0.10207397 -0.010900739 1.437 4289473618
-0.09971837 -0.010915911 1.439 4289344087
-0.097490951 -0.010946253 1.4430001 4288824675
-0.095183812 -0.01096901 1.4460001 4290217883
-0.15269817 -0.0084648877 1.4440001 4289274186
-0.14987978 -0.0084473016 1.4410001 4289338951
-0.14727637 -0.0084414398 1.4400001 4289471049
-0.14477697 -0.0084414398 1.4400001 4289734479
-0.14217876 -0.0084355772 1.439 4289866322
-0.13938989 -0.008417991 1.4360001 4290195544
-0.13680209 -0.0084121292 1.4350001 4289933398
-0.12293101 -0.0079959184 1.3640001 4290592100
-0.12056351 -0.0079959184 1.3640001 4289868377
-0.11845598 -0.0080135055 1.3670001 4289736278
-0.11720425 -0.0082597136 1.409 4289471821
-0.11524733 -0.0082948869 1.4150001 4289603151
-0.11358844 -0.0083535081 1.4250001 4290195032
-0.10902289 -0.0083828187 1.4300001 4289668944
-0.10668985 -0.0083945422 1.432 4289734736
-0.10449541 -0.008417991 1.4360001 4289800529
-0.10214502 -0.0084297154 1.4380001 4289603664
-0.099787667 -0.0084414398 1.4400001 4289473105
-0.097490951 -0.008459026 1.4430001 4289016920
-0.09505216 -0.0084648877 1.4440001 4288432230
-0.15488207 -0.0059635211 1.4410001 4289407569
-0.15227519 -0.0059593827 1.4400001 4289339209
-0.14977579 -0.0059593827 1.4400001 4289404743
-0.14727637 -0.0059593827 1.4400001 4289536585
-0.14477697 -0.0059593827 1.4400001 4289602893
-0.14217876 -0.0059552444 1.439 4289602893
-0.13948695 -0.0059469673 1.437 4289735249
-0.13689743 -0.005942829 1.4360001 4289802070
-0.12266064 -0.0056324443 1.3610001 4290592872
-0.12029835 -0.0056324443 1.3610001 4290658153
-0.11819603 -0.0056448597 1.3640001 4290657382
-0.11712107 -0.0058269519 1.4080001 4289340494
-0.11524733 -0.0058559212 1.4150001 4289537103
-0.11350872 -0.0058931671 1.424 4290195032
-0.11134899 -0.0059097214 1.4280001 4289800274
-0.10909913 -0.0059221364 1.4310001 4289603150
-0.10449541 -0.005942829 1.4360001 4289800015
-0.10221604 -0.0059552444 1.439 4289866067
-0.099787667 -0.0059593827 1.4400001 4289735507
-0.097355828 -0.0059635211 1.4410001 4289343832
-0.094920509 -0.0059676599 1.442 4289151590
-0.15477459 -0.0034773259 1.4400001 4289275469
-0.15216945 -0.0034749112 1.439 4289339977
-0.14956775 -0.0034724963 1.4380001 4289471049
-0.14707182 -0.0034724963 1.4380001 4289405512
-0.14457589 -0.0034724963 1.4380001 4289471050
-0.14207995 -0.0034724963 1.4380001 4289471309
-0.13938989 -0.0034676667 1.4360001 4289406800
-0.13670675 -0.0034628371 1.434 4289539157
-0.12248038 -0.0032817263 1.3590001 4290658926
-0.12012157 -0.0032817263 1.3590001 4290592876
-0.11802271 -0.0032889708 1.3620001 4290986606
-0.11703789 -0.0033976373 1.4070001 4289603924
-0.11524733 -0.0034169557 1.4150001 4289669459
-0.11342901 -0.0034362741 1.4230001 4289997655
-0.11119304 -0.0034435187 1.4260001 4289931862
-0.10894665 -0.0034507629 1.429 4289800274
-0.10683886 -0.0034628371 1.434 4289800274
-0.10464095 -0.0034724963 1.4380001 4289734482
-0.10221604 -0.0034749112 1.439 4289734738
-0.09971837 -0.0034749112 1.439 4289866582
-0.097220704 -0.0034749112 1.439 4289737051
-0.094788857 -0.0034773259 1.4400001 4289279583
-0.15216945 -0.00099457812 1.439 4289339720
-0.14956775 -0.00099388696 1.4380001 4289471562
-0.14707182 -0.00099388696 1.4380001 4289537099
-0.14457589 -0.00099388696 1.4380001 4289471051
-0.14207995 -0.00099388696 1.4380001 4289537102
-0.13938989 -0.00099250465 1.4360001 4289538131
-0.13661143 -0.00099043117 1.4330001 4289736283
-0.12239026 -0.00093859417 1.358 4290659184
-0.12012157 -0.00093928538 1.3590001 4290592877
-0.11802271 -0.00094135891 1.3620001 4290723436
-0.11728744 -0.00097453455 1.4100001 4289933149
-0.11532879 -0.00097868149 1.416 4289998172
-0.11342901 -0.0009835196 1.4230001 4289931864
-0.11111507 -0.00098490191 1.4250001 4289931862
-0.10879418 -0.00098628423 1.427 4289800277
-0.10668985 -0.00098974002 1.432 4289800277
-0.10456818 -0.0009931958 1.437 4289734483
-0.13661143 0.0014795599 1.4330001 4289933663
-0.13225225 0.0014589102 1.4130001 4290855281
-0.12275076 0.0014062531 1.3620001 4290724211
-0.12047514 0.0014072856 1.363 4290395244
-0.11836934 0.0014103831 1.3660001 4290789231
-0.11762017 0.0014599427 1.414 4289932897
-0.11565457 0.0014661376 1.4200001 4289931870
-0.11350872 0.0014702675 1.424 4289931868
-0.11103709 0.0014702675 1.424 4289931609
-0.1086417 0.0014713 1.4250001 4289931611
-0.10646634 0.00147543 1.429 4289931611
-0.13243942 0.0038999405 1.4150001 4291315321
-0.12302113 0.0037621337 1.365 4291118457
-0.1206519 0.0037621337 1.365 4290526062
-0.1186293 0.003773158 1.3690001 4291249015
-0.11770335 0.0038999405 1.4150001 4290326886
-0.11573602 0.0039164773 1.4210001 4290063456
-0.11350872 0.0039247461 1.424 4289997405
-0.11088114 0.0039192336 1.4220001 4289997406
-0.10856546 0.0039247461 1.424 4289997405
-0.10639184 0.0039357701 1.4280001 4290063198
-0.133001 0.0063657844 1.4210001 4291314555
-0.12374214 0.0061507546 1.373 4291249276
-0.11803608 0.0063568251 1.419 4290918769
-0.11350872 0.0063792244 1.424 4289997408
-0.11095911 0.0063747442 1.4230001 4290326371
-0.10856546 0.0063792244 1.424 4290655336
-0.10624283 0.0063881837 1.4260001 4290589542
-0.13007528 0.0087840743 1.416 4290985336
-0.12536439 0.0086289886 1.391 4291182715
-0.12295003 0.0086289886 1.391 4290985592
-0.12079564 0.0086475993 1.3940001 4291248251
-0.12024429 0.0087840743 1.416 4291313530
-0.11581746 0.0088212956 1.4220001 4290787184
-0.12989156 0.01120891 1.414 4290919286
-0.12581502 0.011066223 1.396 4291051130
-0.12348037 0.011074149 1.3970001 4291379583
-0.12131556 0.01109793 1.4000001 4291247997
-0.12015936 0.011216836 1.4150001 4291314044
-0.12680641 0.013578597 1.4070001 4290853750
-0.12445267 0.013588247 1.4080001 4291051129
-0.12218211 0.013607549 1.4100001 4291182458
