# .PCD v0.7 - Point Cloud Data file format
VERSION 0.7
FIELDS x y z rgba
SIZE 4 4 4 4
TYPE F F F U
COUNT 1 1 1 1
WIDTH 672
HEIGHT 1
VIEWPOINT 0 0 0 1 0 0 0
POINTS 672
DATA ascii
-0.14811069 -0.11971193 1.378 4292468966
-0.14561315 -0.11962506 1.3770001 4292600552
-0.14735831 -0.1167407 1.3710001 4292732392
-0.14466143 -0.11648525 1.368 4292666599
-0.14176695 -0.1160595 1.363 4292732392
-0.13940118 -0.1160595 1.363 4293061103
-0.13703543 -0.1160595 1.363 4293192689
-0.13457087 -0.11597434 1.3620001 4293258484
-0.13220684 -0.11597434 1.3620001 4293323764
-0.1474658 -0.114461 1.3720001 4292995564
-0.14455569 -0.11404387 1.3670001 4293061357
-0.14145491 -0.11345989 1.36 4292995564
-0.13899207 -0.11337645 1.3590001 4292798185
-0.13663326 -0.11337645 1.3590001 4293061357
-0.13427445 -0.11337645 1.3590001 4293061358
-0.13191563 -0.11337645 1.3590001 4293126896
-0.14103886 -0.1107889 1.3560001 4293192943
-0.13848069 -0.1106255 1.3540001 4293192943
-0.1359295 -0.11046209 1.3520001 4293061357
-0.13368163 -0.1105438 1.353 4292995564
-0.1314303 -0.1106255 1.3540001 4292929517
-0.1291755 -0.1107072 1.355 4293126896
-0.14103886 -0.10845163 1.3560001 4292995563
-0.13837843 -0.1082117 1.353 4293324528
-0.13562788 -0.10789178 1.3490001 4293324529
-0.13318761 -0.1078118 1.348 4293192943
-0.13094497 -0.10789178 1.3490001 4293061358
-0.12879416 -0.10805174 1.3510001 4292929517
-0.12682362 -0.10837165 1.355 4293126896
-0.12474734 -0.10861159 1.358 4293193204
-0.14114286 -0.10619262 1.3570001 4293323758
-0.13848069 -0.10595785 1.3540001 4293389551
-0.1357284 -0.10564484 1.35 4293323759
-0.13318761 -0.10548832 1.348 4293324016
-0.13084789 -0.10548832 1.348 4293192943
-0.12869883 -0.10564484 1.35 4293192687
-0.12663643 -0.1058796 1.353 4292995310
-0.12447175 -0.10603611 1.355 4293192689
-0.14155892 -0.10415976 1.3610001 4293126379
-0.1388898 -0.10393016 1.358 4293323758
-0.1359295 -0.10347097 1.3520001 4293455345
-0.13318761 -0.10316484 1.348 4293389553
-0.13075082 -0.10308831 1.3470001 4293258736
-0.12822217 -0.10293524 1.345 4293324529
-0.12607485 -0.10308831 1.3470001 4293192943
-0.12382872 -0.10316484 1.348 4293061103
-0.12175938 -0.10339443 1.3510001 4293126896
-0.13940118 -0.10196348 1.363 4292995047
-0.13633165 -0.10143983 1.3560001 4293455344
-0.13338521 -0.10099098 1.35 4293389551
-0.13075082 -0.10076655 1.3470001 4293324529
-0.12812683 -0.10054213 1.3440001 4293192943
-0.12570047 -0.10046732 1.3430001 4293258736
-0.12336943 -0.10046732 1.3430001 4293061357
-0.12121862 -0.10061693 1.345 4292995310
-0.11914928 -0.10084136 1.348 4293126897
-0.11689622 -0.10091617 1.3490001 4293324277
-0.13970801 -0.099833399 1.3660001 4292402910
-0.13663326 -0.099321812 1.3590001 4293257965
-0.13358283 -0.098810218 1.3520001 4293455344
-0.13094497 -0.098590963 1.3490001 4293324529
-0.12822217 -0.098298624 1.345 4293324529
-0.12570047 -0.098152459 1.3430001 4293324529
-0.12336943 -0.098152459 1.3430001 4293258736
-0.1211285 -0.098225541 1.3440001 4293258736
-0.11888411 -0.098298624 1.345 4293061103
-0.11663625 -0.098371707 1.3460001 4293126897
-0.14113985 -0.098477945 1.3800001 4292139484
-0.13723651 -0.097407527 1.365 4292863207
-0.13417566 -0.096908003 1.358 4293192172
-0.13152736 -0.096693926 1.355 4293390322
-0.12850817 -0.096194394 1.348 4293390322
-0.12570047 -0.095837593 1.3430001 4293390322
-0.12327755 -0.095766231 1.342 4293324529
-0.120768 -0.095623508 1.34 4293192943
-0.11844217 -0.095623508 1.34 4293061357
-0.11611633 -0.095623508 1.34 4292995310
-0.11387541 -0.09569487 1.3410001 4293126897
-0.14134441 -0.096238583 1.3820001 4291678933
-0.13874459 -0.096099302 1.3800001 4292205277
-0.1353613 -0.095402934 1.3700001 4292797671
-0.13269219 -0.095194027 1.3670001 4293061357
-0.1288895 -0.094149463 1.3520001 4293456115
-0.12598126 -0.093731642 1.3460001 4293258736
-0.12336943 -0.093522727 1.3430001 4293324529
-0.12058775 -0.093174547 1.3380001 4293324529
-0.11800022 -0.092965633 1.335 4293258736
-0.11568306 -0.092965633 1.335 4293192943
-0.11353574 -0.093104906 1.337 4293127150
-0.11129829 -0.093174547 1.3380001 4293192689
-0.14206032 -0.09433189 1.3890001 4291218382
-0.13944837 -0.094196066 1.3870001 4291547347
-0.13664573 -0.093924411 1.383 4292008155
-0.13346873 -0.093381099 1.3750001 4292535013
-0.13031949 -0.092837796 1.3670001 4293061357
-0.12644923 -0.091751173 1.3510001 4293324529
-0.12382872 -0.091547437 1.348 4293324529
-0.12094825 -0.09113995 1.342 4293456115
-0.11782344 -0.090528734 1.3330001 4293456115
-0.1154231 -0.090460822 1.332 4293324529
-0.11319606 -0.090528734 1.3330001 4293324529
-0.11096556 -0.090596646 1.3340001 4293192689
-0.10897593 -0.090868302 1.3380001 4293192689
-0.14277627 -0.092401072 1.396 4291086797
-0.14005162 -0.0922025 1.393 4291284176
-0.13723856 -0.091937736 1.3890001 4291613141
-0.13443941 -0.091672979 1.3850001 4291811290
-0.13108215 -0.091011085 1.3750001 4292666599
-0.12121862 -0.089025386 1.345 4293390322
-0.11826538 -0.088562056 1.3380001 4293521908
-0.1154231 -0.088164918 1.332 4293587701
-0.11311115 -0.088164918 1.332 4293455858
-0.1107992 -0.088164918 1.332 4293455345
-0.10873159 -0.088363491 1.335 4293258480
-0.10665356 -0.088562056 1.3380001 4293126896
-0.10448715 -0.088694438 1.34 4293324276
-0.14287853 -0.090059318 1.3970001 4291086797
-0.14035323 -0.089994855 1.396 4291086797
-0.13743618 -0.089672521 1.391 4291218383
-0.13463356 -0.089414656 1.3870001 4291481555
-0.13136815 -0.088834465 1.378 4291876313
-0.12121862 -0.08670707 1.345 4293586931
-0.11853056 -0.086449213 1.3410001 4293455345
-0.11559641 -0.085997947 1.3340001 4293390066
-0.11311115 -0.085869014 1.332 4293455602
-0.11088238 -0.085933484 1.3330001 4293652468
-0.10865014 -0.085997947 1.3340001 4293718518
-0.10665356 -0.086255811 1.3380001 4293324275
-0.10456513 -0.086449213 1.3410001 4293258483
-0.14634342 -0.088278808 1.4070001 4290955211
-0.1430831 -0.08777687 1.399 4291152590
-0.14045377 -0.087651379 1.3970001 4291021004
-0.13763379 -0.087400414 1.393 4291152590
-0.13502182 -0.087274924 1.391 4291152590
-0.13203546 -0.086898468 1.3850001 4291415762
-0.12869556 -0.08627104 1.3750001 4291942106
-0.12584966 -0.085957333 1.3700001 4292665828
-0.12193963 -0.084890708 1.353 4293652723
-0.11906089 -0.084514253 1.3470001 4293784310
-0.11585637 -0.083886825 1.337 4293521138
-0.11328098 -0.083698593 1.3340001 4293586931
-0.11096556 -0.083698593 1.3340001 4293521138
-0.10873159 -0.083761342 1.335 4293521138
-0.10665356 -0.083949566 1.3380001 4293389810
-0.10456513 -0.084137797 1.3410001 4293126896
-0.102695 -0.084514253 1.3470001 4293324275
-0.1430831 -0.085365482 1.399 4291218383
-0.14045377 -0.085243441 1.3970001 4291152590
-0.1378314 -0.085121401 1.3950001 4291415762
-0.13531302 -0.08506038 1.3940001 4291481555
-0.1329888 -0.085121401 1.3950001 4291415762
-0.12935074 -0.08432816 1.3820001 4291613140
-0.12640083 -0.083962046 1.376 4292073691
-0.12275076 -0.083107777 1.3620001 4292731621
-0.11941445 -0.082436569 1.3510001 4293718517
-0.11680955 -0.082253508 1.348 4294310654
-0.11362065 -0.081643321 1.3380001 4293587188
-0.11121511 -0.0815823 1.337 4292863978
-0.10889448 -0.0815823 1.337 4292798185
-0.10673328 -0.081704341 1.3390001 4293061358
-0.10464311 -0.081887394 1.342 4292863724
-0.10277124 -0.082253508 1.348 4293126896
-0.14338991 -0.083131976 1.4020001 4291218383
-0.14075539 -0.083013386 1.4000001 4291284176
-0.13802899 -0.082835495 1.3970001 4291613141
-0.13550717 -0.082776204 1.396 4291547347
-0.13317946 -0.082835495 1.3970001 4291415761
-0.12963152 -0.08212395 1.3850001 4291349968
-0.12676828 -0.081827477 1.3800001 4291481554
-0.12284089 -0.080819458 1.363 4292007898
-0.11941445 -0.080107912 1.3510001 4292402657
-0.11689622 -0.079989329 1.3490001 4293784310
-0.11387541 -0.079514965 1.3410001 4293521395
-0.11146466 -0.079455666 1.34 4292666599
-0.10905737 -0.079396375 1.3390001 4292732392
-0.1068927 -0.079514965 1.3410001 4292863722
-0.10472108 -0.079633556 1.3430001 4292797931
-0.10277124 -0.07993003 1.348 4292797931
-0.15322691 -0.083421282 1.4490001 4291744727
-0.15029584 -0.083191 1.4450001 4291613141
-0.1443104 -0.081233561 1.411 4291349969
-0.14166024 -0.08111842 1.409 4291284176
-0.13891824 -0.0809457 1.406 4291349969
-0.13657491 -0.081003278 1.4070001 4291284175
-0.13422811 -0.081060842 1.4080001 4291086796
-0.12991232 -0.079909414 1.388 4291152589
-0.12722759 -0.079736695 1.3850001 4291086796
-0.12365202 -0.078988269 1.3720001 4291481554
-0.12047514 -0.078470126 1.363 4291810520
-0.11776275 -0.078239843 1.3590001 4292600037
-0.11463968 -0.077721693 1.35 4292995052
-0.11179738 -0.077376269 1.3440001 4292732392
-0.10930172 -0.07726112 1.342 4292929771
-0.10705212 -0.077318691 1.3430001 4292995565
-0.10472108 -0.077318691 1.3430001 4292863980
-0.102695 -0.077548981 1.3470001 4292732138
-0.10058052 -0.077721693 1.35 4292995310
-0.098237328 -0.077721693 1.35 4293258482
-0.15375565 -0.081202962 1.4540001 4291744727
-0.15143995 -0.081314653 1.4560001 4291810520
-0.12428289 -0.077014357 1.3790001 4291284176
-0.12082869 -0.076344185 1.3670001 4291547348
-0.11793607 -0.076009095 1.3610001 4292139485
-0.11489443 -0.075562313 1.353 4292797415
-0.1122133 -0.075338915 1.3490001 4292929514
-0.10946461 -0.075059682 1.3440001 4293061100
-0.10713183 -0.075059682 1.3440001 4293061100
-0.10472108 -0.075003833 1.3430001 4292929771
-0.10246627 -0.075059682 1.3440001 4292863723
-0.100357 -0.075227223 1.3470001 4292797931
-0.098164558 -0.075338915 1.3490001 4293126896
-0.15417862 -0.078913264 1.4580001 4291810520
-0.151752 -0.078967392 1.4590001 4291875800
-0.12401251 -0.074475072 1.376 4291284176
-0.12082869 -0.073987953 1.3670001 4291547348
-0.11802271 -0.073717326 1.3620001 4291942106
-0.11497934 -0.073284335 1.3540001 4292468450
-0.11229648 -0.073067836 1.35 4292929001
-0.10954606 -0.072797216 1.345 4293060587
-0.10705212 -0.072688967 1.3430001 4293126380
-0.10472108 -0.072688967 1.3430001 4293060587
-0.10246627 -0.072743095 1.3440001 4292995051
-0.1002825 -0.072851337 1.3460001 4292863467
-0.098091789 -0.072959587 1.348 4292995053
-0.12091707 -0.071684122 1.368 4291349969
-0.11802271 -0.071369715 1.3620001 4291810520
-0.11506427 -0.071002916 1.355 4292007899
-0.11246285 -0.070845708 1.3520001 4292468450
-0.10970895 -0.070583709 1.3470001 4292929001
-0.10713183 -0.070426509 1.3440001 4292994794
-0.10472108 -0.070374101 1.3430001 4293060587
-0.10239003 -0.070374101 1.3430001 4293060587
-0.10013349 -0.070426509 1.3440001 4293060587
-0.097873487 -0.070478901 1.345 4292994794
-0.095823094 -0.070688508 1.3490001 4292995052
-0.093620241 -0.070793308 1.3510001 4293258482
-0.12091707 -0.069326162 1.368 4291218383
-0.11802271 -0.069022104 1.3620001 4291744726
-0.11497934 -0.068616688 1.3540001 4291942105
-0.11246285 -0.068515338 1.3520001 4292139485
-0.10995329 -0.06841398 1.35 4292665829
-0.10737097 -0.068261951 1.3470001 4292994794
-0.104955 -0.068211272 1.3460001 4293126380
-0.10246627 -0.068109922 1.3440001 4293126380
-0.10013349 -0.068109922 1.3440001 4293126380
-0.097946249 -0.068211272 1.3460001 4293060331
-0.095752068 -0.068312623 1.348 4292994794
-0.093481638 -0.068363301 1.3490001 4293323759
-0.091613114 -0.068718046 1.3560001 4293324274
-0.12100547 -0.067017168 1.3690001 4291218383
-0.11802271 -0.066674493 1.3620001 4291612884
-0.11506427 -0.066331819 1.355 4291876312
-0.11262921 -0.066282868 1.3540001 4291941848
-0.11027908 -0.066282868 1.3540001 4292271070
-0.1076101 -0.066087052 1.35 4292929000
-0.10518893 -0.066038102 1.3490001 4292994794
-0.10261875 -0.065891236 1.3460001 4293126380
-0.1002825 -0.065891236 1.3460001 4293060587
-0.098091789 -0.065989144 1.348 4293126124
-0.095894136 -0.066087052 1.35 4293060331
-0.093620241 -0.066136003 1.3510001 4293126380
-0.091613114 -0.066380776 1.3560001 4293389553
-0.12109385 -0.064704724 1.3700001 4291283920
-0.11819603 -0.064421341 1.3640001 4291415505
-0.1152341 -0.064090729 1.3570001 4291810262
-0.1127124 -0.063996278 1.355 4291941848
-0.11044197 -0.064043507 1.3560001 4292007641
-0.10808836 -0.064043507 1.3560001 4292600035
-0.10557881 -0.063949041 1.3540001 4293060586
-0.1030762 -0.063854583 1.3520001 4293126380
-0.10065503 -0.063807353 1.3510001 4293257966
-0.098382868 -0.063854583 1.3520001 4293455345
-0.096178263 -0.063949041 1.3540001 4293323759
-0.093966722 -0.064043507 1.3560001 4293126380
-0.091748238 -0.064137965 1.358 4293126380
-0.089720286 -0.064374112 1.363 4293323760
-0.087546803 -0.064515799 1.3660001 4293521140
-0.12127064 -0.062434331 1.3720001 4291349712
-0.11828268 -0.062115785 1.365 4291415505
-0.1152341 -0.061751738 1.3570001 4291678676
-0.11279558 -0.061706237 1.3560001 4292007641
-0.11044197 -0.061706237 1.3560001 4292007641
-0.10816807 -0.061751738 1.3570001 4292205020
-0.10589071 -0.061797246 1.358 4292928743
-0.10353363 -0.061797246 1.358 4293257965
-0.10110205 -0.061751738 1.3570001 4293389552
-0.098819479 -0.061797246 1.358 4293389552
-0.096533425 -0.061842754 1.3590001 4293257966
-0.12109385 -0.05998192 1.3700001 4291415762
-0.11828268 -0.059763003 1.365 4291415505
-0.1152341 -0.059412744 1.3570001 4291612883
-0.11279558 -0.059368968 1.3560001 4292007641
-0.11044197 -0.059368968 1.3560001 4292073433
-0.10816807 -0.059412744 1.3570001 4292205019
-0.10596868 -0.059500314 1.3590001 4292797157
-0.10360987 -0.059500314 1.3590001 4293323758
-0.10140007 -0.059587877 1.3610001 4293257709
-0.099037781 -0.059587877 1.3610001 4293192173
-0.09681756 -0.05967544 1.363 4293323759
-0.1206519 -0.057410218 1.365 4291349712
-0.11793607 -0.057241987 1.3610001 4291415505
-0.11506427 -0.056989636 1.355 4291415248
-0.11262921 -0.056947574 1.3540001 4291612113
-0.11027908 -0.056947574 1.3540001 4291546320
-0.10800865 -0.056989636 1.355 4291480527
-0.10581274 -0.05707375 1.3570001 4291546320
-0.10147457 -0.057284042 1.3620001 4292994537
-0.099401623 -0.05745228 1.3660001 4293191917
-0.11994478 -0.054734755 1.3570001 4291283919
-0.11741614 -0.054654088 1.355 4291349711
-0.11489443 -0.054573417 1.353 4291349198
-0.11246285 -0.054533083 1.3520001 4291414734
-0.11003474 -0.054492749 1.3510001 4291348684
-0.10784923 -0.054573417 1.353 4291217099
-0.10550083 -0.054573417 1.353 4291217099
-0.10360987 -0.05481543 1.3590001 4291480270
-0.099547155 -0.055178445 1.368 4292927974
-0.097385824 -0.05529945 1.3710001 4293323246
-0.12329151 -0.052820493 1.368 4291152333
-0.11976802 -0.052318543 1.355 4291283405
-0.11724283 -0.052241318 1.353 4291348940
-0.11480951 -0.052202709 1.3520001 4291283146
-0.11237967 -0.052164096 1.3510001 4291348683
-0.10987184 -0.052086871 1.3490001 4291348427
-0.1076101 -0.052125484 1.35 4291282634
-0.10542286 -0.052202709 1.3520001 4291282635
-0.10360987 -0.052472986 1.3590001 4291611600
-0.099692695 -0.052897714 1.3700001 4292204508
-0.097740985 -0.053129382 1.376 4292994538
-0.11985639 -0.050019883 1.3560001 4291348940
-0.11732948 -0.049946111 1.3540001 4291348938
-0.11480951 -0.049872331 1.3520001 4291414474
-0.11229648 -0.049798556 1.35 4291348682
-0.10987184 -0.049761668 1.3490001 4291414475
-0.10768981 -0.049835443 1.3510001 4291545805
-0.10557881 -0.049946111 1.3540001 4291611342
-0.10376235 -0.050204322 1.3610001 4291743186
-0.099838227 -0.050610088 1.3720001 4291677908
-0.097883046 -0.050831415 1.378 4292467936
-0.12003318 -0.047752943 1.358 4291677648
-0.11750279 -0.047682613 1.3560001 4291611854
-0.11489443 -0.04757712 1.353 4291677391
-0.11246285 -0.047541957 1.3520001 4291743184
-0.11003474 -0.047506794 1.3510001 4291808977
-0.10792895 -0.047612287 1.3540001 4291808720
-0.10573476 -0.047682613 1.3560001 4291808208
-0.10154907 -0.047928762 1.363 4291611344
-0.099983767 -0.04831557 1.3740001 4291611858
-0.098025113 -0.048526552 1.3800001 4292533216
-0.12038673 -0.045545988 1.3620001 4291480013
-0.11784942 -0.045479104 1.36 4291545805
-0.1152341 -0.045378782 1.3570001 4291545548
-0.1127124 -0.045311902 1.355 4291611084
-0.11027908 -0.045278464 1.3540001 4291610827
-0.10800865 -0.045311902 1.355 4291478987
-0.10589071 -0.045412224 1.358 4291544523
-0.10368611 -0.045479104 1.36 4291544525
-0.10184709 -0.04571319 1.3670001 4291610831
-0.10027484 -0.046081036 1.378 4291479760
-0.098238215 -0.046248235 1.383 4292269533
-0.1206519 -0.043293525 1.365 4291741903
-0.11828268 -0.043293525 1.365 4291741645
-0.11557378 -0.04316666 1.3610001 4291609802
-0.11304513 -0.043103222 1.3590001 4291544010
-0.11060487 -0.043071508 1.358 4291609803
-0.10840721 -0.043134939 1.36 4291609547
-0.10620261 -0.043198373 1.3620001 4291675340
-0.10399107 -0.043261807 1.3640001 4291740877
-0.10214511 -0.043483827 1.3710001 4291543755
-0.10042038 -0.043769278 1.3800001 4291018180
-0.098451309 -0.043959577 1.386 4291677138
-0.12100547 -0.041060716 1.3690001 4291609290
-0.11845598 -0.041000731 1.3670001 4291871692
-0.11574362 -0.040880755 1.363 4291739849
-0.11321149 -0.04082077 1.3610001 4291608520
-0.11084921 -0.04082077 1.3610001 4291608007
-0.10856663 -0.040850762 1.3620001 4291608006
-0.10643654 -0.040940743 1.365 4291410114
-0.10414355 -0.040970735 1.3660001 4291344321
-0.1022196 -0.041150693 1.3720001 4291015614
-0.10056591 -0.041450627 1.3820001 4290753212
-0.098593377 -0.041630585 1.388 4291477962
-0.12144741 -0.038842387 1.3740001 4291081150
-0.1188026 -0.038757578 1.3710001 4291080637
-0.11608329 -0.0386445 1.3670001 4291080123
-0.11354422 -0.038587958 1.365 4290948537
-0.11109355 -0.03855969 1.3640001 4291014073
-0.10888547 -0.038616229 1.3660001 4290882487
-0.10674844 -0.038701035 1.3690001 4290815667
-0.1044485 -0.038729306 1.3700001 4290617776
-0.10259213 -0.038927194 1.3770001 4290749619
-0.10085699 -0.03918162 1.386 4290750647
-0.098877504 -0.039351236 1.3920001 4291081408
-0.12171258 -0.036553729 1.3770001 4290815411
-0.11897591 -0.036447544 1.373 4290749874
-0.1161682 -0.036314815 1.368 4290749617
-0.1136274 -0.036261722 1.3660001 4290617518
-0.11117499 -0.036235176 1.365 4290617005
-0.10896519 -0.036288269 1.3670001 4290354090
-0.10682642 -0.036367904 1.3700001 4290419626
-0.10460099 -0.036420997 1.3720001 4290747564
-0.10266663 -0.036580272 1.378 4290747821
-0.098401725 -0.037695203 1.4200001 4291275706
-0.1224197 -0.034378838 1.3850001 4290945456
-0.11966915 -0.034279551 1.381 4290616491
-0.11667771 -0.034105796 1.3740001 4290681770
-0.11404331 -0.034031328 1.3710001 4290484134
-0.11166368 -0.034031328 1.3710001 4290549157
-0.10936374 -0.034056149 1.3720001 4290548644
-0.10729427 -0.034155436 1.376 4290482338
-0.10513467 -0.034229904 1.3790001 4290548387
-0.10326267 -0.034403659 1.386 4290876838
-0.098263137 -0.035197973 1.4180001 4287314777
-0.13172878 -0.033123415 1.434 4290940321
-0.12896942 -0.033054117 1.4310001 4291667380
-0.11727215 -0.031899188 1.381 4290745764
-0.11479195 -0.031876087 1.3800001 4290548128
-0.11231525 -0.03185299 1.3790001 4290415772
-0.11000144 -0.031876087 1.3800001 4290546332
-0.10799605 -0.031991582 1.3850001 4290546073
-0.10582082 -0.03206088 1.388 4290808730
-0.10370969 -0.032153271 1.3920001 4291662242
-0.10282173 -0.032638345 1.4130001 4291985047
-0.10044023 -0.032661442 1.414 4289281376
-0.098263137 -0.032753836 1.4180001 4288292941
-0.096342407 -0.032938626 1.4260001 4287508048
-0.094196431 -0.033054117 1.4310001 4289954198
-0.13163692 -0.030630326 1.4330001 4288165718
-0.12878916 -0.030544823 1.429 4290537859
-0.1175269 -0.029582953 1.3840001 4291201693
-0.1151247 -0.029582953 1.3840001 4291201950
-0.11264104 -0.029561576 1.383 4291200924
-0.11032028 -0.029582953 1.3840001 4291068824
-0.10822997 -0.029668452 1.388 4291197841
-0.10612578 -0.029753951 1.3920001 4290732926
-0.1039332 -0.029818077 1.3950001 4290532466
-0.10282173 -0.030202826 1.4130001 4288949840
-0.10051126 -0.030245574 1.4150001 4289407569
-0.098401725 -0.030352451 1.4200001 4289342803
-0.096274845 -0.030459324 1.4250001 4289278553
-0.094130605 -0.030566201 1.4300001 4287838040
-0.13515373 -0.028376499 1.4440001 4289014096
-0.13182063 -0.028199635 1.4350001 4288750665
-0.12914966 -0.028160334 1.4330001 4288883534
-0.12648563 -0.028121032 1.4310001 4288950867
-0.11612289 -0.027433235 1.396 4289809001
-0.11345551 -0.027374281 1.393 4289413987
-0.11103768 -0.027374281 1.393 4289084251
-0.10900973 -0.027472537 1.3980001 4288885074
-0.10688818 -0.027551142 1.4020001 4288751433
-0.10512527 -0.027728004 1.411 4289210444
-0.10318558 -0.027865564 1.4180001 4289604432
-0.10086642 -0.027904866 1.4200001 4289998420
-0.098748215 -0.028003123 1.4250001 4289998934
-0.096612647 -0.028101379 1.4300001 4289604692
-0.094328076 -0.028160334 1.4330001 4289606492
-0.092417628 -0.028337194 1.442 4288167777
-0.14133124 -0.026102679 1.4560001 4287507789
-0.13832742 -0.026013041 1.4510001 4288948303
-0.13524733 -0.025905475 1.4450001 4289209932
-0.13227995 -0.025815837 1.4400001 4289143881
-0.12969042 -0.025797909 1.439 4289670225
-0.12683918 -0.025726197 1.4350001 4289604946
-0.12374188 -0.025600703 1.4280001 4289144397
-0.1199046 -0.025313862 1.4120001 4289079117
-0.11662198 -0.025134584 1.4020001 4289738330
-0.11402563 -0.02509873 1.4000001 4289080656
-0.11151595 -0.025080804 1.399 4289342802
-0.10947758 -0.025170442 1.404 4289670482
-0.10734562 -0.025242152 1.4080001 4289603660
-0.10549779 -0.025385572 1.416 4289801038
-0.10354941 -0.025511065 1.4230001 4290195796
-0.10122159 -0.025546921 1.4250001 4290129747
-0.099164002 -0.025654487 1.4310001 4289997649
-0.096950464 -0.025726197 1.4350001 4289866579
-0.094591379 -0.025762053 1.437 4289604437
-0.092481725 -0.025869619 1.4430001 4288752982
-0.090413593 -0.025995113 1.45 4287775329
-0.088139303 -0.026066823 1.4540001 4294169828
-0.14162245 -0.023641655 1.4590001 4288555855
-0.13851807 -0.023544431 1.4530001 4289670741
-0.13534093 -0.023431003 1.4460001 4289406796
-0.13246366 -0.023366189 1.442 4289472332
-0.12987065 -0.023349984 1.4410001 4289603918
-0.12710434 -0.02330137 1.4380001 4289604433
-0.12400184 -0.023187943 1.4310001 4289407312
-0.11998953 -0.022896271 1.4130001 4289802583
-0.11670516 -0.02273423 1.4030001 4290394719
-0.11402563 -0.022685619 1.4000001 4289802326
-0.11159565 -0.022685619 1.4000001 4289736788
-0.10947758 -0.022750435 1.404 4289933653
-0.10742186 -0.022831455 1.409 4289801552
-0.10557229 -0.022961086 1.4170001 4289867088
-0.10362219 -0.023074515 1.424 4290261589
-0.10136365 -0.023123128 1.427 4290195027
-0.09930259 -0.023220351 1.4330001 4290063185
-0.09708558 -0.023285167 1.437 4289800529
-0.094723031 -0.023317575 1.439 4289998423
-0.092481725 -0.023382392 1.4430001 4289802329
-0.090351231 -0.023479616 1.4490001 4288492376
-0.088078685 -0.023544431 1.4530001 4288963710
-0.14152539 -0.021112369 1.4580001 4289014095
-0.13861342 -0.021054449 1.4540001 4289406542
-0.13552813 -0.020967565 1.4480001 4289471819
-0.13283111 -0.020938605 1.4460001 4289669454
-0.13032129 -0.020938605 1.4460001 4289669711
-0.12745792 -0.020880684 1.442 4289538640
-0.12417515 -0.020750361 1.4330001 4289473104
-0.12117839 -0.020663479 1.427 4290197084
-0.11603971 -0.020200107 1.3950001 4290131291
-0.11345551 -0.020171147 1.393 4289802326
-0.11103768 -0.020171147 1.393 4289802325
-0.10971151 -0.02037387 1.4070001 4290065496
-0.10749809 -0.020417312 1.4100001 4289999189
-0.10557229 -0.020518674 1.4170001 4289801296
-0.10384049 -0.020663479 1.427 4289932625
-0.10157675 -0.020706918 1.4300001 4290129750
-0.099579781 -0.020808283 1.437 4290523995
-0.097423382 -0.020880684 1.442 4290062931
-0.094986334 -0.020895163 1.4430001 4289931860
-0.092673995 -0.020938605 1.4460001 4289867352
-0.090413593 -0.020996528 1.45 4289343833
-0.08801806 -0.021025488 1.452 4288362846
-0.085792243 -0.021097889 1.457 4290216344
-0.083491914 -0.02115581 1.4610001 4294239471
-0.14405604 -0.018599287 1.4580001 4288357962
-0.14104004 -0.018535502 1.4530001 4289275212
-0.13832742 -0.01850999 1.4510001 4289405515
-0.13571531 -0.018497234 1.45 4289471306
-0.13319854 -0.018497234 1.45 4289932626
-0.13068178 -0.018497234 1.45 4290064726
-0.12781146 -0.018446207 1.4460001 4289801812
-0.12443511 -0.01831864 1.4360001 4289407311
-0.12134822 -0.018229343 1.429 4290855014
-0.1151247 -0.017655289 1.3840001 4290658405
-0.11255959 -0.017629776 1.3820001 4289474131
-0.11016086 -0.017629776 1.3820001 4289605717
-0.10549779 -0.018063506 1.416 4289407054
-0.10384049 -0.01820383 1.427 4290064214
-0.10164778 -0.018254856 1.4310001 4290392923
-0.09971837 -0.01835691 1.439 4290326359
-0.097558513 -0.018420693 1.4440001 4289932115
-0.095117986 -0.01843345 1.4450001 4289800786
-0.092802174 -0.01847172 1.4480001 4289866580
-0.090351231 -0.018484477 1.4490001 4289736793
-0.087836206 -0.018484477 1.4490001 4289345631
-0.085556716 -0.018535502 1.4530001 4288432746
-0.083206184 -0.018573774 1.4560001 4291208373
-0.14385842 -0.016064137 1.4560001 4288948045
-0.14084591 -0.016008973 1.4510001 4289340492
-0.13832742 -0.016008973 1.4510001 4289273671
-0.13590251 -0.016020007 1.452 4289537098
-0.13338228 -0.016020007 1.452 4289734734
-0.13095216 -0.016031038 1.4530001 4289800785
-0.12798825 -0.015975874 1.4480001 4289604690
-0.12469508 -0.015876576 1.439 4289408081
-0.1216879 -0.015810378 1.4330001 4290856040
-0.11479195 -0.015225626 1.3800001 4291777143
-0.1122338 -0.01520356 1.378 4290329954
-0.10984201 -0.01520356 1.378 4290000989
-0.10534878 -0.01560075 1.414 4289735763
-0.10376772 -0.015733147 1.4260001 4289998678
-0.10150571 -0.015766246 1.429 4290064215
-0.099579781 -0.015854511 1.437 4289866322
-0.097490951 -0.015920708 1.4430001 4289734993
-0.09505216 -0.015931742 1.4440001 4289800529
-0.092738084 -0.015964841 1.447 4289800274
-0.090351231 -0.015986906 1.4490001 4289866582
-0.087836206 -0.015986906 1.4490001 4289474651
-0.085497826 -0.016020007 1.452 4289083231
-0.083091892 -0.016042072 1.4540001 4287908200
-0.143562 -0.013526576 1.4530001 4289275727
-0.14084591 -0.013507956 1.4510001 4289406028
-0.13823207 -0.013498647 1.45 4289273928
-0.13580891 -0.013507956 1.4510001 4289471306
-0.13347413 -0.013526576 1.4530001 4289734734
-0.13095216 -0.013526576 1.4530001 4289472077
-0.12807664 -0.013489338 1.4490001 4289341518
-0.1141265 -0.012772513 1.3720001 4291843449
-0.11158223 -0.012753895 1.3700001 4290462055
-0.10920432 -0.012753895 1.3700001 4290461542
-0.10527427 -0.013154198 1.4130001 4289867863
-0.10376772 -0.013275221 1.4260001 4289867606
-0.10143469 -0.013293839 1.4280001 4290327387
-0.099441186 -0.013359006 1.4350001 4290129495
-0.097423382 -0.013424171 1.442 4289997652
-0.095117986 -0.0134521 1.4450001 4289800274
-0.092802174 -0.013480028 1.4480001 4289931861
-0.090351231 -0.013489338 1.4490001 4289800534
-0.087836206 -0.013489338 1.4490001 4289736284
-0.085380062 -0.013498647 1.45 4289475935
-0.082920454 -0.013507956 1.4510001 4288692837
-0.14336441 -0.011006939 1.4510001 4289406798
-0.14065178 -0.010991768 1.4490001 4289537357
-0.13823207 -0.010999354 1.45 4289274185
-0.13580891 -0.011006939 1.4510001 4289339978
-0.13338228 -0.011014526 1.452 4289603150
-0.13095216 -0.011022111 1.4530001 4289537614
-0.12807664 -0.010991768 1.4490001 4289341518
-0.11354422 -0.010354565 1.365 4291514229
-0.11109355 -0.010346978 1.3640001 4290395749
-0.10872605 -0.010346978 1.3640001 4290592873
-0.10519978 -0.010711095 1.4120001 4289736023
-0.10369496 -0.01080971 1.4250001 4289801559
-0.10143469 -0.010832466 1.4280001 4290261339
-0.099441186 -0.010885567 1.4350001 4290260825
-0.097423382 -0.010938668 1.442 4290063446
-0.095117986 -0.010961425 1.4450001 4289800275
-0.092802174 -0.010984182 1.4480001 4289668690
-0.090288885 -0.010984182 1.4480001 4289800534
-0.087775595 -0.010984182 1.4480001 4289604185
-0.085262306 -0.010984182 1.4480001 4289409116
-0.082749009 -0.010984182 1.4480001 4289544554
-0.14336441 -0.0085059218 1.4510001 4289341006
-0.14065178 -0.0084941983 1.4490001 4289537357
-0.13813674 -0.0084941983 1.4490001 4289471564
-0.13580891 -0.0085059218 1.4510001 4289471564
-0.12798825 -0.0084883366 1.4480001 4289472850
-0.11337785 -0.0079900566 1.363 4291316596
-0.11076776 -0.0079724705 1.36 4290461543
-0.10848692 -0.0079783332 1.3610001 4290329702
-0.10391326 -0.0083710933 1.4280001 4289735513
-0.10150571 -0.0083769569 1.429 4289998170
-0.099441186 -0.0084121292 1.4350001 4290260829
-0.097490951 -0.008459026 1.4430001 4289997142
-0.095183812 -0.0084766122 1.4460001 4289866070
-0.087836206 -0.0084941983 1.4490001 4289801305
-0.085262306 -0.0084883366 1.4480001 4289736284
-0.082749009 -0.0084883366 1.4480001 4289607523
-0.12781146 -0.0059842137 1.4460001 4289669718
-0.1136274 -0.0056531369 1.3660001 4291908736
-0.1110121 -0.0056407209 1.363 4290724207
-0.10872605 -0.0056448597 1.3640001 4290461035
-0.1056468 -0.0058683362 1.4180001 4289801310
-0.10398602 -0.0059138597 1.429 4290063968
-0.10157675 -0.005917998 1.4300001 4290195297
-0.099371888 -0.0059345518 1.434 4290195039
-0.097355828 -0.0059635211 1.4410001 4290062682
-0.095117986 -0.0059800749 1.4450001 4290063195
-0.11387695 -0.0033058745 1.3690001 4292500618
-0.11125644 -0.00329863 1.3660001 4290987381
-0.10896519 -0.0033010449 1.3670001 4290921331
-0.1056468 -0.0034242002 1.4180001 4290261605
-0.10398602 -0.0034507629 1.429 4289931870
-0.10150571 -0.0034507629 1.429 4290260835
-0.099164002 -0.0034555928 1.4310001 4290326371
-0.097153142 -0.0034724963 1.4380001 4290457700
-0.094920509 -0.0034821557 1.442 4290194783
-0.12408849 -0.00098974002 1.432 4290590828
-0.12109346 -0.00098559307 1.4260001 4290854769
-0.10594481 -0.00098282832 1.4220001 4290656365
-0.10398602 -0.00098766654 1.429 4290129507
-0.10143469 -0.00098697538 1.4280001 4290589544
-0.098956108 -0.00098697538 1.4280001 4290523750
-0.096882895 -0.00099112233 1.434 4290918508
-0.12400184 0.0014774951 1.4310001 4290656109
-0.12117839 0.001473365 1.427 4291051380
-0.11820244 0.0014671701 1.4210001 4291380601
-0.10624283 0.0014723325 1.4260001 4290722159
-0.10405879 0.0014764626 1.4300001 4290458729
-0.10143469 0.0014743975 1.4280001 4290590058
-0.098956108 0.0014743975 1.4280001 4290589802
-0.096882895 0.0014805924 1.434 4290852973
-0.1239152 0.0039412826 1.4300001 4290919282
-0.12117839 0.0039330143 1.427 4290854003
-0.11803608 0.0039109653 1.419 4290919796
-0.10631733 0.0039330143 1.427 4290854002
-0.10413156 0.0039440389 1.4310001 4290459243
-0.10150571 0.0039385268 1.429 4290524781
-0.099025398 0.0039385268 1.429 4290458732
-0.11589891 0.0063747442 1.4230001 4290722930
-0.11358844 0.006383704 1.4250001 4290722931
