# .PCD v0.7 - Point Cloud Data file format
VERSION 0.7
FIELDS x y z rgba
SIZE 4 4 4 4
TYPE F F F U
COUNT 1 1 1 1
WIDTH 1109
HEIGHT 1
VIEWPOINT 0 0 0 1 0 0 0
POINTS 1109
DATA ascii
-0.13827902 0.081819832 1.2970001 4281415995
-0.13725916 0.081882909 1.2980001 4281481788
-0.13623758 0.081946 1.299 4281481789
-0.13563029 0.082261413 1.304 4281547582
-0.13460177 0.082324505 1.3050001 4281613375
-0.13367376 0.082450666 1.307 4281679168
-0.1327423 0.082576834 1.309 4281679168
-0.1316063 0.082576834 1.309 4281613375
-0.13047028 0.082576834 1.309 4281613375
-0.12943307 0.082639918 1.3100001 4281613375
-0.12839413 0.082703009 1.3110001 4281679168
-0.12725636 0.082703009 1.3110001 4281745217
-0.12611862 0.082703009 1.3110001 4281679681
-0.1250762 0.082766086 1.312 4281613888
-0.12403204 0.08282917 1.3130001 4281548095
-0.12289255 0.08282917 1.3130001 4281416509
-0.12166034 0.082766086 1.312 4281350716
-0.12052172 0.082766086 1.312 4281416509
-0.11929212 0.082703009 1.3110001 4281548095
-0.11797412 0.082576834 1.309 4281679681
-0.1168381 0.082576834 1.309 4281613888
-0.1155253 0.082450666 1.307 4281482302
-0.11439102 0.082450666 1.307 4281548095
-0.11325675 0.082450666 1.307 4281613631
-0.11212247 0.082450666 1.307 4281547839
-0.11107311 0.082513757 1.3080001 4281613375
-0.11002201 0.082576834 1.309 4281613375
-0.10905236 0.082703009 1.3110001 4281613375
-0.10799693 0.082766086 1.312 4281613375
-0.10685831 0.082766086 1.312 4281613375
-0.10588085 0.082892254 1.314 4281547582
-0.10474049 0.082892254 1.314 4281481789
-0.10360014 0.082892254 1.314 4281481789
-0.10253776 0.082955338 1.3150001 4281481790
-0.10139654 0.082955338 1.3150001 4281481534
-0.10017908 0.082892254 1.314 4281482048
-0.099114098 0.082955338 1.3150001 4281613634
-0.097972877 0.082955338 1.3150001 4281745221
-0.096831657 0.082955338 1.3150001 4281811014
-0.095763206 0.08301843 1.3160001 4281942601
-0.094693013 0.083081506 1.317 4282074187
-0.093550049 0.083081506 1.317 4282008398
-0.092547432 0.083207682 1.319 4281942862
-0.091472037 0.083270758 1.3200001 4282008402
-0.090394899 0.083333842 1.3210001 4281943379
-0.089383595 0.083460011 1.3230001 4281877845
-0.08823543 0.083460011 1.3230001 4281812052
-0.087087266 0.083460011 1.3230001 4281746262
-0.2506938 0.08479204 1.3260001 4290494410
-0.24897844 0.084600203 1.3230001 4291020754
-0.24783027 0.084600203 1.3230001 4291349719
-0.24612276 0.084408373 1.3200001 4291481305
-0.24479161 0.084344424 1.319 4291415512
-0.2434622 0.084280476 1.3180001 4291349719
-0.24195065 0.084152587 1.3160001 4291349719
-0.24062558 0.084088638 1.3150001 4291415512
-0.23930225 0.084024698 1.314 4291415512
-0.23761813 0.08383286 1.3110001 4291415512
-0.23630001 0.083768912 1.3100001 4291349719
-0.23498361 0.083704963 1.309 4291152340
-0.23331165 0.083513126 1.3060001 4290823375
-0.23182268 0.083385237 1.304 4290494410
-0.2303372 0.083257347 1.302 4290625996
-0.22885516 0.083129458 1.3000001 4290757582
-0.22755179 0.08306551 1.299 4290625996
-0.22572723 0.082809724 1.2950001 4290362824
-0.22425649 0.082681835 1.2930001 4290494410
-0.22278923 0.082553945 1.291 4290625996
-0.2204669 0.082106322 1.284 4290757582
-0.21901092 0.081978433 1.2820001 4290823373
-0.2170485 0.081658706 1.2770001 4291086545
-0.21560204 0.081530809 1.2750001 4291349717
-0.21432731 0.081466869 1.274 4291481559
-0.21305431 0.08140292 1.273 4291678936
-0.21111706 0.081083193 1.268 4292139487
-0.20951974 0.080891356 1.2650001 4292665831
-0.20792763 0.080699518 1.2620001 4293126382
-0.2066685 0.08063557 1.261 4293389555
-0.20541112 0.080571622 1.2600001 4293455347
-0.20399332 0.080443732 1.258 4293389554
-0.20274028 0.080379784 1.2570001 4293323761
-0.20148897 0.080315843 1.256 4293323761
-0.20023939 0.080251895 1.2550001 4293323761
-0.19915025 0.080251895 1.2550001 4293323761
-0.19790328 0.080187954 1.2540001 4293323761
-0.196815 0.080187954 1.2540001 4293389554
-0.19557063 0.080124006 1.253 4293389554
-0.19448322 0.080124006 1.253 4293323761
-0.19339581 0.080124006 1.253 4293389554
-0.1923084 0.080124006 1.253 4293389554
-0.19122098 0.080124006 1.253 4293455347
-0.19013356 0.080124006 1.253 4293455347
-0.18919702 0.080187954 1.2540001 4293455347
-0.18810873 0.080187954 1.2540001 4293455347
-0.18702045 0.080187954 1.2540001 4293455347
-0.18593217 0.080187954 1.2540001 4293389554
-0.18484388 0.080187954 1.2540001 4293389554
-0.18375561 0.080187954 1.2540001 4293389554
-0.18266732 0.080187954 1.2540001 4293389553
-0.18157904 0.080187954 1.2540001 4293323760
-0.18049075 0.080187954 1.2540001 4293389552
-0.17940247 0.080187954 1.2540001 4293455345
-0.17817199 0.080124006 1.253 4293455345
-0.17708458 0.080124006 1.253 4293455345
-0.17571624 0.079996116 1.251 4293521138
-0.17463057 0.079996116 1.251 4293521138
-0.17340617 0.079932168 1.25 4293455345
-0.17232135 0.079932168 1.25 4293521138
-0.17109954 0.07986822 1.2490001 4293521138
-0.16987948 0.079804279 1.248 4293521138
-0.16893165 0.07986822 1.2490001 4293455345
-0.16784771 0.07986822 1.2490001 4293455345
-0.1668973 0.079932168 1.25 4293455345
-0.16607778 0.080060057 1.2520001 4293455345
-0.16499123 0.080060057 1.2520001 4293455345
-0.1640356 0.080124006 1.253 4293455345
-0.16307823 0.080187954 1.2540001 4293455345
-0.16211912 0.080251895 1.2550001 4293455345
-0.16102996 0.080251895 1.2550001 4293521138
-0.16019571 0.080379784 1.2570001 4293521138
-0.15910482 0.080379784 1.2570001 4293784310
-0.15813963 0.080443732 1.258 4293915895
-0.15729757 0.080571622 1.2600001 4294310653
-0.15620407 0.080571622 1.2600001 4294376446
-0.15523368 0.08063557 1.261 4293784310
-0.15450603 0.080827408 1.2640001 4292731621
-0.15353045 0.080891356 1.2650001 4290626246
-0.15267363 0.081019245 1.2670001 4287599767
-0.15205258 0.081275031 1.271 4284704875
-0.15106831 0.081338972 1.2720001 4283454808
-0.15008231 0.08140292 1.273 4283717980
-0.14967971 0.081786595 1.279 4283717980
-0.14880204 0.081914485 1.281 4284112738
-0.14792092 0.082042374 1.2830001 4283981152
-0.14737959 0.082362108 1.2880001 4283718237
-0.14626181 0.082362108 1.2880001 4283257686
-0.1452567 0.082426049 1.289 4282796878
-0.14424986 0.082489997 1.2900001 4281941569
-0.1432413 0.082553945 1.291 4281283896
-0.1421209 0.082553945 1.291 4281283896
-0.14121895 0.082681835 1.2930001 4281218616
-0.14020517 0.082745783 1.294 4281415996
-0.13918965 0.082809724 1.2950001 4281415996
-0.13838562 0.083001561 1.2980001 4281481789
-0.13747066 0.083129458 1.3000001 4281547582
-0.13644733 0.083193399 1.3010001 4281547582
-0.1357343 0.083449185 1.3050001 4281547838
-0.13460177 0.083449185 1.3050001 4281613632
-0.13357149 0.083513126 1.3060001 4281679168
-0.1327423 0.083704963 1.309 4281613375
-0.13150576 0.083641022 1.3080001 4281613375
-0.1303706 0.083641022 1.3080001 4281679168
-0.12923546 0.083641022 1.3080001 4281613375
-0.12810032 0.083641022 1.3080001 4281679168
-0.12706223 0.083704963 1.309 4281679424
-0.12592621 0.083704963 1.309 4281679681
-0.12488553 0.083768912 1.3100001 4281613888
-0.12374865 0.083768912 1.3100001 4281613888
-0.12270537 0.08383286 1.3110001 4281482302
-0.12147488 0.083768912 1.3100001 4281482302
-0.12024614 0.083704963 1.309 4281548095
-0.11911013 0.083704963 1.309 4281613888
-0.11770374 0.083513126 1.3060001 4281745474
-0.11657032 0.083513126 1.3060001 4281613888
-0.11526013 0.083385237 1.304 4281482302
-0.11404094 0.083321288 1.3030001 4281613888
-0.11291013 0.083321288 1.3030001 4281745217
-0.11177932 0.083321288 1.3030001 4281745218
-0.11064852 0.083321288 1.3030001 4281679168
-0.10960176 0.083385237 1.304 4281613375
-0.10863645 0.083513126 1.3060001 4281547582
-0.10758536 0.083577074 1.307 4281547582
-0.10653252 0.083641022 1.3080001 4281547582
-0.10555854 0.083768912 1.3100001 4281481789
-0.10450136 0.08383286 1.3110001 4281547582
-0.10336361 0.08383286 1.3110001 4281613375
-0.10238181 0.083960749 1.3130001 4281678914
-0.10124233 0.083960749 1.3130001 4281613121
-0.10010284 0.083960749 1.3130001 4281613378
-0.09903872 0.084024698 1.314 4281810756
-0.097898372 0.084024698 1.314 4281811015
-0.096831657 0.084088638 1.3150001 4281876808
-0.095763206 0.084152587 1.3160001 4282074188
-0.094621114 0.084152587 1.3160001 4282139982
-0.093550049 0.084216535 1.317 4282205521
-0.092547432 0.084344424 1.319 4282271827
-0.091472037 0.084408373 1.3200001 4282403161
-0.090394899 0.084472314 1.3210001 4282272345
-0.24916665 0.085805207 1.3240001 4290757582
-0.24783027 0.085740402 1.3230001 4291218133
-0.24612276 0.085545979 1.3200001 4291415512
-0.24479161 0.085481174 1.319 4291415512
-0.24364692 0.085481174 1.319 4291349719
-0.24195065 0.085286751 1.3160001 4291349719
-0.24062558 0.085221939 1.3150001 4291415512
-0.23930225 0.085157134 1.314 4291415512
-0.23761813 0.084962711 1.3110001 4291481305
-0.23630001 0.084897898 1.3100001 4291415512
-0.23516312 0.084897898 1.3100001 4291218133
-0.23349032 0.084703475 1.307 4290889168
-0.23217824 0.08463867 1.3060001 4290560203
-0.23051411 0.084444247 1.3030001 4290560203
-0.22920726 0.084379442 1.302 4290625996
-0.22807732 0.084379442 1.302 4290625996
-0.22625014 0.084120207 1.2980001 4290560203
-0.22495025 0.084055401 1.2970001 4290560203
-0.22347949 0.083925791 1.2950001 4290560203
-0.22149712 0.08360175 1.2900001 4290560203
-0.21986508 0.083407328 1.2870001 4290691787
-0.21772836 0.083018482 1.281 4290889166
-0.21644755 0.082953677 1.2800001 4291218131
-0.21500023 0.082824059 1.2780001 4291415510
-0.21355641 0.082694449 1.276 4291415510
-0.21161655 0.082370408 1.271 4291612889
-0.21034789 0.082305603 1.2700001 4292139233
-0.20825714 0.081916749 1.2640001 4292731370
-0.20683241 0.081787139 1.2620001 4293191921
-0.20557414 0.081722327 1.261 4293323506
-0.20383117 0.081463099 1.2570001 4293389554
-0.20274028 0.081463099 1.2570001 4293455347
-0.20148897 0.081398293 1.256 4293389554
-0.20007984 0.081268683 1.2540001 4293389554
-0.19883288 0.081203878 1.253 4293389554
-0.19742982 0.08107426 1.251 4293389554
-0.19634415 0.08107426 1.251 4293389554
-0.19525847 0.08107426 1.251 4293389554
-0.19417278 0.08107426 1.251 4293389554
-0.19308712 0.08107426 1.251 4293389554
-0.19184795 0.081009455 1.25 4293389554
-0.19091575 0.08107426 1.251 4293455347
-0.18983008 0.08107426 1.251 4293455347
-0.1887444 0.08107426 1.251 4293455347
-0.18780872 0.081139065 1.2520001 4293455347
-0.18672217 0.081139065 1.2520001 4293455347
-0.18563563 0.081139065 1.2520001 4293389554
-0.18454908 0.081139065 1.2520001 4293389554
-0.18346253 0.081139065 1.2520001 4293389554
-0.18237598 0.081139065 1.2520001 4293389554
-0.18128943 0.081139065 1.2520001 4293389554
-0.18005896 0.08107426 1.251 4293389553
-0.17897327 0.08107426 1.251 4293455345
-0.1777454 0.081009455 1.25 4293455345
-0.1766606 0.081009455 1.25 4293455345
-0.17543532 0.080944642 1.2490001 4293521138
-0.17421179 0.080879837 1.248 4293521138
-0.17298999 0.080815032 1.2470001 4293521138
-0.17176992 0.08075022 1.2460001 4293521138
-0.17068857 0.08075022 1.2460001 4293521138
-0.16960724 0.08075022 1.2460001 4293521138
-0.16866116 0.080815032 1.2470001 4293455345
-0.16771333 0.080879837 1.248 4293455345
-0.16663025 0.080879837 1.248 4293455345
-0.16594513 0.08107426 1.251 4293521138
-0.16499123 0.081139065 1.2520001 4293521138
-0.16390468 0.081139065 1.2520001 4293521138
-0.16320828 0.081333488 1.2550001 4293389552
-0.16224831 0.081398293 1.256 4293652724
-0.16115829 0.081398293 1.256 4293718517
-0.16045059 0.081592716 1.2590001 4293784310
-0.15948455 0.081657521 1.2600001 4294179068
-0.15851676 0.081722327 1.261 4294573567
-0.15779692 0.081916749 1.2640001 4293784052
-0.15682393 0.081981562 1.2650001 4292336862
-0.1558492 0.082046367 1.266 4289836729
-0.15523946 0.082305603 1.2700001 4287468182
-0.15438002 0.082435213 1.2720001 4284968047
-0.15339662 0.082500026 1.273 4283717980
-0.15277037 0.082759254 1.2770001 4283783773
-0.15178089 0.082824059 1.2780001 4283849566
-0.15078969 0.082888871 1.279 4284112738
-0.15026484 0.083212905 1.284 4284244324
-0.14938284 0.083342522 1.286 4283981409
-0.14849739 0.08347214 1.2880001 4283257685
-0.14772287 0.083666563 1.291 4282468683
-0.14660248 0.083666563 1.291 4281876546
-0.14548208 0.083666563 1.291 4281481532
-0.14436169 0.083666563 1.291 4281283896
-0.14335224 0.083731368 1.2920001 4281218617
-0.14223099 0.083731368 1.2920001 4281350203
-0.14132817 0.083860986 1.294 4281415996
-0.14031352 0.083925791 1.2950001 4281415996
-0.13929714 0.083990596 1.296 4281416252
-0.13849226 0.084185019 1.299 4281482046
-0.13747066 0.084249824 1.3000001 4281482302
-0.13634245 0.084249824 1.3000001 4281548095
-0.13563029 0.084509052 1.304 4281548095
-0.13460177 0.084573865 1.3050001 4281548095
-0.13357149 0.08463867 1.3060001 4281613375
-0.1326409 0.084768288 1.3080001 4281547582
-0.1314052 0.084703475 1.307 4281547582
-0.13027093 0.084703475 1.307 4281547582
-0.12913665 0.084703475 1.307 4281613375
-0.12800238 0.084703475 1.307 4281679168
-0.12686808 0.084703475 1.307 4281613632
-0.12583002 0.084768288 1.3080001 4281679425
-0.12469488 0.084768288 1.3080001 4281613888
-0.12365419 0.084833093 1.309 4281613888
-0.12251817 0.084833093 1.309 4281613888
-0.12138215 0.084833093 1.309 4281613888
-0.12015428 0.084768288 1.3080001 4281679681
-0.11883715 0.08463867 1.3060001 4281745474
-0.11770374 0.08463867 1.3060001 4281745474
-0.11648107 0.084573865 1.3050001 4281613888
-0.11526013 0.084509052 1.304 4281547838
-0.11404094 0.084444247 1.3030001 4281679424
-0.11291013 0.084444247 1.3030001 4281810754
-0.11177932 0.084444247 1.3030001 4281876547
-0.11064852 0.084444247 1.3030001 4281679168
-0.10960176 0.084509052 1.304 4281613375
-0.10863645 0.08463867 1.3060001 4281547582
-0.10750304 0.08463867 1.3060001 4281547582
-0.10645108 0.084703475 1.307 4281547582
-0.10555854 0.084897898 1.3100001 4281547582
-0.10442165 0.084897898 1.3100001 4281679169
-0.10336361 0.084962711 1.3110001 4281810499
-0.10238181 0.085092321 1.3130001 4281942086
-0.10124233 0.085092321 1.3130001 4281876293
-0.10010284 0.085092321 1.3130001 4281942087
-0.09903872 0.085157134 1.314 4282073673
-0.097972877 0.085221939 1.3150001 4282073931
-0.096758015 0.085157134 1.314 4282205260
-0.095763206 0.085286751 1.3160001 4282337104
-0.094621114 0.085286751 1.3160001 4282402897
-0.093550049 0.085351557 1.317 4282468693
-0.092617594 0.085545979 1.3200001 4282469206
-0.091472037 0.085545979 1.3200001 4282600540
-0.24612276 0.086683586 1.3200001 4291218133
-0.24497719 0.086683586 1.3200001 4291283926
-0.24364692 0.086617924 1.319 4291349719
-0.24195065 0.086420916 1.3160001 4291349719
-0.24062558 0.086355239 1.3150001 4291481305
-0.23930225 0.08628957 1.314 4291415512
-0.23761813 0.086092561 1.3110001 4291481305
-0.23648039 0.086092561 1.3110001 4291415512
-0.23516312 0.086026892 1.3100001 4291283926
-0.23349032 0.085829884 1.307 4290889168
-0.23217824 0.085764214 1.3060001 4290560203
-0.23069102 0.085632876 1.304 4290494410
-0.2293833 0.085567206 1.3030001 4290560203
-0.22807732 0.085501544 1.302 4290560203
-0.22642447 0.085304536 1.299 4290757582
-0.22512367 0.085238859 1.2980001 4290691789
-0.22365208 0.085107528 1.296 4290625996
-0.22166882 0.084779173 1.291 4290625996
-0.22003593 0.084582172 1.2880001 4290691787
-0.21789834 0.084188156 1.2820001 4290823373
-0.21644755 0.08405681 1.2800001 4291086545
-0.21516848 0.083991148 1.279 4291283924
-0.21355641 0.083794139 1.276 4291349717
-0.21194954 0.083597131 1.273 4291218132
-0.2105135 0.083465785 1.271 4291283925
-0.20825714 0.083006099 1.2640001 4291810268
-0.20699629 0.082940429 1.263 4292599784
-0.20573717 0.082874767 1.2620001 4293060335
-0.20399332 0.082612082 1.258 4293323507
-0.20274028 0.082546413 1.2570001 4293389556
-0.20148897 0.082480751 1.256 4293455347
-0.1999203 0.082283743 1.253 4293455347
-0.19883288 0.082283743 1.253 4293455347
-0.19742982 0.082152404 1.251 4293455347
-0.19634415 0.082152404 1.251 4293389554
-0.19510239 0.082086734 1.25 4293389554
-0.19401757 0.082086734 1.25 4293389554
-0.19293277 0.082086734 1.25 4293455347
-0.19184795 0.082086734 1.25 4293389554
-0.19076315 0.082086734 1.25 4293389554
-0.18983008 0.082152404 1.251 4293389554
-0.1887444 0.082152404 1.251 4293389554
-0.18765871 0.082152404 1.251 4293455347
-0.18657303 0.082152404 1.251 4293455347
-0.18548736 0.082152404 1.251 4293389554
-0.18440168 0.082152404 1.251 4293389554
-0.18331599 0.082152404 1.251 4293389554
-0.18223032 0.082152404 1.251 4293455347
-0.18114464 0.082152404 1.251 4293455347
-0.18005896 0.082152404 1.251 4293455347
-0.17897327 0.082152404 1.251 4293455347
-0.1777454 0.082086734 1.25 4293455346
-0.17651926 0.082021058 1.2490001 4293455345
-0.1751544 0.081889726 1.2470001 4293455345
-0.17407219 0.081889726 1.2470001 4293521138
-0.17285125 0.081824049 1.2460001 4293521138
-0.17176992 0.081824049 1.2460001 4293521138
-0.17068857 0.081824049 1.2460001 4293521138
-0.16960724 0.081824049 1.2460001 4293521138
-0.16866116 0.081889726 1.2470001 4293455345
-0.16771333 0.081955396 1.248 4293455345
-0.16663025 0.081955396 1.248 4293455345
-0.16594513 0.082152404 1.251 4293455345
-0.16499123 0.082218066 1.2520001 4293521138
-0.1640356 0.082283743 1.253 4293718517
-0.16333832 0.082480751 1.256 4293718517
-0.16237748 0.082546413 1.2570001 4293981689
-0.16128659 0.082546413 1.2570001 4294310653
-0.16070548 0.082809091 1.261 4293850103
-0.15973771 0.082874767 1.2620001 4292665829
-0.15864247 0.082874767 1.2620001 4291744725
-0.1580466 0.083137438 1.266 4289310385
-0.15707189 0.083203107 1.2670001 4286678665
-0.15609542 0.083268784 1.268 4284375910
-0.15560617 0.083597131 1.273 4283652187
-0.15462276 0.083662793 1.274 4283849566
-0.15375812 0.083794139 1.276 4284112738
-0.15312928 0.08405681 1.2800001 4284178531
-0.15201843 0.08405681 1.2800001 4284046945
-0.15102547 0.084122479 1.281 4283915359
-0.15038188 0.084385164 1.2850001 4283389015
-0.149499 0.084516495 1.2870001 4282468683
-0.14861268 0.084647834 1.289 4281876546
-0.1478373 0.084844843 1.2920001 4281679167
-0.14671603 0.084844843 1.2920001 4281481788
-0.14548208 0.084779173 1.291 4281218617
-0.14447351 0.084844843 1.2920001 4281350203
-0.14335224 0.084844843 1.2920001 4281415996
-0.14223099 0.084844843 1.2920001 4281415996
-0.14143738 0.085041851 1.2950001 4281416253
-0.14031352 0.085041851 1.2950001 4281481789
-0.13929714 0.085107528 1.296 4281482302
-0.13838562 0.085238859 1.2980001 4281548095
-0.13736491 0.085304536 1.299 4281548095
-0.13644733 0.085435867 1.3010001 4281613888
-0.13563029 0.085632876 1.304 4281548095
-0.13460177 0.085698552 1.3050001 4281482302
-0.13357149 0.085764214 1.3060001 4281547582
-0.13253948 0.085829884 1.307 4281547582
-0.13130467 0.085764214 1.3060001 4281547582
-0.13017125 0.085764214 1.3060001 4281481789
-0.12903784 0.085764214 1.3060001 4281547582
-0.12790443 0.085764214 1.3060001 4281613375
-0.12677103 0.085764214 1.3060001 4281613375
-0.12563762 0.085764214 1.3060001 4281679168
-0.12459953 0.085829884 1.307 4281548095
-0.12346525 0.085829884 1.307 4281548095
-0.12242458 0.085895553 1.3080001 4281548095
-0.12119669 0.085829884 1.307 4281613888
-0.12006242 0.085829884 1.307 4281679681
-0.11874616 0.085698552 1.3050001 4281745474
-0.11761362 0.085698552 1.3050001 4281745218
-0.11648107 0.085698552 1.3050001 4281613632
-0.11517175 0.085567206 1.3030001 4281547582
-0.11404094 0.085567206 1.3030001 4281679168
-0.11291013 0.085567206 1.3030001 4281810754
-0.11177932 0.085567206 1.3030001 4281810754
-0.11064852 0.085567206 1.3030001 4281744961
-0.10951771 0.085567206 1.3030001 4281679168
-0.10855327 0.085698552 1.3050001 4281613375
-0.10750304 0.085764214 1.3060001 4281679168
-0.10645108 0.085829884 1.307 4281679168
-0.10555854 0.086026892 1.3100001 4281744961
-0.10442165 0.086026892 1.3100001 4281942086
-0.10336361 0.086092561 1.3110001 4282007879
-0.10238181 0.0862239 1.3130001 4282007879
-0.10124233 0.0862239 1.3130001 4282007879
-0.10010284 0.0862239 1.3130001 4282205260
-0.09903872 0.08628957 1.314 4282468432
-0.097898372 0.08628957 1.314 4282534226
-0.096758015 0.08628957 1.314 4282534226
-0.095763206 0.086420916 1.3160001 4282600020
-0.094693013 0.086486578 1.317 4282600020
-0.093550049 0.086486578 1.317 4282468694
-0.24630921 0.087887727 1.3210001 4291020754
-0.24497719 0.0878212 1.3200001 4291218133
-0.24364692 0.087754667 1.319 4291283926
-0.24195065 0.087555073 1.3160001 4291349719
-0.24062558 0.08748854 1.3150001 4291481305
-0.23930225 0.087422013 1.314 4291415512
-0.23779941 0.087288946 1.312 4291481305
-0.23648039 0.08722242 1.3110001 4291415512
-0.23516312 0.087155879 1.3100001 4291218133
-0.23366895 0.087022826 1.3080001 4290889168
-0.23235604 0.086956285 1.307 4290560203
-0.23086792 0.086823232 1.3050001 4290494410
-0.22955933 0.086756699 1.304 4290560203
-0.2282525 0.086690165 1.3030001 4290625996
-0.22659877 0.086490571 1.3000001 4290691789
-0.22529712 0.086424045 1.299 4290691789
-0.22382465 0.086290978 1.2970001 4290757582
-0.22201222 0.086024858 1.2930001 4290691788
-0.22054844 0.085891791 1.291 4290625994
-0.21823826 0.08542607 1.284 4290625994
-0.21678576 0.08529301 1.2820001 4290889166
-0.21550493 0.085226476 1.281 4291152339
-0.21355641 0.084893823 1.276 4291218133
-0.21211603 0.084760763 1.274 4291020754
-0.21067913 0.084627695 1.2720001 4290757582
-0.20842192 0.084161982 1.2650001 4290889167
-0.20716017 0.084095448 1.2640001 4291612889
-0.20573717 0.083962388 1.2620001 4292468198
-0.20399332 0.083696261 1.258 4293126128
-0.20274028 0.083629727 1.2570001 4293389556
-0.20148897 0.083563201 1.256 4293455347
-0.1999203 0.083363608 1.253 4293455348
-0.19867419 0.083297074 1.2520001 4293455348
-0.19727202 0.083164014 1.25 4293455091
-0.1961872 0.083164014 1.25 4293389554
-0.19510239 0.083164014 1.25 4293389554
-0.19401757 0.083164014 1.25 4293389554
-0.19293277 0.083164014 1.25 4293455347
-0.19184795 0.083164014 1.25 4293455347
-0.19076315 0.083164014 1.25 4293455347
-0.18967834 0.083164014 1.25 4293455347
-0.18859352 0.083164014 1.25 4293389554
-0.18765871 0.08323054 1.251 4293455347
-0.18657303 0.08323054 1.251 4293455347
-0.18548736 0.08323054 1.251 4293455347
-0.18440168 0.08323054 1.251 4293389554
-0.18331599 0.08323054 1.251 4293455347
-0.18223032 0.08323054 1.251 4293455347
-0.18114464 0.08323054 1.251 4293455347
-0.18005896 0.08323054 1.251 4293455346
-0.17897327 0.08323054 1.251 4293455347
-0.17746101 0.083030954 1.248 4293455346
-0.17637794 0.083030954 1.248 4293455345
-0.1751544 0.08296442 1.2470001 4293455345
-0.1739326 0.082897887 1.2460001 4293521138
-0.17285125 0.082897887 1.2460001 4293521138
-0.17163207 0.08283136 1.245 4293586931
-0.17055158 0.08283136 1.245 4293521138
-0.16947111 0.08283136 1.245 4293521138
-0.16866116 0.08296442 1.2470001 4293521138
-0.16771333 0.083030954 1.248 4293455345
-0.16663025 0.083030954 1.248 4293455345
-0.16594513 0.08323054 1.251 4293718517
-0.16499123 0.083297074 1.2520001 4293784310
-0.1640356 0.083363608 1.253 4294113275
-0.16333832 0.083563201 1.256 4294179068
-0.16237748 0.083629727 1.2570001 4293521138
-0.16141491 0.083696261 1.258 4292797156
-0.16083293 0.083962388 1.2620001 4290428610
-0.15986428 0.084028915 1.263 4287599768
-0.15889388 0.084095448 1.2640001 4285362805
-0.15829629 0.084361576 1.268 4283520601
-0.15731981 0.084428102 1.2690001 4283454808
-0.15634163 0.084494643 1.2700001 4283717980
-0.15585063 0.084827289 1.2750001 4284112738
-0.1548655 0.084893823 1.276 4284244324
-0.15399912 0.085026883 1.2780001 4284046945
-0.15336855 0.08529301 1.2820001 4283586394
-0.15225595 0.08529301 1.2820001 4282796878
-0.15126127 0.085359544 1.2830001 4282270534
-0.1504989 0.085559137 1.286 4281744190
-0.14961517 0.085692197 1.2880001 4281481532
-0.14872797 0.085825257 1.2900001 4281481531
-0.14795171 0.086024858 1.2930001 4281678910
-0.14671603 0.085958324 1.2920001 4281613118
-0.14559478 0.085958324 1.2920001 4281415996
-0.14447351 0.085958324 1.2920001 4281350203
-0.14335224 0.085958324 1.2920001 4281481788
-0.14234106 0.086024858 1.2930001 4281613374
-0.14143738 0.086157918 1.2950001 4281613631
-0.14031352 0.086157918 1.2950001 4281482046
-0.13929714 0.086224452 1.296 4281548095
-0.13849226 0.086424045 1.299 4281613631
-0.13747066 0.086490571 1.3000001 4281679424
-0.13644733 0.086557105 1.3010001 4281547839
-0.13563029 0.086756699 1.304 4281482302
-0.13460177 0.086823232 1.3050001 4281482046
-0.13346922 0.086823232 1.3050001 4281547582
-0.13243808 0.086889759 1.3060001 4281547582
-0.13130467 0.086889759 1.3060001 4281547582
-0.1300716 0.086823232 1.3050001 4281547582
-0.12884024 0.086756699 1.304 4281613118
-0.12770855 0.086756699 1.304 4281678655
-0.12667397 0.086823232 1.3050001 4281613375
-0.12544522 0.086756699 1.304 4281679168
-0.1245042 0.086889759 1.3060001 4281613631
-0.1233708 0.086889759 1.3060001 4281482302
-0.12223738 0.086889759 1.3060001 4281482046
-0.12110397 0.086889759 1.3060001 4281548095
-0.1198787 0.086823232 1.3050001 4281613888
-0.11874616 0.086823232 1.3050001 4281679681
-0.11752348 0.086756699 1.304 4281679424
-0.11639181 0.086756699 1.304 4281613631
-0.11517175 0.086690165 1.3030001 4281613632
-0.11404094 0.086690165 1.3030001 4281745217
-0.11282348 0.086623639 1.302 4281810755
-0.11169354 0.086623639 1.302 4281876548
-0.11064852 0.086690165 1.3030001 4281876547
-0.10951771 0.086690165 1.3030001 4281810754
-0.10855327 0.086823232 1.3050001 4281810754
-0.10750304 0.086889759 1.3060001 4281876547
-0.10645108 0.086956285 1.307 4281876547
-0.10547795 0.087089352 1.309 4281942340
-0.10442165 0.087155879 1.3100001 4282073672
-0.10328477 0.087155879 1.3100001 4282205258
-0.10230383 0.087288946 1.312 4282205258
-0.10116522 0.087288946 1.312 4282336844
-0.10010284 0.087355472 1.3130001 4282534224
-0.09903872 0.087422013 1.314 4282731603
-0.097972877 0.08748854 1.3150001 4282665812
-0.096831657 0.08748854 1.3150001 4282600019
-0.095835969 0.087621607 1.317 4282600019
-0.24364692 0.088891417 1.319 4291020754
-0.24195065 0.088689238 1.3160001 4291283926
-0.24062558 0.08862184 1.3150001 4291481305
-0.23948435 0.08862184 1.3150001 4291481305
-0.23779941 0.088419661 1.312 4291481305
-0.23648039 0.08835227 1.3110001 4291481305
-0.23534264 0.08835227 1.3110001 4291218133
-0.23366895 0.088150091 1.3080001 4290823374
-0.23253381 0.088150091 1.3080001 4290560201
-0.23104483 0.088015303 1.3060001 4290560201
-0.22973537 0.087947913 1.3050001 4290560201
-0.22842766 0.087880515 1.304 4290560201
-0.22694738 0.087745734 1.302 4290691787
-0.22564399 0.087678336 1.3010001 4290625994
-0.22434236 0.087610945 1.3000001 4290625994
-0.22235563 0.087273978 1.2950001 4290494408
-0.22106095 0.087206587 1.294 4290494408
-0.21891814 0.086802229 1.2880001 4290560201
-0.21763124 0.086734831 1.2870001 4290691787
-0.21617787 0.08660005 1.2850001 4291020752
-0.21422586 0.086263083 1.2800001 4291152338
-0.21278201 0.086128294 1.2780001 4290954959
-0.21150728 0.086060904 1.2770001 4290757580
-0.21006951 0.085926116 1.2750001 4290560201
-0.20765187 0.085386969 1.2670001 4290691787
-0.20622624 0.085252188 1.2650001 4291349717
-0.20431763 0.084915221 1.2600001 4292336612
-0.20306286 0.08484783 1.2590001 4293060335
-0.2016494 0.084713042 1.2570001 4293389300
-0.1999203 0.084443472 1.253 4293455093
-0.19867419 0.084376074 1.2520001 4293389300
-0.19711418 0.084173895 1.2490001 4293455093
-0.19587331 0.084106505 1.248 4293455093
-0.19479023 0.084106505 1.248 4293323762
-0.19370715 0.084106505 1.248 4293389554
-0.19246973 0.084039114 1.2470001 4293455347
-0.19138752 0.084039114 1.2470001 4293455347
-0.19045793 0.084106505 1.248 4293455347
-0.18937485 0.084106505 1.248 4293455347
-0.18829177 0.084106505 1.248 4293389554
-0.1872087 0.084106505 1.248 4293455347
-0.18612562 0.084106505 1.248 4293455347
-0.18504255 0.084106505 1.248 4293455347
-0.18395947 0.084106505 1.248 4293455347
-0.18287639 0.084106505 1.248 4293455347
-0.18179332 0.084106505 1.248 4293521140
-0.18085504 0.084173895 1.2490001 4293455347
-0.1797711 0.084173895 1.2490001 4293389553
-0.17854409 0.084106505 1.248 4293455345
-0.17731883 0.084039114 1.2470001 4293455345
-0.17623661 0.084039114 1.2470001 4293521138
-0.17501393 0.083971724 1.2460001 4293455345
-0.1739326 0.083971724 1.2460001 4293521138
-0.17285125 0.083971724 1.2460001 4293521138
-0.17176992 0.083971724 1.2460001 4293521138
-0.17068857 0.083971724 1.2460001 4293521138
-0.16960724 0.083971724 1.2460001 4293521138
-0.16879641 0.084106505 1.248 4293652724
-0.16784771 0.084173895 1.2490001 4293718517
-0.1668973 0.084241293 1.25 4293784310
-0.16634308 0.084510863 1.2540001 4294113275
-0.16538657 0.084578253 1.2550001 4294310654
-0.16442834 0.084645651 1.256 4293586931
-0.16398855 0.084982611 1.261 4292402657
-0.16302338 0.085050009 1.2620001 4289902523
-0.16205646 0.0851174 1.263 4287073424
-0.16159758 0.085454367 1.268 4284441704
-0.16062371 0.085521758 1.2690001 4283454808
-0.15952241 0.085521758 1.2690001 4283586394
-0.15892048 0.085791335 1.273 4283717980
-0.15793969 0.085858725 1.274 4283981152
-0.15695713 0.085926116 1.2750001 4283915359
-0.15633959 0.086195692 1.279 4283915359
-0.15535097 0.086263083 1.2800001 4283520601
-0.15436062 0.086330473 1.281 4282665292
-0.15372744 0.08660005 1.2850001 4282007362
-0.15261225 0.08660005 1.2850001 4281678397
-0.15161496 0.086667441 1.286 4281481018
-0.15084998 0.08686962 1.289 4281481018
-0.14984749 0.08693701 1.2900001 4281612604
-0.14884326 0.087004408 1.291 4281612604
-0.14806615 0.087206587 1.294 4281678397
-0.14694315 0.087206587 1.294 4281678397
-0.14570746 0.087139197 1.2930001 4281481532
-0.14469716 0.087206587 1.294 4281415995
-0.14357416 0.087206587 1.294 4281481788
-0.14234106 0.087139197 1.2930001 4281679167
-0.14143738 0.087273978 1.2950001 4281679168
-0.14031352 0.087273978 1.2950001 4281547582
-0.13929714 0.087341376 1.296 4281547582
-0.13849226 0.087543555 1.299 4281613375
-0.13736491 0.087543555 1.299 4281613375
-0.13634245 0.087610945 1.3000001 4281547582
-0.13542227 0.087745734 1.302 4281547582
-0.13429233 0.087745734 1.302 4281547582
-0.13316239 0.087745734 1.302 4281547582
-0.13193104 0.087678336 1.3010001 4281679168
-0.13070144 0.087610945 1.3000001 4281679168
-0.12957323 0.087610945 1.3000001 4281679168
-0.12834622 0.087543555 1.299 4281744447
-0.12721889 0.087543555 1.299 4281744448
-0.12609155 0.087543555 1.299 4281679168
-0.12496422 0.087543555 1.299 4281679168
-0.12393221 0.087610945 1.3000001 4281744961
-0.12280401 0.087610945 1.3000001 4281679168
-0.12176939 0.087678336 1.3010001 4281547838
-0.12064032 0.087678336 1.3010001 4281547839
-0.11960312 0.087745734 1.302 4281613888
-0.11838218 0.087678336 1.3010001 4281679681
-0.11725311 0.087678336 1.3010001 4281613888
-0.11612403 0.087678336 1.3010001 4281613888
-0.11499497 0.087678336 1.3010001 4281811268
-0.11386589 0.087678336 1.3010001 4281942598
-0.11273682 0.087678336 1.3010001 4281942599
-0.11169354 0.087745734 1.302 4282008135
-0.1105636 0.087745734 1.302 4282008133
-0.10943366 0.087745734 1.302 4281942340
-0.10855327 0.087947913 1.3050001 4281942340
-0.10750304 0.088015303 1.3060001 4282073926
-0.10636963 0.088015303 1.3060001 4282073927
-0.10547795 0.088217482 1.309 4282205257
-0.10442165 0.088284872 1.3100001 4282336844
-0.10328477 0.088284872 1.3100001 4282468430
-0.10222585 0.08835227 1.3110001 4282468430
-0.10116522 0.088419661 1.312 4282534223
-0.10010284 0.088487051 1.3130001 4282534224
-0.099114098 0.08862184 1.3150001 4282534224
-0.097972877 0.08862184 1.3150001 4282468432
-0.096831657 0.08862184 1.3150001 4282336846
-0.24195065 0.089823402 1.3160001 4291152340
-0.24062558 0.08975514 1.3150001 4291349719
-0.23948435 0.08975514 1.3150001 4291415512
-0.23779941 0.089550376 1.312 4291415512
-0.23648039 0.089482121 1.3110001 4291481305
-0.23534264 0.089482121 1.3110001 4291349719
-0.23366895 0.089277357 1.3080001 4291020754
-0.23235604 0.089209102 1.307 4290691789
-0.23086792 0.089072593 1.3050001 4290428617
-0.22973537 0.089072593 1.3050001 4290362822
-0.22842766 0.089004338 1.304 4290428615
-0.22694738 0.088867828 1.302 4290625994
-0.22564399 0.088799573 1.3010001 4290691787
-0.22416979 0.088663064 1.299 4290560201
-0.22235563 0.088390045 1.2950001 4290428615
-0.22106095 0.08832179 1.294 4290494408
-0.21908811 0.087980516 1.289 4290560201
-0.21763124 0.087843999 1.2870001 4290691787
-0.21634609 0.087775752 1.286 4290954959
-0.21439321 0.087434471 1.281 4291086545
-0.21294852 0.087297969 1.279 4290954959
-0.2116729 0.087229706 1.2780001 4290757580
-0.21023428 0.087093204 1.276 4290560201
-0.20781575 0.086547166 1.268 4290560201
-0.20638928 0.086410649 1.266 4290691787
-0.20431763 0.086001121 1.2600001 4291415510
-0.20306286 0.085932873 1.2590001 4292336612
-0.20180981 0.085864611 1.258 4293126128
-0.1999203 0.085523345 1.253 4293455093
-0.19867419 0.085455082 1.2520001 4293455093
-0.19695638 0.085182063 1.248 4293455348
-0.19587331 0.085182063 1.248 4293521140
-0.19479023 0.085182063 1.248 4293455347
-0.19355194 0.085113816 1.2470001 4293455347
-0.19246973 0.085113816 1.2470001 4293455347
-0.19138752 0.085113816 1.2470001 4293455347
-0.19030531 0.085113816 1.2470001 4293455347
-0.18922311 0.085113816 1.2470001 4293455347
-0.1881409 0.085113816 1.2470001 4293455347
-0.18705869 0.085113816 1.2470001 4293455347
-0.18597649 0.085113816 1.2470001 4293455347
-0.18489428 0.085113816 1.2470001 4293521140
-0.18381207 0.085113816 1.2470001 4293521140
-0.18272986 0.085113816 1.2470001 4293389554
-0.18164766 0.085113816 1.2470001 4293389554
-0.18056545 0.085113816 1.2470001 4293455346
-0.17948323 0.085113816 1.2470001 4293455345
-0.17840102 0.085113816 1.2470001 4293455345
-0.17731883 0.085113816 1.2470001 4293455345
-0.17623661 0.085113816 1.2470001 4293521138
-0.17501393 0.085045554 1.2460001 4293521138
-0.1739326 0.085045554 1.2460001 4293521138
-0.17285125 0.085045554 1.2460001 4293521138
-0.17176992 0.085045554 1.2460001 4293455345
-0.17068857 0.085045554 1.2460001 4293586931
-0.16960724 0.085045554 1.2460001 4293784310
-0.16893165 0.085250318 1.2490001 4294047482
-0.1679821 0.08531858 1.25 4294310653
-0.1668973 0.08531858 1.25 4294113275
-0.16647573 0.085659847 1.2550001 4293257966
-0.16551836 0.085728109 1.256 4292402657
-0.16455926 0.085796356 1.2570001 4289902523
-0.1641186 0.086137637 1.2620001 4287073424
-0.16328172 0.08627414 1.2640001 4283783774
-0.16231309 0.086342402 1.2650001 4283257430
-0.16172501 0.086615413 1.2690001 4283586395
-0.1607503 0.086683676 1.2700001 4283783774
-0.15977384 0.08675193 1.271 4284112738
-0.15904532 0.086956695 1.274 4284178531
-0.15806365 0.087024942 1.2750001 4283652187
-0.15708025 0.087093204 1.276 4283125843
-0.15633959 0.087297969 1.279 4282599499
-0.15535097 0.087366223 1.2800001 4282007362
-0.15436062 0.087434471 1.281 4281612604
-0.15372744 0.087707497 1.2850001 4281481018
-0.15261225 0.087707497 1.2850001 4281546811
-0.15161496 0.087775752 1.286 4281612604
-0.15084998 0.087980516 1.289 4281612604
-0.14984749 0.088048764 1.2900001 4281546811
-0.14884326 0.088117026 1.291 4281612604
-0.14806615 0.08832179 1.294 4281612604
-0.14694315 0.08832179 1.294 4281612604
-0.14582016 0.08832179 1.294 4281481788
-0.14458533 0.088253535 1.2930001 4281415996
-0.14346319 0.088253535 1.2930001 4281481789
-0.14234106 0.088253535 1.2930001 4281679167
-0.14143738 0.088390045 1.2950001 4281679168
-0.14042187 0.0884583 1.296 4281613375
-0.13929714 0.0884583 1.296 4281547582
-0.13849226 0.088663064 1.299 4281613375
-0.13736491 0.088663064 1.299 4281547839
-0.13634245 0.088731319 1.3000001 4281613631
-0.13531825 0.088799573 1.3010001 4281613375
-0.13418919 0.088799573 1.3010001 4281613375
-0.13295785 0.088731319 1.3000001 4281613375
-0.13172823 0.088663064 1.299 4281679168
-0.1306009 0.088663064 1.299 4281744961
-0.12937388 0.088594809 1.2980001 4281744961
-0.12824741 0.088594809 1.2980001 4281679168
-0.12702301 0.088526554 1.2970001 4281679168
-0.12589741 0.088526554 1.2970001 4281613375
-0.12486801 0.088594809 1.2980001 4281679168
-0.12383688 0.088663064 1.299 4281810754
-0.12270955 0.088663064 1.299 4281810754
-0.1216758 0.088731319 1.3000001 4281613888
-0.1205476 0.088731319 1.3000001 4281482302
-0.1194194 0.088731319 1.3000001 4281548095
-0.11829119 0.088731319 1.3000001 4281745474
-0.11716299 0.088731319 1.3000001 4281745219
-0.11603478 0.088731319 1.3000001 4281745475
-0.11490658 0.088731319 1.3000001 4282008392
-0.11386589 0.088799573 1.3010001 4282139978
-0.11273682 0.088799573 1.3010001 4282139978
-0.11169354 0.088867828 1.302 4282074185
-0.1105636 0.088867828 1.302 4282073927
-0.10943366 0.088867828 1.302 4282074184
-0.10855327 0.089072593 1.3050001 4282139977
-0.10750304 0.089140847 1.3060001 4282271563
-0.10636963 0.089140847 1.3060001 4282402893
-0.10547795 0.089345612 1.309 4282468686
-0.10434194 0.089345612 1.309 4282534223
-0.10320593 0.089345612 1.309 4282534223
-0.10222585 0.089482121 1.3110001 4282402638
-0.10116522 0.089550376 1.312 4282336845
-0.10010284 0.089618631 1.3130001 4282336846
-0.24195065 0.09095756 1.3160001 4290889168
-0.24062558 0.090888441 1.3150001 4291283926
-0.23948435 0.090888441 1.3150001 4291612891
-0.23779941 0.090681091 1.312 4291284696
-0.23648039 0.090611979 1.3110001 4291350489
-0.23534264 0.090611979 1.3110001 4291284696
-0.23366895 0.09040463 1.3080001 4291021524
-0.23235604 0.090335503 1.307 4290692559
-0.23086792 0.09019728 1.3050001 4290429130
-0.22973537 0.09019728 1.3050001 4290362822
-0.22842766 0.090128154 1.304 4290297029
-0.22677307 0.089920804 1.3010001 4290691787
-0.22547056 0.089851692 1.3000001 4290889166
-0.22416979 0.089782573 1.299 4290757580
-0.22252734 0.089575224 1.296 4290560201
-0.22123177 0.089506105 1.2950001 4290494408
-0.21925807 0.089160524 1.2900001 4290625994
-0.21780035 0.089022294 1.2880001 4290823373
-0.21651432 0.088953175 1.2870001 4290954959
-0.21472795 0.088676706 1.2830001 4291020752
-0.2132815 0.088538475 1.281 4290954959
-0.21183854 0.088400245 1.279 4290757580
-0.21039903 0.088262007 1.2770001 4290625994
-0.20781575 0.087639958 1.268 4290428616
-0.20638928 0.08750172 1.266 4290428615
-0.20447978 0.087156139 1.261 4290691787
-0.20306286 0.087017909 1.2590001 4291547096
-0.20180981 0.08694879 1.258 4292468198
-0.1999203 0.086603209 1.253 4292994542
-0.19835682 0.08639586 1.25 4293257714
-0.19695638 0.086257622 1.248 4293389556
-0.19587331 0.086257622 1.248 4293521140
-0.19463414 0.08618851 1.2470001 4293521140
-0.19339672 0.086119391 1.2460001 4293455347
-0.19231537 0.086119391 1.2460001 4293455347
-0.19123404 0.086119391 1.2460001 4293455347
-0.19015269 0.086119391 1.2460001 4293586933
-0.18907136 0.086119391 1.2460001 4293586933
-0.18799001 0.086119391 1.2460001 4293521140
-0.18690868 0.086119391 1.2460001 4293455347
-0.18582733 0.086119391 1.2460001 4293455347
-0.184746 0.086119391 1.2460001 4293455347
-0.18366465 0.086119391 1.2460001 4293455347
-0.18258332 0.086119391 1.2460001 4293455347
-0.18150197 0.086119391 1.2460001 4293455346
-0.18042064 0.086119391 1.2460001 4293455345
-0.17948323 0.08618851 1.2470001 4293455345
-0.17840102 0.08618851 1.2470001 4293455345
-0.17731883 0.08618851 1.2470001 4293521138
-0.17623661 0.08618851 1.2470001 4293521138
-0.1751544 0.08618851 1.2470001 4293521138
-0.1739326 0.086119391 1.2460001 4293521138
-0.17285125 0.086119391 1.2460001 4293521138
-0.17176992 0.086119391 1.2460001 4293718517
-0.17068857 0.086119391 1.2460001 4294047482
-0.16974336 0.08618851 1.2470001 4294244861
-0.16893165 0.086326741 1.2490001 4294113275
-0.1679821 0.08639586 1.25 4293323758
-0.16703081 0.086464971 1.251 4291810520
-0.16660838 0.086810559 1.256 4289113007
-0.16565014 0.086879671 1.2570001 4286481287
-0.16482109 0.087017909 1.2590001 4284375911
-0.16437869 0.087363489 1.2640001 4283586395
-0.16341092 0.087432608 1.2650001 4283520602
-0.16256972 0.087570839 1.2670001 4283915360
-0.16197991 0.087847307 1.271 4284046946
-0.16087687 0.087847307 1.271 4284178532
-0.16002525 0.087985545 1.273 4283915359
-0.15917015 0.088123769 1.2750001 4283389016
-0.15818763 0.088192895 1.276 4282533706
-0.15720335 0.088262007 1.2770001 4281875777
-0.15646182 0.088469356 1.2800001 4281612605
-0.15547232 0.088538475 1.281 4281481018
-0.15448113 0.088607594 1.2820001 4281678397
-0.1536078 0.088745825 1.284 4281678397
-0.15261225 0.088814944 1.2850001 4281678397
-0.15161496 0.088884056 1.286 4281612604
-0.15084998 0.089091405 1.289 4281678397
-0.14984749 0.089160524 1.2900001 4281546811
-0.14895855 0.089298755 1.2920001 4281546811
-0.14806615 0.089436993 1.294 4281481018
-0.14694315 0.089436993 1.294 4281612604
-0.14570746 0.089367874 1.2930001 4281481789
-0.14458533 0.089367874 1.2930001 4281481789
-0.14346319 0.089367874 1.2930001 4281547582
-0.14245117 0.089436993 1.294 4281679168
-0.14143738 0.089506105 1.2950001 4281679168
-0.14042187 0.089575224 1.296 4281613375
-0.13929714 0.089575224 1.296 4281547582
-0.13838562 0.089713454 1.2980001 4281547582
-0.13736491 0.089782573 1.299 4281482302
-0.13623758 0.089782573 1.299 4281548095
-0.13511024 0.089782573 1.299 4281548095
-0.13398291 0.089782573 1.299 4281548095
-0.13285556 0.089782573 1.299 4281613375
-0.13162681 0.089713454 1.2980001 4281613375
-0.13039981 0.089644343 1.2970001 4281745217
-0.12927422 0.089644343 1.2970001 4281679168
-0.127951 0.089506105 1.2950001 4281613375
-0.12692508 0.089575224 1.296 4281613375
-0.12580036 0.089575224 1.296 4281613375
-0.12477181 0.089644343 1.2970001 4281745217
-0.12364621 0.089644343 1.2970001 4281876803
-0.12252061 0.089644343 1.2970001 4281810754
-0.12158221 0.089782573 1.299 4281613889
-0.12045488 0.089782573 1.299 4281679426
-0.11932754 0.089782573 1.299 4281745219
-0.11820021 0.089782573 1.299 4281876805
-0.11707287 0.089782573 1.299 4281876806
-0.11594553 0.089782573 1.299 4281876806
-0.11490658 0.089851692 1.3000001 4282074185
-0.11377838 0.089851692 1.3000001 4282205771
-0.11265017 0.089851692 1.3000001 4282205772
-0.11160775 0.089920804 1.3010001 4282205772
-0.1105636 0.08998993 1.302 4282205771
-0.10943366 0.08998993 1.302 4282271564
-0.10855327 0.09019728 1.3050001 4282403150
-0.10750304 0.090266392 1.3060001 4282468943
-0.10636963 0.090266392 1.3060001 4282534736
-0.10539737 0.09040463 1.3080001 4282468943
-0.10434194 0.090473741 1.309 4282402894
-0.10320593 0.090473741 1.309 4282337101
-0.10222585 0.090611979 1.3110001 4282139467
-0.10116522 0.090681091 1.312 4282139467
-0.23798065 0.091881782 1.3130001 4291284696
-0.23666079 0.091811806 1.312 4291284696
-0.23552217 0.091811806 1.312 4291284696
-0.2338476 0.091601871 1.309 4291153110
-0.23253381 0.091531895 1.3080001 4290955731
-0.23104483 0.091391936 1.3060001 4290758352
-0.22955933 0.091251977 1.304 4290363594
-0.22842766 0.091251977 1.304 4290166215
-0.22677307 0.091042042 1.3010001 4290625994
-0.22564399 0.091042042 1.3010001 4291020752
-0.22434236 0.090972066 1.3000001 4291020752
-0.22269905 0.090762131 1.2970001 4290757580
-0.22140262 0.090692155 1.296 4290625994
-0.22027788 0.090692155 1.296 4290560201
-0.21830764 0.090342261 1.291 4290889166
-0.21701901 0.090272278 1.2900001 4291086545
-0.21523003 0.089992367 1.286 4291086545
-0.21378098 0.089852408 1.284 4290889166
-0.21250105 0.089782432 1.2830001 4290691787
-0.21105807 0.089642473 1.281 4290560201
-0.20896301 0.089222603 1.2750001 4290494410
-0.20704138 0.088872708 1.2700001 4290494409
-0.20496626 0.088452831 1.2640001 4290625994
-0.20370801 0.088382855 1.263 4291086545
-0.20229107 0.088242896 1.261 4291810268
-0.20039895 0.087893009 1.256 4292402405
-0.19899157 0.08775305 1.2540001 4292797163
-0.19711418 0.087403156 1.2490001 4293126383
-0.19603024 0.087403156 1.2490001 4293389554
-0.19479023 0.08733318 1.248 4293455347
-0.19339672 0.087193221 1.2460001 4293389554
-0.19231537 0.087193221 1.2460001 4293389554
-0.19108056 0.087123245 1.245 4293455347
-0.19000009 0.087123245 1.245 4293521140
-0.18891962 0.087123245 1.245 4293586933
-0.18783915 0.087123245 1.245 4293521140
-0.18660867 0.087053262 1.2440001 4293455347
-0.18552907 0.087053262 1.2440001 4293455347
-0.18430118 0.086983286 1.243 4293455347
-0.18336986 0.087053262 1.2440001 4293521140
-0.18229026 0.087053262 1.2440001 4293521139
-0.18121065 0.087053262 1.2440001 4293521138
-0.18042064 0.087193221 1.2460001 4293521138
-0.17933929 0.087193221 1.2460001 4293389552
-0.17854409 0.08733318 1.248 4293389552
-0.17746101 0.08733318 1.248 4293389552
-0.17637794 0.08733318 1.248 4293586931
-0.17557578 0.087473139 1.25 4293718517
-0.17463057 0.087543115 1.251 4293718517
-0.17354488 0.087543115 1.251 4293981689
-0.1724592 0.087543115 1.251 4294179068
-0.17123654 0.087473139 1.25 4293586931
-0.1700156 0.087403156 1.2490001 4292929000
-0.16987844 0.087893009 1.256 4291547347
-0.1689228 0.087962985 1.2570001 4288586663
-0.16796543 0.088032961 1.258 4285954943
-0.16727161 0.088242896 1.261 4284112739
-0.16630906 0.088312879 1.2620001 4283849567
-0.16534474 0.088382855 1.263 4284046946
-0.16476884 0.088662773 1.2670001 4284178532
-0.16392763 0.088802733 1.2690001 4284178532
-0.16295464 0.088872708 1.2700001 4284178532
-0.16248968 0.089222603 1.2750001 4283783774
-0.16150975 0.089292586 1.276 4283257430
-0.16052808 0.089362562 1.2770001 4282533707
-0.15979436 0.089572497 1.2800001 4281941570
-0.15880747 0.089642473 1.281 4281678398
-0.15769576 0.089642473 1.281 4281481019
-0.15682852 0.089782432 1.2830001 4281678398
-0.15583643 0.089852408 1.284 4281612605
-0.15472211 0.089852408 1.284 4281678397
-0.1539667 0.090062343 1.2870001 4281678397
-0.15296854 0.090132326 1.2880001 4281678397
-0.15196864 0.090202302 1.289 4281678397
-0.15120107 0.090412237 1.2920001 4281612604
-0.15019597 0.09048222 1.2930001 4281546811
-0.14918914 0.090552196 1.294 4281546811
-0.14818057 0.090622172 1.2950001 4281612604
-0.14717028 0.090692155 1.296 4281678397
-0.14604554 0.090692155 1.296 4281547325
-0.1449208 0.090692155 1.296 4281613118
-0.14379607 0.090692155 1.296 4281613375
-0.14267133 0.090692155 1.296 4281679168
-0.14154661 0.090692155 1.296 4281679168
-0.14053021 0.090762131 1.2970001 4281679168
-0.13940462 0.090762131 1.2970001 4281547582
-0.13827902 0.090762131 1.2970001 4281481789
-0.13715342 0.090762131 1.2970001 4281482302
-0.13602781 0.090762131 1.2970001 4281548095
-0.13479821 0.090692155 1.296 4281548095
-0.13367347 0.090692155 1.296 4281548095
-0.13244647 0.090622172 1.2950001 4281548095
-0.13122119 0.090552196 1.294 4281613888
-0.12999766 0.09048222 1.2930001 4281679681
-0.12877585 0.090412237 1.2920001 4281613888
-0.1276546 0.090412237 1.2920001 4281613376
-0.12663126 0.09048222 1.2930001 4281547840
-0.12550913 0.09048222 1.2930001 4281613633
-0.12448321 0.090552196 1.294 4281811012
-0.12345555 0.090622172 1.2950001 4281942598
-0.12233168 0.090622172 1.2950001 4281811268
-0.12139501 0.090762131 1.2970001 4281811013
-0.12026941 0.090762131 1.2970001 4281942599
-0.11914381 0.090762131 1.2970001 4282008392
-0.1181092 0.090832107 1.2980001 4282074185
-0.11698273 0.090832107 1.2980001 4282139979
-0.11585626 0.090832107 1.2980001 4282139979
-0.11481819 0.09090209 1.299 4282139979
-0.11377838 0.090972066 1.3000001 4282205772
-0.11265017 0.090972066 1.3000001 4282337359
-0.11169354 0.091112025 1.302 4282468945
-0.11064852 0.091182001 1.3030001 4282403151
-0.10951771 0.091182001 1.3030001 4282403151
-0.10855327 0.09132196 1.3050001 4282468943
-0.10750304 0.091391936 1.3060001 4282468944
-0.10645108 0.091461912 1.307 4282403151
-0.10547795 0.091601871 1.309 4282271565
-0.10442165 0.091671847 1.3100001 4282139980
-0.10328477 0.091671847 1.3100001 4282074187
-0.23798065 0.093013361 1.3130001 4291218903
-0.23684116 0.093013361 1.3130001 4291284696
-0.23552217 0.092942521 1.312 4291284696
-0.23402624 0.092800841 1.3100001 4291218903
-0.23235604 0.092588313 1.307 4291218903
-0.23086792 0.09244664 1.3050001 4291087317
-0.22973537 0.09244664 1.3050001 4290758352
-0.22842766 0.092375793 1.304 4290363594
-0.22677307 0.092163272 1.3010001 4290625996
-0.22564399 0.092163272 1.3010001 4291086547
-0.22434236 0.09209244 1.3000001 4291218133
-0.22287074 0.091950752 1.2980001 4291020753
-0.22157344 0.091879919 1.2970001 4290691787
-0.22027788 0.091809079 1.296 4290625994
-0.21847674 0.091525711 1.2920001 4290889166
-0.21718726 0.091454878 1.291 4291218131
-0.2153974 0.091171511 1.2870001 4291218133
-0.21394749 0.09102983 1.2850001 4291020754
-0.21266668 0.09095899 1.284 4290691789
-0.21122284 0.09081731 1.2820001 4290494410
