# .PCD v0.7 - Point Cloud Data file format
VERSION 0.7
FIELDS x y z rgba
SIZE 4 4 4 4
TYPE F F F U
COUNT 1 1 1 1
WIDTH 1108
HEIGHT 1
VIEWPOINT 0 0 0 1 0 0 0
POINTS 1108
DATA ascii
-0.19836357 0.067404285 1.2780001 4293520883
-0.19694577 0.0672988 1.276 4293520628
-0.19583839 0.0672988 1.276 4293586166
-0.19457839 0.067246057 1.2750001 4293520630
-0.19316842 0.067140579 1.273 4293454838
-0.19206364 0.067140579 1.273 4293520374
-0.19080886 0.067087829 1.2720001 4293520117
-0.18970495 0.067087829 1.2720001 4293782776
-0.18860105 0.067087829 1.2720001 4294045692
-0.18749714 0.067087829 1.2720001 4294176508
-0.18639325 0.067087829 1.2720001 4294308093
-0.18528934 0.067087829 1.2720001 4294373886
-0.18418543 0.067087829 1.2720001 4294504959
-0.18308152 0.067087829 1.2720001 4294636031
-0.18197763 0.067087829 1.2720001 4294832383
-0.18101592 0.067140579 1.273 4294699261
-0.17991115 0.067140579 1.273 4294106099
-0.17880638 0.067140579 1.273 4293052125
-0.17770161 0.067140579 1.273 4291406528
-0.17645811 0.067087829 1.2720001 4290156975
-0.1753542 0.067087829 1.2720001 4290684602
-0.1741133 0.067035094 1.271 4292133845
-0.17301027 0.067035094 1.271 4293451502
-0.17190723 0.067035094 1.271 4293782006
-0.17066982 0.066982351 1.2700001 4293651190
-0.16956764 0.066982351 1.2700001 4293520116
-0.16846548 0.066982351 1.2700001 4293454579
-0.16749509 0.067035094 1.271 4293520371
-0.16639206 0.067035094 1.271 4293520627
-0.16528901 0.067035094 1.271 4293455347
-0.16431516 0.067087829 1.2720001 4293258482
-0.16308294 0.067035094 1.271 4293324018
-0.16210735 0.067087829 1.2720001 4293389554
-0.16100344 0.067087829 1.2720001 4293455347
-0.15989955 0.067087829 1.2720001 4293455092
-0.15879564 0.067087829 1.2720001 4293455091
-0.15769173 0.067087829 1.2720001 4293455092
-0.15658782 0.067087829 1.2720001 4293521140
-0.15548393 0.067087829 1.2720001 4293521140
-0.15425865 0.067035094 1.271 4293455346
-0.15315562 0.067035094 1.271 4293455346
-0.15205258 0.067035094 1.271 4293389553
-0.15094955 0.067035094 1.271 4293389552
-0.14984651 0.067035094 1.271 4293455345
-0.14874348 0.067035094 1.271 4293455345
-0.14764044 0.067035094 1.271 4293455345
-0.14653741 0.067035094 1.271 4293455345
-0.14543436 0.067035094 1.271 4293455345
-0.14433134 0.067035094 1.271 4293455345
-0.14311561 0.066982351 1.2700001 4293455345
-0.14201345 0.066982351 1.2700001 4293455345
-0.14091127 0.066982351 1.2700001 4293455345
-0.13991919 0.067035094 1.271 4293455345
-0.13881615 0.067035094 1.271 4293521138
-0.13771312 0.067035094 1.271 4293521138
-0.13671756 0.067087829 1.2720001 4293521138
-0.13572027 0.067140579 1.273 4293586931
-0.1346155 0.067140579 1.273 4293455345
-0.1336156 0.067193314 1.274 4293389552
-0.13240595 0.067140579 1.273 4293521138
-0.13130118 0.067140579 1.273 4293521138
-0.13019641 0.067140579 1.273 4293455345
-0.12919304 0.067193314 1.274 4293521138
-0.12818794 0.067246057 1.2750001 4293586931
-0.12708144 0.067246057 1.2750001 4293915896
-0.12627134 0.067404285 1.2780001 4294113531
-0.1253581 0.06750977 1.2800001 4293389808
-0.12434432 0.067562506 1.281 4289310899
-0.10721155 0.070937999 1.345 4282863701
-0.10596544 0.070885256 1.3440001 4282929494
-0.10479905 0.070885256 1.3440001 4283127130
-0.10355555 0.070832513 1.3430001 4283258972
-0.10239003 0.070832513 1.3430001 4283456096
-0.10122451 0.070832513 1.3430001 4283587939
-0.1002825 0.070990741 1.3460001 4283653734
-0.30360004 0.071614712 1.3360001 4292863468
-0.3015351 0.0714003 1.332 4291086801
-0.29925156 0.07113228 1.327 4289639097
-0.29809994 0.07113228 1.327 4290363077
-0.29694828 0.07113228 1.327 4291152592
-0.29557374 0.07107868 1.3260001 4291349971
-0.29442298 0.07107868 1.3260001 4290889421
-0.29305103 0.071025081 1.325 4290757579
-0.29168084 0.070971467 1.3240001 4290691786
-0.29053181 0.070971467 1.3240001 4290560457
-0.28916419 0.070917867 1.3230001 4290494408
-0.28779835 0.070864268 1.322 4290428615
-0.2864342 0.070810661 1.3210001 4290428615
-0.28485587 0.070703454 1.319 4290428615
-0.28371117 0.070703454 1.319 4290494408
-0.28256649 0.070703454 1.319 4290560201
-0.28120843 0.070649847 1.3180001 4290691787
-0.27985209 0.070596248 1.317 4290823373
-0.27870914 0.070596248 1.317 4290889166
-0.27714467 0.070489034 1.3150001 4290889166
-0.27600345 0.070489034 1.3150001 4290889166
-0.27486223 0.070489034 1.3150001 4290823630
-0.27351287 0.070435435 1.314 4290692559
-0.27216524 0.070381828 1.3130001 4290692559
-0.27102575 0.070381828 1.3130001 4290824145
-0.26947513 0.070274621 1.3110001 4290955730
-0.26813272 0.070221014 1.3100001 4291021522
-0.26679203 0.070167415 1.309 4290758350
-0.26545307 0.070113815 1.3080001 4290363592
-0.26431793 0.070113815 1.3080001 4290297799
-0.26298156 0.070060201 1.307 4290363592
-0.26184729 0.070060201 1.307 4290297799
-0.26071301 0.070060201 1.307 4290297799
-0.2593801 0.070006602 1.3060001 4290428872
-0.25824669 0.070006602 1.3060001 4290494408
-0.25711328 0.070006602 1.3060001 4290559944
-0.25578386 0.069953002 1.3050001 4290625737
-0.25465134 0.069953002 1.3050001 4290691530
-0.25351879 0.069953002 1.3050001 4290625994
-0.25219285 0.069899395 1.304 4290494408
-0.25086865 0.069845788 1.3030001 4290428615
-0.24935451 0.069738582 1.3010001 4290625994
-0.24822545 0.069738582 1.3010001 4290889166
-0.24690643 0.069684982 1.3000001 4291152338
-0.24540012 0.069577768 1.2980001 4291283924
-0.24427365 0.069577768 1.2980001 4291349717
-0.24295986 0.069524169 1.2970001 4291283924
-0.24164779 0.069470569 1.296 4291349717
-0.24052307 0.069470569 1.296 4291349717
-0.23939833 0.069470569 1.296 4291349717
-0.23827361 0.069470569 1.296 4291349717
-0.23714887 0.069470569 1.296 4291283924
-0.23584202 0.069416963 1.2950001 4291086545
-0.23453689 0.069363356 1.294 4290428615
-0.23341389 0.069363356 1.294 4289968064
-0.23193188 0.069256149 1.2920001 4290099650
-0.23081061 0.069256149 1.2920001 4290691787
-0.22951157 0.06920255 1.291 4291086545
-0.22821428 0.069148935 1.2900001 4291218131
-0.22691871 0.069095336 1.289 4291481557
-0.22580005 0.069095336 1.289 4291744729
-0.22468139 0.069095336 1.289 4291942108
-0.2233893 0.069041736 1.2880001 4292139487
-0.22209893 0.068988129 1.2870001 4292402659
-0.220982 0.068988129 1.2870001 4292534245
-0.21952343 0.068880923 1.2850001 4292731624
-0.21823826 0.068827316 1.284 4293060589
-0.21678576 0.06872011 1.2820001 4293257968
-0.21567316 0.06872011 1.2820001 4293323761
-0.21456058 0.06872011 1.2820001 4293323761
-0.2132815 0.068666503 1.281 4293323761
-0.21200415 0.068612903 1.2800001 4293323761
-0.21089332 0.068612903 1.2800001 4293455347
-0.20978247 0.068612903 1.2800001 4293521140
-0.2085086 0.068559304 1.279 4293586933
-0.20739862 0.068559304 1.279 4293521140
-0.20628864 0.068559304 1.279 4293521140
-0.20517866 0.068559304 1.279 4293521140
-0.20390913 0.068505697 1.2780001 4293586676
-0.20280001 0.068505697 1.2780001 4293586420
-0.2016909 0.068505697 1.2780001 4293520627
-0.20058179 0.068505697 1.2780001 4293520627
-0.19931661 0.06845209 1.2770001 4293586163
-0.19820836 0.06845209 1.2770001 4293651699
-0.19679141 0.068344884 1.2750001 4293586162
-0.19568491 0.068344884 1.2750001 4293520625
-0.19442579 0.068291284 1.274 4293586418
-0.19316842 0.068237677 1.273 4293586419
-0.19191276 0.06818407 1.2720001 4293520883
-0.19080886 0.06818407 1.2720001 4293455347
-0.18955582 0.068130471 1.271 4293455348
-0.18845278 0.068130471 1.271 4293455092
-0.18734975 0.068130471 1.271 4293455093
-0.18624671 0.068130471 1.271 4293520887
-0.18499801 0.068076871 1.2700001 4293652218
-0.18389584 0.068076871 1.2700001 4293849340
-0.18293761 0.068130471 1.271 4294046461
-0.18183456 0.068130471 1.271 4294243069
-0.18087372 0.06818407 1.2720001 4294308606
-0.17976981 0.06818407 1.2720001 4294374399
-0.17866591 0.06818407 1.2720001 4294505727
-0.17756201 0.06818407 1.2720001 4294636799
-0.17645811 0.06818407 1.2720001 4294505727
-0.17521635 0.068130471 1.271 4294374399
-0.1741133 0.068130471 1.271 4294177278
-0.17287415 0.068076871 1.2700001 4294111741
-0.17177199 0.068076871 1.2700001 4293914876
-0.17053543 0.068023257 1.2690001 4293651960
-0.16943413 0.068023257 1.2690001 4293389300
-0.16833283 0.068023257 1.2690001 4293389300
-0.16723153 0.068023257 1.2690001 4293389555
-0.16626115 0.068076871 1.2700001 4293455347
-0.16515897 0.068076871 1.2700001 4293455347
-0.16405681 0.068076871 1.2700001 4293389554
-0.16295464 0.068076871 1.2700001 4293323761
-0.16197991 0.068130471 1.271 4293389554
-0.16087687 0.068130471 1.271 4293455092
-0.15977384 0.068130471 1.271 4293455093
-0.1586708 0.068130471 1.271 4293389556
-0.15756777 0.068130471 1.271 4293455348
-0.15646473 0.068130471 1.271 4293521140
-0.1553617 0.068130471 1.271 4293521140
-0.15425865 0.068130471 1.271 4293455347
-0.15315562 0.068130471 1.271 4293455347
-0.15193295 0.068076871 1.2700001 4293455345
-0.15083079 0.068076871 1.2700001 4293455345
-0.14972863 0.068076871 1.2700001 4293455345
-0.14862645 0.068076871 1.2700001 4293455345
-0.14752428 0.068076871 1.2700001 4293455345
-0.14642212 0.068076871 1.2700001 4293455345
-0.14520551 0.068023257 1.2690001 4293455345
-0.14410421 0.068023257 1.2690001 4293455345
-0.14300291 0.068023257 1.2690001 4293455345
-0.14190161 0.068023257 1.2690001 4293455345
-0.14080031 0.068023257 1.2690001 4293455345
-0.13969901 0.068023257 1.2690001 4293521138
-0.13870694 0.068076871 1.2700001 4293521138
-0.13760477 0.068076871 1.2700001 4293521138
-0.13661008 0.068130471 1.271 4293521138
-0.13561365 0.06818407 1.2720001 4293586931
-0.13450974 0.06818407 1.2720001 4293521138
-0.13351072 0.068237677 1.273 4293455345
-0.13240595 0.068237677 1.273 4293521138
-0.13130118 0.068237677 1.273 4293521138
-0.13009413 0.06818407 1.2720001 4293455345
-0.12919304 0.068291284 1.274 4293521138
-0.12818794 0.068344884 1.2750001 4293915896
-0.12708144 0.068344884 1.2750001 4294310654
-0.12627134 0.068505697 1.2780001 4293653494
-0.12526017 0.068559304 1.279 4289771706
-0.12434432 0.068666503 1.281 4284047716
-0.10705212 0.071989946 1.3430001 4283126873
-0.10588659 0.071989946 1.3430001 4283258459
-0.10472108 0.071989946 1.3430001 4283390302
-0.10347845 0.071936347 1.342 4283521888
-0.10231379 0.071936347 1.342 4283653732
-0.10114914 0.071936347 1.342 4283785318
-0.30405453 0.072875045 1.3380001 4292995312
-0.30198783 0.07265719 1.3340001 4291745244
-0.29970258 0.072384857 1.3290001 4289902525
-0.29832456 0.072330393 1.3280001 4290099904
-0.29717207 0.072330393 1.3280001 4291021006
-0.29557374 0.072221458 1.3260001 4291284178
-0.29442298 0.072221458 1.3260001 4291086545
-0.29305103 0.072166994 1.325 4290823373
-0.29168084 0.07211253 1.3240001 4290691787
-0.29053181 0.07211253 1.3240001 4290560201
-0.28916419 0.072058067 1.3230001 4290494408
-0.28779835 0.072003603 1.322 4290494408
-0.2864342 0.071949132 1.3210001 4290494408
-0.28507182 0.071894668 1.3200001 4290560201
-0.28392628 0.071894668 1.3200001 4290560201
-0.28278071 0.071894668 1.3200001 4290560201
-0.28142178 0.071840204 1.319 4290625994
-0.28006461 0.071785733 1.3180001 4290757580
-0.27870914 0.071731269 1.317 4290823373
-0.27714467 0.071622334 1.3150001 4290954959
-0.27600345 0.071622334 1.3150001 4291086545
-0.27486223 0.071622334 1.3150001 4291086546
-0.27351287 0.071567871 1.314 4291021011
-0.27216524 0.071513407 1.3130001 4290889681
-0.27081934 0.071458943 1.312 4290824145
-0.26926959 0.071350008 1.3100001 4291021523
-0.26813272 0.071350008 1.3100001 4291021522
-0.26679203 0.071295545 1.309 4290824143
-0.26565599 0.071295545 1.309 4290429385
-0.26431793 0.071241081 1.3080001 4290363592
-0.26298156 0.07118661 1.307 4290429385
-0.26184729 0.07118661 1.307 4290494921
-0.26071301 0.07118661 1.307 4290494408
-0.2593801 0.071132146 1.3060001 4290494408
-0.25824669 0.071132146 1.3060001 4290494408
-0.25711328 0.071132146 1.3060001 4290559944
-0.25578386 0.071077682 1.3050001 4290559944
-0.25465134 0.071077682 1.3050001 4290625992
-0.25351879 0.071077682 1.3050001 4290560456
-0.25219285 0.071023211 1.304 4290560455
-0.25086865 0.070968747 1.3030001 4290494662
-0.24954617 0.070914283 1.302 4290625993
-0.24822545 0.07085982 1.3010001 4290823373
-0.24690643 0.070805356 1.3000001 4291152338
-0.24558917 0.070750892 1.299 4291349717
-0.24427365 0.070696421 1.2980001 4291415510
-0.24314718 0.070696421 1.2980001 4291415510
-0.24183425 0.070641957 1.2970001 4291415510
-0.24052307 0.070587493 1.296 4291415510
-0.23939833 0.070587493 1.296 4291415510
-0.23827361 0.070587493 1.296 4291481303
-0.23714887 0.070587493 1.296 4291349717
-0.23602414 0.070587493 1.296 4291152338
-0.23453689 0.070478559 1.294 4290560201
-0.23341389 0.070478559 1.294 4290165443
-0.23211138 0.070424095 1.2930001 4290099650
-0.23081061 0.070369624 1.2920001 4290428615
-0.22951157 0.07031516 1.291 4290691787
-0.22821428 0.070260696 1.2900001 4291020752
-0.22709474 0.070260696 1.2900001 4291284178
-0.22597522 0.070260696 1.2900001 4291284179
-0.22468139 0.070206232 1.289 4291218385
-0.2233893 0.070151769 1.2880001 4291284178
-0.2222715 0.070151769 1.2880001 4291415764
-0.220982 0.070097297 1.2870001 4291547350
-0.21952343 0.06998837 1.2850001 4291678936
-0.21823826 0.069933899 1.284 4292073438
-0.21695484 0.069879435 1.2830001 4292336867
-0.21567316 0.069824971 1.2820001 4292600039
-0.21456058 0.069824971 1.2820001 4292994796
-0.2132815 0.0697705 1.281 4293060590
-0.21233542 0.069824971 1.2820001 4293126383
-0.21105807 0.0697705 1.281 4293192175
-0.20994635 0.0697705 1.281 4293389554
-0.20883463 0.0697705 1.281 4293521140
-0.20756078 0.069716036 1.2800001 4293586933
-0.20644993 0.069716036 1.2800001 4293521140
-0.20517866 0.06966158 1.279 4293521140
-0.20390913 0.069607109 1.2780001 4293521140
-0.20280001 0.069607109 1.2780001 4293521140
-0.2016909 0.069607109 1.2780001 4293521140
-0.20042485 0.069552645 1.2770001 4293520627
-0.19931661 0.069552645 1.2770001 4293454834
-0.19805315 0.069498181 1.276 4293520627
-0.19679141 0.06944371 1.2750001 4293520626
-0.19553143 0.069389246 1.274 4293520625
-0.19442579 0.069389246 1.274 4293520882
-0.19301666 0.069280311 1.2720001 4293586418
-0.19191276 0.069280311 1.2720001 4293520882
-0.19065885 0.069225848 1.271 4293455347
-0.18940668 0.069171384 1.2700001 4293455347
-0.18830451 0.069171384 1.2700001 4293455347
-0.18705493 0.06911692 1.2690001 4293455091
-0.18595363 0.06911692 1.2690001 4293455349
-0.18485233 0.06911692 1.2690001 4293520886
-0.18389584 0.069171384 1.2700001 4293520375
-0.18279368 0.069171384 1.2700001 4293585910
-0.1816915 0.069171384 1.2700001 4293651703
-0.18058933 0.069171384 1.2700001 4293783033
-0.17948717 0.069171384 1.2700001 4293980155
-0.17852546 0.069225848 1.271 4294111484
-0.17728283 0.069171384 1.2700001 4294111228
-0.17618066 0.069171384 1.2700001 4294045692
-0.17494063 0.06911692 1.2690001 4294045949
-0.17370234 0.069062456 1.268 4293980411
-0.17260191 0.069062456 1.268 4293717496
-0.17150147 0.069062456 1.268 4293586166
-0.17026666 0.069007985 1.2670001 4293520629
-0.1691671 0.069007985 1.2670001 4293389299
-0.16793488 0.068953522 1.266 4293323763
-0.16683617 0.068953522 1.266 4293389554
-0.16573748 0.068953522 1.266 4293389554
-0.16476884 0.069007985 1.2670001 4293455347
-0.16366927 0.069007985 1.2670001 4293389554
-0.16256972 0.069007985 1.2670001 4293323761
-0.16159758 0.069062456 1.268 4293389554
-0.16049714 0.069062456 1.268 4293455092
-0.15952241 0.06911692 1.2690001 4293455348
-0.15842111 0.06911692 1.2690001 4293455348
-0.15731981 0.06911692 1.2690001 4293521140
-0.15621851 0.06911692 1.2690001 4293521140
-0.15511721 0.06911692 1.2690001 4293521140
-0.15401591 0.06911692 1.2690001 4293455347
-0.15291461 0.06911692 1.2690001 4293455346
-0.15169369 0.069062456 1.268 4293455345
-0.15059325 0.069062456 1.268 4293455345
-0.14949283 0.069062456 1.268 4293455345
-0.14839239 0.069062456 1.268 4293521138
-0.14705963 0.068953522 1.266 4293455345
-0.14596093 0.068953522 1.266 4293455345
-0.14486223 0.068953522 1.266 4293455345
-0.14376354 0.068953522 1.266 4293455345
-0.14255215 0.068899058 1.2650001 4293455345
-0.14145432 0.068899058 1.2650001 4293455345
-0.1403565 0.068899058 1.2650001 4293521138
-0.13936876 0.068953522 1.266 4293521138
-0.13827005 0.068953522 1.266 4293521138
-0.13727972 0.069007985 1.2670001 4293521138
-0.13628763 0.069062456 1.268 4293521138
-0.13529381 0.06911692 1.2690001 4293455345
-0.13419251 0.06911692 1.2690001 4293455345
-0.13330097 0.069225848 1.271 4293521138
-0.13230194 0.069280311 1.2720001 4293521138
-0.13119803 0.069280311 1.2720001 4293586931
-0.13009413 0.069280311 1.2720001 4293521138
-0.12919304 0.069389246 1.274 4293850103
-0.12818794 0.06944371 1.2750001 4294179068
-0.12718111 0.069498181 1.276 4294113275
-0.11054868 0.073147379 1.3430001 4282994774
-0.10930172 0.073092915 1.342 4282995030
-0.10805649 0.073038444 1.3410001 4283060823
-0.10681298 0.07298398 1.34 4283258459
-0.10565007 0.07298398 1.34 4283521631
-0.10448715 0.07298398 1.34 4283719011
-0.10340134 0.073038444 1.3410001 4283850597
-0.10223755 0.073038444 1.3410001 4283916904
-0.10114914 0.073092915 1.342 4283916904
-0.30405453 0.074028172 1.3380001 4293126898
-0.30198783 0.07380686 1.3340001 4292074210
-0.29970258 0.073530219 1.3290001 4290099905
-0.29854921 0.073530219 1.3290001 4289902270
-0.29717207 0.073474899 1.3280001 4290955213
-0.29557374 0.073364243 1.3260001 4291284178
-0.29442298 0.073364243 1.3260001 4291152338
-0.29327223 0.073364243 1.3260001 4290823373
-0.29168084 0.073253587 1.3240001 4290560201
-0.29053181 0.073253587 1.3240001 4290560201
-0.28916419 0.073198259 1.3230001 4290494408
-0.28779835 0.073142931 1.322 4290428615
-0.2864342 0.073087603 1.3210001 4290494408
-0.28507182 0.073032275 1.3200001 4290625994
-0.28392628 0.073032275 1.3200001 4290625994
-0.28278071 0.073032275 1.3200001 4290560201
-0.28142178 0.072976954 1.319 4290560201
-0.2802771 0.072976954 1.319 4290560201
-0.27892077 0.072921619 1.3180001 4290625994
-0.27756616 0.072866291 1.317 4290757580
-0.27642322 0.072866291 1.317 4290954959
-0.27528027 0.072866291 1.317 4291152338
-0.27372101 0.072755635 1.3150001 4291283926
-0.27237251 0.072700314 1.314 4291218390
-0.27102575 0.072644979 1.3130001 4291087317
-0.26968071 0.072589658 1.312 4291153109
-0.26854208 0.072589658 1.312 4291153108
-0.26719964 0.07253433 1.3110001 4290955729
-0.2660619 0.07253433 1.3110001 4290560971
-0.26472208 0.072478995 1.3100001 4290363592
-0.26358518 0.072478995 1.3100001 4290429385
-0.26244831 0.072478995 1.3100001 4290560458
-0.26111194 0.072423674 1.309 4290560201
-0.25997594 0.072423674 1.309 4290428615
-0.25883991 0.072423674 1.309 4290428615
-0.25750703 0.072368346 1.3080001 4290494151
-0.25617591 0.072313018 1.307 4290494151
-0.25504163 0.072313018 1.307 4290494149
-0.25390732 0.072313018 1.307 4290494149
-0.25257963 0.07225769 1.3060001 4290626248
-0.25125369 0.072202362 1.3050001 4290823627
-0.24992949 0.072147034 1.304 4290823627
-0.24860702 0.072091706 1.3030001 4290955213
-0.24747622 0.072091706 1.3030001 4291218131
-0.2459673 0.07198105 1.3010001 4291415510
-0.24483824 0.07198105 1.3010001 4291415510
-0.24352181 0.07192573 1.3000001 4291415510
-0.24220715 0.071870402 1.299 4291349717
-0.24107982 0.071870402 1.299 4291415510
-0.23995249 0.071870402 1.299 4291415510
-0.23882514 0.071870402 1.299 4291415510
-0.23769781 0.071870402 1.299 4291349717
-0.23638837 0.071815066 1.2980001 4291152338
-0.23508064 0.071759745 1.2970001 4290625994
-0.23395506 0.071759745 1.2970001 4290165443
-0.23247044 0.071649089 1.2950001 4289968064
-0.2311679 0.071593761 1.294 4290099650
-0.2300449 0.071593761 1.294 4290297029
-0.22856809 0.071483105 1.2920001 4290757580
-0.22744682 0.071483105 1.2920001 4291020752
-0.22632557 0.071483105 1.2920001 4290889166
-0.22503 0.071427777 1.291 4290955213
-0.22390962 0.071427777 1.291 4291086799
-0.22278923 0.071427777 1.291 4291283924
-0.22149712 0.071372449 1.2900001 4291152338
-0.22020675 0.071317121 1.289 4291020752
-0.21891814 0.071261801 1.2880001 4291152338
-0.21746215 0.071151137 1.286 4291415510
-0.21634609 0.071151137 1.286 4291678682
-0.21506268 0.071095817 1.2850001 4291941854
-0.21378098 0.071040481 1.284 4292139233
-0.21250105 0.070985161 1.2830001 4292402405
-0.21138759 0.070985161 1.2830001 4292665577
-0.21011026 0.070929833 1.2820001 4292994542
-0.20899767 0.070929833 1.2820001 4293192177
-0.20788509 0.070929833 1.2820001 4293389555
-0.20644993 0.070819177 1.2800001 4293455091
-0.20533907 0.070819177 1.2800001 4293455347
-0.20406869 0.070763849 1.279 4293521140
-0.2029587 0.070763849 1.279 4293586933
-0.2016909 0.070708521 1.2780001 4293586933
-0.20042485 0.070653193 1.2770001 4293455347
-0.19931661 0.070653193 1.2770001 4293520884
-0.19820836 0.070653193 1.2770001 4293520883
-0.19679141 0.070542537 1.2750001 4293586419
-0.19568491 0.070542537 1.2750001 4293586418
-0.19442579 0.070487209 1.274 4293520882
-0.19316842 0.070431888 1.273 4293521138
-0.19191276 0.070376553 1.2720001 4293455345
-0.19080886 0.070376553 1.2720001 4293455345
-0.18940668 0.070265904 1.2700001 4293521138
-0.18830451 0.070265904 1.2700001 4293521140
-0.18720235 0.070265904 1.2700001 4293455347
-0.18595363 0.070210576 1.2690001 4293455347
-0.18485233 0.070210576 1.2690001 4293520884
-0.18389584 0.070265904 1.2700001 4293520629
-0.18279368 0.070265904 1.2700001 4293520885
-0.1816915 0.070265904 1.2700001 4293520628
-0.18058933 0.070265904 1.2700001 4293520885
-0.17948717 0.070265904 1.2700001 4293520885
-0.178385 0.070265904 1.2700001 4293586166
-0.17728283 0.070265904 1.2700001 4293651703
-0.17618066 0.070265904 1.2700001 4293651702
-0.17494063 0.070210576 1.2690001 4293651703
-0.17370234 0.070155248 1.268 4293651958
-0.17260191 0.070155248 1.268 4293586678
-0.17150147 0.070155248 1.268 4293520885
-0.17026666 0.070099913 1.2670001 4293389299
-0.1691671 0.070099913 1.2670001 4293323762
-0.16793488 0.070044592 1.266 4293323761
-0.16683617 0.070044592 1.266 4293323761
-0.16573748 0.070044592 1.266 4293389554
-0.16476884 0.070099913 1.2670001 4293389554
-0.16366927 0.070099913 1.2670001 4293323761
-0.16256972 0.070099913 1.2670001 4293323761
-0.16147014 0.070099913 1.2670001 4293389554
-0.16049714 0.070155248 1.268 4293455347
-0.15939672 0.070155248 1.268 4293521140
-0.15842111 0.070210576 1.2690001 4293521140
-0.15719585 0.070155248 1.268 4293521140
-0.15609542 0.070155248 1.268 4293521139
-0.15499498 0.070155248 1.268 4293521139
-0.15389456 0.070155248 1.268 4293521138
-0.15279412 0.070155248 1.268 4293455345
-0.15169369 0.070155248 1.268 4293455345
-0.15059325 0.070155248 1.268 4293455345
-0.14937493 0.070099913 1.2670001 4293455345
-0.14815833 0.070044592 1.266 4293521138
-0.14705963 0.070044592 1.266 4293455345
-0.14596093 0.070044592 1.266 4293455345
-0.14474782 0.069989264 1.2650001 4293389552
-0.14364998 0.069989264 1.2650001 4293455345
-0.14255215 0.069989264 1.2650001 4293455345
-0.14145432 0.069989264 1.2650001 4293455345
-0.1403565 0.069989264 1.2650001 4293521138
-0.13936876 0.070044592 1.266 4293521138
-0.13827005 0.070044592 1.266 4293521138
-0.13717136 0.070044592 1.266 4293455345
-0.13628763 0.070155248 1.268 4293455345
-0.13529381 0.070210576 1.2690001 4293455345
-0.13419251 0.070210576 1.2690001 4293455345
-0.13330097 0.070321232 1.271 4293521138
-0.13230194 0.070376553 1.2720001 4293521138
-0.13119803 0.070376553 1.2720001 4293652724
-0.13029869 0.070487209 1.274 4293784310
-0.12929444 0.070542537 1.2750001 4294113275
-0.12818794 0.070542537 1.2750001 4293916152
-0.12718111 0.070597872 1.276 4291087054
-0.11046637 0.074249484 1.342 4282929494
-0.10922027 0.074194148 1.3410001 4282863701
-0.1079759 0.074138828 1.34 4282995287
-0.10681298 0.074138828 1.34 4283324252
-0.10565007 0.074138828 1.34 4283587424
-0.10448715 0.074138828 1.34 4283850598
-0.10340134 0.074194148 1.3410001 4283982184
-0.30428177 0.075237483 1.3390001 4293192691
-0.30221421 0.075012721 1.335 4292337382
-0.2999281 0.074731775 1.33 4290297542
-0.29854921 0.07467559 1.3290001 4290034370
-0.29739583 0.07467559 1.3290001 4290823886
-0.29579666 0.074563205 1.327 4291218900
-0.29442298 0.07450702 1.3260001 4291283924
-0.29327223 0.07450702 1.3260001 4290889166
-0.29190114 0.074450836 1.325 4290625994
-0.29053181 0.074394643 1.3240001 4290560201
-0.28938279 0.074394643 1.3240001 4290428615
-0.28779835 0.074282266 1.322 4290428615
-0.2864342 0.074226074 1.3210001 4290560201
-0.28507182 0.074169889 1.3200001 4290691787
-0.28392628 0.074169889 1.3200001 4290691787
-0.28278071 0.074169889 1.3200001 4290625994
-0.28163514 0.074169889 1.3200001 4290625994
-0.2802771 0.074113697 1.319 4290560201
-0.27892077 0.074057505 1.3180001 4290494408
-0.27756616 0.07400132 1.317 4290560201
-0.27621335 0.073945127 1.3160001 4290691787
-0.27507123 0.073945127 1.3160001 4290889166
-0.27372101 0.073888935 1.3150001 4291152340
-0.27237251 0.07383275 1.314 4291284183
-0.27123216 0.07383275 1.314 4291349719
-0.26968071 0.073720373 1.312 4291350231
-0.26854208 0.073720373 1.312 4291218901
-0.26740348 0.073720373 1.312 4291086802
-0.2660619 0.073664181 1.3110001 4290757837
-0.26492414 0.073664181 1.3110001 4290494664
-0.26378638 0.073664181 1.3110001 4290428615
-0.26244831 0.073607989 1.3100001 4290494408
-0.26131141 0.073607989 1.3100001 4290494408
-0.26017454 0.073607989 1.3100001 4290428615
-0.25903764 0.073607989 1.3100001 4290362822
-0.25790077 0.073607989 1.3100001 4290428615
-0.2565679 0.073551804 1.309 4290428358
-0.25523674 0.073495612 1.3080001 4290362563
-0.2541016 0.073495612 1.3080001 4290428356
-0.25277305 0.073439419 1.307 4290757321
-0.25144622 0.073383234 1.3060001 4291086286
-0.25031281 0.073383234 1.3060001 4291152335
-0.24898861 0.07332705 1.3050001 4291152592
-0.24766615 0.073270857 1.304 4291283923
-0.24634542 0.073214665 1.3030001 4291415510
-0.24521461 0.073214665 1.3030001 4291415510
-0.24389648 0.07315848 1.302 4291349717
-0.24258009 0.073102288 1.3010001 4291415510
-0.24145101 0.073102288 1.3010001 4291415510
-0.24032195 0.073102288 1.3010001 4291415510
-0.23919287 0.073102288 1.3010001 4291349717
-0.2378808 0.073046096 1.3000001 4291283924
-0.23657048 0.072989911 1.299 4291152338
-0.2352619 0.072933719 1.2980001 4290691787
-0.23395506 0.072877534 1.2970001 4290231236
-0.23247044 0.072765149 1.2950001 4289968064
-0.23134656 0.072765149 1.2950001 4289968064
-0.2300449 0.072708964 1.294 4290165443
-0.228745 0.07265278 1.2930001 4290560201
-0.22762287 0.07265278 1.2930001 4290757580
-0.22650073 0.07265278 1.2930001 4290560201
-0.2252043 0.07259658 1.2920001 4290757580
-0.22408305 0.07259658 1.2920001 4290823373
-0.22296178 0.07259658 1.2920001 4291020752
-0.22166882 0.072540395 1.291 4291020752
-0.22037759 0.072484203 1.2900001 4290889166
-0.21908811 0.072428018 1.289 4290954959
-0.21763124 0.072315633 1.2870001 4291218131
-0.21651432 0.072315633 1.2870001 4291349717
-0.2153974 0.072315633 1.2870001 4291481303
-0.21394749 0.072203264 1.2850001 4291415510
-0.21266668 0.072147064 1.284 4291481303
-0.21155235 0.072147064 1.284 4291678682
-0.21027415 0.072090879 1.2830001 4291810268
-0.2091607 0.072090879 1.2830001 4292205026
-0.20804724 0.072090879 1.2830001 4292533991
-0.20661122 0.071978502 1.281 4292862956
-0.2054995 0.071978502 1.281 4293126128
-0.20422824 0.07192231 1.2800001 4293257970
-0.2029587 0.071866125 1.279 4293389554
-0.20184873 0.071866125 1.279 4293455347
-0.20058179 0.071809933 1.2780001 4293389554
-0.19947268 0.071809933 1.2780001 4293455347
-0.19820836 0.071753748 1.2770001 4293455347
-0.19694577 0.071697555 1.276 4293455347
-0.19568491 0.071641363 1.2750001 4293455345
-0.19457839 0.071641363 1.2750001 4293455345
-0.19316842 0.071528994 1.273 4293521138
-0.19191276 0.071472794 1.2720001 4293521138
-0.19080886 0.071472794 1.2720001 4293521138
-0.18940668 0.071360424 1.2700001 4293521138
-0.18830451 0.071360424 1.2700001 4293521138
-0.18720235 0.071360424 1.2700001 4293521138
-0.18610018 0.071360424 1.2700001 4293521138
-0.18499801 0.071360424 1.2700001 4293521139
-0.18389584 0.071360424 1.2700001 4293586932
-0.18279368 0.071360424 1.2700001 4293586932
-0.1816915 0.071360424 1.2700001 4293521140
-0.18058933 0.071360424 1.2700001 4293521139
-0.17948717 0.071360424 1.2700001 4293455347
-0.178385 0.071360424 1.2700001 4293455091
-0.17728283 0.071360424 1.2700001 4293520885
-0.17604193 0.071304232 1.2690001 4293520884
-0.17494063 0.071304232 1.2690001 4293520884
-0.17370234 0.07124804 1.268 4293521140
-0.17260191 0.07124804 1.268 4293586933
-0.17150147 0.07124804 1.268 4293455347
-0.17026666 0.071191847 1.2670001 4293389554
-0.16903357 0.071135662 1.266 4293389554
-0.16793488 0.071135662 1.266 4293323761
-0.16683617 0.071135662 1.266 4293323761
-0.16573748 0.071135662 1.266 4293323761
-0.16463879 0.071135662 1.266 4293323761
-0.16354008 0.071135662 1.266 4293323761
-0.16244139 0.071135662 1.266 4293323761
-0.16147014 0.071191847 1.2670001 4293389554
-0.16037057 0.071191847 1.2670001 4293389554
-0.15927102 0.071191847 1.2670001 4293455346
-0.15829629 0.07124804 1.268 4293521139
-0.15719585 0.07124804 1.268 4293521139
-0.15609542 0.07124804 1.268 4293521138
-0.15499498 0.07124804 1.268 4293521138
-0.15389456 0.07124804 1.268 4293521138
-0.15279412 0.07124804 1.268 4293521138
-0.15157406 0.071191847 1.2670001 4293455345
-0.15047449 0.071191847 1.2670001 4293455345
-0.14937493 0.071191847 1.2670001 4293455345
-0.14815833 0.071135662 1.266 4293455345
-0.14705963 0.071135662 1.266 4293455345
-0.14596093 0.071135662 1.266 4293455345
-0.14474782 0.071079478 1.2650001 4293455345
-0.14364998 0.071079478 1.2650001 4293455345
-0.14243945 0.071023278 1.2640001 4293455345
-0.14134251 0.071023278 1.2640001 4293455345
-0.1403565 0.071079478 1.2650001 4293455345
-0.13925867 0.071079478 1.2650001 4293521138
-0.13827005 0.071135662 1.266 4293521138
-0.13717136 0.071135662 1.266 4293521138
-0.13628763 0.07124804 1.268 4293521138
-0.13518719 0.07124804 1.268 4293521138
-0.13419251 0.071304232 1.2690001 4293455345
-0.13340583 0.071472794 1.2720001 4293521138
-0.13230194 0.071472794 1.2720001 4293521138
-0.13130118 0.071528994 1.273 4293915896
-0.13040096 0.071641363 1.2750001 4294047995
-0.12929444 0.071641363 1.2750001 4293587444
-0.12828849 0.071697555 1.276 4290889932
-0.12718111 0.071697555 1.276 4285297783
-0.10913882 0.075293675 1.34 4282929494
-0.1079759 0.075293675 1.34 4283126873
-0.10673328 0.075237483 1.3390001 4283521632
-0.10565007 0.075293675 1.34 4283653219
-0.10448715 0.075293675 1.34 4283916391
-0.30473626 0.076505564 1.3410001 4293061105
-0.30311972 0.076391466 1.3390001 4292600554
-0.30015361 0.075935058 1.3310001 4290955729
-0.2989985 0.075935058 1.3310001 4290232006
-0.29761961 0.075878002 1.33 4290626764
-0.29579666 0.075706847 1.327 4291284694
-0.29464501 0.075706847 1.327 4291349717
-0.29327223 0.075649798 1.3260001 4291020752
-0.29190114 0.075592749 1.325 4290757580
-0.29053181 0.0755357 1.3240001 4290625994
-0.28938279 0.0755357 1.3240001 4290494408
-0.28779835 0.075421602 1.322 4290428615
-0.2864342 0.075364545 1.3210001 4290560201
-0.2852878 0.075364545 1.3210001 4290691787
-0.28414136 0.075364545 1.3210001 4290625994
-0.28299493 0.075364545 1.3210001 4290625994
-0.28163514 0.075307496 1.3200001 4290691787
-0.28048959 0.075307496 1.3200001 4290757580
-0.27892077 0.07519339 1.3180001 4290757580
-0.27756616 0.075136341 1.317 4290691787
-0.27642322 0.075136341 1.317 4290691787
-0.27528027 0.075136341 1.317 4290692045
-0.27392915 0.075079292 1.3160001 4290889681
-0.27257979 0.075022236 1.3150001 4291152597
-0.27143857 0.075022236 1.3150001 4291349719
-0.26988626 0.07490813 1.3130001 4291415768
-0.26895145 0.074965186 1.314 4291415766
-0.26760727 0.07490813 1.3130001 4291152594
-0.26646781 0.07490813 1.3130001 4290757580
-0.26532832 0.07490813 1.3130001 4290494408
-0.26398763 0.074851081 1.312 4290428615
-0.262849 0.074851081 1.312 4290494408
-0.26171038 0.074851081 1.312 4290560201
-0.26057178 0.074851081 1.312 4290494408
-0.25943315 0.074851081 1.312 4290428615
-0.25809765 0.074794039 1.3110001 4290428358
-0.25676388 0.074736983 1.3100001 4290428358
-0.25543189 0.074679933 1.309 4290428357
-0.25429586 0.074679933 1.309 4290559942
-0.25296646 0.074622884 1.3080001 4290757321
-0.25163877 0.074565828 1.307 4290954700
-0.25031281 0.074508779 1.3060001 4291021006
-0.24917941 0.074508779 1.3060001 4291021006
-0.24785607 0.07445173 1.3050001 4291020752
-0.24653447 0.074394673 1.304 4291218131
-0.2454028 0.074394673 1.304 4291283924
-0.24408379 0.074337624 1.3030001 4291283924
-0.24276654 0.074280575 1.302 4291415510
-0.2416366 0.074280575 1.302 4291481303
-0.24050666 0.074280575 1.302 4291415510
-0.23919287 0.074223518 1.3010001 4291349717
-0.2378808 0.074166469 1.3000001 4291349717
-0.23675258 0.074166469 1.3000001 4291218131
-0.23544315 0.07410942 1.299 4290889166
-0.2343158 0.07410942 1.299 4290362822
-0.23282945 0.073995322 1.2970001 4290099650
-0.23170385 0.073995322 1.2970001 4290165443
-0.23057824 0.073995322 1.2970001 4290165443
-0.22909884 0.073881216 1.2950001 4290362822
-0.22797497 0.073881216 1.2950001 4290560201
-0.22685109 0.073881216 1.2950001 4290560201
-0.22555293 0.073824167 1.294 4290625994
-0.22442994 0.073824167 1.294 4290757580
-0.22330694 0.073824167 1.294 4290889166
-0.22218394 0.073824167 1.294 4290691787
-0.22089009 0.073767118 1.2930001 4290494408
-0.21976797 0.073767118 1.2930001 4290691787
-0.21780035 0.073481858 1.2880001 4291086545
-0.21668255 0.073481858 1.2880001 4291218131
-0.21556477 0.073481858 1.2880001 4291349717
-0.21411398 0.073367752 1.286 4291283924
-0.2128323 0.073310703 1.2850001 4291283924
-0.21171711 0.073310703 1.2850001 4291283924
-0.21043803 0.073253654 1.284 4291283924
-0.20932372 0.073253654 1.284 4291349717
-0.2082094 0.073253654 1.284 4291481303
-0.20677251 0.073139556 1.2820001 4291612889
-0.20565993 0.073139556 1.2820001 4291810268
-0.20438778 0.073082499 1.281 4291876317
-0.20311739 0.07302545 1.2800001 4292271073
-0.20200653 0.07302545 1.2800001 4292731624
-0.20073874 0.072968401 1.279 4293060589
-0.19947268 0.072911344 1.2780001 4293257968
-0.19851878 0.072968401 1.279 4293389554
-0.19725445 0.072911344 1.2780001 4293389554
-0.19599187 0.072854295 1.2770001 4293323761
-0.19473103 0.072797246 1.276 4293455346
-0.19332016 0.072683141 1.274 4293455346
-0.19221452 0.072683141 1.274 4293455345
-0.19095887 0.072626092 1.273 4293455345
-0.18970495 0.072569035 1.2720001 4293455345
-0.18860105 0.072569035 1.2720001 4293521138
-0.18749714 0.072569035 1.2720001 4293521138
-0.18624671 0.072511993 1.271 4293521138
-0.18514368 0.072511993 1.271 4293521138
-0.18389584 0.072454944 1.2700001 4293521138
-0.18279368 0.072454944 1.2700001 4293455345
-0.1816915 0.072454944 1.2700001 4293521138
-0.18058933 0.072454944 1.2700001 4293521138
-0.17934583 0.072397888 1.2690001 4293521138
-0.17824453 0.072397888 1.2690001 4293521139
-0.17714323 0.072397888 1.2690001 4293521139
-0.17590322 0.072340839 1.268 4293521140
-0.17480278 0.072340839 1.268 4293521140
-0.17356536 0.072283782 1.2670001 4293521140
-0.17232966 0.072226733 1.266 4293455347
-0.17123097 0.072226733 1.266 4293389554
-0.16999789 0.072169684 1.2650001 4293455347
-0.16890006 0.072169684 1.2650001 4293455347
-0.16766956 0.072112627 1.2640001 4293389554
-0.16657262 0.072112627 1.2640001 4293323761
-0.16547565 0.072112627 1.2640001 4293323761
-0.16437869 0.072112627 1.2640001 4293323761
-0.16328172 0.072112627 1.2640001 4293389554
-0.16218476 0.072112627 1.2640001 4293455347
-0.1610878 0.072112627 1.2640001 4293455347
-0.16011743 0.072169684 1.2650001 4293323760
-0.15901959 0.072169684 1.2650001 4293389552
-0.1580466 0.072226733 1.266 4293455345
-0.15694791 0.072226733 1.266 4293455345
-0.1558492 0.072226733 1.266 4293455345
-0.15475051 0.072226733 1.266 4293455345
-0.15353045 0.072169684 1.2650001 4293521138
-0.15243262 0.072169684 1.2650001 4293521138
-0.15133479 0.072169684 1.2650001 4293455345
-0.15023696 0.072169684 1.2650001 4293455345
-0.14902122 0.072112627 1.2640001 4293455345
-0.14792426 0.072112627 1.2640001 4293455345
-0.14671116 0.072055578 1.263 4293455345
-0.14561506 0.072055578 1.263 4293455345
-0.14440455 0.071998529 1.2620001 4293455345
-0.14330931 0.071998529 1.2620001 4293455345
-0.14221409 0.071998529 1.2620001 4293521138
-0.14111887 0.071998529 1.2620001 4293521138
-0.14002363 0.071998529 1.2620001 4293455345
-0.13914858 0.072112627 1.2640001 4293455345
-0.13805161 0.072112627 1.2640001 4293521138
-0.13695465 0.072112627 1.2640001 4293521138
-0.13607267 0.072226733 1.266 4293521138
-0.13508059 0.072283782 1.2670001 4293521138
-0.13408676 0.072340839 1.268 4293521138
-0.13330097 0.072511993 1.271 4293586931
-0.13240595 0.072626092 1.273 4293850103
-0.13150746 0.07274019 1.2750001 4294179068
-0.11013711 0.076334417 1.3380001 4282929495
-0.10897593 0.076334417 1.3380001 4283060824
-0.10781474 0.076334417 1.3380001 4283389790
-0.30473626 0.077661276 1.3410001 4292929519
-0.30266699 0.077429622 1.337 4292863726
-0.30037913 0.077140056 1.332 4291876831
-0.2989985 0.07708215 1.3310001 4290232006
-0.29761961 0.077024229 1.33 4290560971
-0.29579666 0.076850489 1.327 4291218901
-0.29464501 0.076850489 1.327 4291349974
-0.29327223 0.076792583 1.3260001 4291152852
-0.29168084 0.076676756 1.3240001 4291086545
-0.29053181 0.076676756 1.3240001 4290889166
-0.28916419 0.076618843 1.3230001 4290757580
-0.28779835 0.076560929 1.322 4290625994
-0.2864342 0.076503016 1.3210001 4290691787
-0.2852878 0.076503016 1.3210001 4290691787
-0.28414136 0.076503016 1.3210001 4290625994
-0.28299493 0.076503016 1.3210001 4290625994
-0.28163514 0.076445103 1.3200001 4290757580
-0.2802771 0.076387197 1.319 4290889166
-0.27892077 0.076329276 1.3180001 4290954959
-0.27756616 0.076271363 1.317 4290954959
-0.27642322 0.076271363 1.317 4290954959
-0.27528027 0.076271363 1.317 4290889423
-0.27392915 0.076213457 1.3160001 4290824145
-0.27257979 0.076155536 1.3150001 4291021524
-0.27143857 0.076155536 1.3150001 4291284439
-0.2700918 0.07609763 1.314 4291415768
-0.26895145 0.07609763 1.314 4291481303
-0.26781109 0.07609763 1.314 4291218131
-0.26646781 0.076039709 1.3130001 4290757580
-0.26532832 0.076039709 1.3130001 4290494408
-0.26418883 0.076039709 1.3130001 4290428615
-0.26304933 0.076039709 1.3130001 4290494408
-0.26190984 0.076039709 1.3130001 4290560201
-0.26057178 0.075981796 1.312 4290560201
-0.25943315 0.075981796 1.312 4290494408
-0.25809765 0.07592389 1.3110001 4290428615
-0.25676388 0.075865969 1.3100001 4290428615
-0.25543189 0.075808063 1.309 4290559944
-0.25429586 0.075808063 1.309 4290691529
-0.25277305 0.075692229 1.307 4290625737
-0.25163877 0.075692229 1.307 4290560201
-0.25031281 0.075634323 1.3060001 4290757580
-0.24898861 0.07557641 1.3050001 4290757579
-0.24785607 0.07557641 1.3050001 4290691787
-0.24653447 0.075518496 1.304 4290823373
-0.2454028 0.075518496 1.304 4290954959
-0.24408379 0.075460583 1.3030001 4291086545
-0.24276654 0.07540267 1.302 4291283924
-0.2416366 0.07540267 1.302 4291349717
-0.24032195 0.075344756 1.3010001 4291283924
-0.23900899 0.075286843 1.3000001 4291218131
-0.2378808 0.075286843 1.3000001 4291218131
-0.23675258 0.075286843 1.3000001 4291283924
-0.23544315 0.075228937 1.299 4290889166
-0.2343158 0.075228937 1.299 4290362822
-0.23300895 0.075171016 1.2980001 4290165443
-0.23170385 0.075113103 1.2970001 4290165443
-0.23057824 0.075113103 1.2970001 4290165443
-0.22927575 0.075055197 1.296 4290231236
-0.22797497 0.074997276 1.2950001 4290428615
-0.22685109 0.074997276 1.2950001 4290625994
-0.22572723 0.074997276 1.2950001 4290625994
-0.22460337 0.074997276 1.2950001 4290691787
-0.22347949 0.074997276 1.2950001 4290691787
-0.22218394 0.07493937 1.294 4290494408
-0.22089009 0.074881457 1.2930001 4290428615
-0.21976797 0.074881457 1.2930001 4290691787
-0.21847674 0.074823536 1.2920001 4291020752
-0.21701901 0.074707709 1.2900001 4291086545
-0.21589948 0.074707709 1.2900001 4291086545
-0.21444698 0.07459189 1.2880001 4291152338
-0.2133292 0.07459189 1.2880001 4291283924
-0.21204664 0.074533977 1.2870001 4291283924
-0.21076582 0.074476063 1.286 4291283924
-0.20964977 0.074476063 1.286 4291283924
-0.20853372 0.074476063 1.286 4291283924
-0.20725638 0.07441815 1.2850001 4291086545
-0.20598076 0.074360237 1.284 4290757580
-0.20486644 0.074360237 1.284 4290560201
-0.20343477 0.07424441 1.2820001 4290954959
-0.20232219 0.07424441 1.2820001 4291678681
-0.2008957 0.074128583 1.2800001 4292073694
-0.19978485 0.074128583 1.2800001 4292336866
-0.19851878 0.074070677 1.279 4292468452
-0.19710012 0.073954843 1.2770001 4292600038
-0.19599187 0.073954843 1.2770001 4292797417
-0.19473103 0.073896937 1.276 4292994796
-0.19347189 0.073839016 1.2750001 4293192175
-0.19221452 0.07378111 1.274 4293257967
-0.19110888 0.07378111 1.274 4293323760
-0.1898541 0.073723197 1.273 4293389553
-0.18860105 0.073665284 1.2720001 4293455346
-0.18749714 0.073665284 1.2720001 4293521138
-0.18624671 0.07360737 1.271 4293521138
-0.18514368 0.07360737 1.271 4293521138
-0.18389584 0.073549457 1.2700001 4293521138
-0.18279368 0.073549457 1.2700001 4293455345
-0.1816915 0.073549457 1.2700001 4293521138
-0.18044713 0.073491544 1.2690001 4293521138
-0.17934583 0.073491544 1.2690001 4293521138
-0.17824453 0.073491544 1.2690001 4293521138
-0.17700364 0.07343363 1.268 4293521138
-0.17576449 0.073375717 1.2670001 4293586932
-0.17466493 0.073375717 1.2670001 4293521140
-0.17342836 0.073317803 1.266 4293521140
-0.17232966 0.073317803 1.266 4293521140
-0.17109571 0.07325989 1.2650001 4293455347
-0.16986349 0.073201977 1.2640001 4293455347
-0.16876653 0.073201977 1.2640001 4293455347
-0.16753693 0.073144063 1.263 4293389554
-0.16644083 0.073144063 1.263 4293389554
-0.16534474 0.073144063 1.263 4293389554
-0.16424865 0.073144063 1.263 4293389554
-0.16315255 0.073144063 1.263 4293455347
-0.16205646 0.073144063 1.263 4293521140
-0.1610878 0.073201977 1.2640001 4293521140
-0.15999085 0.073201977 1.2640001 4293389553
-0.15889388 0.073201977 1.2640001 4293389552
-0.15792176 0.07325989 1.2650001 4293455345
-0.15682393 0.07325989 1.2650001 4293455345
-0.15560299 0.073201977 1.2640001 4293455345
-0.15450603 0.073201977 1.2640001 4293455345
-0.15340908 0.073201977 1.2640001 4293521138
-0.15231211 0.073201977 1.2640001 4293521138
-0.15121515 0.073201977 1.2640001 4293521138
-0.14999942 0.073144063 1.263 4293521138
-0.14890334 0.073144063 1.263 4293521138
-0.14769022 0.073086157 1.2620001 4293455345
-0.14659499 0.073086157 1.2620001 4293455345
-0.14549977 0.073086157 1.2620001 4293521138
-0.1442901 0.073028237 1.261 4293521138
-0.14319575 0.073028237 1.261 4293521138
-0.14210139 0.073028237 1.261 4293521138
-0.14100704 0.073028237 1.261 4293521138
-0.14002363 0.073086157 1.2620001 4293521138
-0.13903849 0.073144063 1.263 4293521138
-0.1379424 0.073144063 1.263 4293521138
-0.1368463 0.073144063 1.263 4293521138
-0.13607267 0.073317803 1.266 4293521138
-0.13508059 0.073375717 1.2670001 4293521138
-0.13398102 0.073375717 1.2670001 4293521138
-0.13340583 0.073665284 1.2720001 4293915896
-0.13250996 0.07378111 1.274 4294310654
-0.13161062 0.073896937 1.276 4294179068
-0.30496353 0.078875758 1.342 4292929519
-0.3033461 0.07875821 1.34 4293061105
-0.30037913 0.078288011 1.332 4292403175
-0.2989985 0.078229234 1.3310001 4290297799
-0.29761961 0.078170456 1.33 4290626764
-0.29579666 0.077994131 1.327 4291218901
-0.29464501 0.077994131 1.327 4291350487
-0.29327223 0.07793536 1.3260001 4291284694
-0.29168084 0.077817813 1.3240001 4291284437
-0.29053181 0.077817813 1.3240001 4291218644
-0.28916419 0.077759035 1.3230001 4291152338
-0.28758064 0.077641487 1.3210001 4291086545
-0.2864342 0.077641487 1.3210001 4291020752
-0.2852878 0.077641487 1.3210001 4290954959
-0.28392628 0.077582717 1.3200001 4290757580
-0.28278071 0.077582717 1.3200001 4290691787
-0.28163514 0.077582717 1.3200001 4290757580
-0.2802771 0.077523939 1.319 4290889166
-0.27892077 0.077465162 1.3180001 4290954959
-0.27756616 0.077406392 1.317 4291086545
-0.27642322 0.077406392 1.317 4291152338
-0.27528027 0.077406392 1.317 4291152596
-0.27392915 0.077347614 1.3160001 4291087317
-0.27278706 0.077347614 1.3160001 4291153110
-0.27143857 0.077288836 1.3150001 4291284695
-0.2700918 0.077230066 1.314 4291415767
-0.26895145 0.077230066 1.314 4291415510
-0.26781109 0.077230066 1.314 4291152338
-0.26667073 0.077230066 1.314 4290823373
-0.26532832 0.077171288 1.3130001 4290560201
-0.26418883 0.077171288 1.3130001 4290494408
-0.26304933 0.077171288 1.3130001 4290494408
-0.26190984 0.077171288 1.3130001 4290560201
-0.26057178 0.077112511 1.312 4290560201
-0.25943315 0.077112511 1.312 4290494408
-0.25809765 0.077053741 1.3110001 4290494408
-0.25676388 0.076994963 1.3100001 4290494408
-0.25543189 0.076936193 1.309 4290625994
-0.25429586 0.076936193 1.309 4290560201
-0.25277305 0.076818638 1.307 4290494408
-0.25144622 0.076759867 1.3060001 4290428615
-0.25012115 0.07670109 1.3050001 4290428615
-0.24898861 0.07670109 1.3050001 4290494408
-0.24785607 0.07670109 1.3050001 4290494408
-0.24653447 0.076642312 1.304 4290494408
-0.24521461 0.076583542 1.3030001 4290625994
-0.24408379 0.076583542 1.3030001 4290757580
-0.24276654 0.076524772 1.302 4290954959
-0.24145101 0.076465987 1.3010001 4291086545
-0.24032195 0.076465987 1.3010001 4290954959
-0.23900899 0.076407216 1.3000001 4290954959
-0.2378808 0.076407216 1.3000001 4291086545
-0.23675258 0.076407216 1.3000001 4291218131
-0.23544315 0.076348446 1.299 4290823373
-0.23413543 0.076289669 1.2980001 4290362822
-0.23300895 0.076289669 1.2980001 4290033857
-0.23170385 0.076230891 1.2970001 4290099650
-0.23057824 0.076230891 1.2970001 4290297029
-0.22927575 0.076172121 1.296 4290297029
-0.22815101 0.076172121 1.296 4290428615
-0.22685109 0.076113343 1.2950001 4290625994
-0.22572723 0.076113343 1.2950001 4290625994
-0.22460337 0.076113343 1.2950001 4290494408
-0.22347949 0.076113343 1.2950001 4290428615
-0.22218394 0.076054573 1.294 4290428615
-0.22106095 0.076054573 1.294 4290625994
-0.21976797 0.075995795 1.2930001 4290889166
-0.21847674 0.075937018 1.2920001 4290954959
-0.21718726 0.075878248 1.291 4290757580
-0.21589948 0.075819463 1.2900001 4290757580
-0.21461347 0.075760692 1.289 4290889166
-0.2133292 0.075701922 1.2880001 4291152338
-0.2122114 0.075701922 1.2880001 4291283924
-0.21092971 0.075643145 1.2870001 4291349717
-0.20981279 0.075643145 1.2870001 4291349717
-0.20869586 0.075643145 1.2870001 4291283924
-0.20725638 0.075525597 1.2850001 4291020752
-0.20614119 0.075525597 1.2850001 4290428615
-0.20486644 0.075466819 1.284 4289902271
-0.20359345 0.075408049 1.2830001 4290165443
-0.20232219 0.075349271 1.2820001 4290823372
-0.2008957 0.075231723 1.2800001 4291152592
-0.19962877 0.075172946 1.279 4291349971
-0.19851878 0.075172946 1.279 4291481557
-0.19725445 0.075114168 1.2780001 4291481557
-0.19599187 0.075055398 1.2770001 4291744729
-0.19488363 0.075055398 1.2770001 4292139487
-0.19362365 0.074996628 1.276 4292468452
-0.19236538 0.074937843 1.2750001 4292665831
-0.19125888 0.074937843 1.2750001 4292863210
-0.19000323 0.074879073 1.274 4293126382
-0.18874933 0.074820302 1.273 4293257968
-0.18764456 0.074820302 1.273 4293389553
-0.18639325 0.074761525 1.2720001 4293455346
-0.18514368 0.074702747 1.271 4293521138
-0.18389584 0.074643977 1.2700001 4293521139
-0.18279368 0.074643977 1.2700001 4293521139
-0.18183456 0.074702747 1.271 4293586675
-0.18044713 0.074585199 1.2690001 4293586676
-0.17934583 0.074585199 1.2690001 4293521140
-0.17810407 0.074526422 1.268 4293586676
-0.17686406 0.074467644 1.2670001 4293586932
-0.17562576 0.074408874 1.266 4293586933
-0.17452706 0.074408874 1.266 4293521140
-0.17315438 0.074291319 1.2640001 4293521140
-0.17205742 0.074291319 1.2640001 4293586933
-0.17082521 0.074232548 1.263 4293521140
-0.16959473 0.074173778 1.2620001 4293455091
-0.16836599 0.074115001 1.261 4293455091
-0.16727161 0.074115001 1.261 4293389554
-0.16617726 0.074115001 1.261 4293389554
-0.164952 0.074056223 1.2600001 4293455347
-0.1638585 0.074056223 1.2600001 4293455347
-0.16276501 0.074056223 1.2600001 4293455347
-0.16167152 0.074056223 1.2600001 4293521140
-0.16096036 0.074232548 1.263 4293521140
-0.15986428 0.074232548 1.263 4293455346
-0.15876818 0.074232548 1.263 4293455345
-0.15767208 0.074232548 1.263 4293455345
-0.15657599 0.074232548 1.263 4293521138
