# .PCD v0.7 - Point Cloud Data file format
VERSION 0.7
FIELDS x y z rgba
SIZE 4 4 4 4
TYPE F F F U
COUNT 1 1 1 1
WIDTH 1103
HEIGHT 1
VIEWPOINT 0 0 0 1 0 0 0
POINTS 1103
DATA ascii
-0.10594589 0.051152851 1.3740001 4287663484
-0.10475347 0.051152851 1.3740001 4287663484
-0.10356104 0.051152851 1.3740001 4287729277
-0.10229412 0.051115625 1.373 4287860863
-0.10110255 0.051115625 1.373 4287926656
-0.099910997 0.051115625 1.373 4287926656
-0.09871944 0.051115625 1.373 4287926656
-0.097527884 0.051115625 1.373 4287729279
-0.096336327 0.051115625 1.373 4287795072
-0.095144771 0.051115625 1.373 4287729277
-0.094021648 0.051152851 1.3740001 4287663484
-0.09282922 0.051152851 1.3740001 4287729277
-0.091703489 0.051190082 1.3750001 4287795070
-0.090641849 0.051264539 1.3770001 4287663484
-0.089511774 0.05130177 1.378 4287531898
-0.088379972 0.051339 1.3790001 4287597691
-0.087309644 0.051413458 1.381 4287663484
-0.086173505 0.051450688 1.3820001 4287795070
-0.085035622 0.051487919 1.383 4288058242
-0.083956622 0.051562376 1.3850001 4288124037
-0.082814403 0.051599603 1.386 4287926658
-0.081611566 0.051599603 1.386 4287531900
-0.080582775 0.051711291 1.3890001 4287334521
-0.079434477 0.051748518 1.3900001 4287202935
-0.078284442 0.051785748 1.391 4287597693
-0.077465147 0.052046355 1.3980001 4288058244
-0.076415524 0.052158039 1.401 4288387209
-0.075307019 0.0522325 1.4030001 4288518795
-0.074247852 0.052344188 1.406 4288387209
-0.26941076 0.054279644 1.4250001 4292007893
-0.26779771 0.054203458 1.4230001 4289112486
-0.26562613 0.054013006 1.4180001 4287467403
-0.26402259 0.053936824 1.416 4287664523
-0.26242253 0.053860642 1.414 4287730315
-0.26101068 0.053822547 1.4130001 4287730056
-0.2597844 0.053822547 1.4130001 4287795846
-0.25837517 0.05378446 1.4120001 4287795334
-0.25714976 0.05378446 1.4120001 4287861125
-0.25592434 0.05378446 1.4120001 4287860612
-0.25469896 0.05378446 1.4120001 4287926404
-0.25347355 0.05378446 1.4120001 4287860611
-0.25224814 0.05378446 1.4120001 4287729025
-0.25102273 0.05378446 1.4120001 4287729279
-0.24979734 0.05378446 1.4120001 4287663486
-0.24857193 0.05378446 1.4120001 4287466107
-0.2475217 0.053822547 1.4130001 4287400314
-0.24629544 0.053822547 1.4130001 4287202935
-0.24506916 0.053822547 1.4130001 4287400314
-0.24367033 0.05378446 1.4120001 4287531900
-0.24244492 0.05378446 1.4120001 4287597693
-0.24121952 0.05378446 1.4120001 4287663486
-0.23999411 0.05378446 1.4120001 4287729279
-0.23876871 0.05378446 1.4120001 4287795070
-0.23771153 0.053822547 1.4130001 4287795070
-0.23648526 0.053822547 1.4130001 4287663484
-0.235259 0.053822547 1.4130001 4287663484
-0.23403272 0.053822547 1.4130001 4287663484
-0.23280644 0.053822547 1.4130001 4287729277
-0.23141629 0.05378446 1.4120001 4287795070
-0.23019089 0.05378446 1.4120001 4287795070
-0.22880334 0.053746369 1.411 4287729277
-0.2275788 0.053746369 1.411 4287729277
-0.22619383 0.053708278 1.4100001 4287795070
-0.22497016 0.053708278 1.4100001 4287729277
-0.22358781 0.053670187 1.409 4287729277
-0.22220719 0.053632095 1.4080001 4287729277
-0.22082831 0.053594004 1.4070001 4287795070
-0.21945116 0.053555913 1.406 4287860863
-0.21823096 0.053555913 1.406 4287860863
-0.21701077 0.053555913 1.406 4287795070
-0.21579057 0.053555913 1.406 4287860863
-0.21457037 0.053555913 1.406 4287795070
-0.21319844 0.053517822 1.4050001 4287729277
-0.21212998 0.053555913 1.406 4287729277
-0.21090978 0.053555913 1.406 4287795070
-0.20968959 0.053555913 1.406 4287795070
-0.20846939 0.053555913 1.406 4287795070
-0.20724919 0.053555913 1.406 4287795070
-0.20602901 0.053555913 1.406 4287795070
-0.20466314 0.053517822 1.4050001 4287729278
-0.20344383 0.053517822 1.4050001 4287795072
-0.20222449 0.053517822 1.4050001 4287860865
-0.20100516 0.053517822 1.4050001 4287795072
-0.19964364 0.053479731 1.404 4287860865
-0.19828385 0.053441644 1.4030001 4287926658
-0.1969258 0.053403549 1.4020001 4287926658
-0.19570908 0.053403549 1.4020001 4287992450
-0.19435363 0.053365458 1.401 4287992450
-0.1929999 0.053327367 1.4000001 4287860864
-0.19164793 0.053289276 1.399 4287663485
-0.19029769 0.053251185 1.3980001 4287597691
-0.18908444 0.053251185 1.3980001 4287597179
-0.18787119 0.053251185 1.3980001 4287596922
-0.18665794 0.053251185 1.3980001 4287531128
-0.18544468 0.053251185 1.3980001 4287399542
-0.18409964 0.053213093 1.3970001 4287399542
-0.18275635 0.053175006 1.396 4287465335
-0.18154483 0.053175006 1.396 4287662714
-0.1803333 0.053175006 1.396 4287860093
-0.17899348 0.053136911 1.3950001 4287860093
-0.17778283 0.053136911 1.3950001 4287728507
-0.17657219 0.053136911 1.3950001 4287662715
-0.17536153 0.053136911 1.3950001 4287465338
-0.17415088 0.053136911 1.3950001 4287465338
-0.17294024 0.053136911 1.3950001 4287531131
-0.17185268 0.053175006 1.396 4287597437
-0.17064117 0.053175006 1.396 4287663486
-0.16942964 0.053175006 1.396 4287795072
-0.16821814 0.053175006 1.396 4287795072
-0.16700661 0.053175006 1.396 4287729279
-0.16567634 0.053136911 1.3950001 4287729279
-0.1644657 0.053136911 1.3950001 4287795072
-0.16325504 0.053136911 1.3950001 4287992451
-0.16192822 0.05309882 1.3940001 4288058244
-0.16060315 0.053060733 1.393 4287992451
-0.15939423 0.053060733 1.393 4287860865
-0.15807176 0.053022642 1.3920001 4287860865
-0.1568637 0.053022642 1.3920001 4287729279
-0.15554385 0.052984547 1.391 4287795072
-0.15433668 0.052984547 1.391 4287860865
-0.15312949 0.052984547 1.391 4287860865
-0.15192232 0.052984547 1.391 4287860865
-0.15060678 0.052946456 1.3900001 4287926658
-0.14940047 0.052946456 1.3900001 4287926145
-0.14819416 0.052946456 1.3900001 4287991681
-0.14698786 0.052946456 1.3900001 4287991679
-0.14578155 0.052946456 1.3900001 4287860093
-0.14457524 0.052946456 1.3900001 4287794300
-0.14336893 0.052946456 1.3900001 4287860093
-0.14206032 0.052908368 1.3890001 4287925886
-0.1408549 0.052908368 1.3890001 4287991679
-0.13954891 0.052870274 1.388 4287991679
-0.13834433 0.052870274 1.388 4287991679
-0.13704096 0.052832182 1.3870001 4287925629
-0.13573931 0.052794095 1.386 4287925629
-0.13453647 0.052794095 1.386 4287991679
-0.13314125 0.052717909 1.3840001 4288057472
-0.1318448 0.052679822 1.383 4288123265
-0.13064456 0.052679822 1.383 4288189058
-0.12935074 0.052641731 1.3820001 4288255366
-0.12805864 0.05260364 1.381 4288321416
-0.12686014 0.05260364 1.381 4288255623
-0.12557064 0.052565549 1.3800001 4287926658
-0.12437301 0.052565549 1.3800001 4287663485
-0.12317538 0.052565549 1.3800001 4287663484
-0.12188936 0.052527457 1.3790001 4287597691
-0.1206926 0.052527457 1.3790001 4287597691
-0.11949583 0.052527457 1.3790001 4287729277
-0.11821329 0.052489366 1.378 4287860863
-0.11701739 0.052489366 1.378 4287729277
-0.1158215 0.052489366 1.378 4287663484
-0.11454241 0.052451272 1.3770001 4287663484
-0.11326507 0.052413184 1.376 4287729277
-0.11207091 0.052413184 1.376 4287795070
-0.11087675 0.052413184 1.376 4287860863
-0.10968259 0.052413184 1.376 4287926656
-0.10840958 0.052375093 1.3750001 4287860863
-0.10721629 0.052375093 1.3750001 4287729277
-0.106023 0.052375093 1.3750001 4287466105
-0.10475347 0.052337002 1.3740001 4287531898
-0.10356104 0.052337002 1.3740001 4287729277
-0.10236862 0.052337002 1.3740001 4287860863
-0.10110255 0.052298911 1.373 4287860863
-0.099910997 0.052298911 1.373 4287860863
-0.09871944 0.052298911 1.373 4287992449
-0.097527884 0.052298911 1.373 4287860865
-0.096336327 0.052298911 1.373 4287795072
-0.095144771 0.052298911 1.373 4287860864
-0.094021648 0.052337002 1.3740001 4287795072
-0.092896782 0.052375093 1.3750001 4287597691
-0.091703489 0.052375093 1.3750001 4287597691
-0.090707667 0.052489366 1.378 4287663484
-0.089511774 0.052489366 1.378 4287729277
-0.088379972 0.052527457 1.3790001 4287795070
-0.087309644 0.05260364 1.381 4287860863
-0.086173505 0.052641731 1.3820001 4287992449
-0.084974132 0.052641731 1.3820001 4288124035
-0.083956622 0.052756004 1.3850001 4288124037
-0.082754649 0.052756004 1.3850001 4287926658
-0.081611566 0.052794095 1.386 4287531900
-0.080524758 0.052870274 1.388 4287268728
-0.079434477 0.052946456 1.3900001 4287137142
-0.078284442 0.052984547 1.391 4287466107
-0.077409729 0.053213093 1.3970001 4287926658
-0.076360978 0.053327367 1.4000001 4288321415
-0.075253345 0.053403549 1.4020001 4288584843
-0.074195042 0.053517822 1.4050001 4288585099
-0.26704493 0.055274028 1.419 4289178278
-0.26581344 0.055274028 1.419 4287335817
-0.26420906 0.055196118 1.4170001 4287598730
-0.26260811 0.055118214 1.4150001 4287796107
-0.26138011 0.055118214 1.4150001 4287861642
-0.25996825 0.055079263 1.414 4287730053
-0.25855815 0.055040307 1.4130001 4287861127
-0.25733188 0.055040307 1.4130001 4287729539
-0.2561056 0.055040307 1.4130001 4287795076
-0.25487933 0.055040307 1.4130001 4287926404
-0.25365305 0.055040307 1.4130001 4287860611
-0.25242677 0.055040307 1.4130001 4287663232
-0.25120053 0.055040307 1.4130001 4287531900
-0.24997425 0.055040307 1.4130001 4287400314
-0.24874797 0.055040307 1.4130001 4287400314
-0.2475217 0.055040307 1.4130001 4287466107
-0.24629544 0.055040307 1.4130001 4287400314
-0.24506916 0.055040307 1.4130001 4287466107
-0.24367033 0.055001356 1.4120001 4287597693
-0.24244492 0.055001356 1.4120001 4287860865
-0.24139035 0.055040307 1.4130001 4287795072
-0.24016407 0.055040307 1.4130001 4287663486
-0.23893781 0.055040307 1.4130001 4287663486
-0.23787977 0.055079263 1.414 4287795071
-0.23665263 0.055079263 1.414 4287663484
-0.23542549 0.055079263 1.414 4287663484
-0.23403272 0.055040307 1.4130001 4287663484
-0.23280644 0.055040307 1.4130001 4287663484
-0.23174407 0.055079263 1.414 4287729277
-0.23035391 0.055040307 1.4130001 4287729277
-0.22912765 0.055040307 1.4130001 4287729277
-0.22774008 0.055001356 1.4120001 4287795070
-0.22635426 0.054962404 1.411 4287795070
-0.22512971 0.054962404 1.411 4287795070
-0.22374649 0.054923449 1.4100001 4287795070
-0.22236501 0.054884497 1.409 4287729277
-0.22082831 0.05480659 1.4070001 4287729277
-0.21945116 0.054767642 1.406 4287729277
-0.21823096 0.054767642 1.406 4287729277
-0.21701077 0.054767642 1.406 4287795070
-0.21579057 0.054767642 1.406 4287795070
-0.21457037 0.054767642 1.406 4287795070
-0.21335018 0.054767642 1.406 4287729277
-0.21212998 0.054767642 1.406 4287729277
-0.21090978 0.054767642 1.406 4287795070
-0.20968959 0.054767642 1.406 4287795070
-0.20861767 0.05480659 1.4070001 4287795070
-0.20739661 0.05480659 1.4070001 4287795070
-0.20617555 0.05480659 1.4070001 4287729277
-0.20480882 0.054767642 1.406 4287729278
-0.20358862 0.054767642 1.406 4287795072
-0.20236842 0.054767642 1.406 4287860865
-0.20100516 0.054728687 1.4050001 4287860865
-0.19978583 0.054728687 1.4050001 4287860865
-0.19842519 0.054689731 1.404 4287926659
-0.19720672 0.054689731 1.404 4287992451
-0.19584866 0.054650784 1.4030001 4287992451
-0.19449235 0.054611828 1.4020001 4287992451
-0.19313776 0.054572877 1.401 4287860865
-0.19178492 0.054533921 1.4000001 4287663486
-0.19043382 0.05449497 1.399 4287597693
-0.18921968 0.05449497 1.399 4287663229
-0.18800557 0.05449497 1.399 4287662973
-0.18665794 0.054456018 1.3980001 4287531386
-0.18544468 0.054456018 1.3980001 4287399800
-0.18423143 0.054456018 1.3980001 4287531385
-0.18288726 0.054417063 1.3970001 4287728508
-0.18167487 0.054417063 1.3970001 4287860094
-0.18046248 0.054417063 1.3970001 4287991679
-0.17912179 0.054378111 1.396 4287860094
-0.17791027 0.054378111 1.396 4287728508
-0.17669876 0.054378111 1.396 4287662716
-0.17548724 0.054378111 1.396 4287465596
-0.17427573 0.054378111 1.396 4287334010
-0.1730642 0.054378111 1.396 4287399803
-0.17197579 0.054417063 1.3970001 4287465852
-0.1707634 0.054417063 1.3970001 4287597694
-0.16955101 0.054417063 1.3970001 4287729023
-0.16833863 0.054417063 1.3970001 4287729279
-0.16712624 0.054417063 1.3970001 4287729279
-0.1657951 0.054378111 1.396 4287663486
-0.16458358 0.054378111 1.396 4287795072
-0.16337207 0.054378111 1.396 4287992451
-0.16204439 0.054339159 1.3950001 4288058244
-0.16083375 0.054339159 1.3950001 4287992451
-0.15962309 0.054339159 1.3950001 4287926658
-0.15829888 0.054300204 1.3940001 4287860865
-0.1569764 0.054261256 1.393 4287795073
-0.1557675 0.054261256 1.393 4287860610
-0.15444762 0.054222301 1.3920001 4287860866
-0.15312949 0.054183345 1.391 4287860865
-0.15192232 0.054183345 1.391 4287926658
-0.15071513 0.054183345 1.391 4287926658
-0.14950795 0.054183345 1.391 4287926145
-0.14819416 0.054144394 1.3900001 4287991681
-0.14698786 0.054144394 1.3900001 4287925887
-0.14578155 0.054144394 1.3900001 4287794300
-0.14457524 0.054144394 1.3900001 4287728507
-0.14336893 0.054144394 1.3900001 4287728507
-0.14206032 0.054105442 1.3890001 4287729020
-0.1408549 0.054105442 1.3890001 4287794814
-0.13954891 0.05406649 1.388 4287860607
-0.13834433 0.05406649 1.388 4287926400
-0.13713977 0.05406649 1.388 4287860606
-0.13583726 0.054027535 1.3870001 4287860606
-0.13463356 0.054027535 1.3870001 4287926399
-0.13323744 0.053949632 1.3850001 4287926400
-0.13203546 0.053949632 1.3850001 4287992192
-0.13073903 0.053910676 1.3840001 4288057986
-0.12944433 0.053871725 1.383 4288255621
-0.12824409 0.053871725 1.383 4288387207
-0.12695201 0.053832773 1.3820001 4288255623
-0.12575263 0.053832773 1.3820001 4288058244
-0.12455326 0.053832773 1.3820001 4287795071
-0.1233539 0.053832773 1.3820001 4287729277
-0.12215453 0.053832773 1.3820001 4287729277
-0.12095516 0.053832773 1.3820001 4287729277
-0.1197558 0.053832773 1.3820001 4287729277
-0.11847065 0.053793818 1.381 4287795070
-0.11701739 0.053676959 1.378 4287663484
-0.1158215 0.053676959 1.378 4287729277
-0.11454241 0.053638007 1.3770001 4287729277
-0.11334739 0.053638007 1.3770001 4287729277
-0.11207091 0.053599056 1.376 4287926656
-0.11079617 0.053560104 1.3750001 4287926656
-0.10960288 0.053560104 1.3750001 4287795070
-0.10840958 0.053560104 1.3750001 4287597691
-0.10721629 0.053560104 1.3750001 4287400312
-0.106023 0.053560104 1.3750001 4287334519
-0.10475347 0.053521149 1.3740001 4287531898
-0.10356104 0.053521149 1.3740001 4287795070
-0.10236862 0.053521149 1.3740001 4287926656
-0.10110255 0.053482197 1.373 4287860863
-0.099910997 0.053482197 1.373 4287860863
-0.09871944 0.053482197 1.373 4287992449
-0.097527884 0.053482197 1.373 4287860865
-0.096336327 0.053482197 1.373 4287795072
-0.095144771 0.053482197 1.373 4287795072
-0.094021648 0.053521149 1.3740001 4287795072
-0.092896782 0.053560104 1.3750001 4287663485
-0.09177018 0.053599056 1.376 4287466107
-0.090707667 0.053676959 1.378 4287531898
-0.089511774 0.053676959 1.378 4287597691
-0.088315874 0.053676959 1.378 4287860863
-0.087246433 0.05375487 1.3800001 4287992449
-0.086048797 0.05375487 1.3800001 4288124035
-0.08491265 0.053793818 1.381 4288189828
-0.083774768 0.053832773 1.3820001 4288255621
-0.082635157 0.053871725 1.383 4288058242
-0.081552684 0.053949632 1.3850001 4287466106
-0.08040873 0.053988583 1.386 4287334519
-0.079263039 0.054027535 1.3870001 4287071349
-0.078228168 0.054144394 1.3900001 4287400314
-0.077243499 0.054300204 1.3940001 4287860865
-0.07614281 0.054378111 1.396 4288321416
-0.075092316 0.05449497 1.399 4288716172
-0.074036621 0.054611828 1.4020001 4288782221
-0.2672331 0.056536771 1.4200001 4289375658
-0.26581344 0.056496955 1.419 4287401610
-0.26402259 0.056377515 1.416 4287532938
-0.26260811 0.056337699 1.4150001 4287664522
-0.26138011 0.056337699 1.4150001 4287795850
-0.2601521 0.056337699 1.4150001 4287795848
-0.25874111 0.056297883 1.414 4287861126
-0.25751397 0.056297883 1.414 4287861125
-0.25628683 0.056297883 1.414 4287795331
-0.25487933 0.056258067 1.4130001 4287795331
-0.25365305 0.056258067 1.4130001 4287794818
-0.25242677 0.056258067 1.4130001 4287597439
-0.2513783 0.056297883 1.414 4287400315
-0.25015116 0.056297883 1.414 4287531900
-0.24892402 0.056297883 1.414 4287597693
-0.24769688 0.056297883 1.414 4287531900
-0.24646974 0.056297883 1.414 4287531898
-0.24506916 0.056258067 1.4130001 4287597691
-0.24384288 0.056258067 1.4130001 4287729277
-0.24261662 0.056258067 1.4130001 4287860863
-0.24139035 0.056258067 1.4130001 4287795070
-0.24033403 0.056297883 1.414 4287597691
-0.23910689 0.056297883 1.414 4287597691
-0.23787977 0.056297883 1.414 4287663484
-0.23648526 0.056258067 1.4130001 4287729277
-0.235259 0.056258067 1.4130001 4287729277
-0.23419835 0.056297883 1.414 4287729277
-0.23297121 0.056297883 1.414 4287663484
-0.23174407 0.056297883 1.414 4287597691
-0.23051693 0.056297883 1.414 4287663484
-0.22912765 0.056258067 1.4130001 4287729277
-0.22790137 0.056258067 1.4130001 4287860863
-0.22651467 0.056218255 1.4120001 4287795070
-0.22512971 0.056178439 1.411 4287860863
-0.22390518 0.056178439 1.411 4287795070
-0.22236501 0.056098811 1.409 4287795070
-0.22098526 0.056058995 1.4080001 4287663484
-0.21960725 0.05601918 1.4070001 4287597691
-0.21838619 0.05601918 1.4070001 4287597691
-0.21716513 0.05601918 1.4070001 4287729277
-0.21579057 0.055979367 1.406 4287729277
-0.21457037 0.055979367 1.406 4287729277
-0.21335018 0.055979367 1.406 4287729277
-0.21228087 0.05601918 1.4070001 4287729277
-0.21105981 0.05601918 1.4070001 4287795070
-0.20983875 0.05601918 1.4070001 4287795070
-0.20861767 0.05601918 1.4070001 4287729277
-0.20739661 0.05601918 1.4070001 4287729277
-0.20617555 0.05601918 1.4070001 4287729277
-0.20495449 0.05601918 1.4070001 4287663484
-0.20358862 0.055979367 1.406 4287729279
-0.20236842 0.055979367 1.406 4287860865
-0.20114823 0.055979367 1.406 4287926658
-0.19978583 0.055939551 1.4050001 4287860866
-0.19842519 0.055899736 1.404 4287992196
-0.19720672 0.055899736 1.404 4288057988
-0.19584866 0.055859923 1.4030001 4287926658
-0.19435363 0.055780292 1.401 4287860865
-0.19313776 0.055780292 1.401 4287795072
-0.19192192 0.055780292 1.401 4287729279
-0.19056992 0.055740476 1.4000001 4287663486
-0.18921968 0.055700663 1.399 4287663486
-0.18800557 0.055700663 1.399 4287729279
-0.18679145 0.055700663 1.399 4287597693
-0.18557733 0.055700663 1.399 4287597693
-0.1843632 0.055700663 1.399 4287729022
-0.18301818 0.055660848 1.3980001 4287860352
-0.18180493 0.055660848 1.3980001 4287925888
-0.18059167 0.055660848 1.3980001 4287925888
-0.17925009 0.055621032 1.3970001 4287860095
-0.17803772 0.055621032 1.3970001 4287794302
-0.17682533 0.055621032 1.3970001 4287662974
-0.17561294 0.055621032 1.3970001 4287465596
-0.17440055 0.055621032 1.3970001 4287268474
-0.17318816 0.055621032 1.3970001 4287202681
-0.17197579 0.055621032 1.3970001 4287334267
-0.1707634 0.055621032 1.3970001 4287531646
-0.16967238 0.055660848 1.3980001 4287663487
-0.16845913 0.055660848 1.3980001 4287795072
-0.16724588 0.055660848 1.3980001 4287729279
-0.16591386 0.055621032 1.3970001 4287729279
-0.16470148 0.055621032 1.3970001 4287795072
-0.16348909 0.055621032 1.3970001 4287860865
-0.16216055 0.055581219 1.396 4287992451
-0.16094902 0.055581219 1.396 4287992451
-0.15962309 0.055541404 1.3950001 4287926658
-0.15829888 0.055501588 1.3940001 4287926658
-0.1570891 0.055501588 1.3940001 4287926659
-0.1558793 0.055501588 1.3940001 4287926659
-0.15444762 0.05542196 1.3920001 4287992195
-0.15323958 0.05542196 1.3920001 4287926658
-0.15192232 0.055382147 1.391 4287926401
-0.15071513 0.055382147 1.391 4287926144
-0.14950795 0.055382147 1.391 4287926145
-0.14830078 0.055382147 1.391 4287991681
-0.14709359 0.055382147 1.391 4287860094
-0.14588642 0.055382147 1.391 4287794300
-0.14457524 0.055342332 1.3900001 4287728507
-0.14336893 0.055342332 1.3900001 4287794300
-0.14216262 0.055342332 1.3900001 4287663484
-0.1408549 0.055302519 1.3890001 4287663484
-0.13964945 0.055302519 1.3890001 4287729277
-0.13834433 0.055262703 1.388 4287795070
-0.13713977 0.055262703 1.388 4287795070
-0.13593519 0.055262703 1.388 4287860863
-0.13463356 0.055222888 1.3870001 4287860863
-0.13333364 0.055183075 1.386 4287795070
-0.1321308 0.055183075 1.386 4287860863
-0.13083349 0.055143259 1.3850001 4287992449
-0.12953794 0.055103444 1.3840001 4288189829
-0.12824409 0.055063631 1.383 4288321415
-0.12704386 0.055063631 1.383 4288189830
-0.12584361 0.055063631 1.383 4288058244
-0.12464339 0.055063631 1.383 4287926656
-0.12344315 0.055063631 1.383 4287795070
-0.12215453 0.055023815 1.3820001 4287860863
-0.12095516 0.055023815 1.3820001 4287860863
-0.1197558 0.055023815 1.3820001 4287729277
-0.11847065 0.054984 1.381 4287663484
-0.11727215 0.054984 1.381 4287729277
-0.11607365 0.054984 1.381 4287795070
-0.11470877 0.054904372 1.3790001 4287663484
-0.11351202 0.054904372 1.3790001 4287663484
-0.1122338 0.054864556 1.378 4287795070
-0.11095733 0.05482474 1.3770001 4287795070
-0.1097623 0.05482474 1.3770001 4287597691
-0.10856728 0.05482474 1.3770001 4287334519
-0.10737225 0.05482474 1.3770001 4287202933
-0.10617722 0.05482474 1.3770001 4287334519
-0.10490595 0.054784928 1.376 4287531898
-0.10363641 0.054745112 1.3750001 4287729277
-0.10244312 0.054745112 1.3750001 4287860863
-0.10117619 0.054705296 1.3740001 4287795070
-0.10005654 0.054745112 1.3750001 4287795070
-0.098863244 0.054745112 1.3750001 4287860863
-0.097669952 0.054745112 1.3750001 4287729279
-0.096476659 0.054745112 1.3750001 4287729279
-0.095283367 0.054745112 1.3750001 4287729279
-0.0941585 0.054784928 1.376 4287729279
-0.092964344 0.054784928 1.376 4287663486
-0.09177018 0.054784928 1.376 4287531900
-0.090707667 0.054864556 1.378 4287531898
-0.089511774 0.054864556 1.378 4287597691
-0.088315874 0.054864556 1.378 4287795070
-0.087183207 0.054904372 1.3790001 4288058242
-0.086048797 0.054944187 1.3800001 4288189828
-0.084851168 0.054944187 1.3800001 4288124035
-0.083774768 0.055023815 1.3820001 4288124035
-0.082575403 0.055023815 1.3820001 4288124035
-0.081552684 0.055143259 1.3850001 4287663484
-0.08040873 0.055183075 1.386 4287268726
-0.079263039 0.055222888 1.3870001 4286873969
-0.077188089 0.055461776 1.393 4288058242
-0.07614281 0.055581219 1.396 4288518794
-0.075038642 0.055660848 1.3980001 4288847758
-0.073931001 0.055740476 1.4000001 4288979344
-0.26581344 0.057719883 1.419 4287467403
-0.26402259 0.057597853 1.416 4287467402
-0.26279369 0.057597853 1.416 4287664522
-0.26156482 0.057597853 1.416 4287664264
-0.2601521 0.057557181 1.4150001 4287664262
-0.25874111 0.057516508 1.414 4287729540
-0.25751397 0.057516508 1.414 4287729539
-0.25628683 0.057516508 1.414 4287795331
-0.25505969 0.057516508 1.414 4287729538
-0.25383258 0.057516508 1.414 4287597952
-0.25260544 0.057516508 1.414 4287466366
-0.2513783 0.057516508 1.414 4287466107
-0.25015116 0.057516508 1.414 4287597693
-0.24892402 0.057516508 1.414 4287597693
-0.24769688 0.057516508 1.414 4287466107
-0.24646974 0.057516508 1.414 4287334519
-0.2452426 0.057516508 1.414 4287400312
-0.24384288 0.057475824 1.4130001 4287597691
-0.24261662 0.057475824 1.4130001 4287729277
-0.24156117 0.057516508 1.414 4287795070
-0.24033403 0.057516508 1.414 4287729277
-0.23893781 0.057475824 1.4130001 4287597691
-0.23787977 0.057516508 1.414 4287597691
-0.23665263 0.057516508 1.414 4287860863
-0.23542549 0.057516508 1.414 4287860863
-0.23419835 0.057516508 1.414 4287795070
-0.23297121 0.057516508 1.414 4287729277
-0.23190795 0.057557181 1.4150001 4287597691
-0.23051693 0.057516508 1.414 4287663484
-0.22928979 0.057516508 1.414 4287729277
-0.22790137 0.057475824 1.4130001 4287795070
-0.22651467 0.057435151 1.4120001 4287795070
-0.22528927 0.057435151 1.4120001 4287795070
-0.22390518 0.057394478 1.411 4287729277
-0.22252283 0.057353798 1.4100001 4287729277
-0.2211422 0.057313122 1.409 4287663484
-0.21960725 0.057231769 1.4070001 4287531898
-0.21838619 0.057231769 1.4070001 4287531898
-0.21716513 0.057231769 1.4070001 4287663484
-0.21594407 0.057231769 1.4070001 4287729277
-0.21472299 0.057231769 1.4070001 4287729277
-0.21350193 0.057231769 1.4070001 4287729277
-0.21228087 0.057231769 1.4070001 4287729277
-0.21105981 0.057231769 1.4070001 4287729277
-0.20983875 0.057231769 1.4070001 4287729277
-0.20861767 0.057231769 1.4070001 4287729277
-0.20739661 0.057231769 1.4070001 4287729277
-0.20617555 0.057231769 1.4070001 4287663484
-0.20495449 0.057231769 1.4070001 4287663484
-0.20373343 0.057231769 1.4070001 4287729277
-0.20251235 0.057231769 1.4070001 4287860863
-0.20114823 0.057191093 1.406 4287860864
-0.19992803 0.057191093 1.406 4287860864
-0.19870783 0.057191093 1.406 4287926658
-0.19706625 0.057069063 1.4030001 4287992450
-0.19584866 0.057069063 1.4030001 4287860864
-0.19449235 0.057028383 1.4020001 4287729279
-0.19313776 0.05698771 1.401 4287795072
-0.19192192 0.05698771 1.401 4287795072
-0.19056992 0.056947034 1.4000001 4287729279
-0.18935494 0.056947034 1.4000001 4287729279
-0.18813995 0.056947034 1.4000001 4287795072
-0.18679145 0.056906354 1.399 4287795072
-0.18557733 0.056906354 1.399 4287729279
-0.1843632 0.056906354 1.399 4287795072
-0.18314908 0.056906354 1.399 4287795072
-0.18180493 0.056865681 1.3980001 4287794815
-0.18059167 0.056865681 1.3980001 4287794559
-0.17937842 0.056865681 1.3980001 4287860095
-0.17816517 0.056865681 1.3980001 4287925888
-0.17695192 0.056865681 1.3980001 4287729024
-0.17561294 0.056825005 1.3970001 4287531646
-0.17440055 0.056825005 1.3970001 4287334266
-0.17318816 0.056825005 1.3970001 4287268473
-0.17209889 0.056865681 1.3980001 4287334522
-0.17088564 0.056865681 1.3980001 4287531901
-0.16967238 0.056865681 1.3980001 4287663487
-0.16845913 0.056865681 1.3980001 4287795072
-0.16724588 0.056865681 1.3980001 4287795072
-0.16603263 0.056865681 1.3980001 4287795072
-0.16470148 0.056825005 1.3970001 4287795072
-0.16348909 0.056825005 1.3970001 4287795072
-0.1622767 0.056825005 1.3970001 4287795072
-0.16094902 0.056784324 1.396 4287860865
-0.15973751 0.056784324 1.396 4287860865
-0.15841244 0.056743652 1.3950001 4287926658
-0.1570891 0.056702979 1.3940001 4287926658
-0.1557675 0.056662295 1.393 4287926658
-0.15444762 0.056621622 1.3920001 4288057731
-0.15323958 0.056621622 1.3920001 4287992194
-0.15203153 0.056621622 1.3920001 4287925888
-0.15082347 0.056621622 1.3920001 4287860095
-0.14961544 0.056621622 1.3920001 4287991681
-0.14840738 0.056621622 1.3920001 4287991681
-0.14709359 0.05658095 1.391 4287860094
-0.14588642 0.05658095 1.391 4287860093
-0.14457524 0.056540266 1.3900001 4287794813
-0.14336893 0.056540266 1.3900001 4287860606
-0.14216262 0.056540266 1.3900001 4287729277
-0.14095631 0.056540266 1.3900001 4287663484
-0.13964945 0.056499593 1.3890001 4287663484
-0.13844401 0.056499593 1.3890001 4287663484
-0.13723856 0.056499593 1.3890001 4287860863
-0.13593519 0.056458917 1.388 4287795070
-0.13473061 0.056458917 1.388 4287795070
-0.13352604 0.056458917 1.388 4287729277
-0.1321308 0.056377564 1.386 4287860864
-0.13092795 0.056377564 1.386 4287926657
-0.12963152 0.056336887 1.3850001 4288058244
-0.12833683 0.056296211 1.3840001 4288255623
-0.12713572 0.056296211 1.3840001 4288189830
-0.12584361 0.056255534 1.383 4288124037
-0.12464339 0.056255534 1.383 4287992449
-0.12344315 0.056255534 1.383 4287795070
-0.12224291 0.056255534 1.383 4287795070
-0.12104268 0.056255534 1.383 4287860863
-0.11984245 0.056255534 1.383 4287795070
-0.11855642 0.056214858 1.3820001 4287729277
-0.11735706 0.056214858 1.3820001 4287860863
-0.11598959 0.056133505 1.3800001 4287860863
-0.11470877 0.056092829 1.3790001 4287729277
-0.11351202 0.056092829 1.3790001 4287729277
-0.1122338 0.056052152 1.378 4287795070
-0.1110379 0.056052152 1.378 4287663484
-0.10984201 0.056052152 1.378 4287466105
-0.10856728 0.056011472 1.3770001 4287334519
-0.10737225 0.056011472 1.3770001 4287268726
-0.10617722 0.056011472 1.3770001 4287400312
-0.10490595 0.055970799 1.376 4287466105
-0.10371178 0.055970799 1.376 4287597691
-0.10244312 0.055930123 1.3750001 4287729277
-0.10124983 0.055930123 1.3750001 4287795070
-0.10005654 0.055930123 1.3750001 4287860864
-0.098863244 0.055930123 1.3750001 4287860865
-0.097669952 0.055930123 1.3750001 4287795072
-0.096476659 0.055930123 1.3750001 4287729279
-0.095283367 0.055930123 1.3750001 4287663486
-0.0941585 0.055970799 1.376 4287729279
-0.092964344 0.055970799 1.376 4287795070
-0.09177018 0.055970799 1.376 4287729278
-0.090641849 0.056011472 1.3770001 4287663484
-0.089511774 0.056052152 1.378 4287729277
-0.088315874 0.056052152 1.378 4287795070
-0.087183207 0.056092829 1.3790001 4288058242
-0.085986443 0.056092829 1.3790001 4288124035
-0.084851168 0.056133505 1.3800001 4288189828
-0.08371415 0.056174181 1.381 4288124035
-0.082575403 0.056214858 1.3820001 4288058242
-0.081493802 0.056296211 1.3840001 4287860863
-0.080350712 0.056336887 1.3850001 4287334519
-0.079263039 0.056418236 1.3870001 4287268726
-0.07713268 0.056621622 1.3920001 4288453000
-0.076033719 0.056702979 1.3940001 4288913551
-0.07498496 0.056825005 1.3970001 4288979344
-0.073931001 0.056947034 1.4000001 4288847758
-0.26420906 0.058859743 1.4170001 4287467144
-0.26297933 0.058859743 1.4170001 4287664521
-0.26174957 0.058859743 1.4170001 4287598471
-0.26033595 0.058818199 1.416 4287598469
-0.25910708 0.058818199 1.416 4287729539
-0.25787821 0.058818199 1.416 4287795332
-0.25646809 0.058776662 1.4150001 4287795331
-0.25524008 0.058776662 1.4150001 4287663745
-0.25401208 0.058776662 1.4150001 4287532159
-0.25278407 0.058776662 1.4150001 4287532159
-0.25173384 0.058818199 1.416 4287663486
-0.25050497 0.058818199 1.416 4287729279
-0.24927609 0.058818199 1.416 4287597693
-0.24804722 0.058818199 1.416 4287400314
-0.24664403 0.058776662 1.4150001 4287268728
-0.24541603 0.058776662 1.4150001 4287268728
-0.24418803 0.058776662 1.4150001 4287334519
-0.24278831 0.058735128 1.414 4287466105
-0.24139035 0.058693584 1.4130001 4287597691
-0.24033403 0.058735128 1.414 4287729277
-0.23910689 0.058735128 1.414 4287663484
-0.23787977 0.058735128 1.414 4287597692
-0.23665263 0.058735128 1.414 4287729277
-0.23559198 0.058776662 1.4150001 4287860863
-0.23436397 0.058776662 1.4150001 4287860863
-0.23313597 0.058776662 1.4150001 4287795070
-0.23190795 0.058776662 1.4150001 4287729277
-0.23067994 0.058776662 1.4150001 4287729277
-0.22928979 0.058735128 1.414 4287795070
-0.22806266 0.058735128 1.414 4287795070
-0.22667509 0.058693584 1.4130001 4287795070
-0.22528927 0.058652047 1.4120001 4287795070
-0.22406386 0.058652047 1.4120001 4287795070
-0.22268064 0.058610514 1.411 4287729277
-0.22129917 0.058568969 1.4100001 4287663484
-0.21991941 0.058527432 1.409 4287531898
-0.2185414 0.058485899 1.4080001 4287531898
-0.21731946 0.058485899 1.4080001 4287663484
-0.21609753 0.058485899 1.4080001 4287729277
-0.21487561 0.058485899 1.4080001 4287729277
-0.21365367 0.058485899 1.4080001 4287729277
-0.21243174 0.058485899 1.4080001 4287663484
-0.2112098 0.058485899 1.4080001 4287663484
-0.20998788 0.058485899 1.4080001 4287729277
-0.20876594 0.058485899 1.4080001 4287795070
-0.20754401 0.058485899 1.4080001 4287795070
-0.20632207 0.058485899 1.4080001 4287729277
-0.20510015 0.058485899 1.4080001 4287729277
-0.20387822 0.058485899 1.4080001 4287663484
-0.20251235 0.058444355 1.4070001 4287729277
-0.20129129 0.058444355 1.4070001 4287663484
-0.19978583 0.058361277 1.4050001 4287729278
-0.19842519 0.05831974 1.404 4287795072
-0.19720672 0.05831974 1.404 4287795071
-0.19584866 0.058278207 1.4030001 4287729277
-0.19449235 0.058236662 1.4020001 4287795070
-0.19327563 0.058236662 1.4020001 4287860864
-0.19192192 0.058195125 1.401 4287926657
-0.19056992 0.058153592 1.4000001 4287860865
-0.18935494 0.058153592 1.4000001 4287795072
-0.18813995 0.058153592 1.4000001 4287795072
-0.18692496 0.058153592 1.4000001 4287795072
-0.18570997 0.058153592 1.4000001 4287795072
-0.18449499 0.058153592 1.4000001 4287795072
-0.18327999 0.058153592 1.4000001 4287729279
-0.18206501 0.058153592 1.4000001 4287663486
-0.18085001 0.058153592 1.4000001 4287663486
-0.17963503 0.058153592 1.4000001 4287794815
-0.17842004 0.058153592 1.4000001 4287926401
-0.17720506 0.058153592 1.4000001 4287795073
-0.17586435 0.058112048 1.399 4287663231
-0.17465024 0.058112048 1.399 4287466107
-0.17331216 0.058070511 1.3980001 4287334521
-0.17209889 0.058070511 1.3980001 4287334521
-0.17100787 0.058112048 1.399 4287466107
-0.16979375 0.058112048 1.399 4287663486
-0.16857964 0.058112048 1.399 4287795072
-0.16736551 0.058112048 1.399 4287795072
-0.16615139 0.058112048 1.399 4287795072
-0.16493727 0.058112048 1.399 4287795072
-0.16372316 0.058112048 1.399 4287729279
-0.16239287 0.058070511 1.3980001 4287729279
-0.16117962 0.058070511 1.3980001 4287729279
-0.15985194 0.058028977 1.3970001 4287794816
-0.15852599 0.057987433 1.396 4287926145
-0.1572018 0.057945896 1.3950001 4287992194
-0.15599114 0.057945896 1.3950001 4287991938
-0.15455858 0.057862818 1.393 4287991681
-0.15334967 0.057862818 1.393 4287991681
-0.15214075 0.057862818 1.393 4287860095
-0.15093184 0.057862818 1.393 4287794302
-0.14972292 0.057862818 1.393 4287925888
-0.14840738 0.057821281 1.3920001 4287860095
-0.14719935 0.057821281 1.3920001 4287860094
-0.14588642 0.057779748 1.391 4287794302
-0.14457524 0.057738204 1.3900001 4287795070
-0.14336893 0.057738204 1.3900001 4287860863
-0.14216262 0.057738204 1.3900001 4287795070
-0.1408549 0.057696667 1.3890001 4287729277
-0.13964945 0.057696667 1.3890001 4287729277
-0.13844401 0.057696667 1.3890001 4287729277
-0.13723856 0.057696667 1.3890001 4287860864
-0.13603312 0.057696667 1.3890001 4287795071
-0.13482767 0.057696667 1.3890001 4287729278
-0.13362223 0.057696667 1.3890001 4287795071
-0.13232146 0.057655133 1.388 4287860865
-0.13102242 0.057613589 1.3870001 4287992451
-0.12972511 0.057572056 1.386 4288124037
-0.12852228 0.057572056 1.386 4288124037
-0.12722759 0.057530519 1.3850001 4288189830
-0.12593462 0.057488974 1.3840001 4288255623
-0.12473352 0.057488974 1.3840001 4288058242
-0.12353241 0.057488974 1.3840001 4287729277
-0.12233131 0.057488974 1.3840001 4287663484
-0.12113021 0.057488974 1.3840001 4287795070
-0.11992911 0.057488974 1.3840001 4287860863
-0.11855642 0.057405896 1.3820001 4287860863
-0.11727215 0.057364359 1.381 4287860863
-0.11607365 0.057364359 1.381 4287860863
-0.11479195 0.057322826 1.3800001 4287795070
-0.11359433 0.057322826 1.3800001 4287795070
-0.11231525 0.057281282 1.3790001 4287795070
-0.11111849 0.057281282 1.3790001 4287729277
-0.10984201 0.057239745 1.378 4287597691
-0.10864611 0.057239745 1.378 4287531898
-0.10745022 0.057239745 1.378 4287466105
-0.10625432 0.057239745 1.378 4287466105
-0.10498219 0.057198212 1.3770001 4287531898
-0.10378716 0.057198212 1.3770001 4287531898
-0.10251763 0.057156667 1.376 4287663485
-0.10132346 0.057156667 1.376 4287860864
-0.10012931 0.057156667 1.376 4287860865
-0.098935142 0.057156667 1.376 4287860865
-0.097740985 0.057156667 1.376 4287729279
-0.096546821 0.057156667 1.376 4287729279
-0.095352665 0.057156667 1.376 4287729279
-0.0941585 0.057156667 1.376 4287860865
-0.092964344 0.057156667 1.376 4287926656
-0.09177018 0.057156667 1.376 4287926656
-0.090576023 0.057156667 1.376 4287795070
-0.089381859 0.057156667 1.376 4287729277
-0.088187702 0.057156667 1.376 4287663484
-0.087056763 0.057198212 1.3770001 4287860863
-0.085861735 0.057198212 1.3770001 4287992449
-0.084728189 0.057239745 1.378 4288189828
-0.083532296 0.057239745 1.378 4288124035
-0.082336396 0.057239745 1.378 4288124035
-0.081317149 0.057364359 1.381 4288386693
-0.080176666 0.057405896 1.3820001 4288255108
-0.078977302 0.057405896 1.3820001 4288518793
-0.078115605 0.057655133 1.388 4288781965
-0.075870089 0.057779748 1.391 4289308309
-0.074823938 0.057904363 1.3940001 4289045137
-0.073772579 0.058028977 1.3970001 4288650379
-0.25524008 0.059996147 1.4150001 4287663745
-0.25401208 0.059996147 1.4150001 4287597952
-0.25278407 0.059996147 1.4150001 4287663745
-0.24664403 0.059996147 1.4150001 4287400314
-0.24541603 0.059996147 1.4150001 4287334521
-0.24401546 0.059953749 1.414 4287202935
-0.24261662 0.059911344 1.4130001 4287202935
-0.24139035 0.059911344 1.4130001 4287334521
-0.24016407 0.059911344 1.4130001 4287531900
-0.23910689 0.059953749 1.414 4287663486
-0.23787977 0.059953749 1.414 4287663486
-0.23665263 0.059953749 1.414 4287597691
-0.23542549 0.059953749 1.414 4287729277
-0.23419835 0.059953749 1.414 4287663484
-0.23051693 0.059953749 1.414 4287795070
-0.22928979 0.059953749 1.414 4287795070
-0.22806266 0.059953749 1.414 4287729277
-0.22651467 0.059868947 1.4120001 4287729277
-0.22528927 0.059868947 1.4120001 4287795070
-0.22406386 0.059868947 1.4120001 4287860607
-0.22268064 0.059826549 1.411 4287860606
-0.22129917 0.059784144 1.4100001 4287729277
-0.21991941 0.059741747 1.409 4287663227
-0.2185414 0.059699349 1.4080001 4287597691
-0.21731946 0.059699349 1.4080001 4287729020
-0.21609753 0.059699349 1.4080001 4287729020
-0.21487561 0.059699349 1.4080001 4287729020
-0.21365367 0.059699349 1.4080001 4287663484
-0.21243174 0.059699349 1.4080001 4287597691
-0.2112098 0.059699349 1.4080001 4287663484
-0.20998788 0.059699349 1.4080001 4287729277
-0.20876594 0.059699349 1.4080001 4287795070
-0.20754401 0.059699349 1.4080001 4287795070
-0.20632207 0.059699349 1.4080001 4287795070
-0.20510015 0.059699349 1.4080001 4287795070
-0.20387822 0.059699349 1.4080001 4287729277
-0.20236842 0.059614547 1.406 4287663484
-0.20114823 0.059614547 1.406 4287663484
-0.19978583 0.059572142 1.4050001 4287729277
-0.19842519 0.059529744 1.404 4287729277
-0.19720672 0.059529744 1.404 4287729277
-0.19584866 0.059487347 1.4030001 4287729277
-0.19449235 0.059444942 1.4020001 4287926656
-0.19313776 0.059402544 1.401 4287992449
-0.19192192 0.059402544 1.401 4287992450
-0.19056992 0.059360147 1.4000001 4287860865
-0.18935494 0.059360147 1.4000001 4287860865
-0.18813995 0.059360147 1.4000001 4287795072
-0.18692496 0.059360147 1.4000001 4287795072
-0.18570997 0.059360147 1.4000001 4287795072
-0.18449499 0.059360147 1.4000001 4287795072
-0.18327999 0.059360147 1.4000001 4287729279
-0.18206501 0.059360147 1.4000001 4287663486
-0.18085001 0.059360147 1.4000001 4287663486
-0.17963503 0.059360147 1.4000001 4287729279
-0.17842004 0.059360147 1.4000001 4287860865
-0.17720506 0.059360147 1.4000001 4287795072
-0.17586435 0.059317742 1.399 4287729279
-0.17465024 0.059317742 1.399 4287531900
-0.17331216 0.059275344 1.3980001 4287400314
-0.17209889 0.059275344 1.3980001 4287334521
-0.17100787 0.059317742 1.399 4287400314
-0.16979375 0.059317742 1.399 4287597693
-0.16857964 0.059317742 1.399 4287729279
-0.16736551 0.059317742 1.399 4287663486
-0.16615139 0.059317742 1.399 4287663486
-0.16493727 0.059317742 1.399 4287729279
-0.16372316 0.059317742 1.399 4287729279
-0.1622767 0.059232946 1.3970001 4287663486
-0.16106431 0.059232946 1.3970001 4287663486
-0.15985194 0.059232946 1.3970001 4287794302
-0.15852599 0.059190542 1.396 4287860095
-0.1572018 0.059148144 1.3950001 4288057474
-0.15599114 0.059148144 1.3950001 4287991681
-0.15455858 0.059063341 1.393 4287860095
-0.15334967 0.059063341 1.393 4287794302
-0.15203153 0.059020944 1.3920001 4287794302
-0.15082347 0.059020944 1.3920001 4287860095
-0.14961544 0.059020944 1.3920001 4287794302
-0.14840738 0.059020944 1.3920001 4287860095
-0.14719935 0.059020944 1.3920001 4287794302
-0.14588642 0.058978546 1.391 4287794302
-0.14457524 0.058936141 1.3900001 4287860608
-0.14336893 0.058936141 1.3900001 4287926657
-0.14216262 0.058936141 1.3900001 4287860864
-0.1408549 0.058893744 1.3890001 4287795072
-0.13964945 0.058893744 1.3890001 4287860864
-0.13844401 0.058893744 1.3890001 4287860864
-0.13723856 0.058893744 1.3890001 4287860865
-0.13593519 0.058851346 1.388 4287795072
-0.13473061 0.058851346 1.388 4287729279
-0.13352604 0.058851346 1.388 4287860865
-0.13232146 0.058851346 1.388 4287992451
-0.13102242 0.058808941 1.3870001 4288124037
-0.12972511 0.058766544 1.386 4288124037
-0.12852228 0.058766544 1.386 4288124037
-0.12722759 0.058724146 1.3850001 4288189830
-0.12593462 0.058681741 1.3840001 4288255623
-0.12473352 0.058681741 1.3840001 4288058243
-0.12353241 0.058681741 1.3840001 4287663485
-0.12233131 0.058681741 1.3840001 4287531898
-0.12095516 0.058596939 1.3820001 4287663484
-0.1197558 0.058596939 1.3820001 4287795070
-0.11847065 0.058554541 1.381 4287729277
-0.11727215 0.058554541 1.381 4287795070
-0.11607365 0.058554541 1.381 4287795070
-0.11479195 0.058512144 1.3800001 4287795070
-0.11359433 0.058512144 1.3800001 4287795070
-0.11231525 0.058469739 1.3790001 4287729277
-0.1110379 0.058427341 1.378 4287663484
-0.10984201 0.058427341 1.378 4287663484
-0.10856728 0.058384944 1.3770001 4287663484
-0.10737225 0.058384944 1.3770001 4287597691
-0.10617722 0.058384944 1.3770001 4287597691
-0.10498219 0.058384944 1.3770001 4287531899
-0.10378716 0.058384944 1.3770001 4287597692
-0.10251763 0.058342539 1.376 4287729279
-0.10132346 0.058342539 1.376 4287860865
-0.10012931 0.058342539 1.376 4287795072
-0.098935142 0.058342539 1.376 4287729279
-0.097740985 0.058342539 1.376 4287597693
-0.096546821 0.058342539 1.376 4287663486
-0.095352665 0.058342539 1.376 4287729279
-0.0941585 0.058342539 1.376 4287860865
-0.092964344 0.058342539 1.376 4287926658
-0.09177018 0.058342539 1.376 4287860865
-0.090576023 0.058342539 1.376 4287729277
-0.089381859 0.058342539 1.376 4287663484
-0.088187702 0.058342539 1.376 4287663484
-0.086993538 0.058342539 1.376 4287795070
-0.085799381 0.058342539 1.376 4287992449
-0.084605217 0.058342539 1.376 4288058242
-0.083471678 0.058384944 1.3770001 4288123522
-0.08227665 0.058384944 1.3770001 4288320644
-0.081140503 0.058427341 1.378 4288715402
-0.080060638 0.058512144 1.3800001 4289373332
-0.078920148 0.058554541 1.381 4289637274
-0.078059331 0.058808941 1.3870001 4289571481
-0.07702186 0.058936141 1.3900001 4289571481
-0.074770264 0.059063341 1.393 4289110930
-0.07366696 0.059148144 1.3950001 4288650379
-0.24384288 0.061129104 1.4130001 4287268728
-0.24261662 0.061129104 1.4130001 4287202935
-0.24139035 0.061129104 1.4130001 4287268728
-0.24016407 0.061129104 1.4130001 4287334521
-0.23893781 0.061129104 1.4130001 4287531900
-0.22651467 0.061085843 1.4120001 4287729020
-0.22528927 0.061085843 1.4120001 4287794557
-0.22406386 0.061085843 1.4120001 4287860093
-0.22252283 0.060999319 1.4100001 4287925886
-0.22129917 0.060999319 1.4100001 4287925886
-0.21991941 0.060956057 1.409 4287860093
-0.2185414 0.060912799 1.4080001 4287794300
-0.21731946 0.060912799 1.4080001 4287860093
-0.21609753 0.060912799 1.4080001 4287794300
-0.21487561 0.060912799 1.4080001 4287794556
-0.21365367 0.060912799 1.4080001 4287729020
-0.21243174 0.060912799 1.4080001 4287663227
-0.2112098 0.060912799 1.4080001 4287663484
-0.20998788 0.060912799 1.4080001 4287729277
-0.20876594 0.060912799 1.4080001 4287729277
-0.20754401 0.060912799 1.4080001 4287795070
-0.20632207 0.060912799 1.4080001 4287795070
-0.20495449 0.060869534 1.4070001 4287795070
-0.20373343 0.060869534 1.4070001 4287729277
-0.20236842 0.060826272 1.406 4287663484
-0.20114823 0.060826272 1.406 4287729277
-0.19978583 0.060783006 1.4050001 4287795070
-0.19842519 0.060739748 1.404 4287729277
-0.19720672 0.060739748 1.404 4287663484
-0.19584866 0.060696486 1.4030001 4287795070
-0.19449235 0.060653221 1.4020001 4287926656
-0.19313776 0.060609959 1.401 4288058242
-0.19192192 0.060609959 1.401 4287992450
-0.19056992 0.060566701 1.4000001 4287926658
-0.18935494 0.060566701 1.4000001 4287860865
-0.18813995 0.060566701 1.4000001 4287860865
-0.18692496 0.060566701 1.4000001 4287860865
-0.18570997 0.060566701 1.4000001 4287860865
-0.18449499 0.060566701 1.4000001 4287795072
-0.18341091 0.060609959 1.401 4287729279
-0.18206501 0.060566701 1.4000001 4287729279
-0.18085001 0.060566701 1.4000001 4287663486
-0.17963503 0.060566701 1.4000001 4287729279
-0.17842004 0.060566701 1.4000001 4287795072
-0.17720506 0.060566701 1.4000001 4287795072
-0.17599006 0.060566701 1.4000001 4287663486
-0.17465024 0.060523435 1.399 4287531900
-0.17343612 0.060523435 1.399 4287400314
-0.17222199 0.060523435 1.399 4287400314
-0.17088564 0.060480174 1.3980001 4287466107
-0.16979375 0.060523435 1.399 4287597693
-0.16857964 0.060523435 1.399 4287663486
-0.16736551 0.060523435 1.399 4287597693
-0.16615139 0.060523435 1.399 4287597693
-0.16481937 0.060480174 1.3980001 4287663486
-0.16360612 0.060480174 1.3980001 4287663486
-0.1622767 0.060436916 1.3970001 4287663486
-0.16106431 0.060436916 1.3970001 4287597693
-0.15985194 0.060436916 1.3970001 4287663229
-0.15852599 0.06039365 1.396 4287729022
-0.1572018 0.060350388 1.3950001 4287926145
-0.15599114 0.060350388 1.3950001 4287991681
-0.15455858 0.060263865 1.393 4287728509
-0.15334967 0.060263865 1.393 4287662716
-0.15203153 0.060220603 1.3920001 4287860095
-0.15082347 0.060220603 1.3920001 4287925888
-0.14961544 0.060220603 1.3920001 4287794302
-0.14840738 0.060220603 1.3920001 4287925888
-0.14709359 0.060177345 1.391 4287860095
-0.14588642 0.060177345 1.391 4287860095
-0.14457524 0.060134079 1.3900001 4287926145
-0.14336893 0.060134079 1.3900001 4288057730
-0.14216262 0.060134079 1.3900001 4287926658
-0.1408549 0.060090818 1.3890001 4287926658
-0.13964945 0.060090818 1.3890001 4287926658
-0.13844401 0.060090818 1.3890001 4287926658
-0.13723856 0.060090818 1.3890001 4287860865
-0.13593519 0.060047559 1.388 4287795072
-0.13473061 0.060047559 1.388 4287729279
-0.13352604 0.060047559 1.388 4287926658
-0.13232146 0.060047559 1.388 4288058244
-0.13102242 0.060004294 1.3870001 4288124037
-0.12972511 0.059961032 1.386 4288124037
-0.12852228 0.059961032 1.386 4288058244
-0.12722759 0.059917774 1.3850001 4288124037
-0.12593462 0.059874509 1.3840001 4288124037
-0.12473352 0.059874509 1.3840001 4287860865
-0.12344315 0.059831247 1.383 4287531900
-0.12215453 0.059787981 1.3820001 4287531899
-0.12095516 0.059787981 1.3820001 4287663486
-0.1197558 0.059787981 1.3820001 4287729278
-0.11847065 0.059744723 1.381 4287597693
-0.11727215 0.059744723 1.381 4287729279
-0.11598959 0.059701461 1.3800001 4287729278
-0.11479195 0.059701461 1.3800001 4287663485
-0.11351202 0.059658196 1.3790001 4287597693
-0.11231525 0.059658196 1.3790001 4287597692
-0.1110379 0.059614938 1.378 4287663485
-0.10984201 0.059614938 1.378 4287729278
-0.10856728 0.059571676 1.3770001 4287729278
-0.10737225 0.059571676 1.3770001 4287663485
-0.10617722 0.059571676 1.3770001 4287531900
-0.10498219 0.059571676 1.3770001 4287466107
-0.10378716 0.059571676 1.3770001 4287531900
-0.10251763 0.05952841 1.376 4287729279
-0.10132346 0.05952841 1.376 4287795072
-0.10012931 0.05952841 1.376 4287729279
-0.098935142 0.05952841 1.376 4287531900
-0.097740985 0.05952841 1.376 4287400314
-0.096546821 0.05952841 1.376 4287531900
-0.095352665 0.05952841 1.376 4287729279
-0.0941585 0.05952841 1.376 4287860865
-0.092964344 0.05952841 1.376 4287926658
-0.09177018 0.05952841 1.376 4287860865
-0.09051019 0.059485152 1.3750001 4287729279
-0.089316897 0.059485152 1.3750001 4287663486
-0.088123605 0.059485152 1.3750001 4287466105
-0.086930312 0.059485152 1.3750001 4287663484
-0.08573702 0.059485152 1.3750001 4287926656
-0.084543727 0.059485152 1.3750001 4287926656
-0.083350435 0.059485152 1.3750001 4288189058
-0.082157142 0.059485152 1.3750001 4288649609
-0.081081621 0.059571676 1.3770001 4289241746
-0.079944603 0.059614938 1.378 4290162848
-0.078805856 0.059658196 1.3790001 4290163618
-0.077946767 0.059917774 1.3850001 4290032032
-0.076966442 0.060090818 1.3890001 4289834653
-0.074716583 0.060220603 1.3920001 4289242516
-0.07361415 0.06030713 1.3940001 4288913551
-0.2200755 0.06221449 1.4100001 4287860093
-0.21885183 0.06221449 1.4100001 4287860093
-0.2174738 0.062170368 1.409 4287860093
-0.216251 0.062170368 1.409 4287860093
-0.21502821 0.062170368 1.409 4287860093
-0.21380541 0.062170368 1.409 4287860093
-0.2125826 0.062170368 1.409 4287728764
-0.21135981 0.062170368 1.409 4287663484
-0.21013701 0.062170368 1.409 4287663484
-0.20891421 0.062170368 1.409 4287663484
-0.20769142 0.062170368 1.409 4287663484
-0.20632207 0.062126249 1.4080001 4287729277
-0.20510015 0.062126249 1.4080001 4287729277
-0.20387822 0.062126249 1.4080001 4287663484
-0.20265628 0.062126249 1.4080001 4287663484
-0.20129129 0.062082119 1.4070001 4287729277
-0.20007023 0.062082119 1.4070001 4287795070
-0.19870783 0.062037997 1.406 4287729277
-0.19720672 0.061949749 1.404 4287729277
-0.19598827 0.061949749 1.404 4287795070
-0.19449235 0.0618615 1.4020001 4287860864
-0.19327563 0.0618615 1.4020001 4287992450
-0.19192192 0.061817378 1.401 4288058243
-0.19070606 0.061817378 1.401 4287992451
