# .PCD v0.7 - Point Cloud Data file format
VERSION 0.7
FIELDS x y z rgba
SIZE 4 4 4 4
TYPE F F F U
COUNT 1 1 1 1
WIDTH 1075
HEIGHT 1
VIEWPOINT 0 0 0 1 0 0 0
POINTS 1075
DATA ascii
-0.19170102 -0.040673088 1.4840001 4286280801
-0.19054143 -0.040700495 1.485 4286412387
-0.18925267 -0.040700495 1.485 4286412901
-0.18796393 -0.040700495 1.485 4286741866
-0.18642376 -0.040645681 1.483 4286939246
-0.18501189 -0.040618274 1.4820001 4287136625
-0.18360178 -0.040590864 1.4810001 4287136625
-0.18157788 -0.040426418 1.475 4287136369
-0.18005332 -0.040371604 1.473 4287136370
-0.17865361 -0.040344194 1.4720001 4287070578
-0.17641214 -0.040124934 1.4640001 4286939763
-0.17490235 -0.040070117 1.462 4287005556
-0.17315848 -0.039960485 1.4580001 4287729280
-0.17177527 -0.039933082 1.457 4288979347
-0.17039378 -0.039905675 1.4560001 4290163366
-0.16901404 -0.039878264 1.455 4290492331
-0.16763602 -0.039850857 1.4540001 4290426538
-0.16625974 -0.03982345 1.4530001 4290294951
-0.16499875 -0.03982345 1.4530001 4290361001
-0.16362508 -0.039796039 1.452 4290426537
-0.16236496 -0.039796039 1.452 4290492330
-0.16110484 -0.039796039 1.452 4290492585
-0.15995482 -0.03982345 1.4530001 4290492584
-0.15869382 -0.03982345 1.4530001 4290558375
-0.15743284 -0.03982345 1.4530001 4290623910
-0.15606438 -0.039796039 1.452 4290558118
-0.15480426 -0.039796039 1.452 4290623399
-0.15354414 -0.039796039 1.452 4290491813
-0.15228403 -0.039796039 1.452 4290360740
-0.1509199 -0.039768633 1.4510001 4290426533
-0.14966066 -0.039768633 1.4510001 4290426277
-0.14840141 -0.039768633 1.4510001 4290229412
-0.14724356 -0.039796039 1.452 4290163621
-0.14598344 -0.039796039 1.452 4290163623
-0.144823 -0.03982345 1.4530001 4290229418
-0.14375962 -0.039878264 1.455 4290295212
-0.14259483 -0.039905675 1.4560001 4290360749
-0.14133124 -0.039905675 1.4560001 4290295214
-0.14006765 -0.039905675 1.4560001 4290229423
-0.13870874 -0.039878264 1.455 4290163887
-0.13735156 -0.039850857 1.4540001 4290229939
-0.26135907 -0.038836677 1.4630001 4292007118
-0.26044497 -0.038889766 1.465 4292731098
-0.25935048 -0.038916316 1.4660001 4292796377
-0.2584303 -0.038969405 1.4680001 4292006861
-0.25715628 -0.038969405 1.4680001 4290822585
-0.25588229 -0.038969405 1.4680001 4290098862
-0.25460827 -0.038969405 1.4680001 4290295982
-0.25333428 -0.038969405 1.4680001 4290230187
-0.25206029 -0.038969405 1.4680001 4290295979
-0.2509571 -0.038995951 1.4690001 4290229928
-0.24968223 -0.038995951 1.4690001 4290229670
-0.24874559 -0.039049044 1.4710001 4290361255
-0.24730076 -0.039022498 1.47 4290361254
-0.24619238 -0.039049044 1.4710001 4290229667
-0.24541524 -0.03912868 1.4740001 4290295203
-0.24430168 -0.039155226 1.475 4290426788
-0.24335112 -0.039208319 1.4770001 4290360996
-0.24272488 -0.039314501 1.4810001 4289834651
-0.24160261 -0.039341051 1.4820001 4288847756
-0.24064077 -0.03939414 1.4840001 4288058496
-0.23999804 -0.039500322 1.488 4287861116
-0.23870669 -0.039500322 1.488 4287861116
-0.23757488 -0.039526872 1.4890001 4287597944
-0.23675869 -0.039606508 1.4920001 4286940013
-0.23562171 -0.039633054 1.493 4286347877
-0.23448294 -0.039659597 1.4940001 4286216291
-0.23349853 -0.039712694 1.4960001 4286216290
-0.23235545 -0.039739236 1.4970001 4286018912
-0.23105627 -0.039739236 1.4970001 4285689947
-0.22991057 -0.039765783 1.498 4285426775
-0.22876316 -0.039792329 1.4990001 4285426775
-0.227614 -0.039818875 1.5000001 4285689691
-0.22661397 -0.039871968 1.5020001 4285952864
-0.22546047 -0.039898511 1.503 4286149986
-0.22430523 -0.039925057 1.5040001 4286215522
-0.2234448 -0.040004697 1.5070001 4286215522
-0.22228435 -0.040031239 1.508 4286018143
-0.22112218 -0.04005779 1.5090001 4285754460
-0.21995826 -0.040084332 1.5100001 4285557081
-0.21850301 -0.04005779 1.5090001 4285425494
-0.21704948 -0.040031239 1.508 4285491288
-0.21502545 -0.039898511 1.503 4285622874
-0.21343668 -0.039845418 1.501 4285622874
-0.21072076 -0.039579961 1.4910001 4285885533
-0.20900542 -0.039500322 1.488 4286082911
-0.20743486 -0.039447233 1.4860001 4285819738
-0.20503543 -0.039234862 1.478 4285622615
-0.20361491 -0.039208319 1.4770001 4285885786
-0.20219609 -0.039181773 1.4760001 4285885786
-0.20077904 -0.039155226 1.475 4285556821
-0.19949895 -0.039155226 1.475 4285227856
-0.19821888 -0.039155226 1.475 4285030222
-0.19720584 -0.039208319 1.4770001 4285424980
-0.19605668 -0.039234862 1.478 4285688152
-0.19490577 -0.039261412 1.4790001 4285819738
-0.19401497 -0.039341051 1.4820001 4286083422
-0.19285886 -0.039367594 1.483 4286280801
-0.19170102 -0.03939414 1.4840001 4286478180
-0.19054143 -0.039420683 1.485 4286478180
-0.18925267 -0.039420683 1.485 4286347108
-0.18783736 -0.03939414 1.4840001 4286544487
-0.18642376 -0.039367594 1.483 4286741611
-0.18488707 -0.039314501 1.4810001 4286873454
-0.1834778 -0.039287958 1.48 4287004783
-0.18145478 -0.03912868 1.4740001 4287136626
-0.17993109 -0.039075587 1.4720001 4287333749
-0.17841087 -0.039022498 1.47 4287267957
-0.17629164 -0.038836677 1.4630001 4287202934
-0.17478271 -0.038783584 1.4610001 4287729022
-0.17303972 -0.038677402 1.457 4288913297
-0.17165737 -0.038650855 1.4560001 4289768606
-0.17027675 -0.038624309 1.455 4289965985
-0.16866554 -0.03854467 1.452 4290228901
-0.16740543 -0.03854467 1.452 4290426279
-0.16614531 -0.03854467 1.452 4290426535
-0.16477165 -0.038518123 1.4510001 4290426533
-0.16351239 -0.038518123 1.4510001 4290426535
-0.16214132 -0.038491581 1.45 4290426280
-0.1609939 -0.038518123 1.4510001 4290426535
-0.15973465 -0.038518123 1.4510001 4290426534
-0.1584754 -0.038518123 1.4510001 4290557862
-0.15721615 -0.038518123 1.4510001 4290623653
-0.15595691 -0.038518123 1.4510001 4290623653
-0.15469766 -0.038518123 1.4510001 4290557861
-0.1534384 -0.038518123 1.4510001 4290491812
-0.15207426 -0.038491581 1.45 4290492068
-0.15081589 -0.038491581 1.45 4290557605
-0.1495575 -0.038491581 1.45 4290492068
-0.14829913 -0.038491581 1.45 4290360483
-0.14704074 -0.038491581 1.45 4290294948
-0.1458829 -0.038518123 1.4510001 4290360486
-0.14462367 -0.038518123 1.4510001 4290426280
-0.143562 -0.038571216 1.4530001 4290360744
-0.14239897 -0.038597763 1.4540001 4290426282
-0.14113712 -0.038597763 1.4540001 4290557869
-0.13987526 -0.038597763 1.4540001 4290557871
-0.13861342 -0.038597763 1.4540001 4290426543
-0.13725708 -0.038571216 1.4530001 4290163630
-0.27438444 -0.037447404 1.4580001 4293718769
-0.27330643 -0.03747309 1.4590001 4293652718
-0.27204022 -0.03747309 1.4590001 4293257959
-0.27058846 -0.037447404 1.4580001 4292336598
-0.26932314 -0.037447404 1.4580001 4291349703
-0.26787394 -0.037421722 1.457 4291020223
-0.26660946 -0.037421722 1.457 4290822844
-0.26534501 -0.037421722 1.457 4290362292
-0.26408055 -0.037421722 1.457 4289835949
-0.26299652 -0.037447404 1.4580001 4289637798
-0.26173118 -0.037447404 1.4580001 4289900969
-0.26082313 -0.037498772 1.46 4290624947
-0.25955608 -0.037498772 1.46 4290756276
-0.25846592 -0.037524458 1.4610001 4290690483
-0.25755009 -0.037575826 1.4630001 4290295725
-0.25628042 -0.037575826 1.4630001 4289835172
-0.25518507 -0.037601508 1.4640001 4290163880
-0.2542614 -0.03765288 1.4660001 4290361001
-0.25298914 -0.03765288 1.4660001 4290295463
-0.25188857 -0.037678562 1.4670001 4290295462
-0.25078627 -0.037704244 1.4680001 4290426790
-0.24951227 -0.037704244 1.4680001 4290426532
-0.24874559 -0.037781298 1.4710001 4290360738
-0.24763721 -0.03780698 1.4720001 4290294945
-0.24652709 -0.037832666 1.473 4290426531
-0.24574825 -0.03790972 1.4760001 4290624167
-0.24463293 -0.037935402 1.4770001 4290492580
-0.24351588 -0.037961084 1.478 4289900699
-0.24288876 -0.038063824 1.4820001 4288979597
-0.24192865 -0.038115192 1.4840001 4287992702
-0.24080293 -0.038140874 1.485 4287532152
-0.24015933 -0.038243614 1.4890001 4287597944
-0.2388671 -0.038243614 1.4890001 4287532151
-0.23773442 -0.038269296 1.4900001 4286940014
-0.23691739 -0.03834635 1.493 4286018912
-0.23577951 -0.038372032 1.4940001 4285558361
-0.23448294 -0.038372032 1.4940001 4285689947
-0.23349853 -0.0384234 1.4960001 4285821533
-0.23235545 -0.038449083 1.4970001 4285821533
-0.23105627 -0.038449083 1.4970001 4285821533
-0.22991057 -0.038474768 1.498 4285689947
-0.22876316 -0.038500454 1.4990001 4285426775
-0.227614 -0.038526136 1.5000001 4285426776
-0.22676486 -0.03860319 1.503 4285623899
-0.22561048 -0.038628872 1.5040001 4285821021
-0.22445437 -0.038654558 1.5050001 4285952350
-0.22359307 -0.038731609 1.508 4285886557
-0.22243176 -0.038757294 1.5090001 4285754971
-0.22112218 -0.038757294 1.5090001 4285688922
-0.21995826 -0.038782977 1.5100001 4285557079
-0.21864781 -0.038782977 1.5100001 4285557079
-0.21719342 -0.038757294 1.5090001 4285557079
-0.21531157 -0.038654558 1.5050001 4285557081
-0.21372108 -0.03860319 1.503 4285688667
-0.21100341 -0.03834635 1.493 4285819738
-0.20942681 -0.038294978 1.4910001 4285951324
-0.20757446 -0.038192242 1.4870001 4285622614
-0.20531289 -0.038012456 1.48 4285688407
-0.20389061 -0.037986774 1.4790001 4285688407
-0.20247008 -0.037961084 1.478 4285688407
-0.20091516 -0.03790972 1.4760001 4285425235
-0.19976947 -0.037935402 1.4770001 4285162063
-0.19848765 -0.037935402 1.4770001 4285359187
-0.19733936 -0.037961084 1.478 4285556566
-0.19618931 -0.037986774 1.4790001 4285424980
-0.19503756 -0.038012456 1.48 4285688152
-0.19414589 -0.038089506 1.483 4286149215
-0.1929889 -0.038115192 1.4840001 4286346594
-0.19183019 -0.038140874 1.485 4286543973
-0.19066976 -0.03816656 1.4860001 4286544230
-0.18938014 -0.03816656 1.4860001 4286347108
-0.18783736 -0.038115192 1.4840001 4286281315
-0.18642376 -0.038089506 1.483 4286412901
-0.18488707 -0.038038138 1.4810001 4286544231
-0.1834778 -0.038012456 1.48 4286610281
-0.18133166 -0.037832666 1.473 4286807659
-0.17968661 -0.037755616 1.47 4287005039
-0.17743994 -0.03755014 1.462 4287202162
-0.17593014 -0.037498772 1.46 4287662715
-0.17454346 -0.03747309 1.4590001 4288518024
-0.17280219 -0.03737035 1.455 4289570711
-0.17142159 -0.037344668 1.4540001 4289768090
-0.16992566 -0.0372933 1.452 4289768090
-0.16854939 -0.037267618 1.4510001 4289965469
-0.16717485 -0.037241932 1.45 4290294689
-0.16591646 -0.037241932 1.45 4290426275
-0.16454452 -0.037216246 1.4490001 4290492068
-0.16328701 -0.037216246 1.4490001 4290491812
-0.1620295 -0.037216246 1.4490001 4290426021
-0.16077198 -0.037216246 1.4490001 4290426021
-0.15951447 -0.037216246 1.4490001 4290426275
-0.15825696 -0.037216246 1.4490001 4290492068
-0.15699945 -0.037216246 1.4490001 4290557860
-0.15574193 -0.037216246 1.4490001 4290623653
-0.15448442 -0.037216246 1.4490001 4290557860
-0.15322691 -0.037216246 1.4490001 4290492067
-0.15196939 -0.037216246 1.4490001 4290426274
-0.15060787 -0.037190564 1.4480001 4290492067
-0.14935122 -0.037190564 1.4480001 4290492067
-0.14809458 -0.037190564 1.4480001 4290426275
-0.14693934 -0.037216246 1.4490001 4290426020
-0.14568183 -0.037216246 1.4490001 4290491813
-0.14442432 -0.037216246 1.4490001 4290491813
-0.1432656 -0.037241932 1.45 4290360485
-0.14200722 -0.037241932 1.45 4290360486
-0.14074883 -0.037241932 1.45 4290557866
-0.13949046 -0.037241932 1.45 4290623661
-0.13813674 -0.037216246 1.4490001 4290492332
-0.13687924 -0.037216246 1.4490001 4290294955
-0.13562171 -0.037216246 1.4490001 4290031785
-0.13427149 -0.037190564 1.4480001 4290097837
-0.13292296 -0.037164882 1.447 4290558645
-0.13148521 -0.03711351 1.4450001 4291019454
-0.13014103 -0.037087828 1.4440001 4291611593
-0.27489349 -0.036091574 1.4540001 4293521391
-0.27381983 -0.036116395 1.455 4293455594
-0.27274445 -0.03614122 1.4560001 4292731101
-0.2716673 -0.036166042 1.457 4291546824
-0.27021727 -0.03614122 1.4560001 4290494135
-0.26895368 -0.03614122 1.4560001 4289770411
-0.26750624 -0.036116395 1.455 4289835690
-0.2664265 -0.03614122 1.4560001 4290164655
-0.26516291 -0.03614122 1.4560001 4290032812
-0.26408055 -0.036166042 1.457 4289966761
-0.2628161 -0.036166042 1.457 4289900454
-0.26173118 -0.036190864 1.4580001 4289900452
-0.26082313 -0.036240511 1.46 4290163880
-0.25955608 -0.036240511 1.46 4290163880
-0.25846592 -0.036265329 1.4610001 4290032294
-0.25755009 -0.036314975 1.4630001 4289769122
-0.2564556 -0.036339797 1.4640001 4289571742
-0.25518507 -0.036339797 1.4640001 4289769121
-0.2542614 -0.036389444 1.4660001 4289966500
-0.25316173 -0.036414266 1.4670001 4290163878
-0.25171688 -0.036389444 1.4660001 4290295462
-0.25078627 -0.036439087 1.4680001 4290229669
-0.24968223 -0.036463909 1.4690001 4290163361
-0.24857649 -0.03648873 1.47 4289966238
-0.24763721 -0.036538374 1.4720001 4289900187
-0.24669445 -0.036588021 1.4740001 4290163615
-0.24591474 -0.036662485 1.4770001 4290229408
-0.24479856 -0.036687307 1.478 4289637527
-0.24368063 -0.036712132 1.4790001 4288584839
-0.24305266 -0.036811423 1.483 4287663737
-0.24192865 -0.03683624 1.4840001 4287334772
-0.24096507 -0.036885887 1.4860001 4287203186
-0.24015933 -0.036960356 1.4890001 4287071600
-0.23902752 -0.036985178 1.4900001 4286676842
-0.23773442 -0.036985178 1.4900001 4285953119
-0.23691739 -0.037059642 1.493 4285360982
-0.23577951 -0.037084464 1.4940001 4285295189
-0.23448294 -0.037084464 1.4940001 4285295189
-0.23349853 -0.037134111 1.4960001 4285295189
-0.23235545 -0.037158933 1.4970001 4285624154
-0.23105627 -0.037158933 1.4970001 4285953119
-0.23006408 -0.037208579 1.4990001 4286018912
-0.22891578 -0.037233397 1.5000001 4285821533
-0.227614 -0.037233397 1.5000001 4285623640
-0.22676486 -0.037307866 1.503 4285426005
-0.22561048 -0.037332688 1.5040001 4285491798
-0.22445437 -0.037357513 1.5050001 4285557592
-0.22359307 -0.037431974 1.508 4285557592
-0.22243176 -0.037456799 1.5090001 4285689178
-0.22126871 -0.037481621 1.5100001 4285886301
-0.21995826 -0.037481621 1.5100001 4285886043
-0.21864781 -0.037481621 1.5100001 4285820251
-0.21719342 -0.037456799 1.5090001 4285688665
-0.21531157 -0.037357513 1.5050001 4285622872
-0.21372108 -0.037307866 1.503 4285886043
-0.21114475 -0.037084464 1.4940001 4285951837
-0.20928633 -0.036985178 1.4900001 4285886044
-0.20771405 -0.036935531 1.488 4285688407
-0.20545161 -0.036761776 1.4810001 4285556821
-0.20402847 -0.036736954 1.48 4285557078
-0.20260707 -0.036712132 1.4790001 4285359442
-0.20105128 -0.036662485 1.4770001 4285228113
-0.19976947 -0.036662485 1.4770001 4285359442
-0.19848765 -0.036662485 1.4770001 4285490774
-0.19747287 -0.036712132 1.4790001 4285688153
-0.19632198 -0.036736954 1.48 4285556566
-0.19516934 -0.036761776 1.4810001 4285688409
-0.19427679 -0.03683624 1.4840001 4286017629
-0.19311894 -0.036861062 1.485 4286149215
-0.19183019 -0.036861062 1.485 4286280801
-0.19079806 -0.036910709 1.4870001 4286543973
-0.18950757 -0.036910709 1.4870001 4286478694
-0.18783736 -0.03683624 1.4840001 4286347108
-0.18642376 -0.036811423 1.483 4286149731
-0.18501189 -0.036786601 1.4820001 4286281060
-0.1834778 -0.036736954 1.48 4286412646
-0.18133166 -0.036563199 1.473 4286544489
-0.17980886 -0.036513552 1.4710001 4286675818
-0.17743994 -0.03629015 1.462 4286873454
-0.17593014 -0.036240511 1.46 4287860093
-0.17454346 -0.036215689 1.4590001 4288978575
-0.17268343 -0.036091574 1.4540001 4289373589
-0.17130367 -0.036066752 1.4530001 4289307796
-0.16992566 -0.03604193 1.452 4289439124
-0.16854939 -0.036017109 1.4510001 4289570967
-0.16717485 -0.035992287 1.45 4290031261
-0.16591646 -0.035992287 1.45 4290294433
-0.16454452 -0.035967462 1.4490001 4290426275
-0.16328701 -0.035967462 1.4490001 4290426019
-0.1620295 -0.035967462 1.4490001 4290360226
-0.16077198 -0.035967462 1.4490001 4290426018
-0.15951447 -0.035967462 1.4490001 4290426274
-0.15825696 -0.035967462 1.4490001 4290492067
-0.15699945 -0.035967462 1.4490001 4290557860
-0.15574193 -0.035967462 1.4490001 4290557860
-0.1543778 -0.03594264 1.4480001 4290492067
-0.15312116 -0.03594264 1.4480001 4290426274
-0.15186451 -0.03594264 1.4480001 4290360481
-0.15060787 -0.03594264 1.4480001 4290426274
-0.14935122 -0.03594264 1.4480001 4290426275
-0.14809458 -0.03594264 1.4480001 4290426019
-0.14693934 -0.035967462 1.4490001 4290491813
-0.14568183 -0.035967462 1.4490001 4290557606
-0.14442432 -0.035967462 1.4490001 4290426020
-0.1431668 -0.035967462 1.4490001 4290360227
-0.14190929 -0.035967462 1.4490001 4290294947
-0.14065178 -0.035967462 1.4490001 4290426278
-0.13939425 -0.035967462 1.4490001 4290623659
-0.13804142 -0.03594264 1.4480001 4290558123
-0.13678478 -0.03594264 1.4480001 4290361002
-0.13543452 -0.035917819 1.447 4290229161
-0.1339933 -0.035868172 1.4450001 4290229163
-0.13264738 -0.035843354 1.4440001 4290229421
-0.13130322 -0.035818532 1.4430001 4290295471
-0.13005091 -0.035818532 1.4430001 4290427316
-0.27451539 -0.034790557 1.452 4292599772
-0.27344346 -0.034814522 1.4530001 4291876302
-0.2723698 -0.034838479 1.4540001 4290954430
-0.27110794 -0.034838479 1.4540001 4290033582
-0.26984608 -0.034838479 1.4540001 4289572773
-0.26858425 -0.034838479 1.4540001 4289704101
-0.26732239 -0.034838479 1.4540001 4289966759
-0.26624352 -0.03486244 1.455 4290164138
-0.26498079 -0.03486244 1.455 4290229674
-0.26389933 -0.034886405 1.4560001 4290163880
-0.2628161 -0.034910362 1.457 4290163622
-0.26155165 -0.034910362 1.457 4290032292
-0.2606445 -0.034958284 1.4590001 4290098085
-0.25955608 -0.034982245 1.46 4290163621
-0.25846592 -0.035006203 1.4610001 4290032035
-0.25755009 -0.035054125 1.4630001 4289900705
-0.2564556 -0.035078086 1.4640001 4289834654
-0.25535938 -0.035102043 1.465 4289637275
-0.2542614 -0.035126008 1.4660001 4289637275
-0.25298914 -0.035126008 1.4660001 4289769117
-0.25188857 -0.035149965 1.4670001 4290163617
-0.2509571 -0.035197888 1.4690001 4290295203
-0.24985223 -0.035221849 1.47 4289965979
-0.24874559 -0.035245806 1.4710001 4289439378
-0.24797367 -0.035317689 1.4740001 4289110413
-0.24686185 -0.03534165 1.475 4289110670
-0.24608123 -0.03541353 1.478 4288848011
-0.24496418 -0.035437495 1.4790001 4288255874
-0.24384539 -0.035461452 1.48 4287400565
-0.24321654 -0.035557292 1.4840001 4287005807
-0.24209167 -0.035581253 1.485 4287005807
-0.24096507 -0.035605215 1.4860001 4286808428
-0.24015933 -0.035677098 1.4890001 4286347877
-0.23902752 -0.035701055 1.4900001 4285887326
-0.23789397 -0.035725016 1.4910001 4285492568
-0.23691739 -0.035772938 1.493 4285360982
-0.23577951 -0.035796899 1.4940001 4285426775
-0.2346399 -0.03582086 1.4950001 4285295189
-0.23349853 -0.035844821 1.4960001 4285295189
-0.23235545 -0.035868779 1.4970001 4285492568
-0.23105627 -0.035868779 1.4970001 4285624154
-0.23006408 -0.035916701 1.4990001 4285689947
-0.22891578 -0.035940662 1.5000001 4285755740
-0.22776574 -0.035964619 1.501 4285821020
-0.22691572 -0.036036503 1.5040001 4285689177
-0.22576047 -0.036060464 1.5050001 4285689177
-0.22460352 -0.036084425 1.506 4285689177
-0.22374135 -0.036156304 1.5090001 4285623384
-0.22257917 -0.036180265 1.5100001 4285754970
-0.22126871 -0.036180265 1.5100001 4285886300
-0.21995826 -0.036180265 1.5100001 4285951836
-0.21850301 -0.036156304 1.5090001 4285886043
-0.21719342 -0.036156304 1.5090001 4285820250
-0.21531157 -0.036060464 1.5050001 4285886043
-0.21372108 -0.036012542 1.503 4286017629
-0.21114475 -0.035796899 1.4940001 4285951836
-0.20942681 -0.035725016 1.4910001 4285688664
-0.20785365 -0.035677098 1.4890001 4285491285
-0.20559034 -0.035509374 1.4820001 4285557078
-0.20416632 -0.035485413 1.4810001 4285425492
-0.20274407 -0.035461452 1.48 4285425492
-0.2011874 -0.03541353 1.478 4285425492
-0.19990471 -0.03541353 1.478 4285557078
-0.19862203 -0.03541353 1.478 4285819740
-0.19747287 -0.035437495 1.4790001 4285688410
-0.19632198 -0.035461452 1.48 4285425495
-0.19516934 -0.035485413 1.4810001 4285359702
-0.19427679 -0.035557292 1.4840001 4285688665
-0.19311894 -0.035581253 1.485 4285886044
-0.19195938 -0.035605215 1.4860001 4286083422
-0.19079806 -0.035629176 1.4870001 4286478181
-0.18950757 -0.035629176 1.4870001 4286741353
-0.18796393 -0.035581253 1.485 4286675560
-0.18654947 -0.035557292 1.4840001 4286281315
-0.18501189 -0.035509374 1.4820001 4286281315
-0.1834778 -0.035461452 1.48 4286412901
-0.18133166 -0.035293728 1.473 4286478694
-0.17980886 -0.035245806 1.4710001 4286478694
-0.17743994 -0.035030164 1.462 4286676073
-0.17593014 -0.034982245 1.46 4287399796
-0.17430419 -0.034910362 1.457 4288255105
-0.17268343 -0.034838479 1.4540001 4288584070
-0.17130367 -0.034814522 1.4530001 4288781449
-0.16992566 -0.034790557 1.452 4289044621
-0.16854939 -0.0347666 1.4510001 4289176207
-0.16717485 -0.034742638 1.45 4289636758
-0.16591646 -0.034742638 1.45 4290228895
-0.16454452 -0.034718677 1.4490001 4290360481
-0.16328701 -0.034718677 1.4490001 4290360480
-0.16191769 -0.034694716 1.4480001 4290228895
-0.16066104 -0.034694716 1.4480001 4290360480
-0.15951447 -0.034718677 1.4490001 4290426274
-0.15825696 -0.034718677 1.4490001 4290623653
-0.15699945 -0.034718677 1.4490001 4290623653
-0.15563446 -0.034694716 1.4480001 4290492067
-0.1543778 -0.034694716 1.4480001 4290426274
-0.15312116 -0.034694716 1.4480001 4290426274
-0.15186451 -0.034694716 1.4480001 4290426274
-0.15060787 -0.034694716 1.4480001 4290492068
-0.14935122 -0.034694716 1.4480001 4290491813
-0.14809458 -0.034694716 1.4480001 4290426020
-0.14683793 -0.034694716 1.4480001 4290426020
-0.14568183 -0.034718677 1.4490001 4290557606
-0.14442432 -0.034718677 1.4490001 4290491813
-0.1431668 -0.034718677 1.4490001 4290360482
-0.14190929 -0.034718677 1.4490001 4290294945
-0.14065178 -0.034718677 1.4490001 4290360740
-0.13929807 -0.034694716 1.4480001 4290492329
-0.13794607 -0.034670759 1.447 4290558121
-0.1364069 -0.034598876 1.4440001 4290426537
-0.13515373 -0.034598876 1.4440001 4290294952
-0.13380784 -0.034574918 1.4430001 4290294954
-0.13246366 -0.034550954 1.442 4290360748
-0.13121223 -0.034550954 1.442 4290361005
-0.12987065 -0.034526996 1.4410001 4290295727
-0.27413726 -0.033492994 1.45 4290494136
-0.27306706 -0.03351609 1.4510001 4290165167
-0.27199516 -0.033539187 1.452 4289901738
-0.27017567 -0.033469893 1.4490001 4289770150
-0.26891816 -0.033469893 1.4490001 4289769892
-0.26784533 -0.033492994 1.45 4289967271
-0.26695469 -0.033539187 1.452 4290229670
-0.26569456 -0.033539187 1.452 4290229670
-0.26461658 -0.033562288 1.4530001 4290294950
-0.26371807 -0.033608485 1.455 4290229413
-0.26263574 -0.033631586 1.4560001 4290097826
-0.26155165 -0.033654682 1.457 4290097826
-0.2606445 -0.033700883 1.4590001 4290097826
-0.25955608 -0.03372398 1.46 4290032033
-0.25846592 -0.033747077 1.4610001 4289900447
-0.25737405 -0.033770174 1.462 4289834653
-0.25628042 -0.033793274 1.4630001 4289637274
-0.25518507 -0.033816371 1.4640001 4289439895
-0.25443485 -0.033885669 1.4670001 4289176723
-0.25316173 -0.033885669 1.4670001 4289242516
-0.25206029 -0.033908766 1.4680001 4289768858
-0.25129879 -0.033978064 1.4710001 4290097823
-0.25019217 -0.03400116 1.4720001 4289439893
-0.24908377 -0.034024261 1.473 4288650376
-0.24831015 -0.034093559 1.4760001 4288321410
-0.24719656 -0.034116656 1.4770001 4288058495
-0.24608123 -0.034139752 1.478 4287663737
-0.24529545 -0.03420905 1.4810001 4287071600
-0.24417493 -0.034232151 1.4820001 4286808428
-0.2422547 -0.034324542 1.4860001 4286282084
-0.24112725 -0.034347642 1.4870001 4285821533
-0.24032061 -0.034416936 1.4900001 4285426775
-0.23918794 -0.034440033 1.4910001 4285295189
-0.23789397 -0.034440033 1.4910001 4285360982
-0.23691739 -0.034486234 1.493 4285624154
-0.23577951 -0.034509331 1.4940001 4285624154
-0.23448294 -0.034509331 1.4940001 4285426775
-0.23349853 -0.034555528 1.4960001 4285295189
-0.23235545 -0.034578629 1.4970001 4285229396
-0.23105627 -0.034578629 1.4970001 4285360982
-0.23006408 -0.034624826 1.4990001 4285492568
-0.22891578 -0.034647923 1.5000001 4285755740
-0.22776574 -0.03467102 1.501 4286018399
-0.22691572 -0.034740318 1.5040001 4286083935
-0.22576047 -0.034763418 1.5050001 4285952349
-0.22460352 -0.034786515 1.506 4285754970
-0.22374135 -0.034855813 1.5090001 4285820763
-0.22243176 -0.034855813 1.5090001 4285689177
-0.22126871 -0.03487891 1.5100001 4285820250
-0.21995826 -0.03487891 1.5100001 4285820250
-0.21850301 -0.034855813 1.5090001 4285688664
-0.21704948 -0.034832712 1.508 4285820506
-0.21516852 -0.034740318 1.5040001 4285951836
-0.21357888 -0.03469412 1.5020001 4285951836
-0.21128607 -0.034532432 1.4950001 4285820250
-0.20956725 -0.034463137 1.4920001 4285557078
-0.20799324 -0.034416936 1.4900001 4285425492
-0.20586778 -0.034278344 1.4840001 4285425492
-0.20444205 -0.034255248 1.483 4285491285
-0.20301802 -0.034232151 1.4820001 4285622871
-0.20132351 -0.034162853 1.4790001 4285688664
-0.20003997 -0.034162853 1.4790001 4285754457
-0.19875641 -0.034162853 1.4790001 4285754460
-0.1976064 -0.03418595 1.48 4285557080
-0.19645463 -0.03420905 1.4810001 4285359702
-0.19530112 -0.034232151 1.4820001 4285228116
-0.1944077 -0.034301441 1.485 4285359700
-0.19311894 -0.034301441 1.485 4285622872
-0.19195938 -0.034324542 1.4860001 4285820251
-0.19079806 -0.034347642 1.4870001 4286280802
-0.18950757 -0.034347642 1.4870001 4286675560
-0.18796393 -0.034301441 1.485 4286741354
-0.18654947 -0.034278344 1.4840001 4286544487
-0.18501189 -0.034232151 1.4820001 4286478694
-0.18285795 -0.034070458 1.475 4286412901
-0.18133166 -0.034024261 1.473 4286412901
-0.17980886 -0.033978064 1.4710001 4286412901
-0.17731856 -0.033747077 1.4610001 4286412901
-0.17580964 -0.033700883 1.4590001 4286610280
-0.17442381 -0.033677779 1.4580001 4287070831
-0.17268343 -0.033585388 1.4540001 4287399796
-0.17130367 -0.033562288 1.4530001 4287662968
-0.17004269 -0.033562288 1.4530001 4287860347
-0.16854939 -0.03351609 1.4510001 4288255105
-0.16729015 -0.03351609 1.4510001 4288913035
-0.16591646 -0.033492994 1.45 4289702551
-0.16454452 -0.033469893 1.4490001 4290031516
-0.16328701 -0.033469893 1.4490001 4290031516
-0.16191769 -0.033446796 1.4480001 4290031515
-0.16066104 -0.033446796 1.4480001 4290097309
-0.1594044 -0.033446796 1.4480001 4290360481
-0.15814775 -0.033446796 1.4480001 4290492067
-0.15678275 -0.033423696 1.447 4290426531
-0.15552697 -0.033423696 1.447 4290294946
-0.15427119 -0.033423696 1.447 4290229153
-0.1530154 -0.033423696 1.447 4290229153
-0.15175962 -0.033423696 1.447 4290229154
-0.15050386 -0.033423696 1.447 4290229154
-0.14924808 -0.033423696 1.447 4290097568
-0.1479923 -0.033423696 1.447 4289965726
-0.14683793 -0.033446796 1.4480001 4290097055
-0.14558129 -0.033446796 1.4480001 4290228640
-0.14432465 -0.033446796 1.4480001 4290228383
-0.143068 -0.033446796 1.4480001 4290097311
-0.14181136 -0.033446796 1.4480001 4290163104
-0.14055471 -0.033446796 1.4480001 4290229154
-0.13910566 -0.033400599 1.4460001 4290360484
-0.13756475 -0.033331305 1.4430001 4290360485
-0.13602905 -0.033262007 1.4400001 4290360485
-0.13468575 -0.033238906 1.439 4290294693
-0.13343692 -0.033238906 1.439 4290360487
-0.13209622 -0.03321581 1.4380001 4290426536
-0.13084824 -0.03321581 1.4380001 4290426794
-0.12960029 -0.03321581 1.4380001 4290426796
-0.12853083 -0.033262007 1.4400001 4290295212
-0.12736952 -0.033285104 1.4410001 4290163884
-0.12620647 -0.033308201 1.442 4290163885
-0.12495504 -0.033308201 1.442 4290295472
-0.12361781 -0.033285104 1.4410001 4290164400
-0.12228232 -0.033262007 1.4400001 4290361781
-0.12170503 -0.033446796 1.4480001 4290888382
-0.12028201 -0.033400599 1.4460001 4291282628
-0.11886247 -0.033354402 1.4440001 4291808972
-0.28110474 -0.032176636 1.447 4293455086
-0.28004238 -0.032198872 1.4480001 4293191911
-0.27897826 -0.032221109 1.4490001 4292533981
-0.27772075 -0.032221109 1.4490001 4291547338
-0.27627245 -0.032198872 1.4480001 4290494390
-0.2750158 -0.032198872 1.4480001 4289770662
-0.27357009 -0.032176636 1.447 4289770147
-0.27231431 -0.032176636 1.447 4289835938
-0.27124584 -0.032198872 1.4480001 4289901219
-0.27017567 -0.032221109 1.4490001 4290032804
-0.26891816 -0.032221109 1.4490001 4290098082
-0.26784533 -0.032243345 1.45 4290229925
-0.26695469 -0.032287817 1.452 4290361252
-0.26569456 -0.032287817 1.452 4290426789
-0.26461658 -0.032310057 1.4530001 4290295205
-0.26389933 -0.032376766 1.4560001 4290163618
-0.26263574 -0.032376766 1.4560001 4290032031
-0.26155165 -0.032399002 1.457 4290097824
-0.2606445 -0.032443479 1.4590001 4290097823
-0.25937831 -0.032443479 1.4590001 4289834652
-0.25811213 -0.032443479 1.4590001 4289768859
-0.25737405 -0.032510187 1.462 4289834652
-0.25628042 -0.032532424 1.4630001 4289571479
-0.25518507 -0.03255466 1.4640001 4288979343
-0.2542614 -0.032599136 1.4660001 4288584584
-0.25316173 -0.032621372 1.4670001 4288584584
-0.25206029 -0.032643609 1.4680001 4288781963
-0.25129879 -0.032710318 1.4710001 4288847755
-0.25019217 -0.032732554 1.4720001 4288519046
-0.24908377 -0.032754794 1.473 4288124289
-0.24831015 -0.032821503 1.4760001 4287926909
-0.24719656 -0.032843739 1.4770001 4287663737
-0.24608123 -0.032865975 1.478 4287202931
-0.24529545 -0.032932684 1.4810001 4286873965
-0.24417493 -0.032954924 1.4820001 4286413670
-0.24354433 -0.033043873 1.4860001 4285887326
-0.24241774 -0.033066105 1.4870001 4285426775
-0.24112725 -0.033066105 1.4870001 4284900431
-0.24032061 -0.033132818 1.4900001 4284768845
-0.23918794 -0.033155054 1.4910001 4284966225
-0.23789397 -0.033155054 1.4910001 4285229397
-0.23691739 -0.03319953 1.493 4285492313
-0.23577951 -0.033221763 1.4940001 4285558106
-0.23448294 -0.033221763 1.4940001 4285426520
-0.23349853 -0.033266239 1.4960001 4285360727
-0.23235545 -0.033288475 1.4970001 4285295190
-0.23105627 -0.033288475 1.4970001 4285229396
-0.23006408 -0.033332951 1.4990001 4285360727
-0.22891578 -0.033355184 1.5000001 4285689692
-0.22776574 -0.03337742 1.501 4286018657
-0.22691572 -0.033444133 1.5040001 4286150243
-0.22576047 -0.033466373 1.5050001 4286018142
-0.22460352 -0.033488605 1.506 4285754970
-0.22359307 -0.033533078 1.508 4285557591
-0.22243176 -0.033555318 1.5090001 4285491798
-0.22126871 -0.033577554 1.5100001 4285557591
-0.21981259 -0.033555318 1.5090001 4285491798
-0.21850301 -0.033555318 1.5090001 4285491798
-0.21690555 -0.033510841 1.5070001 4285689177
-0.21502545 -0.033421896 1.503 4285820506
-0.21357888 -0.03339966 1.5020001 4285820250
-0.21128607 -0.033244003 1.4950001 4285820250
-0.20970771 -0.03319953 1.493 4285820250
-0.20799324 -0.033132818 1.4900001 4285557078
-0.20586778 -0.032999396 1.4840001 4285557078
-0.20444205 -0.03297716 1.483 4285622871
-0.20301802 -0.032954924 1.4820001 4285820250
-0.20145965 -0.032910451 1.48 4285820250
-0.20003997 -0.032888215 1.4790001 4285820250
-0.19875641 -0.032888215 1.4790001 4285754457
-0.1976064 -0.032910451 1.48 4285622871
-0.19645463 -0.032932684 1.4810001 4285359700
-0.19530112 -0.032954924 1.4820001 4285293907
-0.19427679 -0.032999396 1.4840001 4285293907
-0.19311894 -0.033021633 1.485 4285491286
-0.19195938 -0.033043873 1.4860001 4285820251
-0.19079806 -0.033066105 1.4870001 4286083423
-0.18950757 -0.033066105 1.4870001 4286346597
-0.18796393 -0.033021633 1.485 4286543976
-0.18654947 -0.032999396 1.4840001 4286412902
-0.18501189 -0.032954924 1.4820001 4286478438
-0.18298191 -0.032821503 1.4760001 4286412901
-0.18133166 -0.032754794 1.473 4286412901
-0.17968661 -0.032688081 1.47 4286412901
-0.17731856 -0.032487951 1.4610001 4286281315
-0.17593014 -0.032465715 1.46 4286281315
-0.17442381 -0.032421239 1.4580001 4286478694
-0.17268343 -0.032332294 1.4540001 4286676073
-0.17142159 -0.032332294 1.4540001 4286544487
-0.17004269 -0.032310057 1.4530001 4286412901
-0.16854939 -0.032265581 1.4510001 4286873452
-0.16729015 -0.032265581 1.4510001 4287860347
-0.1660309 -0.032265581 1.4510001 4288649863
-0.16454452 -0.032221109 1.4490001 4289307793
-0.16328701 -0.032221109 1.4490001 4289439379
-0.16191769 -0.032198872 1.4480001 4289373586
-0.16055007 -0.032176636 1.447 4289570965
-0.15929429 -0.032176636 1.447 4289899930
-0.15803853 -0.032176636 1.447 4290163102
-0.15678275 -0.032176636 1.447 4290032030
-0.15552697 -0.032176636 1.447 4289900445
-0.15416458 -0.0321544 1.4460001 4289900446
-0.15290967 -0.0321544 1.4460001 4289768860
-0.15165475 -0.0321544 1.4460001 4289637275
-0.15050386 -0.032176636 1.447 4289571482
-0.14924808 -0.032176636 1.447 4289439895
-0.1479923 -0.032176636 1.447 4289308052
-0.14683793 -0.032198872 1.4480001 4289373332
-0.14558129 -0.032198872 1.4480001 4289439124
-0.14432465 -0.032198872 1.4480001 4289504916
-0.143068 -0.032198872 1.4480001 4289505173
-0.14171341 -0.032176636 1.447 4289702296
-0.14036056 -0.0321544 1.4460001 4289833881
-0.13891326 -0.032109924 1.4440001 4289834138
-0.13756475 -0.032087691 1.4430001 4289965724
-0.13602905 -0.032020979 1.4400001 4290163103
-0.13468575 -0.031998739 1.439 4290294434
-0.13334419 -0.031976502 1.4380001 4290360227
-0.13200437 -0.03195427 1.437 4290360485
-0.13075726 -0.03195427 1.437 4290360999
-0.12951016 -0.03195427 1.437 4290295208
-0.12844159 -0.031998739 1.439 4290229160
-0.12719275 -0.031998739 1.439 4290163624
-0.12603143 -0.032020979 1.4400001 4290163881
-0.12478173 -0.032020979 1.4400001 4290163882
-0.12344624 -0.031998739 1.439 4290098347
-0.1221974 -0.031998739 1.439 4290164143
-0.12136882 -0.032109924 1.4440001 4290230194
-0.12003246 -0.032087691 1.4430001 4290163888
-0.11869784 -0.032065451 1.442 4290295474
-0.28091049 -0.030908201 1.4460001 4292796895
-0.27965558 -0.030908201 1.4460001 4291941326
-0.27859318 -0.030929575 1.447 4290954430
-0.27733743 -0.030929575 1.447 4290428082
-0.27608165 -0.030929575 1.447 4290099111
-0.27463594 -0.030908201 1.4460001 4290033314
-0.27338102 -0.030908201 1.4460001 4290164642
-0.27231431 -0.030929575 1.447 4290230178
-0.27105853 -0.030929575 1.447 4290229924
-0.26998919 -0.030950949 1.4480001 4290229924
-0.26873255 -0.030950949 1.4480001 4290229409
-0.26766062 -0.030972322 1.4490001 4290426788
-0.26695469 -0.031036448 1.452 4290361250
-0.26569456 -0.031036448 1.452 4290492836
-0.26461658 -0.031057825 1.4530001 4290360997
-0.26389933 -0.031121951 1.4560001 4290163618
-0.26245534 -0.031100573 1.455 4290032030
-0.26137215 -0.031121951 1.4560001 4289966237
-0.26046586 -0.031164698 1.4580001 4289768858
-0.25937831 -0.031186076 1.4590001 4289505686
-0.25828904 -0.03120745 1.46 4289439893
-0.25737405 -0.031250197 1.462 4289374100
-0.25628042 -0.031271573 1.4630001 4288584584
-0.25518507 -0.031292949 1.4640001 4287663482
-0.25443485 -0.031357072 1.4670001 4287334517
-0.25333428 -0.031378448 1.4680001 4287400310
-0.25223199 -0.031399824 1.4690001 4287597689
-0.25146964 -0.031463947 1.4720001 4287729275
-0.25036213 -0.031485323 1.473 4287795323
-0.24925287 -0.031506699 1.4740001 4287795323
-0.24847837 -0.031570822 1.4770001 4287795323
-0.24736391 -0.031592198 1.478 4287466358
-0.24624772 -0.031613573 1.4790001 4286939759
-0.24546108 -0.031677701 1.4820001 4286479464
-0.24433967 -0.031699073 1.483 4286150498
-0.24241774 -0.031784572 1.4870001 4285360982
-0.24128941 -0.031805947 1.488 4285163603
-0.24032061 -0.031848699 1.4900001 4284966224
-0.23918794 -0.031870071 1.4910001 4284965968
-0.23789397 -0.031870071 1.4910001 4285097555
-0.23691739 -0.031912822 1.493 4285294934
-0.23577951 -0.031934198 1.4940001 4285426520
-0.23448294 -0.031934198 1.4940001 4285558361
-0.23349853 -0.031976949 1.4960001 4285689947
-0.23220024 -0.031976949 1.4960001 4285624154
-0.23105627 -0.031998321 1.4970001 4285558361
-0.23006408 -0.032041073 1.4990001 4285492312
-0.22891578 -0.032062449 1.5000001 4285558106
-0.227614 -0.032062449 1.5000001 4285755740
-0.22676486 -0.032126572 1.503 4285821533
-0.22546047 -0.032126572 1.503 4285755740
-0.22430523 -0.032147948 1.5040001 4285624154
-0.22314826 -0.032169323 1.5050001 4285491798
-0.22184214 -0.032169323 1.5050001 4285294419
-0.22068258 -0.032190699 1.506 4285360212
-0.21908425 -0.032147948 1.5040001 4285294419
-0.21763422 -0.032126572 1.503 4285360212
-0.21632983 -0.032126572 1.503 4285491798
-0.21459626 -0.032062449 1.5000001 4285688664
-0.21315229 -0.032041073 1.4990001 4285754457
-0.21114475 -0.031934198 1.4940001 4285886043
-0.20956725 -0.03189145 1.4920001 4286017629
-0.20799324 -0.031848699 1.4900001 4285820250
-0.20600651 -0.03174182 1.485 4285820250
-0.2045799 -0.031720448 1.4840001 4285820250
-0.20315503 -0.031699073 1.483 4285951836
-0.20145965 -0.031634949 1.48 4285951836
-0.20017523 -0.031634949 1.48 4285820250
-0.19889081 -0.031634949 1.48 4285622871
-0.19773991 -0.031656321 1.4810001 4285359699
-0.19658726 -0.031677701 1.4820001 4285228114
-0.19530112 -0.031677701 1.4820001 4285293907
-0.1944077 -0.03174182 1.485 4285359700
-0.193249 -0.0317632 1.4860001 4285491286
-0.19195938 -0.0317632 1.4860001 4285688665
-0.19092639 -0.031805947 1.488 4285951838
-0.18963502 -0.031805947 1.488 4286149218
-0.18796393 -0.03174182 1.485 4286280804
-0.18654947 -0.031720448 1.4840001 4286149475
-0.18501189 -0.031677701 1.4820001 4286215268
-0.1831059 -0.031570822 1.4770001 4286346852
-0.18145478 -0.031506699 1.4740001 4286412645
-0.17993109 -0.031463947 1.4720001 4286347109
-0.17841087 -0.031421199 1.47 4286281059
-0.17617114 -0.031250197 1.462 4286149730
-0.17442381 -0.031164698 1.4580001 4286215266
-0.17280219 -0.031100573 1.455 4286215522
-0.17142159 -0.031079199 1.4540001 4285952350
-0.17004269 -0.031057825 1.4530001 4285623385
-0.16854939 -0.031015074 1.4510001 4285886557
-0.16729015 -0.031015074 1.4510001 4286610280
-0.1660309 -0.031015074 1.4510001 4287465589
-0.16454452 -0.030972322 1.4490001 4288189312
-0.16317433 -0.030950949 1.4480001 4288518277
-0.16191769 -0.030950949 1.4480001 4288518277
-0.16055007 -0.030929575 1.447 4288649863
-0.15929429 -0.030929575 1.447 4289176207
-0.1579293 -0.030908201 1.4460001 4289768601
-0.1566744 -0.030908201 1.4460001 4289834651
-0.15541948 -0.030908201 1.4460001 4289571479
-0.15416458 -0.030908201 1.4460001 4289308309
-0.15290967 -0.030908201 1.4460001 4289176723
-0.15165475 -0.030908201 1.4460001 4289242516
-0.15039985 -0.030908201 1.4460001 4289374102
-0.14924808 -0.030929575 1.447 4289308309
-0.1479923 -0.030929575 1.447 4289110673
-0.14673652 -0.030929575 1.447 4288978574
-0.14548074 -0.030929575 1.447 4288912780
-0.14422497 -0.030929575 1.447 4288913035
-0.14287038 -0.030908201 1.4460001 4288978828
-0.14161548 -0.030908201 1.4460001 4289044621
-0.14036056 -0.030908201 1.4460001 4289044621
-0.13891326 -0.030865449 1.4440001 4289110414
-0.13746943 -0.030822698 1.442 4289307793
-0.13593459 -0.030758573 1.439 4289636758
-0.13468575 -0.030758573 1.439 4289899931
-0.13334419 -0.030737199 1.4380001 4290097310
-0.1319125 -0.030694451 1.4360001 4290229154
-0.13075726 -0.030715825 1.437 4290295205
-0.12951016 -0.030715825 1.437 4290295206
-0.12826306 -0.030715825 1.437 4290229414
-0.12710434 -0.030737199 1.4380001 4290163622
-0.12585638 -0.030737199 1.4380001 4290163623
-0.12460841 -0.030737199 1.4380001 4290163367
-0.12336045 -0.030737199 1.4380001 4290229418
-0.12202757 -0.030715825 1.437 4290361005
-0.12111666 -0.030801324 1.4410001 4290229677
-0.1198661 -0.030801324 1.4410001 4290032042
-0.1184509 -0.030758573 1.439 4290031785
-0.28877389 -0.029826105 1.4540001 4293192173
-0.28711656 -0.029785078 1.452 4293323758
-0.28565955 -0.029764565 1.4510001 4293191915
-0.2836163 -0.029682513 1.447 4292731362
-0.28216541 -0.029662002 1.4460001 4292073429
-0.28052193 -0.029620973 1.4440001 4291217605
-0.27907535 -0.029600462 1.4430001 4290493878
-0.27782306 -0.029600462 1.4430001 4290098862
-0.27657077 -0.029600462 1.4430001 4290098858
-0.27531844 -0.029600462 1.4430001 4290295975
-0.27406615 -0.029600462 1.4430001 4290361765
-0.27319196 -0.029641487 1.4450001 4290361508
-0.27193791 -0.029641487 1.4450001 4290295714
-0.27087122 -0.029662002 1.4460001 4290295459
-0.26998919 -0.029703027 1.4480001 4290360996
-0.26891816 -0.029723538 1.4490001 4290360994
-0.2674759 -0.029703027 1.4480001 4290492580
-0.26695469 -0.029785078 1.452 4290295457
-0.26569456 -0.029785078 1.452 4290427043
-0.26461658 -0.029805593 1.4530001 4290426532
-0.26389933 -0.029867133 1.4560001 4290294945
-0.2628161 -0.029887645 1.457 4290032029
-0.26155165 -0.029887645 1.457 4289834906
-0.2606445 -0.029928673 1.4590001 4289242769
-0.25955608 -0.029949185 1.46 4288650632
-0.25846592 -0.029969696 1.4610001 4288387205
-0.25755009 -0.030010724 1.4630001 4287795068
-0.2564556 -0.030031236 1.4640001 4286873966
-0.25535938 -0.030051749 1.465 4286413415
-0.25460827 -0.030113289 1.4680001 4286413415
-0.25333428 -0.030113289 1.4680001 4286676587
-0.25223199 -0.030133804 1.4690001 4286873966
-0.25164047 -0.030215856 1.473 4287071345
-0.25053209 -0.030236367 1.4740001 4287005552
-0.249422 -0.03025688 1.475 4287137137
-0.2486466 -0.03031842 1.478 4287137137
-0.24753128 -0.030338936 1.4790001 4286808173
-0.24641421 -0.030359447 1.48 4286347622
-0.2456267 -0.030420987 1.483 4285887070
-0.24450444 -0.030441498 1.4840001 4285624154
-0.24338043 -0.030462012 1.485 4285492568
-0.24241774 -0.030503038 1.4870001 4285426775
-0.24128941 -0.030523552 1.488 4285558361
-0.24032061 -0.030564578 1.4900001 4285492568
-0.23918794 -0.03058509 1.4910001 4285229397
-0.23789397 -0.03058509 1.4910001 4285229141
-0.23691739 -0.030626118 1.493 4285360727
-0.23577951 -0.03064663 1.4940001 4285492313
-0.23448294 -0.03064663 1.4940001 4285689948
-0.23349853 -0.030687658 1.4960001 4285887326
-0.23220024 -0.030687658 1.4960001 4285953119
-0.23105627 -0.03070817 1.4970001 4285887326
-0.23006408 -0.030749198 1.4990001 4285887326
-0.22876316 -0.030749198 1.4990001 4285755740
-0.227614 -0.030769709 1.5000001 4285624154
-0.22661397 -0.030810738 1.5020001 4285558361
-0.22531046 -0.030810738 1.5020001 4285624154
-0.22400695 -0.030810738 1.5020001 4285558361
-0.22299999 -0.030851761 1.5040001 4285557847
-0.22154734 -0.030831249 1.503 4285426005
-0.22024296 -0.030831249 1.503 4285360212
-0.21879292 -0.030810738 1.5020001 4285360212
-0.21748941 -0.030810738 1.5020001 4285491798
-0.21604197 -0.030790221 1.501 4285623384
-0.21431012 -0.030728683 1.498 4285688920
-0.21301009 -0.030728683 1.498 4285754457
-0.21100341 -0.030626118 1.493 4285886043
-0.20942681 -0.03058509 1.4910001 4285951836
-0.20799324 -0.030564578 1.4900001 4285886043
-0.20600651 -0.030462012 1.485 4285951836
-0.2045799 -0.030441498 1.4840001 4285951836
-0.20315503 -0.030420987 1.483 4285886043
-0.20159577 -0.030379958 1.4810001 4285820250
-0.20031048 -0.030379958 1.4810001 4285754457
-0.1990252 -0.030379958 1.4810001 4285557078
-0.19787341 -0.030400475 1.4820001 4285425492
-0.19658726 -0.030400475 1.4820001 4285359700
-0.1954329 -0.030420987 1.483 4285425493
-0.19453862 -0.030482527 1.4860001 4285491286
-0.193249 -0.030482527 1.4860001 4285491286
-0.19208856 -0.030503038 1.4870001 4285622872
-0.19092639 -0.030523552 1.488 4285754459
-0.18963502 -0.030523552 1.488 4285951839
-0.18796393 -0.030462012 1.485 4286017632
-0.18654947 -0.030441498 1.4840001 4286017632
-0.18513675 -0.030420987 1.483 4286149218
-0.18298191 -0.030277396 1.4760001 4286280804
-0.18145478 -0.030236367 1.4740001 4286346854
-0.17993109 -0.030195341 1.4720001 4286281061
-0.17853224 -0.030174827 1.4710001 4286215011
-0.17629164 -0.030010724 1.4630001 4286083682
-0.17490235 -0.029990209 1.462 4285952096
-0.17315848 -0.029908158 1.4580001 4285820765
-0.17189316 -0.029908158 1.4580001 4285623386
-0.17051081 -0.029887645 1.457 4285426006
-0.16901404 -0.029846618 1.455 4285491799
-0.16763602 -0.029826105 1.4540001 4285886557
-0.16637418 -0.029826105 1.4540001 4286478694
-0.16488519 -0.029785078 1.452 4287136624
-0.16351239 -0.029764565 1.4510001 4287597175
-0.16225314 -0.029764565 1.4510001 4287662968
-0.16066104 -0.029703027 1.4480001 4287860347
-0.1594044 -0.029703027 1.4480001 4288386691
-0.1579293 -0.029662002 1.4460001 4289242257
-0.1566744 -0.029662002 1.4460001 4289768858
-0.15541948 -0.029662002 1.4460001 4289439894
-0.15416458 -0.029662002 1.4460001 4288847758
-0.15290967 -0.029662002 1.4460001 4288781965
-0.15165475 -0.029662002 1.4460001 4289110930
-0.15060787 -0.029703027 1.4480001 4289439895
-0.14935122 -0.029703027 1.4480001 4289439895
-0.14809458 -0.029703027 1.4480001 4289242259
-0.14683793 -0.029703027 1.4480001 4288847501
-0.14558129 -0.029703027 1.4480001 4288584328
-0.14432465 -0.029703027 1.4480001 4288518277
-0.143068 -0.029703027 1.4480001 4288518277
-0.14181136 -0.029703027 1.4480001 4288386691
-0.14055471 -0.029703027 1.4480001 4288255105
-0.13900946 -0.029641487 1.4450001 4288386691
-0.13756475 -0.029600462 1.4430001 4288847242
-0.13602905 -0.029538922 1.4400001 4289176207
-0.13468575 -0.029518407 1.439 4289439379
-0.13343692 -0.029518407 1.439 4289768344
-0.13200437 -0.029477382 1.437 4290031517
-0.13075726 -0.029477382 1.437 4290294689
-0.12942004 -0.029456871 1.4360001 4290295204
-0.12808454 -0.029436355 1.4350001 4290295205
-0.12683918 -0.029436355 1.4350001 4290229413
-0.12559381 -0.029436355 1.4350001 4290229414
-0.12434845 -0.029436355 1.4350001 4290294951
-0.12310309 -0.029436355 1.4350001 4290361000
-0.12185773 -0.029436355 1.4350001 4290295209
-0.12061236 -0.029436355 1.4350001 4290163881
-0.11945019 -0.029456871 1.4360001 4290097832
-0.11820396 -0.029456871 1.4360001 4290097833
-0.11703917 -0.029477382 1.437 4290032041
-0.11579207 -0.029477382 1.437 4290032042
-0.1147044 -0.029518407 1.439 4290032301
-0.1135344 -0.029538922 1.4400001 4289966766
-0.11236268 -0.029559433 1.4410001 4290098352
-0.1111121 -0.029559433 1.4410001 4290230195
-0.1097853 -0.029538922 1.4400001 4290690748
-0.10838485 -0.029497895 1.4380001 4291480521
-0.28877389 -0.028573012 1.4540001 4293192172
-0.2873143 -0.028553361 1.4530001 4293126121
-0.28487208 -0.028435452 1.447 4292467932
-0.2836163 -0.028435452 1.447 4291152070
-0.28216541 -0.028415803 1.4460001 4290428345
-0.28052193 -0.028376499 1.4440001 4290295987
-0.27926877 -0.028376499 1.4440001 4290098348
-0.27782306 -0.028356848 1.4430001 4289900967
-0.27657077 -0.028356848 1.4430001 4289966756
-0.27531844 -0.028356848 1.4430001 4290164131
-0.27425608 -0.028376499 1.4440001 4290295715
-0.27319196 -0.028396148 1.4450001 4290295714
-0.27212611 -0.028415803 1.4460001 4290229664
-0.27068385 -0.028396148 1.4450001 4290229409
-0.26980275 -0.028435452 1.447 4290295202
-0.26873255 -0.028455103 1.4480001 4290426529
-0.26766062 -0.028474754 1.4490001 4290492323
-0.26695469 -0.028533706 1.452 4290360736
-0.26587754 -0.028553361 1.4530001 4290492323
-0.26479867 -0.028573012 1.4540001 4290426274
-0.26408055 -0.028631965 1.457 4290163358
-0.2628161 -0.028631965 1.457 4289834906
-0.26173118 -0.028651616 1.4580001 4289176975
-0.26082313 -0.028690919 1.46 4288387460
-0.25973386 -0.02871057 1.4610001 4287729530
-0.25846592 -0.02871057 1.4610001 4287268979
-0.25772613 -0.028769525 1.4640001 4286545257
-0.25663078 -0.028789174 1.465 4286018657
-0.25535938 -0.028789174 1.465 4285952864
-0.25460827 -0.028848128 1.4680001 4286216036
-0.25350684 -0.028867783 1.4690001 4286479208
-0.25240371 -0.028887432 1.47 4286676587
-0.25164047 -0.028946387 1.473 4286610794
-0.25053209 -0.028966038 1.4740001 4286413415
-0.249422 -0.028985688 1.475 4286216036
-0.24881482 -0.029064296 1.4790001 4286150243
-0.24769863 -0.029083945 1.48 4285887071
-0.24658073 -0.029103596 1.4810001 4285689178
-0.24579233 -0.02916255 1.4840001 4285360470
-0.24466918 -0.029182201 1.485 4285162834
-0.24258077 -0.029241154 1.488 4285492055
-0.24145156 -0.029260809 1.4890001 4285820763
-0.2404819 -0.029300109 1.4910001 4286018142
-0.23918794 -0.029300109 1.4910001 4285952350
-0.23805352 -0.029319763 1.4920001 4285820764
-0.23691739 -0.029339412 1.493 4285754970
-0.23577951 -0.029359063 1.4940001 4285623384
-0.23448294 -0.029359063 1.4940001 4285820763
-0.23349853 -0.029398367 1.4960001 4285952349
-0.23220024 -0.029398367 1.4960001 4286083935
-0.23105627 -0.029418018 1.4970001 4286149728
-0.23006408 -0.029457321 1.4990001 4285952862
-0.22876316 -0.029457321 1.4990001 4285755740
-0.227614 -0.029476972 1.5000001 4285558361
-0.22646309 -0.029496621 1.501 4285426775
-0.22501045 -0.029476972 1.5000001 4285492568
-0.22370867 -0.029476972 1.5000001 4285492568
-0.22255518 -0.029496621 1.501 4285492054
-0.22125253 -0.029496621 1.501 4285360468
-0.21994989 -0.029496621 1.501 4285426005
-0.21850158 -0.029476972 1.5000001 4285557591
-0.21719982 -0.029476972 1.5000001 4285754970
-0.21575409 -0.029457321 1.4990001 4285820763
-0.21416707 -0.029418018 1.4970001 4285820763
-0.2127257 -0.029398367 1.4960001 4285754970
-0.21086209 -0.029319763 1.4920001 4285820250
-0.20942681 -0.029300109 1.4910001 4285754713
