# .PCD v0.7 - Point Cloud Data file format
VERSION 0.7
FIELDS x y z rgba
SIZE 4 4 4 4
TYPE F F F U
COUNT 1 1 1 1
WIDTH 1095
HEIGHT 1
VIEWPOINT 0 0 0 1 0 0 0
POINTS 1095
DATA ascii
-0.11964224 0.016438046 1.2550001 4280052911
-0.11746394 0.016438046 1.2550001 4279921581
-0.11519378 0.016424948 1.2540001 4279987374
-0.11301722 0.016424948 1.2540001 4279987118
-0.11084065 0.016424948 1.2540001 4280052911
-0.10866409 0.016424948 1.2540001 4279921068
-0.10648752 0.016424948 1.2540001 4279920811
-0.10431095 0.016424948 1.2540001 4279920808
-0.10205294 0.016411848 1.253 4279920551
-0.099957824 0.016424948 1.2540001 4280051625
-0.097859234 0.016438046 1.2550001 4280117420
-0.095604688 0.016424948 1.2540001 4279985834
-0.093428127 0.016424948 1.2540001 4279920291
-0.091324329 0.016438046 1.2550001 4280183462
-0.089146025 0.016438046 1.2550001 4280051876
-0.087037027 0.016451145 1.256 4279920290
-0.084992111 0.016477339 1.258 4279986085
-0.082808599 0.016477339 1.258 4280117158
-0.080560997 0.016464243 1.2570001 4280117158
-0.078316875 0.016451145 1.256 4280116388
-0.076076217 0.016438046 1.2550001 4280050595
-0.073839031 0.016424948 1.2540001 4280116130
-0.071662471 0.016424948 1.2540001 4280116129
-0.069541313 0.016438046 1.2550001 4279984543
-0.067470364 0.016464243 1.2570001 4279984541
-0.065340534 0.016477339 1.258 4279984541
-0.06310682 0.016464243 1.2570001 4280050076
-0.060828112 0.016438046 1.2550001 4279984283
-0.058603074 0.016424948 1.2540001 4280114840
-0.056381512 0.016411848 1.253 4280378012
-0.054249942 0.016424948 1.2540001 4280378010
-0.052114904 0.016438046 1.2550001 4280573597
-0.050095763 0.016490439 1.2590001 4280508058
-0.048138846 0.016569026 1.2650001 4280770458
-0.046088461 0.016621418 1.2690001 4281032341
-0.044024192 0.016673811 1.273 4281687692
-0.038453095 0.017145339 1.309 4281811552
-0.036402188 0.017250124 1.317 4282074724
-0.034193985 0.017289419 1.3200001 4282206310
-0.032047875 0.017368007 1.3260001 4282337894
-0.029836075 0.0174204 1.33 4282272871
-0.027548293 0.017433498 1.3310001 4282272871
-0.025294963 0.017472791 1.3340001 4282404457
-0.023065671 0.017538281 1.3390001 4282404457
-0.020788042 0.017577576 1.342 4282930801
-0.018541263 0.017656164 1.348 4283326072
-0.016237598 0.017695459 1.3510001 4282603378
-0.01159048 0.017760949 1.3560001 4282801267
-0.0092709325 0.01782644 1.3610001 4283395198
-0.0069238753 0.017865732 1.3640001 4284711058
-0.0045897872 0.017996714 1.3740001 4284904326
-0.17569435 0.019253381 1.299 4281030024
-0.17303912 0.019208917 1.296 4280635523
-0.17065786 0.019194096 1.2950001 4280569727
-0.16788995 0.019134808 1.291 4281293447
-0.16552085 0.019119987 1.2900001 4282543767
-0.1632818 0.019119987 1.2900001 4282740890
-0.16079307 0.019090343 1.2880001 4284450486
-0.15843438 0.019075522 1.2870001 4284055473
-0.15607917 0.019060699 1.286 4282805917
-0.1536078 0.019031057 1.284 4281490318
-0.15137917 0.019031057 1.284 4280438407
-0.14891821 0.019001413 1.2820001 4280177033
-0.14623533 0.018942125 1.2780001 4280112266
-0.14390443 0.018927304 1.2770001 4280178575
-0.14157699 0.018912483 1.276 4280113810
-0.13925302 0.018897662 1.2750001 4279916689
-0.13693252 0.018882841 1.274 4279851926
-0.13450974 0.018853197 1.2720001 4279786905
-0.13230194 0.018853197 1.2720001 4280115871
-0.12937821 0.018749444 1.2650001 4280444582
-0.12708201 0.018734623 1.2640001 4280642989
-0.12459167 0.018690158 1.261 4280445868
-0.12211175 0.018645693 1.258 4280380589
-0.11983291 0.018630872 1.2570001 4280249005
-0.11755755 0.01861605 1.256 4280183982
-0.11528564 0.018601228 1.2550001 4279987117
-0.11310735 0.018601228 1.2550001 4280118704
-0.11084065 0.018586406 1.2540001 4280052911
-0.10857743 0.018571584 1.253 4279987118
-0.10623276 0.018541941 1.251 4280052653
-0.10389505 0.018512297 1.2490001 4280645297
-0.10172716 0.018512297 1.2490001 4282290111
-0.09955927 0.018512297 1.2490001 4281566641
-0.097469352 0.018527118 1.25 4280446885
-0.095299728 0.018527118 1.25 4280117412
-0.093055606 0.018512297 1.2490001 4280117668
-0.090814948 0.018497476 1.248 4280314788
-0.088719837 0.018512297 1.2490001 4280183203
-0.086690538 0.018541941 1.251 4280051874
-0.084654301 0.018571584 1.253 4280183462
-0.082413651 0.018556762 1.2520001 4280117671
-0.080176465 0.018541941 1.251 4280051878
-0.077942744 0.018527118 1.25 4279920038
-0.075773127 0.018527118 1.25 4279985572
-0.073544621 0.018512297 1.2490001 4280116388
-0.071433879 0.018527118 1.25 4280116388
-0.069375083 0.018556762 1.2520001 4280050595
-0.067309335 0.018586406 1.2540001 4280050593
-0.065184712 0.018601228 1.2550001 4279984800
-0.062905997 0.018571584 1.253 4280116127
-0.060682707 0.018556762 1.2520001 4280115869
-0.058462877 0.018541941 1.251 4280312992
-0.056291517 0.018541941 1.251 4280312476
-0.054249942 0.018586406 1.2540001 4280443037
-0.05215643 0.01861605 1.256 4280574623
-0.050175343 0.018690158 1.261 4280639644
-0.04289861 0.019357134 1.3060001 4281418078
-0.040725123 0.019401599 1.309 4281811550
-0.038599975 0.019475708 1.314 4282074464
-0.036485109 0.019564638 1.3200001 4282337381
-0.034271698 0.019609103 1.3230001 4282337894
-0.032096215 0.019683212 1.3280001 4282469735
-0.029880941 0.019742498 1.332 4282272870
-0.02756899 0.019742498 1.332 4282470252
-0.025313925 0.019786961 1.335 4282404716
-0.023082897 0.01986107 1.34 4282799728
-0.020788042 0.019890714 1.342 4283260536
-0.018541263 0.019979646 1.348 4282537585
-0.016237598 0.020024111 1.3510001 4282537846
-0.011599028 0.02011304 1.3570001 4282933631
-0.0092845559 0.02020197 1.363 4283790730
-0.0069340277 0.020246437 1.3660001 4284579468
-0.0045831064 0.020335365 1.3720001 4284181883
-0.17596483 0.021525495 1.3010001 4280767109
-0.17317262 0.021459313 1.2970001 4280897925
-0.17065786 0.021426223 1.2950001 4281225087
-0.16815004 0.021393131 1.2930001 4280897144
-0.16577747 0.021376587 1.2920001 4280569979
-0.16340838 0.021360042 1.291 4280635777
-0.16104275 0.021343496 1.2900001 4281161607
-0.15868059 0.021326952 1.289 4282147730
-0.15632191 0.021310406 1.2880001 4283265183
-0.1539667 0.02129386 1.2870001 4284778679
-0.15161496 0.021277314 1.286 4285107899
-0.14915052 0.021244224 1.284 4284121004
-0.14669305 0.021211134 1.2820001 4282081172
-0.14435518 0.021194587 1.281 4281358223
-0.14190985 0.021161499 1.279 4280833420
-0.13968989 0.021161499 1.279 4280505483
-0.13736245 0.021144951 1.2780001 4280309646
-0.13493274 0.021111861 1.276 4279981966
-0.13261397 0.021095315 1.2750001 4279785360
-0.13009413 0.021045679 1.2720001 4279850901
-0.12748417 0.020979498 1.268 4280114331
-0.1250857 0.020946408 1.266 4280180638
-0.12259709 0.02089677 1.263 4280379045
-0.12030958 0.020880226 1.2620001 4280576682
-0.11802552 0.020863682 1.261 4280774832
-0.11565309 0.02083059 1.2590001 4280512432
-0.11337772 0.020814044 1.258 4280446641
-0.11110582 0.020797499 1.2570001 4280249775
-0.10866409 0.020747863 1.2540001 4280183983
-0.10631768 0.020714773 1.2520001 4280118447
-0.10389505 0.020665137 1.2490001 4280513203
-0.10148282 0.020615501 1.2460001 4281105591
-0.099399842 0.020632045 1.2470001 4281829053
-0.097235426 0.020632045 1.2470001 4282421190
-0.094918534 0.020598955 1.245 4281763510
-0.092683084 0.02058241 1.2440001 4281434284
-0.090523876 0.02058241 1.2440001 4281170857
-0.088293642 0.020565866 1.243 4280446372
-0.086274758 0.020598955 1.245 4280117667
-0.084181376 0.020615501 1.2460001 4280249255
-0.08195287 0.020598955 1.245 4280052391
-0.079727829 0.02058241 1.2440001 4279986085
-0.07756862 0.02058241 1.2440001 4279985574
-0.075348802 0.020565866 1.243 4280050595
-0.073309094 0.020598955 1.245 4280182181
-0.071205296 0.020615501 1.2460001 4280116388
-0.069208845 0.020665137 1.2490001 4279985572
-0.067148313 0.020698229 1.251 4279919779
-0.064976953 0.020698229 1.251 4279919777
-0.062755384 0.020681681 1.25 4280050847
-0.060537301 0.020665137 1.2490001 4280378786
-0.058416139 0.020681681 1.25 4280379041
-0.056336518 0.020714773 1.2520001 4280247455
-0.054336466 0.020780955 1.256 4280378272
-0.052281007 0.02083059 1.2590001 4280771489
-0.050334502 0.020929862 1.2650001 4281163674
-0.0450271 0.021542041 1.302 4281418589
-0.042931456 0.021624768 1.307 4281747037
-0.040787347 0.021690948 1.3110001 4281811550
-0.038688101 0.021790219 1.317 4282271588
-0.036540389 0.021872947 1.322 4282403942
-0.034297604 0.021906037 1.3240001 4282338663
-0.032120384 0.021988764 1.3290001 4282272871
-0.029880941 0.0220384 1.332 4282338664
-0.027589688 0.022054946 1.3330001 4282339177
-0.025313925 0.022088036 1.335 4282405227
-0.023082897 0.022170762 1.34 4282932343
-0.020803533 0.022220399 1.3430001 4282537846
-0.018555019 0.022319671 1.3490001 4282406260
-0.013913237 0.022385854 1.353 4283065469
-0.011616122 0.022485126 1.3590001 4283263359
-0.0092981802 0.022584397 1.365 4284447371
-0.0069492562 0.022650579 1.3690001 4284511359
-0.0046131704 0.022849122 1.381 4282798947
-0.18214582 0.023987193 1.3130001 4292471288
-0.17918192 0.023895847 1.3080001 4280893544
-0.17596483 0.023767963 1.3010001 4281091961
-0.17330614 0.023713157 1.2980001 4283130509
-0.17092143 0.023694888 1.2970001 4284312726
-0.16828009 0.023640079 1.294 4283919768
-0.16577747 0.023603544 1.2920001 4282410385
-0.16340838 0.023585273 1.291 4280570241
-0.16104275 0.023567006 1.2900001 4280569473
-0.15868059 0.023548737 1.289 4280700802
-0.15632191 0.023530466 1.2880001 4280700544
-0.15384707 0.023493929 1.286 4281160323
-0.15161496 0.023493929 1.286 4281555078
-0.14915052 0.023457391 1.284 4283002266
-0.14657861 0.023402583 1.281 4283592355
-0.1442425 0.023384316 1.2800001 4284907192
-0.14190985 0.023366047 1.279 4284186033
-0.13968989 0.023366047 1.279 4281490832
-0.13725497 0.023329508 1.2770001 4280899211
-0.13482699 0.02329297 1.2750001 4280570759
-0.13261397 0.02329297 1.2750001 4280440971
-0.13009413 0.023238163 1.2720001 4280112782
-0.1275847 0.023183357 1.2690001 4280112272
-0.12518451 0.023146817 1.2670001 4280112787
-0.12279123 0.02311028 1.2650001 4280113812
-0.12050024 0.023092011 1.2640001 4279982741
-0.11811913 0.023055473 1.2620001 4280180895
-0.11574495 0.023018936 1.2600001 4280247459
-0.11346785 0.023000667 1.2590001 4280576938
-0.11119421 0.022982396 1.258 4280511657
-0.10875074 0.02292759 1.2550001 4280708529
-0.1064026 0.022891052 1.253 4280577714
-0.10397822 0.022836244 1.25 4280512177
-0.10156426 0.022781437 1.2470001 4280380848
-0.099320136 0.02276317 1.2460001 4280315054
-0.097079478 0.0227449 1.245 4280381104
-0.094842292 0.022726631 1.2440001 4280841395
-0.092608586 0.022708364 1.243 4281697468
-0.090378344 0.022690093 1.2420001 4282815689
-0.088151567 0.022671824 1.2410001 4282487233
-0.086066864 0.022690093 1.2420001 4281565879
-0.083911128 0.022690093 1.2420001 4280775340
-0.081689566 0.022671824 1.2410001 4280248742
-0.079535559 0.022671824 1.2410001 4280444838
-0.077381559 0.022671824 1.2410001 4281033379
-0.075227559 0.022671824 1.2410001 4281493412
-0.07319133 0.022708364 1.243 4280376735
-0.071090996 0.022726631 1.2440001 4279917985
-0.069042616 0.02276317 1.2460001 4280313512
-0.06693361 0.022781437 1.2470001 4280379305
-0.064769194 0.022781437 1.2470001 4280248745
-0.062604778 0.022781437 1.2470001 4280247975
-0.060488828 0.022799708 1.248 4280247972
-0.058275942 0.022781437 1.2470001 4280051359
-0.056246523 0.022836244 1.25 4280509604
-0.054336466 0.02294586 1.256 4280706207
-0.052281007 0.023000667 1.2590001 4280837019
-0.050294712 0.023092011 1.2640001 4282148249
-0.045061685 0.023804503 1.3030001 4281877083
-0.042964302 0.023895847 1.3080001 4282205281
-0.040787347 0.023950653 1.3110001 4282074464
-0.038688101 0.024060268 1.317 4282140770
-0.036512747 0.024133343 1.3210001 4282469735
-0.034271698 0.024169883 1.3230001 4282207077
-0.032096215 0.024261227 1.3280001 4282272871
-0.029858507 0.024316033 1.3310001 4282338923
-0.02756899 0.024334302 1.332 4282142059
-0.025313925 0.024389109 1.335 4282997882
-0.023082897 0.024480455 1.34 4282932604
-0.020788042 0.024516992 1.342 4282407028
-0.018555019 0.024644876 1.3490001 4282604413
-0.013902954 0.024699682 1.3520001 4283196544
-0.011607575 0.024809295 1.358 4284050821
-0.0093049919 0.02495545 1.3660001 4284905604
-0.0069543323 0.025028525 1.3700001 4283720554
-0.0046165111 0.025247753 1.3820001 4283127137
-0.17623535 0.026050419 1.3030001 4283260811
-0.17343967 0.025970448 1.299 4286943668
-0.1710532 0.025950456 1.2980001 4286350758
-0.16841014 0.025890477 1.2950001 4284904598
-0.16590577 0.025850492 1.2930001 4285169570
-0.16353495 0.0258305 1.2920001 4284315553
-0.16104275 0.025790514 1.2900001 4281290621
-0.15868059 0.025770523 1.289 4280963201
-0.15632191 0.025750529 1.2880001 4280634495
-0.1539667 0.025730537 1.2870001 4280897151
-0.15161496 0.025710544 1.286 4280962941
-0.14926669 0.025690552 1.2850001 4280765817
-0.14669305 0.025630573 1.2820001 4280962171
-0.14435518 0.025610579 1.281 4281488260
-0.14190985 0.025570596 1.279 4282410132
-0.13968989 0.025570596 1.279 4282148245
-0.13736245 0.025550602 1.2780001 4282280855
-0.13493274 0.025510617 1.276 4282083984
-0.132718 0.025510617 1.276 4281689995
-0.13029869 0.025470633 1.274 4280967047
-0.12788633 0.025430646 1.2720001 4280703884
-0.12557971 0.025410652 1.271 4280506507
-0.1231795 0.025370669 1.2690001 4280375179
-0.12088157 0.025350675 1.268 4280178574
-0.1184935 0.025310691 1.266 4279981969
-0.11602053 0.025250712 1.263 4279785363
-0.11373822 0.025230721 1.2620001 4279983511
-0.11137099 0.025190735 1.2600001 4279917977
-0.1090107 0.025150748 1.258 4280379044
-0.10674228 0.025130756 1.2570001 4280840108
-0.10431095 0.025070779 1.2540001 4280840365
-0.1018086 0.024990808 1.25 4280512431
-0.099399842 0.024930829 1.2470001 4280119214
-0.097157456 0.024910837 1.2460001 4280118703
-0.094918534 0.024890844 1.245 4280185009
-0.09253408 0.024830867 1.2420001 4280381873
-0.090232797 0.024790881 1.24 4280709811
-0.088080533 0.024790881 1.24 4280776113
-0.085858978 0.024770889 1.2390001 4281105587
-0.083573319 0.024730904 1.2370001 4282156996
-0.081426263 0.024730904 1.2370001 4281894078
-0.079215117 0.024710912 1.2360001 4281498035
-0.077069789 0.024710912 1.2360001 4282415273
-0.074985087 0.024730904 1.2370001 4286293972
-0.072955795 0.024770889 1.2390001 4286556372
-0.070862405 0.024790881 1.24 4285307846
-0.068765551 0.024810875 1.2410001 4281756832
-0.066665232 0.024830867 1.2420001 4280180893
-0.064509496 0.024830867 1.2420001 4280116388
-0.062353756 0.024830867 1.2420001 4280313767
-0.060343426 0.024890844 1.245 4280248746
-0.058275942 0.024930829 1.2470001 4280510375
-0.056381512 0.025050785 1.253 4280641444
-0.049432695 0.025970448 1.299 4281679710
-0.047250662 0.026010433 1.3010001 4282073692
-0.045165434 0.026110396 1.3060001 4281942876
-0.043095693 0.026230352 1.312 4282140515
-0.040880684 0.026270337 1.314 4282205795
-0.038717479 0.026350308 1.3180001 4282338149
-0.036540389 0.026430279 1.322 4282207077
-0.034297604 0.026470264 1.3240001 4282272870
-0.032120384 0.026570227 1.3290001 4282273384
-0.029880941 0.026630204 1.332 4282207850
-0.02756899 0.026630204 1.332 4282734710
-0.025332887 0.026710177 1.3360001 4282603639
-0.023100125 0.026810139 1.3410001 4282406774
-0.020788042 0.026830131 1.342 4282407034
-0.018541263 0.026950089 1.348 4282538373
-0.013902954 0.027030058 1.3520001 4283393919
-0.01162467 0.02719 1.36 4284446083
-0.009325427 0.027369933 1.3690001 4284510846
-0.0069695604 0.027449904 1.373 4283325545
-0.0046298727 0.027709808 1.386 4283719274
-0.17637061 0.028318053 1.304 4282603391
-0.17357318 0.028231187 1.3000001 4286615471
-0.171185 0.028209468 1.299 4286219686
-0.16854018 0.02814432 1.296 4286942892
-0.1660341 0.028100887 1.294 4287402929
-0.16366152 0.028079173 1.2930001 4286745517
-0.16116759 0.028035739 1.291 4285367208
-0.15880369 0.028014023 1.2900001 4284053923
-0.15644328 0.027992308 1.289 4282869400
-0.1539667 0.027948875 1.2870001 4281883272
-0.15173285 0.027948875 1.2870001 4281028731
-0.14938284 0.027927157 1.286 4283068316
-0.14680746 0.027862009 1.2830001 4282345363
-0.14435518 0.027818576 1.281 4280701567
-0.14202081 0.027796861 1.2800001 4280635779
-0.13968989 0.027775144 1.279 4280832389
-0.13736245 0.027753428 1.2780001 4280898434
-0.13503848 0.027731711 1.2770001 4281228167
-0.13282199 0.027731711 1.2770001 4281820555
-0.13050324 0.027709994 1.276 4282347152
-0.12818794 0.027688278 1.2750001 4282085263
-0.12597492 0.027688278 1.2750001 4281493125
-0.12356778 0.027644847 1.273 4281229956
-0.12126289 0.02762313 1.2720001 4280637829
-0.11868071 0.027536264 1.268 4280440712
-0.11620425 0.027471116 1.2650001 4280309902
-0.11391847 0.027449399 1.2640001 4280113040
-0.11163615 0.027427683 1.263 4280047763
-0.10935732 0.027405966 1.2620001 4279916693
-0.10699703 0.027362535 1.2600001 4280114073
-0.10464369 0.027319102 1.258 4280180123
-0.10221583 0.027253952 1.2550001 4280115614
-0.099957824 0.027232237 1.2540001 4280379815
-0.097313404 0.02710194 1.248 4280643501
-0.09507101 0.027080223 1.2470001 4280709552
-0.092683084 0.027015073 1.2440001 4280577968
-0.090378344 0.02697164 1.2420001 4280512175
-0.088222601 0.02697164 1.2420001 4280380847
-0.085928269 0.026928207 1.24 4280249773
-0.083573319 0.026863059 1.2370001 4280315563
-0.081360437 0.026841344 1.2360001 4280645039
-0.079151027 0.026819626 1.235 4280974002
-0.077007435 0.026819626 1.235 4281630384
-0.074863851 0.026819626 1.235 4283076018
-0.072779149 0.026841344 1.2360001 4285572040
-0.070690967 0.026863059 1.2370001 4285899208
-0.068543904 0.026863059 1.2370001 4285504453
-0.066343173 0.026841344 1.2360001 4285569732
-0.064405605 0.026928207 1.24 4285569991
-0.060343426 0.02703679 1.245 4280575395
-0.058322679 0.02710194 1.248 4280773287
-0.056471508 0.027253952 1.2550001 4281232806
-0.051329259 0.028014023 1.2900001 4281678424
-0.049470752 0.028231187 1.3000001 4282073174
-0.047323301 0.028296335 1.3030001 4282270301
-0.045269184 0.028426632 1.309 4282336353
-0.043161388 0.028535215 1.314 4282206563
-0.040942907 0.028578646 1.3160001 4282337636
-0.03877623 0.028665513 1.3200001 4282272356
-0.036595669 0.028752379 1.3240001 4282141284
-0.03432351 0.028774092 1.325 4282338663
-0.032120384 0.028860958 1.3290001 4282141798
-0.029903373 0.028947825 1.3330001 4282602608
-0.027610384 0.028969541 1.3340001 4282932089
-0.025351848 0.029034691 1.337 4282472568
-0.023100125 0.029121554 1.3410001 4282078069
-0.020803533 0.029164989 1.3430001 4282341241
-0.016213562 0.029295284 1.3490001 4283064717
-0.013913237 0.029382151 1.353 4283854220
-0.011633218 0.02955588 1.3610001 4284709001
-0.0093390504 0.029773042 1.3710001 4282866021
-0.0069847889 0.029881626 1.376 4283259237
-0.0046365536 0.03014222 1.388 4283718759
-0.17664111 0.030612571 1.3060001 4281222769
-0.1737067 0.030495374 1.3010001 4284182166
-0.17131677 0.030471932 1.3000001 4285628068
-0.16867022 0.030401612 1.2970001 4286416037
-0.1660341 0.030331293 1.294 4287402160
-0.16366152 0.030307852 1.2930001 4284377997
-0.16116759 0.030260973 1.291 4284512155
-0.15880369 0.030237533 1.2900001 4285302705
-0.15644328 0.030214092 1.289 4285369273
-0.1539667 0.030167213 1.2870001 4284054441
-0.15161496 0.030143771 1.286 4281291903
-0.14926669 0.030120332 1.2850001 4283133852
-0.14680746 0.030073453 1.2830001 4283594917
-0.14446788 0.030050011 1.2820001 4280964228
-0.14202081 0.030003132 1.2800001 4280700801
-0.13958067 0.029956255 1.2780001 4280963205
-0.13736245 0.029956255 1.2780001 4280568705
-0.13503848 0.029932814 1.2770001 4280635525
-0.132718 0.029909372 1.276 4280833158
-0.13040096 0.029885935 1.2750001 4280767617
-0.1280874 0.029862493 1.274 4281360263
-0.12587613 0.029862493 1.274 4281689738
-0.12356778 0.029839052 1.273 4282216333
-0.12126289 0.029815612 1.2720001 4282018957
-0.11877429 0.029745292 1.2690001 4281756045
-0.11629611 0.029674973 1.266 4280966541
-0.1140086 0.029651536 1.2650001 4280637840
-0.11172455 0.029628094 1.2640001 4280243597
-0.10935732 0.029581212 1.2620001 4280178063
-0.10708195 0.029557774 1.261 4280243600
-0.10472687 0.029510893 1.2590001 4280243346
-0.10237873 0.029464014 1.2570001 4279850128
-0.10003754 0.029417135 1.2550001 4279785363
-0.097391382 0.029276492 1.2490001 4280049307
-0.09507101 0.029229615 1.2470001 4280181664
-0.09275759 0.029182736 1.245 4280379815
-0.090523876 0.029159294 1.2440001 4280708524
-0.088364668 0.029159294 1.2440001 4280642733
-0.086066864 0.029112415 1.2420001 4280446636
-0.083708443 0.029042093 1.2390001 4280316333
-0.081492089 0.029018655 1.238 4279987885
-0.079215117 0.028971775 1.2360001 4280052911
-0.077007435 0.028948337 1.235 4280250543
-0.074863851 0.028948337 1.235 4280382124
-0.072779149 0.028971775 1.2360001 4281696184
-0.070576675 0.028948337 1.235 4281958319
-0.068377674 0.028924895 1.2340001 4283598512
-0.066235818 0.028924895 1.2340001 4285701569
-0.064301729 0.029018655 1.238 4286227660
-0.060294952 0.029159294 1.2440001 4281627817
-0.058322679 0.029253056 1.248 4281100960
-0.05642651 0.029393695 1.2540001 4282542748
-0.051408835 0.03028441 1.2920001 4282138713
-0.049508806 0.030495374 1.3010001 4282402398
-0.047323301 0.030542253 1.3030001 4282402400
-0.045269184 0.030682892 1.309 4282402657
-0.043161388 0.030800093 1.314 4282271841
-0.040942907 0.03084697 1.3160001 4282141538
-0.03877623 0.030940732 1.3200001 4282207077
-0.036595669 0.031034492 1.3240001 4282272870
-0.03432351 0.03105793 1.325 4282141797
-0.032120384 0.03115169 1.3290001 4282536813
-0.029880941 0.03122201 1.332 4282800503
-0.027589688 0.031245451 1.3330001 4282603384
-0.025351848 0.03133921 1.337 4282340984
-0.023100125 0.031432968 1.3410001 4282341243
-0.020803533 0.03147985 1.3430001 4282735497
-0.016213562 0.031620488 1.3490001 4283261317
-0.013913237 0.031714249 1.353 4284247432
-0.011633218 0.031901769 1.3610001 4282865768
-0.0093390504 0.032136168 1.3710001 4283259752
-0.0069847889 0.03225337 1.376 4283456102
-0.0046365536 0.032534648 1.388 4283586921
-0.17704687 0.032939151 1.309 4280894831
-0.17397374 0.032788169 1.3030001 4281551991
-0.17158034 0.032763004 1.302 4282602624
-0.16893032 0.032687511 1.299 4283984016
-0.16629072 0.032612022 1.296 4283655822
-0.16391467 0.032586858 1.2950001 4281419893
-0.16141726 0.032536533 1.2930001 4281553276
-0.1589268 0.032486208 1.291 4282409100
-0.15656464 0.032461043 1.2900001 4283264667
-0.15408634 0.032410715 1.2880001 4283857316
-0.15185076 0.032410715 1.2880001 4282805400
-0.149499 0.03238555 1.2870001 4282871193
-0.14692189 0.032310061 1.284 4282147216
-0.14469326 0.032310061 1.284 4280895862
-0.14213175 0.032234572 1.281 4287012547
-0.13968989 0.032184239 1.279 4286091184
-0.13736245 0.032159079 1.2780001 4284974764
-0.13503848 0.032133915 1.2770001 4280239479
-0.13282199 0.032133915 1.2770001 4280635269
-0.13050324 0.03210875 1.276 4280504962
-0.12818794 0.03208359 1.2750001 4280438914
-0.12597492 0.03208359 1.2750001 4280373891
-0.12366485 0.032058425 1.274 4280834179
-0.12135824 0.032033261 1.273 4281096579
-0.1189615 0.031982932 1.271 4281426060
-0.11647984 0.031907443 1.268 4281492116
-0.11409872 0.031857114 1.266 4280966288
-0.11181294 0.031831954 1.2650001 4280374411
-0.10953063 0.031806789 1.2640001 4280439693
-0.1073367 0.031806789 1.2640001 4280308623
-0.10505959 0.031781625 1.263 4280243601
-0.10262307 0.031706132 1.2600001 4280112529
-0.10027667 0.031655807 1.258 4279981971
-0.09754733 0.03147966 1.251 4279916435
-0.095299728 0.031454496 1.25 4279719571
-0.093055606 0.031429332 1.2490001 4279391633
-0.090814948 0.031404171 1.248 4279589783
-0.088648796 0.031404171 1.248 4279852698
-0.086344056 0.031353842 1.2460001 4280050593
-0.084046252 0.031303518 1.2440001 4280708525
-0.081755392 0.031253189 1.2420001 4280708015
-0.079471469 0.03120286 1.24 4280774580
-0.077132143 0.031127371 1.2370001 4280184752
-0.074985087 0.031127371 1.2370001 4280054193
-0.072720259 0.031077044 1.235 4280118959
-0.070576675 0.031077044 1.235 4280118186
-0.068266854 0.031001555 1.2320001 4280512686
-0.066182151 0.031026715 1.233 4280644009
-0.064301729 0.031152535 1.238 4282221755
-0.05580736 0.032461043 1.2900001 4281678680
-0.053651359 0.032511368 1.2920001 4282072920
-0.051607788 0.032637186 1.2970001 4282139226
-0.049584914 0.032788169 1.3030001 4282140255
-0.047395933 0.032838494 1.3050001 4282402657
-0.045338348 0.03298948 1.3110001 4282403681
-0.04325993 0.033140458 1.317 4282207331
-0.041036241 0.033190787 1.319 4282206563
-0.038864356 0.03329144 1.3230001 4282600808
-0.036650948 0.03336693 1.3260001 4282272870
-0.034349412 0.03336693 1.3260001 4282405482
-0.032120384 0.033442423 1.3290001 4282932343
-0.029880941 0.033517912 1.332 4282866809
-0.027610384 0.033568241 1.3340001 4282209398
-0.025389772 0.033694059 1.3390001 4282210168
-0.023134576 0.033794712 1.3430001 4282538373
-0.020834515 0.033845037 1.345 4282867086
-0.016249618 0.034021184 1.3520001 4283327101
-0.013933803 0.034096673 1.355 4283063149
-0.011650313 0.034297984 1.363 4282996326
-0.009345863 0.034524456 1.3720001 4283258469
-0.0069847889 0.034625113 1.376 4283389796
-0.0046332134 0.03490191 1.3870001 4283849836
-0.17745262 0.03527607 1.312 4281090147
-0.17424078 0.035087857 1.3050001 4281946741
-0.1718439 0.035060972 1.304 4281288305
-0.16919041 0.034980312 1.3010001 4280697711
-0.16654733 0.034899652 1.2980001 4280896119
-0.16416782 0.034872763 1.2970001 4281225085
-0.1615421 0.034792099 1.294 4281027965
-0.1590499 0.034738325 1.2920001 4280962172
-0.15668602 0.034711439 1.291 4280962428
-0.15420596 0.034657661 1.289 4281357442
-0.15196864 0.034657661 1.289 4281094271
-0.14961517 0.034630779 1.2880001 4281752458
-0.14715074 0.034577001 1.286 4280831611
-0.14480595 0.034550112 1.2850001 4280764270
-0.14224271 0.034469452 1.2820001 4288458442
-0.1397991 0.034415677 1.2800001 4287800249
-0.13746993 0.034388788 1.279 4289710305
-0.13514422 0.034361906 1.2780001 4282605444
-0.132926 0.034361906 1.2780001 4281488255
-0.1306055 0.034335017 1.2770001 4280502651
-0.12828849 0.034308128 1.276 4280240767
-0.12607373 0.034308128 1.276 4280439174
-0.12376191 0.034281243 1.2750001 4280636552
-0.12145357 0.034254353 1.274 4280636035
-0.1189615 0.034173694 1.271 4280766853
-0.11657169 0.034119919 1.2690001 4280898185
-0.11427897 0.034093034 1.268 4280833162
-0.11190133 0.034039255 1.266 4280504969
-0.10970393 0.034039255 1.266 4280571021
-0.10750654 0.034039255 1.266 4280243084
-0.10522597 0.03401237 1.2650001 4280374669
-0.10286741 0.033958595 1.263 4280374671
-0.10051581 0.033904821 1.261 4280243343
-0.098015182 0.033797272 1.2570001 4280112527
-0.095604688 0.033716612 1.2540001 4279849614
-0.093279123 0.033662837 1.2520001 4279916178
-0.091106027 0.033662837 1.2520001 4279851155
-0.088932931 0.033662837 1.2520001 4279719568
-0.08662124 0.033609059 1.25 4279653778
-0.0843165 0.033555288 1.248 4279720086
-0.082084514 0.033528399 1.2470001 4279721114
-0.079727829 0.033447739 1.2440001 4280445097
-0.077319205 0.033340186 1.24 4281168820
-0.075166941 0.033340186 1.24 4280972211
-0.072896913 0.033286415 1.238 4280513459
-0.070690967 0.033259526 1.2370001 4280250286
-0.068433084 0.033205751 1.235 4280315824
-0.066343173 0.033232637 1.2360001 4280118445
-0.062303551 0.033367075 1.2410001 4281298088
-0.057911418 0.03460389 1.2870001 4281482837
-0.055850621 0.034711439 1.291 4282073174
-0.053734411 0.034792099 1.294 4282336092
-0.051727161 0.034953423 1.3000001 4282402398
-0.049661022 0.035087857 1.3050001 4282534497
-0.047468573 0.035141636 1.307 4282403427
-0.045442097 0.035329845 1.314 4282272356
-0.043358475 0.035491168 1.3200001 4282272870
-0.041129574 0.035544943 1.322 4282272356
-0.038893733 0.035598718 1.3240001 4282010211
-0.03667859 0.035679381 1.327 4282273896
-0.034401223 0.035706263 1.3280001 4282734962
-0.032144554 0.035760041 1.33 4282735223
-0.029903373 0.035840701 1.3330001 4282275188
-0.027651779 0.035921365 1.3360001 4282209398
-0.025408734 0.036028914 1.34 4282407038
-0.020819023 0.03613646 1.3440001 4282932877
-0.018541263 0.036244009 1.348 4283129732
-0.016285675 0.036432222 1.355 4282997359
-0.013974936 0.036539771 1.3590001 4282536545
-0.011684502 0.036754869 1.3670001 4283062371
-0.0093662981 0.036969967 1.3750001 4283258469
-0.0069949413 0.037050627 1.378 4283455076
-0.0046332134 0.037292611 1.3870001 4283850347
-0.17772314 0.037594721 1.314 4281679961
-0.17464133 0.037423056 1.3080001 4287337900
-0.17223924 0.037394445 1.307 4287141808
-0.16945051 0.037280001 1.3030001 4284576914
-0.16680396 0.03719417 1.3000001 4282406776
-0.16454755 0.03719417 1.3000001 4280829034
-0.16179179 0.037079725 1.296 4280961399
-0.15929611 0.037022505 1.294 4281093501
-0.15680738 0.036965281 1.2920001 4281027710
-0.15444523 0.036936671 1.291 4280830589
-0.15220444 0.036936671 1.291 4280765308
-0.14984749 0.03690806 1.2900001 4280831616
-0.14737959 0.03685084 1.2880001 4280897406
-0.14503132 0.036822226 1.2870001 4280961911
-0.14257558 0.036765005 1.2850001 4284052631
-0.14001755 0.036679171 1.2820001 4287934408
-0.1376849 0.036650561 1.281 4289973995
-0.13524999 0.03659334 1.279 4284577691
-0.13303003 0.03659334 1.279 4286024369
-0.13070779 0.03656473 1.2780001 4285300907
-0.12838902 0.03653612 1.2770001 4283459992
-0.12617254 0.03653612 1.2770001 4281619072
-0.12366485 0.036450285 1.274 4280765816
-0.12145357 0.036450285 1.274 4280437367
-0.11905508 0.036393061 1.2720001 4280896898
-0.11666357 0.036335841 1.2700001 4280897160
-0.11436909 0.036307231 1.2690001 4280897416
-0.11207811 0.03627862 1.268 4280766342
-0.10979059 0.03625001 1.2670001 4280701576
-0.10759146 0.03625001 1.2670001 4280504967
-0.10522597 0.03619279 1.2650001 4280571017
-0.10286741 0.036135565 1.263 4280373640
-0.10051581 0.036078345 1.261 4280373640
-0.098093159 0.035992511 1.258 4280242570
-0.095604688 0.035878066 1.2540001 4280177292
-0.093353622 0.035849456 1.253 4280177550
-0.09117879 0.035849456 1.253 4280178064
-0.089003958 0.035849456 1.253 4280046734
-0.086690538 0.035792235 1.251 4279915665
-0.084384061 0.035735011 1.2490001 4279784847
-0.082084514 0.035677791 1.2470001 4279719311
-0.079727829 0.03559196 1.2440001 4279654035
-0.077381559 0.035506126 1.2410001 4279522707
-0.075227559 0.035506126 1.2410001 4280180894
-0.073014669 0.035477515 1.24 4280708269
-0.070805266 0.035448901 1.2390001 4280971958
-0.068543904 0.035391681 1.2370001 4280775347
-0.066396847 0.035391681 1.2370001 4280906931
-0.064457551 0.035506126 1.2410001 4281167273
-0.057866421 0.036793616 1.286 4282139735
-0.055850621 0.036936671 1.291 4282271063
-0.053734411 0.037022505 1.294 4282468189
-0.051727161 0.03719417 1.3000001 4282402911
-0.049699079 0.037365835 1.3060001 4282534497
-0.047504891 0.037423056 1.3080001 4282403681
-0.045442097 0.037594721 1.314 4282469735
-0.043325625 0.037737776 1.319 4282141285
-0.041098461 0.037795 1.3210001 4282207077
-0.038893733 0.03788083 1.3240001 4282141797
-0.03667859 0.037966665 1.327 4282668399
-0.034401223 0.037995271 1.3280001 4282734710
-0.032144554 0.038052496 1.33 4282603639
-0.029903373 0.03813833 1.3330001 4282012530
-0.027631082 0.03819555 1.335 4282143864
-0.025389772 0.038309995 1.3390001 4282670470
-0.023151802 0.038453046 1.3440001 4282670988
-0.018541263 0.038567491 1.348 4282931574
-0.016297694 0.03879638 1.3560001 4282930534
-0.013985219 0.038910825 1.36 4282733404
-0.011701599 0.039168321 1.3690001 4282930272
-0.0093799224 0.039397206 1.3770001 4283258210
-0.0070000174 0.03945443 1.3790001 4284243822
-0.0046365536 0.039711926 1.388 4284441969
-0.17799364 0.039920267 1.3160001 4281876306
-0.17477484 0.039707925 1.309 4287731622
-0.17237103 0.03967759 1.3080001 4290298315
-0.16971061 0.039586585 1.3050001 4290298830
-0.16706058 0.039495584 1.302 4289970898
-0.16467412 0.039465249 1.3010001 4287603899
-0.16216631 0.039404579 1.299 4284381593
-0.15966542 0.039343912 1.2970001 4281421945
-0.15729286 0.039313577 1.296 4281158779
-0.15456486 0.039192237 1.2920001 4280962171
-0.15244024 0.039222572 1.2930001 4280700282
-0.15019597 0.039222572 1.2930001 4280568699
-0.14772287 0.039161906 1.291 4281093760
-0.14548208 0.039161906 1.291 4281093246
-0.14301939 0.039101232 1.289 4281027449
-0.1403452 0.038979895 1.2850001 4282276996
-0.13811482 0.038979895 1.2850001 4283065744
-0.13567296 0.038919225 1.2830001 4281222772
-0.13334206 0.03888889 1.2820001 4282932874
-0.13091233 0.038828224 1.2800001 4284775330
-0.12848955 0.038767554 1.2780001 4286749893
-0.12607373 0.038706884 1.276 4287014087
-0.12376191 0.038676552 1.2750001 4285831091
-0.12154889 0.038676552 1.2750001 4283792022
-0.11914869 0.038615882 1.273 4282410635
-0.11675543 0.038555212 1.271 4280896636
-0.11454935 0.038555212 1.271 4280503168
-0.11225489 0.038524877 1.2700001 4280569732
-0.10996389 0.038494542 1.2690001 4280831623
-0.10767638 0.038464211 1.268 4280832135
-0.10539233 0.038433876 1.2670001 4280898698
-0.10294886 0.038342871 1.2640001 4280504709
-0.10067523 0.038312536 1.263 4280570505
-0.098249108 0.038221531 1.2600001 4280505226
-0.095909655 0.038160864 1.258 4280373642
-0.093577139 0.038100194 1.256 4280308108
-0.091324329 0.038069859 1.2550001 4280242572
-0.089146025 0.038069859 1.2550001 4280111498
-0.086829126 0.038009189 1.253 4280045965
-0.084519178 0.037948523 1.251 4279980941
-0.082281992 0.037918188 1.25 4279980941
-0.079984196 0.037857518 1.248 4280112787
-0.077630982 0.037766516 1.245 4279719056
-0.075470038 0.037766516 1.245 4279522191
-0.073250204 0.037736181 1.2440001 4279587473
-0.071033858 0.037705842 1.243 4279456401
-0.068820968 0.037675511 1.2420001 4279917468
-0.066665232 0.037675511 1.2420001 4281363624
-0.064561434 0.037705842 1.243 4282476953
-0.05800141 0.039101232 1.289 4282074712
-0.055980403 0.039252907 1.294 4282468700
-0.053817462 0.039313577 1.296 4282337884
-0.051806737 0.039495584 1.302 4282468702
-0.049813241 0.039707925 1.309 4282534243
-0.047650166 0.039798927 1.312 4282403940
-0.045545846 0.039950602 1.317 4282273124
-0.041098461 0.040071942 1.3210001 4282141285
-0.038952485 0.040223613 1.3260001 4282339434
-0.036706232 0.04028428 1.3280001 4282603378
-0.034427125 0.040314615 1.3290001 4282669432
-0.03216872 0.040375285 1.3310001 4282209395
-0.029903373 0.040435955 1.3330001 4282275448
-0.027610384 0.04046629 1.3340001 4282407549
-0.025389772 0.040617961 1.3390001 4282801291
-0.020834515 0.040799968 1.345 4282997885
-0.018568773 0.040951643 1.35 4282602599
-0.016357789 0.041285321 1.3610001 4282667615
-0.014036637 0.041406661 1.365 4283192928
-0.011744336 0.041679669 1.3740001 4283127137
-0.0094003575 0.041861679 1.3800001 4283916138
-0.007015246 0.041922349 1.3820001 4284441971
-0.0046398942 0.042134691 1.3890001 4284441969
-0.17853466 0.042316824 1.3200001 4281875795
-0.17490835 0.041996241 1.3100001 4287336612
-0.17250282 0.041964184 1.309 4290560976
-0.16997069 0.041900069 1.307 4288982714
-0.16757382 0.041868009 1.3060001 4288325812
-0.165307 0.041868009 1.3060001 4288063667
-0.16279049 0.041803893 1.304 4287998393
-0.16015783 0.041707721 1.3010001 4285433766
-0.15753558 0.041611545 1.2980001 4281093239
-0.15480413 0.041483313 1.294 4280831097
-0.15255813 0.041483313 1.294 4280896377
-0.15031214 0.041483313 1.294 4280765817
-0.14806615 0.041483313 1.294 4281027963
-0.14570746 0.041451253 1.2930001 4281355904
-0.1432413 0.041387137 1.291 4281158524
-0.14078207 0.041323017 1.289 4281289851
-0.13843729 0.041290961 1.2880001 4281224316
-0.13588446 0.041194785 1.2850001 4281224829
-0.13355006 0.041162729 1.284 4280830840
-0.1310146 0.041066553 1.281 4280765044
-0.12848955 0.040970381 1.2780001 4281553276
-0.12627134 0.040970381 1.2780001 4283263634
-0.12385899 0.040906262 1.276 4285041066
-0.12164424 0.040906262 1.276 4286357686
-0.11924229 0.040842146 1.274 4287080387
-0.11693915 0.04081009 1.273 4286225085
-0.11463947 0.04077803 1.2720001 4284580271
-0.11234328 0.040745974 1.271 4282014087
-0.11005055 0.040713914 1.2700001 4281291142
-0.10784622 0.040713914 1.2700001 4281160067
-0.10547552 0.040649798 1.268 4283461280
-0.10303031 0.040553626 1.2650001 4282541204
-0.10075494 0.040521566 1.2640001 4280896640
-0.098327085 0.04042539 1.261 4281030026
-0.095985897 0.040361274 1.2590001 4280701321
-0.093651637 0.040297158 1.2570001 4280570504
-0.091324329 0.040233042 1.2550001 4280372362
-0.089146025 0.040233042 1.2550001 4280373130
-0.086898431 0.040200982 1.2540001 4280242313
-0.084654301 0.040168922 1.253 4280243083
-0.082413651 0.040136866 1.2520001 4280177548
-0.080048285 0.04004069 1.2490001 4279914891
-0.077818044 0.040008634 1.248 4279849355
-0.075591266 0.039976574 1.2470001 4279784333
-0.073367976 0.039944515 1.2460001 4279718541
-0.071205296 0.039944515 1.2460001 4279652750
-0.068931788 0.039880402 1.2440001 4279849100
-0.066826254 0.039912459 1.245 4280504451
-0.064769194 0.039976574 1.2470001 4281222250
-0.058046412 0.041355077 1.2900001 4282205786
-0.056023668 0.041515369 1.2950001 4282206302
-0.053900514 0.041611545 1.2980001 4282337886
-0.05188632 0.041803893 1.304 4282403679
-0.049851295 0.041996241 1.3100001 4282338145
-0.047722805 0.042124476 1.314 4282206820
-0.043358475 0.042316824 1.3200001 4282207590
-0.041160684 0.042413 1.3230001 4282273383
-0.038893733 0.04244506 1.3240001 4282799984
-0.03667859 0.042541232 1.327 4282537844
-0.034427125 0.042605348 1.3290001 4282275189
-0.032192893 0.04270152 1.332 4282078584
-0.029925805 0.04276564 1.3340001 4282274939
-0.027631082 0.042797696 1.335 4282669704
-0.025408734 0.042957988 1.34 4282801543
-0.020880984 0.043214452 1.348 4282931562
-0.018623792 0.043406799 1.3540001 4282602336
-0.016405866 0.043759443 1.365 4282732895
-0.014067486 0.043855619 1.368 4282929504
-0.011744336 0.044047967 1.3740001 4283850347
-0.0093867341 0.044176199 1.378 4284244845
-0.0070050936 0.044240318 1.3800001 4284902775
-0.1783994 0.044558261 1.319 4282270812
-0.1751754 0.044321787 1.312 4286613408
-0.17263459 0.044254225 1.3100001 4290561493
-0.17010075 0.044186659 1.3080001 4289114302
-0.16783045 0.044186659 1.3080001 4287403938
-0.16556016 0.044186659 1.3080001 4286746264
-0.16304018 0.044119097 1.3060001 4288390836
-0.16052714 0.044051535 1.304 4287800767
-0.15802106 0.04398397 1.302 4281290100
-0.15516302 0.043815061 1.2970001 4280896889
-0.15291183 0.043815061 1.2970001 4280699254
-0.15066062 0.043815061 1.2970001 4280830583
-0.14818057 0.043747496 1.2950001 4280962425
-0.14593284 0.043747496 1.2950001 4281092987
-0.14357416 0.043713715 1.294 4281553535
-0.14121895 0.043679934 1.2930001 4281027190
-0.13875973 0.043612368 1.291 4280764020
-0.13630745 0.043544803 1.289 4280896632
-0.13396612 0.043511026 1.2880001 4280766332
-0.13142371 0.043409675 1.2850001 4280700795
-0.12889172 0.043308333 1.2820001 4280962940
-0.12656775 0.043274552 1.281 4281027449
-0.12385899 0.04310564 1.276 4280895859
-0.12164424 0.04310564 1.276 4281816954
-0.11924229 0.043038078 1.274 4282475141
-0.11693915 0.043004297 1.273 4284579751
-0.11463947 0.042970512 1.2720001 4286485700
-0.11234328 0.042936731 1.271 4286156217
-0.1101372 0.042936731 1.271 4282278030
-0.10784622 0.04290295 1.2700001 4280698742
-0.10547552 0.042835388 1.268 4284511134
-0.10311175 0.042767823 1.266 4288459471
-0.10091436 0.042767823 1.266 4283790483
-0.098483033 0.042666476 1.263 4281752194
-0.096138373 0.042598914 1.261 4281620873
-0.093651637 0.042463787 1.2570001 4281489804
-0.091397099 0.042430002 1.256 4281029771
-0.089217067 0.042430002 1.256 4280569989
-0.086967729 0.042396225 1.2550001 4280373380
-0.084721863 0.04236244 1.2540001 4280242053
-0.082545295 0.04236244 1.2540001 4280308105
-0.080240555 0.042294879 1.2520001 4280242827
-0.077942744 0.042227313 1.25 4280045963
-0.075773127 0.042227313 1.25 4279980940
-0.073544621 0.042193528 1.2490001 4279915146
-0.071376733 0.042193528 1.2490001 4279980682
-0.069153436 0.042159751 1.248 4280308618
-0.067094631 0.042227313 1.25 4281030019
-0.064976953 0.042261094 1.251 4281023582
-0.063307635 0.042598914 1.261 4281679958
-0.061845947 0.04310564 1.276 4282205528
-0.059911594 0.043308333 1.2820001 4282140760
-0.05809141 0.043612368 1.291 4282205528
-0.056066927 0.043781277 1.296 4282272093
-0.053858988 0.043815061 1.2970001 4282337884
-0.05188632 0.044051535 1.304 4282469472
-0.049851295 0.044254225 1.3100001 4282403938
-0.047686484 0.044355571 1.3130001 4282207331
-0.045545846 0.044490699 1.317 4282141284
-0.043391321 0.044625826 1.3210001 4282141797
-0.041129574 0.044659607 1.322 4282668141
-0.038952485 0.044794735 1.3260001 4282603376
-0.036733869 0.044896077 1.3290001 4282406258
-0.034453031 0.044929862 1.33 4282012019
-0.032192893 0.044997424 1.332 4282012278
-0.029925805 0.045064989 1.3340001 4282603650
-0.027651779 0.045132551 1.3360001 4282867084
-0.023134576 0.045369025 1.3430001 4282734962
-0.020942947 0.045673061 1.3520001 4282405472
-0.018665057 0.045841973 1.3570001 4282471004
-0.016393846 0.046078444 1.3640001 4282930525
-0.01404692 0.046146009 1.3660001 4283521893
-0.011718693 0.046314918 1.3710001 4284310896
-0.0093731098 0.046483826 1.376 4284837495
-0.0069949413 0.046551388 1.378 4284573810
-0.17826416 0.046796247 1.3180001 4283652719
-0.17530891 0.046618722 1.3130001 4285758349
-0.17289816 0.046583217 1.312 4290166988
-0.17023079 0.046476699 1.309 4288390577
-0.16783045 0.046441194 1.3080001 4287666341
-0.16568673 0.046476699 1.309 4287863462
-0.16328986 0.046441194 1.3080001 4289180350
-0.16065025 0.046334676 1.3050001 4288919753
-0.15826379 0.046299174 1.304 4281947255
-0.15528265 0.046086144 1.2980001 4281027704
-0.15302971 0.046086144 1.2980001 4280830583
-0.15066062 0.046050634 1.2970001 4280896118
-0.148295 0.046015128 1.296 4280961910
-0.14593284 0.045979623 1.2950001 4281092981
-0.14346319 0.045908611 1.2930001 4285764274
-0.14110972 0.045873106 1.2920001 4284777632
-0.1388672 0.045873106 1.2920001 4284513948
-0.13641319 0.045802098 1.2900001 4282406780
-0.13407013 0.045766588 1.289 4280894577
-0.13152598 0.045660075 1.286 4280305267
-0.12899226 0.045553558 1.2830001 4280634233
-0.12666656 0.045518052 1.2820001 4280961915
-0.12424725 0.04544704 1.2800001 4281092987
-0.12183489 0.045376033 1.2780001 4281290107
-0.11952308 0.045340527 1.2770001 4281027445
-0.11721473 0.045305017 1.276 4280698482
-0.11490985 0.045269515 1.2750001 4281486970
-0.11260845 0.04523401 1.274 4282408328
-0.11031051 0.045198504 1.273 4281554818
-0.10801604 0.045162994 1.2720001 4281091697
-0.10572506 0.045127492 1.271 4282996342
-0.10335609 0.045056481 1.2690001 4288851906
-0.10107378 0.045020975 1.268 4287142321
-0.098716959 0.044949964 1.266 4286155950
-0.096290849 0.044843446 1.263 4284184738
-0.093726143 0.044665921 1.258 4282541972
-0.091469862 0.044630416 1.2570001 4282082451
-0.089288093 0.044630416 1.2570001 4281359245
-0.087106317 0.044630416 1.2570001 4281095819
-0.084856987 0.04459491 1.256 4280636038
-0.082611121 0.044559404 1.2550001 4280307845
-0.080304638 0.044488393 1.253 4280242054
-0.078067459 0.044452887 1.2520001 4280242824
-0.075833745 0.044417381 1.251 4280177031
-0.073662385 0.044417381 1.251 4280308617
-0.071433879 0.044381876 1.25 4280177032
-0.069264255 0.044381876 1.25 4280570759
-0.067255661 0.044488393 1.253 4281226369
-0.065184712 0.044559404 1.2550001 4280628310
-0.063458249 0.044878952 1.2640001 4281548371
-0.061894421 0.045340527 1.2770001 4282337114
-0.060005065 0.045589063 1.284 4282140507
-0.058136404 0.045873106 1.2920001 4282272091
-0.056110188 0.046050634 1.2970001 4282403932
-0.053983569 0.046157151 1.3000001 4282469470
-0.051926106 0.046334676 1.3050001 4282337884
-0.049889348 0.046547715 1.3110001 4282404192
-0.047722805 0.046654228 1.314 4282207329
-0.045580428 0.046796247 1.3180001 4282207842
-0.043391321 0.046902768 1.3210001 4282536553
-0.041160684 0.04697378 1.3230001 4282405482
-0.038952485 0.047080293 1.3260001 4282537585
-0.036733869 0.047186811 1.3290001 4282209395
-0.034453031 0.047222316 1.33 4282078068
-0.032192893 0.047293328 1.332 4282341244
-0.02994824 0.047399841 1.335 4282669706
-0.027672477 0.047470856 1.337 4282998409
-0.023151802 0.047719393 1.3440001 4282340709
-0.020942947 0.048003439 1.3520001 4282339675
-0.018665057 0.048180968 1.3570001 4282667611
-0.016393846 0.0484295 1.3640001 4283325281
-0.01404692 0.048500516 1.3660001 4283916650
-0.011710146 0.048642538 1.3700001 4284706167
-0.0093662981 0.048820063 1.3750001 4284310896
-0.0069898651 0.048891075 1.3770001 4284376944
-0.17584299 0.049030792 1.317 4284970110
-0.1732935 0.048956335 1.3150001 4289838792
-0.17062092 0.048844647 1.312 4288127920
-0.16821538 0.04880742 1.3110001 4287732648
-0.16606645 0.048844647 1.312 4287995818
-0.16366439 0.04880742 1.3110001 4288785847
-0.16101956 0.048695728 1.3080001 4289774031
-0.1586279 0.048658501 1.307 4283130497
-0.15588082 0.048509583 1.3030001 4281158263
-0.1533834 0.048435125 1.3010001 4280961143
-0.15089294 0.048360668 1.299 4281027447
-0.148295 0.04824898 1.296 4281224567
-0.14593284 0.04821175 1.2950001 4281289586
-0.14346319 0.048137292 1.2930001 4284974246
-0.14100051 0.048062835 1.291 4286553015
-0.13875973 0.048062835 1.291 4288722891
-0.13641319 0.048025604 1.2900001 4288063422
-0.13407013 0.047988374 1.289 4286946230
-0.13152598 0.04787669 1.286 4284645532
-0.1290928 0.047802232 1.284 4282473597
-0.12676536 0.047765002 1.2830001 4280894831
-0.12444139 0.047727771 1.2820001 4281158779
-0.12212089 0.047690544 1.281 4281159035
-0.11971027 0.047616083 1.279 4281027193
-0.11730659 0.047541626 1.2770001 4281027705
-0.11499998 0.047504395 1.276 4280962680
-0.11260845 0.047429938 1.274 4281028732
-0.11031051 0.047392711 1.273 4280962427
-0.10801604 0.04735548 1.2720001 4281026677
-0.10564188 0.047281023 1.2700001 4285762219
-0.10343754 0.047281023 1.2700001 4289051347
-0.10115349 0.047243793 1.2690001 4286878645
-0.098794937 0.047169335 1.2670001 4285367210
-0.096443333 0.047094878 1.2650001 4284513961
-0.094098665 0.047020417 1.263 4282673039
-0.091542639 0.046834275 1.258 4283331235
-0.089359127 0.046834275 1.258 4283134626
-0.087106317 0.046797045 1.2570001 4281687695
-0.084856987 0.046759814 1.256 4280635522
-0.082676955 0.046759814 1.256 4280504195
-0.080368735 0.046685357 1.2540001 4280307588
-0.078129813 0.046648126 1.253 4280307588
-0.075894363 0.046610899 1.2520001 4280439174
-0.073721275 0.046610899 1.2520001 4280373380
-0.071548179 0.046610899 1.2520001 4280439691
-0.069375083 0.046610899 1.2520001 4280570247
-0.067309335 0.046685357 1.2540001 4281094271
-0.065184712 0.046722587 1.2550001 4280365397
-0.063508458 0.047094878 1.2650001 4281548117
-0.06194289 0.047578856 1.2780001 4282337114
-0.059958328 0.047765002 1.2830001 4282140505
-0.058136404 0.048100062 1.2920001 4282403162
-0.05615345 0.048323441 1.2980001 4282206553
-0.054025091 0.048435125 1.3010001 4282272091
-0.0519659 0.048621271 1.3060001 4282272606
-0.049889348 0.04880742 1.3110001 4282272606
-0.047686484 0.048881877 1.3130001 4282075741
-0.045545846 0.049030792 1.317 4282273633
-0.043358475 0.04914248 1.3200001 4282472043
-0.041129574 0.049216937 1.322 4282340203
-0.038923111 0.049328625 1.325 4282538095
-0.036706232 0.049440313 1.3280001 4281881197
-0.034427125 0.049477544 1.3290001 4282143862
-0.03216872 0.049551997 1.3310001 4282604676
-0.02994824 0.049700916 1.335 4282604940
-0.027672477 0.049775377 1.337 4282735233
-0.023169028 0.050073206 1.345 4282208605
-0.020973928 0.05040827 1.3540001 4282602588
-0.018665057 0.050519962 1.3570001 4283259490
-0.016369808 0.050706103 1.3620001 4284114285
-0.014026353 0.050780561 1.3640001 4284376689
-0.01169305 0.050929479 1.368 4284245103
-0.0093526747 0.051115625 1.373 4283982186
-0.0069847889 0.051227313 1.376 4284178797
-0.17637706 0.051456653 1.3210001 4282799203
-0.17382063 0.051378746 1.319 4288194228
-0.17127116 0.051300842 1.317 4288523447
-0.16872862 0.051222932 1.3150001 4288983739
-0.16644618 0.051222932 1.3150001 4289576387
-0.1640389 0.051183984 1.314 4289838791
-0.16138887 0.051067125 1.3110001 4287602351
-0.15887064 0.050989218 1.309 4282208627
-0.15623972 0.050872359 1.3060001 4281420921
-0.1537371 0.050794456 1.304 4281158521
-0.15112527 0.050677598 1.3010001 4281158518
-0.14863828 0.050599691 1.299 4281093239
-0.1462709 0.050560739 1.2980001 4281224054
-0.1436851 0.050443877 1.2950001 4281158519
-0.14110972 0.050327018 1.2920001 4280960368
-0.1388672 0.050327018 1.2920001 4283459463
-0.13651894 0.05028807 1.291 4286156715
