# .PCD v0.7 - Point Cloud Data file format
VERSION 0.7
FIELDS x y z rgba
SIZE 4 4 4 4
TYPE F F F U
COUNT 1 1 1 1
WIDTH 1068
HEIGHT 1
VIEWPOINT 0 0 0 1 0 0 0
POINTS 1068
DATA ascii
-0.18288063 -0.033137728 1.335 4279912572
-0.18069871 -0.033162545 1.3360001 4279912572
-0.17837982 -0.033162545 1.3360001 4280109181
-0.17606093 -0.033162545 1.3360001 4280175230
-0.17374204 -0.033162545 1.3360001 4280109437
-0.17142314 -0.033162545 1.3360001 4280109436
-0.16910425 -0.033162545 1.3360001 4280241279
-0.16653569 -0.033112902 1.3340001 4280044413
-0.16422026 -0.033112902 1.3340001 4280044157
-0.16178347 -0.033088081 1.3330001 4280240767
-0.15935016 -0.033063259 1.332 4280241023
-0.1570382 -0.033063259 1.332 4280109950
-0.15484241 -0.033088081 1.3330001 4279912828
-0.15252872 -0.033088081 1.3330001 4280175743
-0.15021503 -0.033088081 1.3330001 4280307587
-0.1477904 -0.033063259 1.332 4280242052
-0.14536923 -0.033038437 1.3310001 4280242051
-0.14305903 -0.033038437 1.3310001 4280176259
-0.14096029 -0.033088081 1.3330001 4280307588
-0.13875063 -0.033112902 1.3340001 4280176259
-0.13643521 -0.033112902 1.3340001 4280176258
-0.13411978 -0.033112902 1.3340001 4280438917
-0.13170555 -0.033088081 1.3330001 4280373124
-0.12939186 -0.033088081 1.3330001 4280439173
-0.12698285 -0.033063259 1.332 4280241539
-0.1246709 -0.033063259 1.332 4280307589
-0.12245081 -0.033088081 1.3330001 4280373639
-0.12031738 -0.033137728 1.335 4280373897
-0.11800022 -0.033137728 1.335 4280242824
-0.11576971 -0.033162545 1.3360001 4280243081
-0.1133659 -0.033137728 1.335 4280308618
-0.11096556 -0.033112902 1.3340001 4280243082
-0.10848725 -0.033063259 1.332 4280309389
-0.10609558 -0.033038437 1.3310001 4280243595
-0.1037074 -0.033013612 1.33 4280244108
-0.10147516 -0.033038437 1.3310001 4280112522
-0.099239446 -0.033063259 1.332 4280178314
-0.096927494 -0.033063259 1.332 4280178058
-0.094686575 -0.033088081 1.3330001 4280177803
-0.09251149 -0.033137728 1.335 4280309389
-0.09019433 -0.033137728 1.335 4280506254
-0.087942995 -0.033162545 1.3360001 4280638097
-0.085624099 -0.033162545 1.3360001 4280637839
-0.08330521 -0.033162545 1.3360001 4280703373
-0.080925703 -0.033137728 1.335 4280637581
-0.078608543 -0.033137728 1.335 4281030284
-0.076462828 -0.033212192 1.3380001 4281288311
-0.20404026 -0.030882848 1.337 4280173426
-0.20171963 -0.030882848 1.337 4280503166
-0.19910072 -0.030836653 1.335 4280502654
-0.19663617 -0.030813552 1.3340001 4280502654
-0.19417506 -0.030790454 1.3330001 4280371838
-0.19157353 -0.030744258 1.3310001 4280240767
-0.1894055 -0.030767357 1.332 4280109951
-0.18723401 -0.030790454 1.3330001 4280306559
-0.18492033 -0.030790454 1.3330001 4280044159
-0.18246965 -0.030767357 1.332 4280241537
-0.18015771 -0.030767357 1.332 4280109952
-0.17784575 -0.030767357 1.332 4280044672
-0.17540203 -0.030744258 1.3310001 4280044415
-0.17309181 -0.030744258 1.3310001 4279978623
-0.1707816 -0.030744258 1.3310001 4280044416
-0.1683448 -0.030721158 1.33 4280110465
-0.16603632 -0.030721158 1.33 4279978623
-0.16372783 -0.030721158 1.33 4280110465
-0.16129799 -0.030698061 1.3290001 4280110210
-0.15899126 -0.030698061 1.3290001 4280176259
-0.15668452 -0.030698061 1.3290001 4280110466
-0.15437777 -0.030698061 1.3290001 4280110723
-0.15195659 -0.030674962 1.3280001 4280111236
-0.14965159 -0.030674962 1.3280001 4280111236
-0.14734657 -0.030674962 1.3280001 4280045445
-0.14504157 -0.030674962 1.3280001 4280045702
-0.14273657 -0.030674962 1.3280001 4280111496
-0.14053731 -0.030698061 1.3290001 4279979910
-0.1384386 -0.030744258 1.3310001 4280045703
-0.13612838 -0.030744258 1.3310001 4280110982
-0.13371761 -0.030721158 1.33 4280308105
-0.13131034 -0.030698061 1.3290001 4280373897
-0.1290036 -0.030698061 1.3290001 4280439691
-0.12650618 -0.030651862 1.327 4280373898
-0.12420291 -0.030651862 1.327 4280374412
-0.12199149 -0.030674962 1.3280001 4280243083
-0.11977662 -0.030698061 1.3290001 4280243340
-0.11755826 -0.030721158 1.33 4280243854
-0.11524978 -0.030721158 1.33 4280243854
-0.11294131 -0.030721158 1.33 4280243855
-0.11046647 -0.030674962 1.3280001 4280244111
-0.10799856 -0.030628765 1.3260001 4280112782
-0.10569703 -0.030628765 1.3260001 4280244367
-0.10339549 -0.030628765 1.3260001 4280244367
-0.10109396 -0.030628765 1.3260001 4280046989
-0.098866925 -0.030651862 1.327 4280178831
-0.096563652 -0.030651862 1.327 4280179088
-0.094331414 -0.030674962 1.3280001 4280179088
-0.092095703 -0.030698061 1.3290001 4280244879
-0.08985652 -0.030721158 1.33 4280310416
-0.087679699 -0.030767357 1.332 4280376466
-0.085367747 -0.030767357 1.332 4280441489
-0.083055794 -0.030767357 1.332 4280572560
-0.080622606 -0.030721158 1.33 4280638866
-0.078490771 -0.030790454 1.3330001 4280834703
-0.20358244 -0.028514203 1.3340001 4280305529
-0.201267 -0.028514203 1.3340001 4280240765
-0.19880244 -0.028492829 1.3330001 4280240766
-0.19604655 -0.028428704 1.33 4280306559
-0.1935924 -0.02840733 1.3290001 4280438146
-0.19114172 -0.028385954 1.3280001 4280636295
-0.18897891 -0.02840733 1.3290001 4280373126
-0.1869531 -0.028450079 1.3310001 4280176003
-0.18464288 -0.028450079 1.3310001 4280110211
-0.18219568 -0.028428704 1.33 4280110468
-0.17988719 -0.028428704 1.33 4280176261
-0.17757872 -0.028428704 1.33 4279847809
-0.17513846 -0.02840733 1.3290001 4280045445
-0.17283171 -0.02840733 1.3290001 4279847809
-0.17026834 -0.028364578 1.327 4279913859
-0.16796507 -0.028364578 1.327 4279979652
-0.1656618 -0.028364578 1.327 4279914372
-0.16335852 -0.028364578 1.327 4279914116
-0.16105525 -0.028364578 1.327 4280045703
-0.15875198 -0.028364578 1.327 4280045447
-0.15633082 -0.028343204 1.3260001 4279782532
-0.15402928 -0.028343204 1.3260001 4279914631
-0.15172775 -0.028343204 1.3260001 4279980424
-0.14942622 -0.028343204 1.3260001 4279914889
-0.14712468 -0.028343204 1.3260001 4279980939
-0.14482315 -0.028343204 1.3260001 4279783817
-0.1425216 -0.028343204 1.3260001 4279783818
-0.14032581 -0.028364578 1.327 4279849611
-0.13812655 -0.028385954 1.3280001 4279915147
-0.13582154 -0.028385954 1.3280001 4279980684
-0.133416 -0.028364578 1.327 4280111757
-0.13101393 -0.028343204 1.3260001 4280243343
-0.12861532 -0.028321831 1.325 4280309136
-0.12622018 -0.028300453 1.3240001 4280309392
-0.12401571 -0.028321831 1.325 4280243599
-0.12171591 -0.028321831 1.325 4280112526
-0.11950625 -0.028343204 1.3260001 4280244370
-0.11720471 -0.028343204 1.3260001 4280310420
-0.11490317 -0.028343204 1.3260001 4280244627
-0.11260164 -0.028343204 1.3260001 4280178834
-0.11021692 -0.028321831 1.325 4280113298
-0.10783567 -0.028300453 1.3240001 4280113298
-0.10553761 -0.028300453 1.3240001 4280113555
-0.10323954 -0.028300453 1.3240001 4280047763
-0.10094148 -0.028300453 1.3240001 4279981969
-0.098643415 -0.028300453 1.3240001 4280047762
-0.09641812 -0.028321831 1.325 4280179348
-0.094118319 -0.028321831 1.325 4280113811
-0.091887817 -0.028343204 1.3260001 4280114067
-0.089653835 -0.028364578 1.327 4280245396
-0.087482221 -0.02840733 1.3290001 4280113554
-0.085175477 -0.02840733 1.3290001 4280244883
-0.082806379 -0.028385954 1.3280001 4280573335
-0.08050137 -0.028385954 1.3280001 4280573591
-0.078196362 -0.028385954 1.3280001 4280769685
-0.20651524 -0.026293458 1.3380001 4283130242
-0.20281938 -0.026116597 1.3290001 4280240252
-0.20036174 -0.026096946 1.3280001 4280438917
-0.19790761 -0.026077295 1.327 4280504710
-0.19545694 -0.026057644 1.3260001 4280373637
-0.19300972 -0.026037991 1.325 4280504967
-0.19070992 -0.026037991 1.325 4280373383
-0.18855232 -0.026057644 1.3260001 4280373640
-0.18639125 -0.026077295 1.327 4280111238
-0.18408798 -0.026077295 1.327 4280111241
-0.18164772 -0.026057644 1.3260001 4280045703
-0.17934619 -0.026057644 1.3260001 4280111496
-0.17704464 -0.026057644 1.3260001 4280045960
-0.17461132 -0.026037991 1.325 4280112010
-0.17218147 -0.02601834 1.3240001 4280112267
-0.1697551 -0.025998689 1.3230001 4279980681
-0.16745877 -0.025998689 1.3230001 4279915403
-0.16528729 -0.02601834 1.3240001 4279849352
-0.16298921 -0.02601834 1.3240001 4279718023
-0.16056979 -0.025998689 1.3230001 4279980938
-0.15827346 -0.025998689 1.3230001 4279980939
-0.15597713 -0.025998689 1.3230001 4279981197
-0.1536808 -0.025998689 1.3230001 4279981453
-0.15138447 -0.025998689 1.3230001 4279915661
-0.14908814 -0.025998689 1.3230001 4279981455
-0.14679182 -0.025998689 1.3230001 4279981712
-0.14449549 -0.025998689 1.3230001 4279916176
-0.14219916 -0.025998689 1.3230001 4279981969
-0.13990283 -0.025998689 1.3230001 4279915919
-0.13771051 -0.02601834 1.3240001 4279915663
-0.13541244 -0.02601834 1.3240001 4279981455
-0.13301384 -0.025998689 1.3230001 4280112785
-0.13071752 -0.025998689 1.3230001 4280112785
-0.12832411 -0.025979038 1.322 4280178835
-0.12593418 -0.025959387 1.3210001 4280113043
-0.12364133 -0.025959387 1.3210001 4280179093
-0.12125662 -0.025939735 1.3200001 4280245142
-0.1189655 -0.025939735 1.3200001 4280179350
-0.11676276 -0.025959387 1.3210001 4280114071
-0.1144699 -0.025959387 1.3210001 4280048535
-0.11217704 -0.025959387 1.3210001 4280048534
-0.10988419 -0.025959387 1.3210001 4279982741
-0.10759133 -0.025959387 1.3210001 4279916948
-0.10537819 -0.025979038 1.322 4280048790
-0.10308359 -0.025979038 1.322 4280048534
-0.100789 -0.025979038 1.322 4280048534
-0.098494403 -0.025979038 1.322 4279982998
-0.096199811 -0.025979038 1.322 4280180376
-0.093834184 -0.025959387 1.3210001 4280180375
-0.091541328 -0.025959387 1.3210001 4280180119
-0.089383595 -0.025998689 1.3230001 4280245914
-0.087218918 -0.026037991 1.325 4280180121
-0.084983207 -0.026057644 1.3260001 4280245657
-0.082681671 -0.026057644 1.3260001 4280376986
-0.080319516 -0.026037991 1.325 4280245915
-0.07813748 -0.026077295 1.327 4280639902
-0.20512612 -0.023825865 1.3290001 4282604157
-0.20220892 -0.023754153 1.325 4280174975
-0.19990912 -0.023754153 1.325 4280241797
-0.19746019 -0.023736227 1.3240001 4280242569
-0.19501473 -0.023718299 1.3230001 4280242826
-0.19257271 -0.023700373 1.322 4280177289
-0.1901342 -0.023682443 1.3210001 4280440720
-0.18798353 -0.023700373 1.322 4280111755
-0.18568894 -0.023700373 1.322 4280177548
-0.18339434 -0.023700373 1.322 4280046733
-0.18109976 -0.023700373 1.322 4280178319
-0.17880516 -0.023700373 1.322 4280244113
-0.17651057 -0.023700373 1.322 4279980941
-0.1740842 -0.023682443 1.3210001 4280178320
-0.1716613 -0.023664515 1.3200001 4279915661
-0.16937017 -0.023664515 1.3200001 4279915919
-0.16695248 -0.023646589 1.319 4279916175
-0.16466308 -0.023646589 1.319 4279981968
-0.16249681 -0.023664515 1.3200001 4279916175
-0.16020569 -0.023664515 1.3200001 4280047761
-0.15791456 -0.023664515 1.3200001 4279981969
-0.15562345 -0.023664515 1.3200001 4280113555
-0.15321615 -0.023646589 1.319 4279981970
-0.15092677 -0.023646589 1.319 4279916434
-0.14863738 -0.023646589 1.319 4279982228
-0.146348 -0.023646589 1.319 4279916692
-0.14416784 -0.023664515 1.3200001 4279850899
-0.14176922 -0.023646589 1.319 4279850899
-0.13947983 -0.023646589 1.319 4279851154
-0.13719045 -0.023646589 1.319 4279785617
-0.13490106 -0.023646589 1.319 4279851154
-0.13261168 -0.023646589 1.319 4280048276
-0.13032229 -0.023646589 1.319 4279982484
-0.12803291 -0.023646589 1.319 4279982742
-0.12555286 -0.023610733 1.317 4280048279
-0.12326695 -0.023610733 1.317 4280114329
-0.12088916 -0.023592805 1.3160001 4280048793
-0.11860499 -0.023592805 1.3160001 4280114586
-0.1163208 -0.023592805 1.3160001 4279917720
-0.11403663 -0.023592805 1.3160001 4279983770
-0.11175246 -0.023592805 1.3160001 4279852185
-0.10946827 -0.023592805 1.3160001 4279917979
-0.10734699 -0.023628661 1.3180001 4280115358
-0.10513905 -0.023646589 1.319 4280049564
-0.10292764 -0.023664515 1.3200001 4280115356
-0.10063652 -0.023664515 1.3200001 4280115356
-0.098270893 -0.023646589 1.319 4280049819
-0.095981508 -0.023646589 1.319 4280115612
-0.093550049 -0.023610733 1.317 4280049819
-0.091194846 -0.023592805 1.3160001 4280050075
-0.089113347 -0.023646589 1.319 4280181405
-0.086955614 -0.023682443 1.3210001 4280181661
-0.084598668 -0.023664515 1.3200001 4280246684
-0.082369894 -0.023682443 1.3210001 4280049819
-0.080077037 -0.023682443 1.3210001 4280050076
-0.07784307 -0.023700373 1.322 4280246429
-0.075662762 -0.023736227 1.3240001 4281097881
-0.073420115 -0.023754153 1.325 4281880185
-0.20528045 -0.021551337 1.33 4282275451
-0.20190372 -0.021437909 1.3230001 4280438406
-0.19960739 -0.021437909 1.3230001 4280308362
-0.19716191 -0.021421706 1.322 4280111498
-0.19457251 -0.021389298 1.3200001 4280112269
-0.1922814 -0.021389298 1.3200001 4280112784
-0.18984634 -0.021373095 1.319 4280046993
-0.18755695 -0.021373095 1.319 4280047506
-0.18526755 -0.021373095 1.319 4279915919
-0.18297817 -0.021373095 1.319 4279915920
-0.18068878 -0.021373095 1.319 4280179092
-0.17853466 -0.021389298 1.3200001 4280244885
-0.17611001 -0.021373095 1.319 4280179348
-0.17382063 -0.021373095 1.319 4279981969
-0.1714012 -0.02135689 1.3180001 4279916690
-0.16872862 -0.021308277 1.3150001 4279850898
-0.16657275 -0.021324482 1.3160001 4279982741
-0.16428857 -0.021324482 1.3160001 4279917204
-0.16212749 -0.021340687 1.317 4279916948
-0.15996295 -0.02135689 1.3180001 4279917205
-0.1576753 -0.02135689 1.3180001 4279916949
-0.15538765 -0.02135689 1.3180001 4279851412
-0.15298384 -0.021340687 1.317 4279917206
-0.15069793 -0.021340687 1.317 4279786134
-0.148412 -0.021340687 1.317 4279917464
-0.14612609 -0.021340687 1.317 4279983257
-0.14384018 -0.021340687 1.317 4279917464
-0.14155427 -0.021340687 1.317 4279983513
-0.1391626 -0.021324482 1.3160001 4279786390
-0.13677441 -0.021308277 1.3150001 4279917976
-0.13459423 -0.021324482 1.3160001 4279851927
-0.13231006 -0.021324482 1.3160001 4279852184
-0.13002588 -0.021324482 1.3160001 4279852184
-0.12764464 -0.021308277 1.3150001 4279786391
-0.1253622 -0.021308277 1.3150001 4279852699
-0.12307975 -0.021308277 1.3150001 4279918493
-0.12070546 -0.021292074 1.314 4279984286
-0.11833461 -0.021275871 1.3130001 4279984029
-0.11605564 -0.021275871 1.3130001 4280115616
-0.11377667 -0.021275871 1.3130001 4279984289
-0.1114977 -0.021275871 1.3130001 4279918495
-0.10930191 -0.021292074 1.314 4279984544
-0.1071841 -0.021324482 1.3160001 4279984801
-0.10497963 -0.021340687 1.317 4280050080
-0.10277168 -0.02135689 1.3180001 4279918749
-0.10048404 -0.02135689 1.3180001 4279984542
-0.098047383 -0.021324482 1.3160001 4280115871
-0.095763206 -0.021324482 1.3160001 4280049822
-0.093265928 -0.021275871 1.3130001 4280181406
-0.091125548 -0.021308277 1.3150001 4280116126
-0.088910669 -0.021324482 1.3160001 4279984540
-0.086626485 -0.021324482 1.3160001 4279984283
-0.084406391 -0.021340687 1.317 4280378526
-0.082182832 -0.02135689 1.3180001 4280050589
-0.079895183 -0.02135689 1.3180001 4279853726
-0.077725306 -0.021389298 1.3200001 4280181153
-0.075605623 -0.021437909 1.3230001 4280770974
-0.073364697 -0.021454114 1.3240001 4281029509
-0.20589785 -0.019316804 1.3340001 4282014081
-0.20129326 -0.019099599 1.319 4280111240
-0.19900388 -0.019099599 1.319 4280243858
-0.19656536 -0.019085119 1.3180001 4280112527
-0.1939829 -0.019056158 1.3160001 4280178320
-0.19169872 -0.019056158 1.3160001 4279981715
-0.1892706 -0.019041676 1.3150001 4279982228
-0.18698816 -0.019041676 1.3150001 4279982483
-0.18470572 -0.019041676 1.3150001 4279916435
-0.18242328 -0.019041676 1.3150001 4280048021
-0.18014084 -0.019041676 1.3150001 4280048278
-0.1778584 -0.019041676 1.3150001 4280114071
-0.17544244 -0.019027198 1.314 4280048791
-0.17316173 -0.019027198 1.314 4280048791
-0.17075096 -0.019012716 1.3130001 4279983512
-0.16834369 -0.018998237 1.312 4279786390
-0.16606645 -0.018998237 1.312 4280049562
-0.16378921 -0.018998237 1.312 4279852440
-0.16163507 -0.019012716 1.3130001 4279852184
-0.15947749 -0.019027198 1.314 4279852441
-0.15719678 -0.019027198 1.314 4279918235
-0.15491606 -0.019027198 1.314 4279852442
-0.15263537 -0.019027198 1.314 4279852444
-0.15024021 -0.019012716 1.3130001 4279786908
-0.14796124 -0.019012716 1.3130001 4279852701
-0.14579323 -0.019027198 1.314 4279918237
-0.14340331 -0.019012716 1.3130001 4279852444
-0.14101686 -0.018998237 1.312 4279984030
-0.13863388 -0.018983757 1.3110001 4279852700
-0.13646238 -0.018998237 1.312 4279984285
-0.13418515 -0.018998237 1.312 4279918493
-0.13200845 -0.019012716 1.3130001 4279918492
-0.12972946 -0.019012716 1.3130001 4280049822
-0.12735343 -0.018998237 1.312 4280050079
-0.12498087 -0.018983757 1.3110001 4279853215
-0.12270537 -0.018983757 1.3110001 4279919009
-0.120338 -0.018969275 1.3100001 4280050594
-0.11806423 -0.018969275 1.3100001 4279984801
-0.11579047 -0.018969275 1.3100001 4279984545
-0.11351671 -0.018969275 1.3100001 4280050852
-0.11124295 -0.018969275 1.3100001 4279984803
-0.10905236 -0.018983757 1.3110001 4279919266
-0.10685831 -0.018998237 1.312 4280050595
-0.10474049 -0.019027198 1.314 4280181667
-0.10245978 -0.019027198 1.314 4280181667
-0.10017908 -0.019027198 1.314 4280247973
-0.097823873 -0.019012716 1.3130001 4280116644
-0.095326595 -0.018969275 1.3100001 4280116132
-0.093052827 -0.018969275 1.3100001 4280050594
-0.090779066 -0.018969275 1.3100001 4280182178
-0.088640422 -0.018998237 1.312 4280247455
-0.086429007 -0.019012716 1.3130001 4280116128
-0.084214121 -0.019027198 1.314 4280116131
-0.081933416 -0.019027198 1.314 4280182180
-0.079652712 -0.019027198 1.314 4280313763
-0.077430889 -0.019041676 1.3150001 4280445604
-0.075377032 -0.019099599 1.319 4280641185
-0.073198467 -0.019128559 1.3210001 4280899982
-0.20068282 -0.016775077 1.3150001 4280112780
-0.19840038 -0.016775077 1.3150001 4280244885
-0.19596881 -0.01676232 1.314 4279916433
-0.19354068 -0.016749563 1.3130001 4279982229
-0.19111605 -0.016736807 1.312 4280048024
-0.18869488 -0.01672405 1.3110001 4280048537
-0.18641938 -0.01672405 1.3110001 4279983255
-0.18414389 -0.01672405 1.3110001 4279917465
-0.18186839 -0.01672405 1.3110001 4279852185
-0.17945589 -0.016711293 1.3100001 4279918234
-0.17704687 -0.016698537 1.309 4279786648
-0.17477484 -0.016698537 1.309 4279917977
-0.17263459 -0.016711293 1.3100001 4279918235
-0.17036082 -0.016711293 1.3100001 4279852955
-0.16795875 -0.016698537 1.309 4279787163
-0.16568673 -0.016698537 1.309 4279918749
-0.1634147 -0.016698537 1.309 4279852957
-0.16114266 -0.016698537 1.309 4279852701
-0.15887064 -0.016698537 1.309 4279852702
-0.15659861 -0.016698537 1.309 4279852959
-0.15444447 -0.016711293 1.3100001 4279984545
-0.15205455 -0.016698537 1.309 4279918495
-0.14989695 -0.016711293 1.3100001 4279852959
-0.14762318 -0.016711293 1.3100001 4279919010
-0.14534941 -0.016711293 1.3100001 4279853218
-0.14296643 -0.016698537 1.309 4279787425
-0.14047943 -0.016673023 1.307 4279721631
-0.13810514 -0.016660267 1.3060001 4279853216
-0.13594232 -0.016673023 1.307 4279919010
-0.13387832 -0.016698537 1.309 4279721887
-0.13170682 -0.016711293 1.3100001 4279853730
-0.12943307 -0.016711293 1.3100001 4279853730
-0.12706223 -0.016698537 1.309 4279984802
-0.12469488 -0.01668578 1.3080001 4280050595
-0.12233097 -0.016673023 1.307 4280116387
-0.12006242 -0.016673023 1.307 4280116386
-0.11779386 -0.016673023 1.307 4280116387
-0.1155253 -0.016673023 1.307 4280116387
-0.1133434 -0.01668578 1.3080001 4280116642
-0.11107311 -0.01668578 1.3080001 4280182436
-0.10880281 -0.01668578 1.3080001 4280313765
-0.10661397 -0.016698537 1.309 4280248227
-0.10442165 -0.016711293 1.3100001 4280182177
-0.10214788 -0.016711293 1.3100001 4280445092
-0.099874124 -0.016711293 1.3100001 4280313763
-0.097451344 -0.01668578 1.3080001 4280117154
-0.095181055 -0.01668578 1.3080001 4280051361
-0.092910759 -0.01668578 1.3080001 4280181661
-0.090640463 -0.01668578 1.3080001 4280444572
-0.088437736 -0.016698537 1.309 4280575389
-0.086231537 -0.016711293 1.3100001 4280706460
-0.083957769 -0.016711293 1.3100001 4280707231
-0.081684001 -0.016711293 1.3100001 4280576671
-0.07941024 -0.016711293 1.3100001 4281103015
-0.077195354 -0.01672405 1.3110001 4281498027
-0.075034149 -0.016749563 1.3130001 4280971174
-0.072866 -0.016775077 1.3150001 4280638607
-0.2003776 -0.014486411 1.3130001 4279982225
-0.19809863 -0.014486411 1.3130001 4279983001
-0.19567052 -0.014475378 1.312 4279851930
-0.19324589 -0.014464345 1.3110001 4279917211
-0.1908247 -0.014453311 1.3100001 4279917211
-0.18840702 -0.014442279 1.309 4279917468
-0.18599279 -0.014431246 1.3080001 4280049565
-0.1837225 -0.014431246 1.3080001 4280049311
-0.18145221 -0.014431246 1.3080001 4279918240
-0.17904492 -0.014420211 1.307 4279918239
-0.17677636 -0.014420211 1.307 4279984288
-0.1745078 -0.014420211 1.307 4279918752
-0.17237103 -0.014431246 1.3080001 4279984801
-0.17010075 -0.014431246 1.3080001 4279919008
-0.16770212 -0.014420211 1.307 4279853472
-0.16543357 -0.014420211 1.307 4279919522
-0.16316502 -0.014420211 1.307 4279919267
-0.16089645 -0.014420211 1.307 4279853731
-0.1586279 -0.014420211 1.307 4280050854
-0.15635934 -0.014420211 1.307 4280051111
-0.15397289 -0.01440918 1.3060001 4279985319
-0.15182222 -0.014420211 1.307 4279919526
-0.14955367 -0.014420211 1.307 4279919526
-0.1472851 -0.014420211 1.307 4279985319
-0.14512752 -0.014431246 1.3080001 4279853990
-0.14242034 -0.014387114 1.304 4279919526
-0.14015698 -0.014387114 1.304 4279788196
-0.13789363 -0.014387114 1.304 4279853732
-0.1357343 -0.014398145 1.3050001 4279985318
-0.13367376 -0.014420211 1.307 4279919782
-0.1314052 -0.014420211 1.307 4279920040
-0.12913665 -0.014420211 1.307 4279788967
-0.12686808 -0.014420211 1.307 4279920294
-0.1245042 -0.01440918 1.3060001 4279920036
-0.12214379 -0.014398145 1.3050001 4280117157
-0.1198787 -0.014398145 1.3050001 4280051620
-0.11761362 -0.014398145 1.3050001 4280117668
-0.11543692 -0.01440918 1.3060001 4280183204
-0.11325675 -0.014420211 1.307 4280051360
-0.11098819 -0.014420211 1.307 4280182948
-0.10871963 -0.014420211 1.307 4280314534
-0.10645108 -0.014420211 1.307 4280315045
-0.10426223 -0.014431246 1.3080001 4280314788
-0.10191396 -0.014420211 1.307 4280379555
-0.099645406 -0.014420211 1.307 4280313248
-0.097376846 -0.014420211 1.307 4280641696
-0.095108286 -0.014420211 1.307 4280838046
-0.092839733 -0.014420211 1.307 4284256447
-0.090571173 -0.014420211 1.307 4286426836
-0.088302612 -0.014420211 1.307 4286822364
-0.08603406 -0.014420211 1.307 4285771477
-0.083765499 -0.014420211 1.307 4284456908
-0.081496939 -0.014420211 1.307 4283339711
-0.079228386 -0.014420211 1.307 4284261326
-0.07707759 -0.014442279 1.309 4284458705
-0.074862711 -0.014453311 1.3100001 4283340232
-0.072644353 -0.014464345 1.3110001 4280705943
-0.19976716 -0.01218602 1.309 4280048537
-0.19734426 -0.01217671 1.3080001 4280049312
-0.19507396 -0.01217671 1.3080001 4279917984
-0.19265626 -0.012167401 1.307 4279983521
-0.19038771 -0.012167401 1.307 4279852192
-0.18797523 -0.012158092 1.3060001 4279983775
-0.1855662 -0.012148782 1.3050001 4279984543
-0.18330112 -0.012148782 1.3050001 4279983779
-0.18103604 -0.012148782 1.3050001 4279918500
-0.17863394 -0.012139472 1.304 4279852963
-0.17637061 -0.012139472 1.304 4279984548
-0.17410725 -0.012139472 1.304 4279919012
-0.1718439 -0.012139472 1.304 4279919526
-0.16971061 -0.012148782 1.3050001 4279919524
-0.16744551 -0.012148782 1.3050001 4279985831
-0.16518043 -0.012148782 1.3050001 4279919527
-0.16279049 -0.012139472 1.304 4279788966
-0.16040404 -0.012130164 1.3030001 4279788710
-0.15814243 -0.012130164 1.3030001 4280051882
-0.15576118 -0.012120854 1.302 4279986347
-0.15350132 -0.012120854 1.302 4279920553
-0.15135759 -0.012130164 1.3030001 4279854761
-0.14921039 -0.012139472 1.304 4279920553
-0.14683436 -0.012130164 1.3030001 4279920553
-0.14457273 -0.012130164 1.3030001 4279854761
-0.14220192 -0.012120854 1.302 4279854761
-0.13994204 -0.012120854 1.302 4279723175
-0.13778789 -0.012130164 1.3030001 4279788968
-0.13563029 -0.012139472 1.304 4279789225
-0.13346922 -0.012148782 1.3050001 4279920554
-0.13130467 -0.012158092 1.3060001 4279986604
-0.12903784 -0.012158092 1.3060001 4279921067
-0.12667397 -0.012148782 1.3050001 4279986859
-0.12440888 -0.012148782 1.3050001 4279855015
-0.12214379 -0.012148782 1.3050001 4280248485
-0.11978684 -0.012139472 1.304 4281167783
-0.11761362 -0.012148782 1.3050001 4281102244
-0.11534853 -0.012148782 1.3050001 4280906409
-0.11317009 -0.012158092 1.3060001 4280643498
-0.11090327 -0.012158092 1.3060001 4280775340
-0.10863645 -0.012158092 1.3060001 4281434553
-0.10628818 -0.012148782 1.3050001 4281631675
-0.10402309 -0.012148782 1.3050001 4281630905
-0.101758 -0.012148782 1.3050001 4282156222
-0.099492922 -0.012148782 1.3050001 4282287037
-0.09730234 -0.012158092 1.3060001 4282549181
-0.095035516 -0.012158092 1.3060001 4282679996
-0.092768699 -0.012158092 1.3060001 4282416822
-0.090501875 -0.012158092 1.3060001 4282417846
-0.088302612 -0.012167401 1.307 4282813117
-0.08603406 -0.012167401 1.307 4282550463
-0.083701409 -0.012158092 1.3060001 4281761719
-0.081434585 -0.012158092 1.3060001 4281104559
-0.079167761 -0.012158092 1.3060001 4281499832
-0.076900944 -0.012158092 1.3060001 4281104561
-0.074691266 -0.012167401 1.307 4281432501
-0.072478116 -0.01217671 1.3080001 4281297831
-0.07058356 -0.012241877 1.3150001 4282209157
-0.19915673 -0.0098994179 1.3050001 4279918235
-0.19674076 -0.0098918322 1.304 4279919012
-0.19447741 -0.0098918322 1.304 4280246690
-0.19236146 -0.0098994179 1.3050001 4280311201
-0.18980505 -0.0098842466 1.3030001 4280178324
-0.18754342 -0.0098842466 1.3030001 4280769172
-0.18513961 -0.009876661 1.302 4281427869
-0.18287975 -0.009876661 1.302 4281493920
-0.18061987 -0.009876661 1.302 4281625508
-0.17822298 -0.0098690754 1.3010001 4280837540
-0.17582959 -0.0098614888 1.3000001 4279918243
-0.1737067 -0.0098690754 1.3010001 4280051369
-0.17144856 -0.0098690754 1.3010001 4279854250
-0.16945051 -0.0098842466 1.3030001 4279657638
-0.1671889 -0.0098842466 1.3030001 4279723432
-0.16492727 -0.0098842466 1.3030001 4279723431
-0.16254082 -0.009876661 1.302 4279789225
-0.16015783 -0.0098690754 1.3010001 4279986604
-0.15777832 -0.0098614888 1.3000001 4279986860
-0.15540229 -0.0098539032 1.299 4279789737
-0.15314762 -0.0098539032 1.299 4279855530
-0.15089294 -0.0098539032 1.299 4279855531
-0.14886712 -0.0098690754 1.3010001 4279855531
-0.14660898 -0.0098690754 1.3010001 4279921067
-0.14435083 -0.0098690754 1.3010001 4279986861
-0.14209269 -0.0098690754 1.3010001 4279921068
-0.13983454 -0.0098690754 1.3010001 4279789738
-0.13768215 -0.009876661 1.302 4279789739
-0.13552628 -0.0098842466 1.3030001 4279921324
-0.13346922 -0.0098994179 1.3050001 4279921325
-0.13130467 -0.0099070044 1.3060001 4279921325
-0.12903784 -0.0099070044 1.3060001 4279856044
-0.12677103 -0.0099070044 1.3060001 4279856043
-0.12440888 -0.0098994179 1.3050001 4279921323
-0.12223738 -0.0099070044 1.3060001 4280578225
-0.11997056 -0.0099070044 1.3060001 4283011276
-0.11770374 -0.0099070044 1.3060001 4283142859
-0.11543692 -0.0099070044 1.3060001 4282617543
-0.11317009 -0.0099070044 1.3060001 4281631418
-0.11090327 -0.0099070044 1.3060001 4281105587
-0.10855327 -0.0098994179 1.3050001 4281302965
-0.10628818 -0.0098994179 1.3050001 4281236917
-0.10402309 -0.0098994179 1.3050001 4280908979
-0.10183598 -0.0099070044 1.3060001 4280842931
-0.099569164 -0.0099070044 1.3060001 4280907442
-0.097376846 -0.00991459 1.307 4280972209
-0.095108286 -0.00991459 1.307 4280905902
-0.092839733 -0.00991459 1.307 4281036973
-0.090571173 -0.00991459 1.307 4280840364
-0.088370174 -0.0099221757 1.3080001 4280643498
-0.086099878 -0.0099221757 1.3080001 4280709292
-0.083829582 -0.0099221757 1.3080001 4280709549
-0.081559293 -0.0099221757 1.3080001 4280447147
-0.079288997 -0.0099221757 1.3080001 4280512942
-0.077018708 -0.0099221757 1.3080001 4280512172
-0.074805558 -0.0099297613 1.309 4280840879
-0.072588943 -0.0099373478 1.3100001 4281365164
-0.070476204 -0.0099601038 1.3130001 4281687693
-0.1988515 -0.0076383301 1.3030001 4279984033
-0.19643901 -0.0076324684 1.302 4280180900
-0.19402999 -0.0076266062 1.3010001 4280179607
-0.19191925 -0.0076324684 1.302 4283859895
-0.18965937 -0.0076324684 1.302 4288524763
-0.18725556 -0.0076266062 1.3010001 4289114580
-0.18485522 -0.0076207435 1.3000001 4288654284
-0.18259881 -0.0076207435 1.3000001 4288656082
-0.18020369 -0.0076148817 1.299 4288591836
-0.17781201 -0.0076090195 1.2980001 4287411687
-0.17555907 -0.0076090195 1.2980001 4280904104
-0.17343967 -0.0076148817 1.299 4279920554
-0.17131677 -0.0076207435 1.3000001 4279855018
-0.16919041 -0.0076266062 1.3010001 4279855531
-0.16706058 -0.0076324684 1.302 4279789997
-0.1648007 -0.0076324684 1.302 4279790252
-0.16241598 -0.0076266062 1.3010001 4279789995
-0.16003473 -0.0076207435 1.3000001 4279987374
-0.15765697 -0.0076148817 1.299 4279987374
-0.15528265 -0.0076090195 1.2980001 4279921581
-0.15302971 -0.0076090195 1.2980001 4279855787
-0.15077677 -0.0076090195 1.2980001 4279855787
-0.14863828 -0.0076148817 1.299 4279921580
-0.1463836 -0.0076148817 1.299 4279921581
-0.14423989 -0.0076207435 1.3000001 4279987374
-0.14198348 -0.0076207435 1.3000001 4279921325
-0.13972707 -0.0076207435 1.3000001 4279921324
-0.1375764 -0.0076266062 1.3010001 4280052910
-0.13542227 -0.0076324684 1.302 4280052910
-0.13336694 -0.0076441923 1.304 4280052910
-0.13120413 -0.0076500541 1.3050001 4279987118
-0.12903784 -0.0076559167 1.3060001 4280052910
-0.12677103 -0.0076559167 1.3060001 4279986861
-0.1245042 -0.0076559167 1.3060001 4279921325
-0.12223738 -0.0076559167 1.3060001 4280184239
-0.11997056 -0.0076559167 1.3060001 4280316334
-0.11779386 -0.0076617789 1.307 4280381873
-0.1155253 -0.0076617789 1.307 4280250030
-0.11317009 -0.0076559167 1.3060001 4280119463
-0.11081835 -0.0076500541 1.3050001 4280316840
-0.10863645 -0.0076559167 1.3060001 4280578473
-0.10636963 -0.0076559167 1.3060001 4280578217
-0.10410281 -0.0076559167 1.3060001 4280251305
-0.10183598 -0.0076559167 1.3060001 4280317098
-0.099645406 -0.0076617789 1.307 4280644011
-0.097451344 -0.0076676407 1.3080001 4281037742
-0.095181055 -0.0076676407 1.3080001 4281168814
-0.092910759 -0.0076676407 1.3080001 4281299887
-0.090640463 -0.0076676407 1.3080001 4281299887
-0.088370174 -0.0076676407 1.3080001 4281300142
-0.086099878 -0.0076676407 1.3080001 4281366191
-0.083829582 -0.0076676407 1.3080001 4281366704
-0.081621647 -0.0076735024 1.309 4281629363
-0.079349622 -0.0076735024 1.309 4281760436
-0.07707759 -0.0076735024 1.309 4281891765
-0.074805558 -0.0076735024 1.309 4281890740
-0.072588943 -0.0076793656 1.3100001 4282416310
-0.070529878 -0.007702813 1.314 4282215066
-0.20080441 -0.0053841365 1.3010001 4280900756
-0.19824107 -0.0053758598 1.299 4280180900
-0.1958355 -0.0053717215 1.2980001 4280836514
-0.19358256 -0.0053717215 1.2980001 4284319160
-0.19147705 -0.0053758598 1.299 4288985826
-0.18922238 -0.0053758598 1.299 4289970657
-0.18682376 -0.0053717215 1.2980001 4289245650
-0.18457082 -0.0053717215 1.2980001 4288853717
-0.18217744 -0.0053675827 1.2970001 4288329688
-0.17978752 -0.0053634443 1.296 4288134112
-0.17753805 -0.0053634443 1.296 4285703124
-0.17528859 -0.0053634443 1.296 4281365935
-0.17317262 -0.0053675827 1.2970001 4280053168
-0.1710532 -0.0053717215 1.2980001 4279921582
-0.16906036 -0.0053799986 1.3000001 4279987373
-0.16693227 -0.0053841365 1.3010001 4279987374
-0.16454755 -0.0053799986 1.3000001 4280184241
-0.16229114 -0.0053799986 1.3000001 4279987374
-0.15991163 -0.0053758598 1.299 4280052910
-0.15765697 -0.0053758598 1.299 4280052910
-0.15552191 -0.0053799986 1.3000001 4280184495
-0.15326551 -0.0053799986 1.3000001 4280052910
-0.1510091 -0.0053799986 1.3000001 4280052909
-0.14875269 -0.0053799986 1.3000001 4280118446
-0.1464963 -0.0053799986 1.3000001 4280118446
-0.14435083 -0.0053841365 1.3010001 4280184239
-0.14220192 -0.0053882753 1.302 4280381104
-0.13994204 -0.0053882753 1.302 4280249261
-0.13778789 -0.0053924136 1.3030001 4280249261
-0.13552628 -0.0053924136 1.3030001 4280314796
-0.13346922 -0.0054006907 1.3050001 4280380847
-0.1314052 -0.0054089674 1.307 4280446639
-0.12923546 -0.0054131057 1.3080001 4280380845
-0.12696517 -0.0054131057 1.3080001 4280118445
-0.12469488 -0.0054131057 1.3080001 4280184494
-0.12251817 -0.0054172445 1.309 4280512684
-0.12024614 -0.0054172445 1.309 4280774831
-0.11797412 -0.0054172445 1.309 4280774832
-0.11570209 -0.0054172445 1.309 4280774830
-0.1133434 -0.0054131057 1.3080001 4281037999
-0.11107311 -0.0054131057 1.3080001 4281104047
-0.10880281 -0.0054131057 1.3080001 4281235120
-0.10653252 -0.0054131057 1.3080001 4280906156
-0.10426223 -0.0054131057 1.3080001 4280709290
-0.10206991 -0.0054172445 1.309 4280643241
-0.099874124 -0.0054213828 1.3100001 4280510628
-0.097674854 -0.0054255216 1.3110001 4280575907
-0.095399357 -0.0054255216 1.3110001 4280575395
-0.093052827 -0.0054213828 1.3100001 4280444064
-0.090779066 -0.0054213828 1.3100001 4280246683
-0.088505298 -0.0054213828 1.3100001 4280246426
-0.086297356 -0.0054255216 1.3110001 4279983511
-0.084021851 -0.0054255216 1.3110001 4279589010
-0.081808709 -0.00542966 1.312 4279916947
-0.079531476 -0.00542966 1.312 4279850896
-0.077254236 -0.00542966 1.312 4279785360
-0.075091295 -0.0054379366 1.314 4280113298
-0.072866 -0.005442075 1.3150001 4280572306
-0.070798263 -0.0054586288 1.319 4280371319
-0.20111312 -0.0031464971 1.3030001 4281098137
-0.19793583 -0.0031320082 1.2970001 4280311970
-0.19553377 -0.0031295933 1.296 4283401917
-0.1932843 -0.0031295933 1.296 4288461538
-0.19118224 -0.0031320082 1.2970001 4288328666
-0.18893103 -0.0031320082 1.2970001 4287210183
-0.18682376 -0.0031344232 1.2980001 4287143878
-0.18442863 -0.0031320082 1.2970001 4286620877
-0.18217744 -0.0031320082 1.2970001 4284323263
-0.17978752 -0.0031295933 1.296 4283010491
-0.17753805 -0.0031295933 1.296 4280841390
-0.17528859 -0.0031295933 1.296 4280053422
-0.17317262 -0.0031320082 1.2970001 4280053170
-0.1710532 -0.0031344232 1.2980001 4279987634
-0.16906036 -0.0031392528 1.3000001 4279922094
-0.16693227 -0.0031416675 1.3010001 4280183983
-0.16454755 -0.0031392528 1.3000001 4280380848
-0.16241598 -0.0031416675 1.3010001 4280380848
-0.16028094 -0.0031440821 1.302 4280381104
-0.15814243 -0.0031464971 1.3030001 4280381360
-0.15600045 -0.0031489118 1.304 4280512946
-0.1537371 -0.0031489118 1.304 4280447408
-0.15147375 -0.0031489118 1.304 4280446895
-0.14921039 -0.0031489118 1.304 4280643761
-0.14694704 -0.0031489118 1.304 4280774832
-0.14468369 -0.0031489118 1.304 4280774832
-0.14252956 -0.0031513267 1.3050001 4280840369
-0.14037196 -0.0031537416 1.3060001 4280774574
-0.13810514 -0.0031537416 1.3060001 4280971439
-0.13583831 -0.0031537416 1.3060001 4280971696
-0.13377605 -0.003158571 1.3080001 4280840109
-0.13170682 -0.0031634006 1.3100001 4280773804
-0.12943307 -0.0031634006 1.3100001 4280510889
-0.1271593 -0.0031634006 1.3100001 4280182179
-0.12488553 -0.0031634006 1.3100001 4280247971
-0.12270537 -0.0031658155 1.3110001 4280181664
-0.12052172 -0.0031682304 1.312 4280180894
-0.11824449 -0.0031682304 1.312 4280246430
-0.11596725 -0.0031682304 1.312 4280049561
-0.11369002 -0.0031682304 1.312 4279785878
-0.11124295 -0.0031634006 1.3100001 4279917720
-0.10896918 -0.0031634006 1.3100001 4279588754
-0.10669542 -0.0031634006 1.3100001 4279391375
-0.10458107 -0.0031682304 1.312 4279587984
-0.10222585 -0.0031658155 1.3110001 4279588240
-0.10010284 -0.0031706451 1.3130001 4279653776
-0.097972877 -0.0031754749 1.3150001 4279456141
-0.095690429 -0.0031754749 1.3150001 4279718543
-0.093407989 -0.0031754749 1.3150001 4279718797
-0.090986952 -0.0031706451 1.3130001 4279586954
-0.088707983 -0.0031706451 1.3130001 4279915406
-0.086494833 -0.00317306 1.314 4279784075
-0.084214121 -0.00317306 1.314 4280046990
-0.082058132 -0.0031778896 1.3160001 4279915403
-0.079834566 -0.0031803043 1.317 4279915146
-0.077607535 -0.0031827192 1.3180001 4279980424
-0.075377032 -0.0031851339 1.319 4280177546
-0.073143058 -0.0031875488 1.3200001 4280571018
-0.071012966 -0.0031947934 1.3230001 4280370289
-0.20157616 -0.00090265402 1.3060001 4280640153
-0.19808844 -0.0008971247 1.2980001 4280314023
-0.19568464 -0.00089643354 1.2970001 4280773280
-0.19358256 -0.0008971247 1.2980001 4284126657
-0.19132963 -0.0008971247 1.2980001 4284323264
-0.18922238 -0.0008978158 1.299 4283730875
-0.18711163 -0.00089850702 1.3000001 4283072178
-0.18471304 -0.0008978158 1.299 4282218412
-0.18245836 -0.0008978158 1.299 4281036459
-0.18020369 -0.0008978158 1.299 4280184748
-0.17794901 -0.0008978158 1.299 4280251057
-0.17569435 -0.0008978158 1.299 4280316595
-0.1737067 -0.00089919817 1.3010001 4280578483
-0.17131677 -0.00089850702 1.3000001 4280447152
-0.16932046 -0.00089988927 1.302 4280447151
-0.1673172 -0.00090127165 1.304 4280775090
-0.16505384 -0.00090127165 1.304 4280971698
-0.16291535 -0.00090196281 1.3050001 4281037748
-0.16077335 -0.00090265402 1.3060001 4280840368
-0.15850653 -0.00090265402 1.3060001 4280577451
-0.15635934 -0.00090334506 1.307 4280642730
-0.15409078 -0.00090334506 1.307 4280511400
-0.15182222 -0.00090334506 1.307 4280313764
-0.1496681 -0.00090403628 1.3080001 4280116128
-0.1473978 -0.00090403628 1.3080001 4280049821
-0.14523846 -0.00090472744 1.309 4279851928
-0.14307564 -0.00090541854 1.3100001 4279983000
-0.14080188 -0.00090541854 1.3100001 4279917207
-0.13852812 -0.00090541854 1.3100001 4279851411
-0.13625436 -0.00090541854 1.3100001 4279785362
-0.13408287 -0.00090610969 1.3110001 4279850898
-0.13180737 -0.00090610969 1.3110001 4279785617
-0.12953188 -0.00090610969 1.3110001 4279653264
-0.12725636 -0.00090610969 1.3110001 4279653008
-0.1250762 -0.00090680091 1.312 4279916178
-0.12279896 -0.00090680091 1.312 4279784590
-0.12061358 -0.00090749207 1.3130001 4279587212
-0.11833461 -0.00090749207 1.3130001 4279784335
-0.11605564 -0.00090749207 1.3130001 4279784334
-0.11386333 -0.00090818328 1.314 4279652748
-0.11158261 -0.00090818328 1.314 4279653005
-0.10921873 -0.00090749207 1.3130001 4279587211
-0.1070212 -0.00090818328 1.314 4279718284
-0.10482021 -0.00090887438 1.3150001 4279915918
-0.10253776 -0.00090887438 1.3150001 4279718795
-0.10033156 -0.00090956554 1.3160001 4279718282
-0.098121881 -0.00091025676 1.317 4279651976
-0.095835969 -0.00091025676 1.317 4279783562
-0.093550049 -0.00091025676 1.317 4279783817
-0.091194846 -0.00090956554 1.3160001 4279783304
-0.088910669 -0.00090956554 1.3160001 4279849097
-0.086626485 -0.00090956554 1.3160001 4279980169
-0.084406391 -0.00091025676 1.317 4280045960
-0.082182832 -0.0009109478 1.3180001 4280177545
-0.079955801 -0.00091163901 1.319 4280308617
-0.077725306 -0.00091233017 1.3200001 4280176774
-0.075491324 -0.00091302139 1.3210001 4280176261
-0.073253877 -0.00091371255 1.322 4280767114
-0.071173988 -0.00091647706 1.3260001 4281488513
-0.20188485 0.0013504985 1.3080001 4280904092
-0.19839367 0.0013422386 1.3000001 4280447152
-0.19613726 0.0013422386 1.3000001 4280315824
-0.19388086 0.0013422386 1.3000001 4280513454
-0.19177185 0.0013432711 1.3010001 4280578728
-0.1895137 0.0013432711 1.3010001 4280709801
-0.18754342 0.0013453361 1.3030001 4281103020
-0.18528181 0.0013453361 1.3030001 4281168813
-0.18302019 0.0013453361 1.3030001 4280972208
-0.18061987 0.0013443037 1.302 4280643504
-0.17835999 0.0013443037 1.302 4280512174
-0.17610011 0.0013443037 1.302 4280380588
-0.17397374 0.0013453361 1.3030001 4280379817
-0.17171212 0.0013453361 1.3030001 4280050594
-0.16971061 0.0013474011 1.3050001 4279918493
-0.16757382 0.0013484336 1.3060001 4279983515
-0.16543357 0.0013494662 1.307 4279917465
-0.16328986 0.0013504985 1.3080001 4279851671
-0.16101956 0.0013504985 1.3080001 4279654291
-0.15887064 0.001351531 1.309 4279654033
-0.15659861 0.001351531 1.309 4279719826
-0.15444447 0.0013525636 1.3100001 4279719570
-0.1521707 0.0013525636 1.3100001 4279719312
-0.15001138 0.0013535961 1.3110001 4279784589
-0.14773588 0.0013535961 1.3110001 4279718796
-0.14557132 0.0013546285 1.312 4279915148
-0.14340331 0.001355661 1.3130001 4279980428
-0.14112432 0.001355661 1.3130001 4279782793
-0.13884535 0.001355661 1.3130001 4279914634
-0.13656639 0.001355661 1.3130001 4279980171
-0.13418515 0.0013546285 1.312 4280045449
-0.13190791 0.0013546285 1.312 4279914630
-0.12972946 0.001355661 1.3130001 4280046471
-0.1274505 0.001355661 1.3130001 4279848839
-0.12517153 0.001355661 1.3130001 4279914633
-0.12289255 0.001355661 1.3130001 4279980681
-0.12070546 0.0013566935 1.314 4280046219
-0.11842474 0.0013566935 1.314 4279914635
-0.11614404 0.0013566935 1.314 4279848841
-0.11394998 0.0013577261 1.3150001 4279914631
-0.11175246 0.0013587585 1.3160001 4279980426
-0.1093851 0.0013577261 1.3150001 4279980169
-0.1071841 0.0013587585 1.3160001 4279979911
-0.10497963 0.0013597909 1.317 4280046217
-0.10269371 0.0013597909 1.317 4279783302
-0.10048404 0.0013608235 1.3180001 4280111496
-0.098270893 0.001361856 1.319 4279979910
-0.095981508 0.001361856 1.319 4279782788
-0.093550049 0.0013597909 1.317 4279914372
-0.091333434 0.0013608235 1.3180001 4279914116
-0.089113347 0.001361856 1.319 4279979652
-0.086823963 0.001361856 1.319 4280111237
-0.084534578 0.001361856 1.319 4280242565
-0.082307547 0.0013628885 1.3200001 4280439430
-0.080077037 0.001363921 1.3210001 4280373381
-0.077784181 0.001363921 1.3210001 4280373380
-0.075605623 0.001365986 1.3230001 4280504455
-0.073364697 0.0013670184 1.3240001 4280700805
-0.071281344 0.0013711484 1.3280001 4281553793
-0.2020392 0.0036077895 1.309 4281099923
-0.19854628 0.0035857405 1.3010001 4280840363
-0.19628814 0.0035857405 1.3010001 4280577450
-0.19402999 0.0035857405 1.3010001 4280314022
-0.19191925 0.0035884965 1.302 4279788442
-0.18965937 0.0035884965 1.302 4279919257
-0.18754342 0.0035912527 1.3030001 4279917717
-0.18528181 0.0035912527 1.3030001 4279983000
-0.18302019 0.0035912527 1.3030001 4279719828
-0.18061987 0.0035884965 1.302 4279522193
-0.17835999 0.0035884965 1.302 4279522448
-0.17623535 0.0035912527 1.3030001 4279522705
-0.17410725 0.003594009 1.304 4279588500
-0.17197569 0.003596765 1.3050001 4279588242
-0.16984065 0.0035995212 1.3060001 4279587728
-0.16770212 0.0036022773 1.307 4279718542
-0.16556016 0.0036050335 1.3080001 4279718283
-0.16328986 0.0036050335 1.3080001 4279915146
-0.16114266 0.0036077895 1.309 4279915144
-0.15887064 0.0036077895 1.309 4279914888
-0.15671824 0.0036105458 1.3100001 4279980683
-0.15444447 0.0036105458 1.3100001 4279848842
-0.15228687 0.0036133016 1.3110001 4279848327
-0.15001138 0.0036133016 1.3110001 4280045189
-0.14784856 0.003616058 1.312 4280242566
-0.14557132 0.003616058 1.312 4280374150
-0.14340331 0.0036188143 1.3130001 4280308357
-0.14101686 0.003616058 1.312 4280308100
-0.13884535 0.0036188143 1.3130001 4280373634
-0.13656639 0.0036188143 1.3130001 4280504962
-0.13428742 0.0036188143 1.3130001 4280570748
-0.13200845 0.0036188143 1.3130001 4281031036
-0.12963067 0.003616058 1.312 4281163395
-0.1274505 0.0036188143 1.3130001 4280834696
-0.12517153 0.0036188143 1.3130001 4280242056
-0.12289255 0.0036188143 1.3130001 4280110471
-0.12070546 0.0036215703 1.314 4280044678
-0.11851487 0.0036243265 1.3150001 4280176263
-0.11623242 0.0036243265 1.3150001 4280307847
-0.11394998 0.0036243265 1.3150001 4280110725
-0.11175246 0.0036270823 1.3160001 4280045188
-0.1093851 0.0036243265 1.3150001 4280045445
-0.1071841 0.0036270823 1.3160001 4280177286
-0.10497963 0.0036298388 1.317 4280242821
-0.10269371 0.0036298388 1.317 4280044929
-0.10048404 0.0036325946 1.3180001 4280176259
-0.098196387 0.0036325946 1.3180001 4280110979
-0.095908739 0.0036325946 1.3180001 4279979649
-0.09362109 0.0036325946 1.3180001 4279979906
-0.091402732 0.0036353511 1.319 4279979906
-0.089113347 0.0036353511 1.319 4279979392
-0.086889789 0.0036381069 1.3200001 4280176771
-0.084598668 0.0036381069 1.3200001 4280176258
-0.082307547 0.0036381069 1.3200001 4280307587
-0.080077037 0.0036408631 1.3210001 4280438916
-0.077784181 0.0036408631 1.3210001 4280504709
-0.075605623 0.0036463754 1.3230001 4280504709
-0.073364697 0.0036491319 1.3240001 4280832646
-0.071335018 0.0036629126 1.3290001 4281751170
-0.2020392 0.0058640479 1.309 4280438139
-0.1990041 0.0058416491 1.304 4279259274
-0.19674076 0.0058416491 1.304 4279588754
-0.19447741 0.0058416491 1.304 4279915153
-0.19236146 0.0058461288 1.3050001 4279849613
-0.19009638 0.0058461288 1.3050001 4279784589
-0.18797523 0.0058506089 1.3060001 4279522442
-0.1855662 0.0058461288 1.3050001 4279456140
-0.18330112 0.0058461288 1.3050001 4279718285
-0.18103604 0.0058461288 1.3050001 4279849356
-0.17877094 0.0058461288 1.3050001 4279914891
-0.17664111 0.0058506089 1.3060001 4280045962
-0.1745078 0.0058550886 1.307 4279914632
-0.17237103 0.0058595682 1.3080001 4279716739
-0.17023079 0.0058640479 1.309 4279717251
-0.16808707 0.005868528 1.3100001 4279914629
-0.1658133 0.005868528 1.3100001 4280111238
-0.16353953 0.005868528 1.3100001 4280242565
-0.16126576 0.005868528 1.3100001 4280307843
-0.15911338 0.0058730072 1.3110001 4280767881
-0.15683788 0.0058730072 1.3110001 4281162898
-0.15468027 0.0058774874 1.312 4280834189
-0.1525192 0.0058819675 1.3130001 4280900490
-0.15035465 0.0058864472 1.314 4281294985
-0.14796124 0.0058819675 1.3130001 4281623943
-0.14579323 0.0058864472 1.314 4281821321
-0.14351253 0.0058864472 1.314 4282084747
-0.14123182 0.0058864472 1.314 4281953159
-0.13905686 0.0058909268 1.3150001 4281886341
-0.13687842 0.0058954065 1.3160001 4282346893
-0.13449197 0.0058909268 1.3150001 4282281608
-0.13210899 0.0058864472 1.314 4282281349
-0.12982829 0.0058864472 1.314 4282083973
-0.12754758 0.0058864472 1.314 4281952658
-0.1253622 0.0058909268 1.3150001 4280504713
-0.12307975 0.0058909268 1.3150001 4280109956
-0.12088916 0.0058954065 1.3160001 4280044420
-0.11860499 0.0058954065 1.3160001 4280372616
-0.1163208 0.0058954065 1.3160001 4280176006
-0.11412329 0.0058998866 1.317 4280109954
-0.11183737 0.0058998866 1.317 4280109697
-0.10955145 0.0058998866 1.317 4280176259
-0.10726554 0.0058998866 1.317 4280177284
-0.10505934 0.0059043658 1.3180001 4280176769
-0.10269371 0.0058998866 1.317 4280307588
-0.10048404 0.0059043658 1.3180001 4280307587
-0.098345399 0.0059133256 1.3200001 4280373634
-0.096054278 0.0059133256 1.3200001 4280439429
-0.093763158 0.0059133256 1.3200001 4280307844
-0.091541328 0.0059178057 1.3210001 4280110208
-0.089316033 0.0059222854 1.322 4280241794
-0.08702144 0.0059222854 1.322 4280110465
-0.084726848 0.0059222854 1.322 4280176001
-0.082494609 0.005926765 1.3230001 4280373380
-0.080258891 0.0059312452 1.3240001 4280504195
-0.077960826 0.0059312452 1.3240001 4280503938
-0.075777061 0.0059402045 1.3260001 4280504452
-0.073530935 0.0059446841 1.327 4280832646
-0.071496047 0.0059670829 1.332 4281422203
-0.2020392 0.0081203068 1.309 4281948541
-0.19976716 0.0081203068 1.309 4279651461
-0.19719338 0.0081078997 1.307 4279914893
-0.19492482 0.0081078997 1.307 4280110985
-0.19280368 0.0081141032 1.3080001 4280109956
-0.19053338 0.0081141032 1.3080001 4280176260
-0.18811914 0.0081078997 1.307 4280112006
-0.18585059 0.0081078997 1.307 4279717508
-0.18358204 0.0081078997 1.307 4280177032
-0.18131347 0.0081078997 1.307 4280702090
-0.17904492 0.0081078997 1.307 4281754000
-0.17691162 0.0081141032 1.3080001 4282148241
-0.17477484 0.0081203068 1.309 4282213778
-0.17263459 0.0081265094 1.3100001 4282674073
-0.17049088 0.0081327129 1.3110001 4283199648
-0.16821538 0.0081327129 1.3110001 4283988395
-0.16606645 0.0081389165 1.312 4283527847
-0.16378921 0.0081389165 1.312 4282936481
-0.16151197 0.0081389165 1.312 4283595694
-0.15923475 0.0081389165 1.312 4283991221
-0.15707713 0.0081451209 1.3130001 4283267498
-0.15491606 0.0081513245 1.314 4281886100
-0.15275152 0.0081575271 1.3150001 4281623437
-0.15046906 0.0081575271 1.3150001 4281688969
-0.14818662 0.0081575271 1.3150001 4281623173
-0.14579323 0.0081513245 1.314 4281491074
-0.14362174 0.0081575271 1.3150001 4281556867
-0.14144677 0.0081637306 1.3160001 4281293951
-0.13926835 0.0081699342 1.317 4281161855
-0.13708645 0.0081761377 1.3180001 4281227137
-0.13479879 0.0081761377 1.3180001 4280767096
-0.13231006 0.0081637306 1.3160001 4280898679
-0.12992708 0.0081575271 1.3150001 4280569974
-0.12764464 0.0081575271 1.3150001 4280766078
-0.12555286 0.0081699342 1.317 4280569217
-0.12326695 0.0081699342 1.317 4280174979
-0.12107289 0.0081761377 1.3180001 4280043910
-0.11887536 0.0081823403 1.319 4280175236
-0.11658598 0.0081823403 1.319 4280437890
