# .PCD v0.7 - Point Cloud Data file format
VERSION 0.7
FIELDS x y z rgba
SIZE 4 4 4 4
TYPE F F F U
COUNT 1 1 1 1
WIDTH 1094
HEIGHT 1
VIEWPOINT 0 0 0 1 0 0 0
POINTS 1094
DATA ascii
-0.040950079 0.018901665 1.3540001 4281350456
-0.039745633 0.018887704 1.353 4281350456
-0.038571436 0.018887704 1.353 4281218870
-0.037397236 0.018887704 1.353 4280955696
-0.036223035 0.018887704 1.353 4280626731
-0.035022929 0.018873744 1.3520001 4280363559
-0.033849601 0.018873744 1.3520001 4280100387
-0.032676268 0.018873744 1.3520001 4280231203
-0.031479634 0.018859785 1.3510001 4280494375
-0.030329604 0.018873744 1.3520001 4280954926
-0.029156271 0.018873744 1.3520001 4281415477
-0.027941544 0.018845825 1.35 4281612856
-0.026750118 0.018831864 1.3490001 4281612856
-0.025560427 0.018817905 1.348 4281415477
-0.024390567 0.018817905 1.348 4281283891
-0.023237932 0.018831864 1.3490001 4281283893
-0.022083562 0.018845825 1.35 4281218100
-0.020896476 0.018831864 1.3490001 4281020721
-0.019725747 0.018831864 1.3490001 4281020721
-0.018555019 0.018831864 1.3490001 4280954928
-0.017384291 0.018831864 1.3490001 4280954928
-0.016213562 0.018831864 1.3490001 4281020721
-0.015053983 0.018845825 1.35 4281218100
-0.013861821 0.018817905 1.348 4281349686
-0.012682544 0.018803945 1.3470001 4281415479
-0.011505004 0.018789986 1.3460001 4281415479
-0.010352239 0.018817905 1.348 4281415479
-0.009196002 0.018845825 1.35 4281415477
-0.0080362931 0.018873744 1.3520001 4281283891
-0.0068781897 0.018915623 1.355 4281283891
-0.0057022544 0.018915623 1.355 4281349684
-0.0045229783 0.018901665 1.3540001 4281218096
-0.0033503829 0.018915623 1.355 4281020717
-0.0021744473 0.018915623 1.355 4280954924
-0.00099851179 0.018915623 1.355 4280954924
0.000177162 0.018887704 1.353 4280889131
0.001351362 0.018887704 1.353 4280889131
0.0025162287 0.018817905 1.348 4280889131
0.003677886 0.018776024 1.345 4280757545
0.0048379381 0.018748106 1.3430001 4280560166
0.005985579 0.018692266 1.3390001 4280428580
0.0071476293 0.018692266 1.3390001 4280428580
0.0083034728 0.018678306 1.3380001 4280362787
0.0094717294 0.018692266 1.3390001 4280362787
0.010641721 0.018706225 1.34 4280494373
0.011813448 0.018720185 1.3410001 4280494373
0.012948202 0.018678306 1.3380001 4280428580
0.014098839 0.018664345 1.337 4280428582
0.015190676 0.018580588 1.3310001 4280494375
0.016321221 0.018552667 1.3290001 4280691754
0.017461443 0.018538708 1.3280001 4280757547
0.018543866 0.018468909 1.3230001 4280823340
0.01969203 0.018468909 1.3230001 4280823340
0.020824442 0.018454947 1.322 4280691754
0.021971738 0.018454947 1.322 4280757547
0.023136523 0.018468909 1.3230001 4280823340
0.024303043 0.018482868 1.3240001 4280823340
0.025452076 0.018482868 1.3240001 4280625959
0.026601108 0.018482868 1.3240001 4280428580
0.029117445 0.018622465 1.3340001 4280296994
0.030252459 0.018608507 1.3330001 4280362787
0.031338613 0.018566627 1.33 4280494373
0.032468423 0.018552667 1.3290001 4280560166
0.033596497 0.018538708 1.3280001 4280625959
0.034644336 0.018482868 1.3240001 4280691752
0.035793368 0.018482868 1.3240001 4280889131
0.036970299 0.018496828 1.325 4281020717
0.03768865 0.01828743 1.3100001 4280823338
0.038825534 0.01828743 1.3100001 4280494373
0.039962418 0.01828743 1.3100001 4280428580
0.041036554 0.01825951 1.3080001 4280362787
0.042139456 0.01824555 1.307 4280165408
0.043240625 0.018231589 1.3060001 4280099869
0.044306085 0.01820367 1.304 4280099869
0.045402911 0.01818971 1.3030001 4280231454
0.046498008 0.018175751 1.302 4280363040
0.047664527 0.01818971 1.3030001 4280692003
0.048832785 0.01820367 1.304 4281152810
0.049964461 0.01820367 1.304 4282337339
0.051213689 0.01824555 1.307 4283323975
0.05238802 0.01825951 1.3080001 4283851089
0.053523168 0.01825951 1.3080001 4284048467
0.054783672 0.01830139 1.3110001 4284509016
0.055921424 0.01830139 1.3110001 4284509018
0.057102699 0.018315349 1.312 4283653710
0.058330104 0.018343268 1.314 4280561441
0.059470456 0.018343268 1.314 4279179022
0.060656935 0.01835723 1.3150001 4279441938
0.06184515 0.018371189 1.3160001 4279442192
0.063035108 0.018385148 1.317 4279442192
0.064226791 0.018399108 1.3180001 4279376145
0.088447988 0.018440988 1.3210001 4279507731
0.089662239 0.018454947 1.322 4279507986
0.090809532 0.018454947 1.322 4279442193
0.091956832 0.018454947 1.322 4279507731
0.092963271 0.018427029 1.3200001 4279573524
0.093681067 0.018343268 1.314 4279705111
0.094749257 0.018329309 1.3130001 4279902490
0.095815711 0.018315349 1.312 4280034076
0.096880436 0.01830139 1.3110001 4280099868
0.098018184 0.01830139 1.3110001 4280034075
0.09915594 0.01830139 1.3110001 4279902487
0.10037018 0.018315349 1.312 4279968536
0.10166354 0.018343268 1.314 4280231707
0.10288213 0.01835723 1.3150001 4280231960
0.10410246 0.018371189 1.3160001 4279574280
0.10532453 0.018385148 1.317 4279771912
0.10638664 0.018371189 1.3160001 4280824850
0.10752873 0.018371189 1.3160001 4283654197
0.1191304 0.018399108 1.3180001 4288852840
0.12036549 0.018413069 1.319 4289313389
0.12160229 0.018427029 1.3200001 4289970805
0.12274785 0.018427029 1.3200001 4290562683
0.12389342 0.018427029 1.3200001 4291155076
0.12494425 0.018413069 1.319 4291813003
0.12608895 0.018413069 1.319 4291615623
0.12723364 0.018413069 1.319 4291220864
0.12837833 0.018413069 1.319 4290760316
0.12991582 0.018468909 1.3230001 4290496892
0.13126212 0.018496828 1.325 4290299263
0.13271181 0.018538708 1.3280001 4290299016
-0.12277325 0.020587334 1.3890001 4281218869
-0.12156781 0.020587334 1.3890001 4281087283
-0.12036236 0.020587334 1.3890001 4280955697
-0.11898536 0.020557692 1.3870001 4281087283
-0.11769672 0.020542869 1.386 4281744699
-0.11649389 0.020542869 1.386 4282139457
-0.11520787 0.020528048 1.3850001 4282336837
-0.1140059 0.020528048 1.3850001 4282336581
-0.11288538 0.020542869 1.386 4282007616
-0.11192428 0.020587334 1.3890001 4281481272
-0.11079855 0.020602155 1.3900001 4281218100
-0.10974992 0.020631799 1.3920001 4281152307
-0.10861985 0.020646621 1.393 4281086514
-0.10741094 0.020646621 1.393 4281020721
-0.10612578 0.020631799 1.3920001 4281086514
-0.10469162 0.020587334 1.3890001 4281349686
-0.10341167 0.020572513 1.388 4281547063
-0.10198619 0.020528048 1.3850001 4281810235
-0.10078422 0.020528048 1.3850001 4282073407
-0.099510349 0.020513227 1.3840001 4282139200
-0.098380275 0.020528048 1.3850001 4282204993
-0.097318642 0.020557692 1.3870001 4281941821
-0.096184224 0.020572513 1.388 4281415475
-0.095663942 0.02072073 1.3980001 4281152303
-0.094383128 0.020705909 1.3970001 4281349682
-0.09310405 0.020691086 1.396 4281481268
-0.09110263 0.020513227 1.3840001 4281547061
-0.089771606 0.020483583 1.3820001 4281547061
-0.088444062 0.020453939 1.3800001 4281547061
-0.08674065 0.020335365 1.3720001 4281678647
-0.085487612 0.020320544 1.3710001 4281810233
-0.08405184 0.020261258 1.3670001 4282007612
-0.082865492 0.020261258 1.3670001 4282204991
-0.081679143 0.020261258 1.3670001 4282073405
-0.080551669 0.020276079 1.368 4281482040
-0.079364456 0.020276079 1.368 4281087282
-0.078177236 0.020276079 1.368 4280824111
-0.076990016 0.020276079 1.368 4280626733
-0.07602445 0.020335365 1.3720001 4280560940
-0.074888304 0.020350186 1.373 4280429354
-0.073750429 0.020365009 1.3740001 4280560427
-0.072346769 0.020305723 1.3700001 4280823342
-0.071001992 0.020261258 1.3670001 4281020721
-0.069355994 0.020127861 1.358 4281547065
-0.068127252 0.02011304 1.3570001 4281810237
-0.066900238 0.020098219 1.3560001 4281876030
-0.065626502 0.020068575 1.3540001 4281547065
-0.064451434 0.020068575 1.3540001 4281152307
-0.063276365 0.020068575 1.3540001 4280889135
-0.062147167 0.020083396 1.355 4280823342
-0.061016224 0.020098219 1.3560001 4280757549
-0.05983942 0.020098219 1.3560001 4280560170
-0.058835663 0.020157505 1.36 4280428584
-0.057697784 0.020172328 1.3610001 4280889135
-0.056558166 0.020187149 1.3620001 4281415479
-0.055376157 0.020187149 1.3620001 4281481272
-0.054154355 0.020172328 1.3610001 4281283893
-0.052934289 0.020157505 1.36 4281086514
-0.051563744 0.020083396 1.355 4280691756
-0.050350621 0.020068575 1.3540001 4280428584
-0.049102917 0.020038931 1.3520001 4280494377
-0.047929585 0.020038931 1.3520001 4280296998
-0.046721671 0.020024111 1.3510001 4280034596
-0.04558292 0.020038931 1.3520001 4280166182
-0.044409588 0.020038931 1.3520001 4280560940
-0.043268234 0.020053754 1.353 4281021491
-0.042156257 0.020083396 1.355 4281350456
-0.040980324 0.020083396 1.355 4281416249
-0.039804388 0.020083396 1.355 4281416247
-0.038628452 0.020083396 1.355 4281218868
-0.037452515 0.020083396 1.355 4280955696
-0.036276579 0.020083396 1.355 4280824110
-0.035100643 0.020083396 1.355 4280626731
-0.03392471 0.020083396 1.355 4280363559
-0.032748774 0.020083396 1.355 4280494375
-0.031549539 0.020068575 1.3540001 4280823340
-0.030374469 0.020068575 1.3540001 4281086512
-0.029199403 0.020068575 1.3540001 4281218098
-0.027941544 0.020009289 1.35 4281481270
-0.026750118 0.019994467 1.3490001 4281415477
-0.025541466 0.019964823 1.3470001 4281349684
-0.024372473 0.019964823 1.3470001 4281283891
-0.023203479 0.019964823 1.3470001 4281152305
-0.022034487 0.019964823 1.3470001 4281152305
-0.020865494 0.019964823 1.3470001 4281086512
-0.019696502 0.019964823 1.3470001 4281086512
-0.018527508 0.019964823 1.3470001 4280954926
-0.017358515 0.019964823 1.3470001 4280823340
-0.016201543 0.019979646 1.348 4280889135
-0.015042833 0.019994467 1.3490001 4281152307
-0.013861821 0.019979646 1.348 4281283893
-0.012682544 0.019964823 1.3470001 4281415479
-0.011513552 0.019964823 1.3470001 4281415477
-0.010367598 0.020009289 1.35 4281481270
-0.0092028128 0.020024111 1.3510001 4281415477
-0.0080422377 0.020053754 1.353 4281349684
-0.0068832659 0.020098219 1.3560001 4281283891
-0.0057022544 0.020083396 1.355 4281349684
-0.0045263185 0.020083396 1.355 4281218096
-0.0033528556 0.020098219 1.3560001 4281020717
-0.0021760522 0.020098219 1.3560001 4280954924
-0.0009992487 0.020098219 1.3560001 4281020717
0.00017742388 0.020083396 1.355 4281020717
0.001351362 0.020053754 1.353 4281020717
0.0025162287 0.019979646 1.348 4280954924
0.0036806203 0.019950002 1.3460001 4280889131
0.0048415405 0.019920358 1.3440001 4280691752
0.005985579 0.019846249 1.3390001 4280494373
0.0071422909 0.019831428 1.3380001 4280494373
0.0083034728 0.019831428 1.3380001 4280428580
0.0094646551 0.019831428 1.3380001 4280428582
0.01063378 0.019846249 1.3390001 4280428582
0.01178702 0.019831428 1.3380001 4280362789
0.012938525 0.019816605 1.337 4280362789
0.014077749 0.019786961 1.335 4280428582
0.015167849 0.019698033 1.3290001 4280494375
0.016308941 0.019683212 1.3280001 4280560170
0.017435146 0.019653568 1.3260001 4280691756
0.018529847 0.01959428 1.322 4280889133
0.019677144 0.01959428 1.322 4280889133
0.020792937 0.019564638 1.3200001 4280757547
0.021955118 0.019579459 1.3210001 4280691754
0.023101546 0.019579459 1.3210001 4280757547
0.024284687 0.019609103 1.3230001 4280889133
0.025432851 0.019609103 1.3230001 4280691752
0.026581017 0.019609103 1.3230001 4280625959
0.029073788 0.019742498 1.332 4280428580
0.030229762 0.019742498 1.332 4280362787
0.031362176 0.019727677 1.3310001 4280362787
0.032468423 0.019698033 1.3290001 4280362787
0.033596497 0.019683212 1.3280001 4280428580
0.034696668 0.019653568 1.3260001 4280560166
0.035847437 0.019653568 1.3260001 4280757545
0.037026104 0.019668389 1.327 4280954924
0.037717421 0.019431243 1.3110001 4280954924
0.038884807 0.019446064 1.312 4280823338
0.040023427 0.019446064 1.312 4280691752
0.041099299 0.019416422 1.3100001 4280494373
0.04220394 0.019401599 1.309 4280165408
0.043306846 0.019386778 1.3080001 4280165662
0.044340063 0.019342313 1.3050001 4280099869
0.045437757 0.01932749 1.304 4280099868
0.046569433 0.01932749 1.304 4280297247
0.047701109 0.01932749 1.304 4280560673
0.048832785 0.01932749 1.304 4280626466
0.050002776 0.019342313 1.3050001 4280823843
0.051213689 0.019371957 1.307 4281415979
0.052347966 0.019371957 1.307 4281811506
0.053523168 0.019386778 1.3080001 4282798401
0.054741889 0.019416422 1.3100001 4283982674
0.055921424 0.019431243 1.3110001 4284245847
0.057059176 0.019431243 1.3110001 4283851090
0.058285706 0.019460887 1.3130001 4280890406
0.059425194 0.019460887 1.3130001 4279244813
0.060610808 0.019475708 1.314 4279310606
0.06184515 0.01950535 1.3160001 4279376399
0.062987238 0.01950535 1.3160001 4279310606
0.064226791 0.019534994 1.3180001 4279310352
0.088314071 0.019549815 1.319 4279441938
0.089526586 0.019564638 1.3200001 4279441939
0.09067215 0.019564638 1.3200001 4279441938
0.091748156 0.019549815 1.319 4279507731
0.092822418 0.019534994 1.3180001 4279705365
0.093609773 0.019460887 1.3130001 4279836696
0.094677098 0.019446064 1.312 4279968283
0.095742688 0.019431243 1.3110001 4280034076
0.096880436 0.019431243 1.3110001 4280099869
0.098018184 0.019431243 1.3110001 4279968282
0.09915594 0.019431243 1.3110001 4279968281
0.10037018 0.019446064 1.312 4280034075
0.10174091 0.019490529 1.3150001 4280165661
0.10296037 0.01950535 1.3160001 4280100123
0.10418157 0.019520171 1.317 4279771156
0.1054045 0.019534994 1.3180001 4279244810
0.10654832 0.019534994 1.3180001 4279442442
0.10761044 0.019520171 1.317 4280363541
0.11931117 0.019564638 1.3200001 4288918383
0.12054799 0.019579459 1.3210001 4289181552
0.12178655 0.01959428 1.322 4289839223
0.12293384 0.01959428 1.322 4290431614
0.12398728 0.019579459 1.3210001 4291023492
0.12513371 0.019579459 1.3210001 4291155074
0.12618454 0.019564638 1.3200001 4290957695
0.12733009 0.019564638 1.3200001 4290628729
0.12847565 0.019564638 1.3200001 4290431349
0.13001402 0.019623924 1.3240001 4290365303
0.13136117 0.019653568 1.3260001 4290299515
0.13271181 0.019683212 1.3280001 4290364806
-0.12277325 0.02178441 1.3890001 4281153075
-0.12156781 0.02178441 1.3890001 4281087282
-0.12027572 0.021768726 1.388 4281153075
-0.11889957 0.021737359 1.386 4281350454
-0.11769672 0.021737359 1.386 4282007870
-0.11640985 0.021721676 1.3850001 4282270786
-0.11520787 0.021721676 1.3850001 4282336581
-0.1140059 0.021721676 1.3850001 4282204995
-0.11280393 0.021721676 1.3850001 4281810237
-0.1118437 0.021768726 1.388 4281349686
-0.11079855 0.021800093 1.3900001 4281283893
-0.10967108 0.021815777 1.391 4281349686
-0.10861985 0.021847144 1.393 4281349686
-0.10733383 0.02183146 1.3920001 4281349686
-0.10604954 0.021815777 1.391 4281415479
-0.10469162 0.02178441 1.3890001 4281612858
-0.10348618 0.02178441 1.3890001 4281810235
-0.10205983 0.021737359 1.386 4281941821
-0.10078422 0.021721676 1.3850001 4282139200
-0.099582247 0.021721676 1.3850001 4282204993
-0.098380275 0.021721676 1.3850001 4282073407
-0.097318642 0.021753043 1.3870001 4281876028
-0.096184224 0.021768726 1.388 4281349682
-0.094518252 0.021941245 1.399 4281020717
-0.093237437 0.021925561 1.3980001 4281152303
-0.091036804 0.021690309 1.383 4281283889
-0.08964169 0.021643259 1.3800001 4281283889
-0.088315874 0.02161189 1.378 4281547061
-0.086677432 0.021502107 1.3710001 4281810233
-0.085425258 0.021486422 1.3700001 4281810747
-0.083990358 0.02142369 1.3660001 4281810746
-0.082865492 0.021439372 1.3670001 4281679417
-0.081679143 0.021439372 1.3670001 4281482038
-0.080492795 0.021439372 1.3670001 4281218868
-0.079306446 0.021439372 1.3670001 4280955696
-0.078177236 0.021455055 1.368 4280758317
-0.076990016 0.021455055 1.368 4280495146
-0.07602445 0.021517791 1.3720001 4280626733
-0.074888304 0.021533472 1.373 4280692526
-0.073804095 0.021564839 1.3750001 4280823342
-0.072346769 0.021486422 1.3700001 4281020721
-0.07105393 0.021455055 1.368 4281481272
-0.069355994 0.02129822 1.358 4282139202
-0.068127252 0.021282537 1.3570001 4282336581
-0.066900238 0.021266853 1.3560001 4282204995
-0.065674976 0.02125117 1.355 4281547065
-0.064451434 0.021235486 1.3540001 4281020721
-0.063276365 0.021235486 1.3540001 4280889135
-0.062193029 0.021266853 1.3560001 4280757549
-0.061016224 0.021266853 1.3560001 4280625963
-0.059883554 0.021282537 1.3570001 4280428584
-0.058878928 0.021345273 1.3610001 4280494377
-0.057740174 0.021360954 1.3620001 4281086514
-0.056641221 0.021392321 1.3640001 4281481272
-0.055457473 0.021392321 1.3640001 4281481272
-0.054194145 0.021360954 1.3620001 4281349686
-0.053012136 0.021360954 1.3620001 4281086514
-0.051677905 0.02129822 1.358 4280757549
-0.050424993 0.021266853 1.3560001 4280362791
-0.049139235 0.021219803 1.353 4280165410
-0.047929585 0.02120412 1.3520001 4280165410
-0.046756253 0.02120412 1.3520001 4280100389
-0.045616634 0.021219803 1.353 4280297768
-0.044442434 0.021219803 1.353 4280626733
-0.043300215 0.021235486 1.3540001 4281087284
-0.042187367 0.021266853 1.3560001 4281350456
-0.041010566 0.021266853 1.3560001 4281482042
-0.039863139 0.021282537 1.3570001 4281350454
-0.038713977 0.02129822 1.358 4281153075
-0.037535436 0.02129822 1.358 4281021489
-0.036356896 0.02129822 1.358 4280889903
-0.035178356 0.02129822 1.358 4280954926
-0.033999819 0.02129822 1.358 4280823340
-0.032821279 0.02129822 1.358 4280823340
-0.031619441 0.021282537 1.3570001 4280954926
-0.030419333 0.021266853 1.3560001 4281086512
-0.029220967 0.02125117 1.355 4281020719
-0.027941544 0.021172753 1.35 4281283889
-0.026730288 0.021141386 1.348 4281283889
-0.025503542 0.021094333 1.345 4281283889
-0.024336286 0.021094333 1.345 4281349682
-0.023169028 0.021094333 1.345 4281152303
-0.022001771 0.021094333 1.345 4281152303
-0.020834515 0.021094333 1.345 4281152305
-0.019652635 0.021078652 1.3440001 4281086512
-0.0185 0.021094333 1.345 4280954926
-0.01734563 0.021110019 1.3460001 4280889133
-0.016189523 0.021125702 1.3470001 4280954926
-0.01502053 0.021125702 1.3470001 4281152305
-0.013861821 0.021141386 1.348 4281283891
-0.012682544 0.021125702 1.3470001 4281349684
-0.011513552 0.021125702 1.3470001 4281283891
-0.010375277 0.021188436 1.3510001 4281349684
-0.0092096254 0.02120412 1.3520001 4281349684
-0.0080481814 0.021235486 1.3540001 4281283891
-0.0068832659 0.021266853 1.3560001 4281283891
-0.0057064625 0.021266853 1.3560001 4281283891
-0.0045263185 0.02125117 1.355 4281152305
-0.0033528556 0.021266853 1.3560001 4281020719
-0.0021760522 0.021266853 1.3560001 4280954924
-0.00099998561 0.021282537 1.3570001 4280954924
0.00017755482 0.021266853 1.3560001 4281020717
0.0013523607 0.021235486 1.3540001 4281020717
0.0025180953 0.021157069 1.3490001 4280954924
0.0036833549 0.021125702 1.3470001 4280889131
0.0048451428 0.021094333 1.345 4280757545
0.005985579 0.021000234 1.3390001 4280560166
0.0071422909 0.020984551 1.3380001 4280560168
0.0082972664 0.020968866 1.337 4280494375
0.0094505083 0.020953184 1.3360001 4280428582
0.010617896 0.020968866 1.337 4280362789
0.01177821 0.020968866 1.337 4280296996
0.012919171 0.020937499 1.335 4280296996
0.014056658 0.020906134 1.3330001 4280296996
0.015156437 0.020827716 1.3280001 4280362789
0.01628438 0.020796347 1.3260001 4280428584
0.017421998 0.020780666 1.325 4280560170
0.018515831 0.02071793 1.3210001 4280691754
0.019647377 0.020702248 1.3200001 4280757547
0.020777185 0.020686563 1.319 4280691754
0.021921879 0.020686563 1.319 4280625961
0.023084059 0.020702248 1.3200001 4280691752
0.024266331 0.020733614 1.322 4280823338
0.025413627 0.020733614 1.322 4280757545
0.026581017 0.020749297 1.3230001 4280823338
0.029030135 0.020859083 1.33 4280757545
0.03020707 0.020874767 1.3310001 4280560166
0.031338613 0.020859083 1.33 4280428580
0.032492854 0.020859083 1.33 4280362787
0.033621795 0.020843398 1.3290001 4280362787
0.034748998 0.020827716 1.3280001 4280428580
0.035901502 0.020827716 1.3280001 4280494373
0.037054006 0.020827716 1.3280001 4280691752
0.03820651 0.020827716 1.3280001 4280889131
0.03891445 0.020592462 1.3130001 4280889131
0.040084437 0.020608146 1.314 4280889131
0.041162044 0.020576779 1.312 4280691752
0.042268422 0.020561095 1.3110001 4280428580
0.043373063 0.020545412 1.3100001 4280363041
0.044374038 0.020482678 1.3060001 4280165662
0.045472603 0.020466994 1.3050001 4280099868
0.046605147 0.020466994 1.3050001 4280165661
0.047701109 0.020451309 1.304 4280165915
0.048870236 0.020466994 1.3050001 4280429087
0.050002776 0.020466994 1.3050001 4280297501
0.051174503 0.020482678 1.3060001 4280429087
0.052347966 0.020498361 1.307 4280429855
0.053482246 0.020498361 1.307 4281021992
0.054700099 0.020529728 1.309 4281679667
0.05587877 0.020545412 1.3100001 4282469184
0.05701565 0.020545412 1.3100001 4282666049
0.058241315 0.020576779 1.312 4280626466
0.059379935 0.020576779 1.312 4279376399
0.060518552 0.020576779 1.312 4279376399
0.061798155 0.020623829 1.3150001 4279376145
0.062987238 0.020639513 1.3160001 4279310352
0.064226791 0.02067088 1.3180001 4279244559
0.08824712 0.02067088 1.3180001 4279507731
0.089390948 0.02067088 1.3180001 4279573524
0.090534769 0.02067088 1.3180001 4279705110
0.091539472 0.020639513 1.3160001 4279771158
0.092681564 0.020639513 1.3160001 4279968536
0.093467183 0.020561095 1.3110001 4279968538
0.094604939 0.020561095 1.3110001 4280034075
0.09566965 0.020545412 1.3100001 4279968285
0.096806534 0.020545412 1.3100001 4280033822
0.098018184 0.020561095 1.3110001 4280034078
0.099231571 0.020576779 1.312 4280165407
0.10037018 0.020576779 1.312 4280165662
0.10189565 0.020655196 1.317 4280165662
0.10311685 0.02067088 1.3180001 4280034075
0.10441888 0.020702248 1.3200001 4279968283
0.10564442 0.02071793 1.3210001 4279836950
0.10671 0.020702248 1.3200001 4279902741
0.10777386 0.020686563 1.319 4279771409
0.11949196 0.020733614 1.322 4289181558
0.1207305 0.020749297 1.3230001 4289247604
0.12206291 0.020780666 1.325 4289576311
0.12311982 0.02076498 1.3240001 4289971064
0.12417499 0.020749297 1.3230001 4290365565
0.12522843 0.020733614 1.322 4290365818
0.12618454 0.020702248 1.3200001 4290300024
0.12733009 0.020702248 1.3200001 4290234486
0.12847565 0.020702248 1.3200001 4290168692
0.13001402 0.02076498 1.3240001 4290168438
0.13136117 0.020796347 1.3260001 4290234236
0.13271181 0.020827716 1.3280001 4290299526
-0.13056232 0.023295846 1.4080001 4281350202
-0.12924853 0.023279302 1.4070001 4281547579
-0.12784548 0.02324621 1.4050001 4281811007
-0.12599528 0.023130393 1.3980001 4281811007
-0.12433574 0.023047667 1.393 4281613628
-0.12268487 0.022964939 1.388 4281350455
-0.12139277 0.022948395 1.3870001 4281350454
-0.12010241 0.022931848 1.386 4281482040
-0.118728 0.02289876 1.3840001 4281613626
-0.11744197 0.022882212 1.383 4282205250
-0.11624174 0.022882212 1.383 4282468165
-0.1150415 0.022882212 1.383 4282336581
-0.11392359 0.02289876 1.3840001 4282007616
-0.11272249 0.02289876 1.3840001 4281612858
-0.11176312 0.022948395 1.3870001 4281218100
-0.11055941 0.022948395 1.3870001 4281218100
-0.10943455 0.022964939 1.388 4281415479
-0.10830795 0.022981485 1.3890001 4281547065
-0.10710251 0.022981485 1.3890001 4281612858
-0.10582082 0.022964939 1.388 4281612858
-0.10454088 0.022948395 1.3870001 4281810237
-0.10333718 0.022948395 1.3870001 4282007614
-0.10205983 0.022931848 1.386 4282139200
-0.10078422 0.022915304 1.3850001 4282205506
-0.099582247 0.022915304 1.3850001 4282205763
-0.098380275 0.022915304 1.3850001 4282139714
-0.097248472 0.022931848 1.386 4281810748
-0.096114933 0.022948395 1.3870001 4281218866
-0.094720937 0.023196574 1.4020001 4280823851
-0.093370818 0.023163484 1.4000001 4280758315
-0.09110263 0.02289876 1.3840001 4280824108
-0.089576736 0.022816032 1.3790001 4280889645
-0.087867253 0.022683669 1.3710001 4281152816
-0.086550981 0.022650579 1.3690001 4281679160
-0.085238196 0.022617487 1.3670001 4282074175
-0.083867386 0.022567851 1.3640001 4282008382
-0.082683638 0.022567851 1.3640001 4281679417
-0.081559636 0.022584397 1.365 4281350452
-0.080433905 0.022600943 1.3660001 4281087281
-0.079248428 0.022600943 1.3660001 4281021489
-0.07812009 0.022617487 1.3670001 4280889903
-0.076933742 0.022617487 1.3670001 4280692524
-0.07602445 0.022700215 1.3720001 4280823340
-0.07494285 0.022733305 1.3740001 4281020719
-0.073857777 0.022766396 1.376 4280954928
-0.072452381 0.022700215 1.3720001 4281218100
-0.071105875 0.022650579 1.3690001 4282139202
-0.069458142 0.02250167 1.36 4282797132
-0.068227656 0.022485126 1.3590001 4282797132
-0.066949576 0.022452034 1.3570001 4282402374
-0.065723434 0.02243549 1.3560001 4281547065
-0.064499035 0.022418942 1.355 4280889135
-0.063323103 0.022418942 1.355 4280691756
-0.062238894 0.022452034 1.3570001 4280625963
-0.061106224 0.022468578 1.358 4280494377
-0.059971809 0.022485126 1.3590001 4280362791
-0.059008714 0.022567851 1.3640001 4280560170
-0.057867356 0.022584397 1.365 4281218100
-0.056765798 0.022617487 1.3670001 4281547065
-0.055660762 0.022650579 1.3690001 4281547065
-0.054472674 0.022650579 1.3690001 4281349686
-0.053245667 0.022634031 1.368 4281020721
-0.051830124 0.022534762 1.3620001 4280823340
-0.050610926 0.022518216 1.3610001 4280494375
-0.049429782 0.022518216 1.3610001 4280296996
-0.048213191 0.02250167 1.36 4280296996
-0.046963748 0.022468578 1.358 4280297766
-0.045751497 0.022452034 1.3570001 4280692524
-0.044540975 0.02243549 1.3560001 4281153076
-0.043332193 0.022418942 1.355 4281482040
-0.042187367 0.02243549 1.3560001 4281482040
-0.041010566 0.02243549 1.3560001 4281284661
-0.039833762 0.02243549 1.3560001 4281218868
-0.038713977 0.022468578 1.358 4281153075
-0.037535436 0.022468578 1.358 4281021489
-0.03638367 0.022485126 1.3590001 4280889903
-0.035204265 0.022485126 1.3590001 4280954926
-0.034024857 0.022485126 1.3590001 4280889133
-0.032845449 0.022485126 1.3590001 4280889133
-0.031456333 0.022336217 1.35 4280954926
-0.030284736 0.022336217 1.35 4281218096
-0.028919052 0.022187309 1.3410001 4281218096
-0.027755268 0.022187309 1.3410001 4281283889
-0.026591482 0.022187309 1.3410001 4281283889
-0.025446657 0.022203853 1.342 4281218096
-0.024282003 0.022203853 1.342 4281283889
-0.023117349 0.022203853 1.342 4281284143
-0.021936338 0.022187309 1.3410001 4281284143
-0.020772552 0.022187309 1.3410001 4281283889
-0.019608768 0.022187309 1.3410001 4281349682
-0.018458735 0.022203853 1.342 4281218096
-0.017306969 0.022220399 1.3430001 4281086510
-0.016153466 0.022236945 1.3440001 4281086510
-0.014998228 0.022253489 1.345 4281152303
-0.013851537 0.022286581 1.3470001 4281152305
-0.012682544 0.022286581 1.3470001 4281218098
-0.011513552 0.022286581 1.3470001 4281218098
-0.010367598 0.022336217 1.35 4281218098
-0.0092028128 0.022352763 1.3510001 4281152305
-0.0080422377 0.022385854 1.353 4281152305
-0.0068731136 0.022402398 1.3540001 4281152305
-0.0056980457 0.022402398 1.3540001 4281218098
-0.0045229783 0.022402398 1.3540001 4281086512
-0.0033503829 0.022418942 1.355 4280954926
-0.0021760522 0.02243549 1.3560001 4280823338
-0.00099998561 0.022452034 1.3570001 4280823338
0.00017755482 0.02243549 1.3560001 4280823338
0.0013533595 0.022418942 1.355 4280823338
0.0025124953 0.022270035 1.3460001 4280757545
0.003677886 0.022253489 1.345 4280691752
0.0048415405 0.022236945 1.3440001 4280691752
0.005985579 0.022154218 1.3390001 4280560166
0.0071369526 0.022121126 1.337 4280560168
0.008272443 0.022054946 1.3330001 4280560168
0.0094292862 0.022054946 1.3330001 4280494375
0.01058613 0.022054946 1.3330001 4280428582
0.011725354 0.022021854 1.3310001 4280296996
0.012861106 0.021988764 1.3290001 4280231203
0.014003932 0.021972219 1.3280001 4280165410
0.015099372 0.021889493 1.3230001 4280231203
0.016222974 0.021856401 1.3210001 4280362789
0.017316809 0.021790219 1.317 4280428582
0.018445749 0.021773675 1.3160001 4280494375
0.019587839 0.021773675 1.3160001 4280560168
0.020714177 0.02175713 1.3150001 4280625961
0.021872018 0.021773675 1.3160001 4280691754
0.023031594 0.021790219 1.317 4280691752
0.024211265 0.021823311 1.319 4280691752
0.02537518 0.021839857 1.3200001 4280757545
0.026560923 0.021872947 1.322 4280823338
0.027771099 0.021922583 1.325 4280889131
0.028942827 0.021939129 1.3260001 4280889131
0.030116288 0.021955673 1.327 4280823338
0.031362176 0.022021854 1.3310001 4280691752
0.032517284 0.022021854 1.3310001 4280494373
0.033697687 0.0220384 1.332 4280362787
0.034853663 0.0220384 1.332 4280296994
0.035982605 0.022021854 1.3310001 4280296994
0.037137713 0.022021854 1.3310001 4280428580
0.038264051 0.02200531 1.33 4280560166
0.039299738 0.021939129 1.3260001 4280625959
0.04042 0.021922583 1.325 4280757545
0.041507155 0.021889493 1.3230001 4280757545
0.042526353 0.021823311 1.319 4280625959
0.043571718 0.021773675 1.3160001 4280494627
0.0445779 0.021707492 1.312 4280363041
0.04568167 0.021690948 1.3110001 4280231454
0.046747997 0.021657856 1.309 4280165661
0.047847435 0.021641312 1.3080001 4280034329
0.048982579 0.021641312 1.3080001 4280165915
0.050117727 0.021641312 1.3080001 4280297501
0.051213689 0.021624768 1.307 4280297501
0.052347966 0.021624768 1.307 4280495135
0.053441323 0.02160822 1.3060001 4280231706
0.054616526 0.021624768 1.307 4280429087
0.055750802 0.021624768 1.307 4280889638
0.056885079 0.021624768 1.307 4280823845
0.058063753 0.021641312 1.3080001 4280429087
0.059198901 0.021641312 1.3080001 4279836950
0.060380172 0.021657856 1.309 4279705364
0.061657172 0.021707492 1.312 4279573524
0.062843651 0.02172404 1.3130001 4279441938
0.064080596 0.02175713 1.3150001 4279310352
0.065321021 0.021790219 1.317 4279310352
0.066413507 0.021773675 1.3160001 4279244559
0.067504264 0.02175713 1.3150001 4279244559
0.08423648 0.021657856 1.309 4279376145
0.085437708 0.021674404 1.3100001 4279441938
0.086640686 0.021690948 1.3110001 4279573524
0.087912343 0.02172404 1.3130001 4279770903
0.088984005 0.021707492 1.312 4279968283
0.08991655 0.021657856 1.309 4280099869
0.091052562 0.021657856 1.309 4280165661
0.092118151 0.021641312 1.3080001 4280165661
0.0932533 0.021641312 1.3080001 4280099868
0.094388448 0.021641312 1.3080001 4280099868
0.095596626 0.021657856 1.309 4280099612
0.096732639 0.021657856 1.309 4280099869
0.098167717 0.02172404 1.3130001 4280297247
0.09938284 0.021740584 1.314 4280231455
0.10059969 0.02175713 1.3150001 4280100123
0.10220513 0.021856401 1.3210001 4280099866
0.1046562 0.021889493 1.3230001 4280165659
0.10596431 0.021922583 1.325 4280034331
0.10759926 0.022021854 1.3310001 4280099867
0.10891778 0.022054946 1.3330001 4279968280
0.1101572 0.02207149 1.3340001 4280100122
0.11164869 0.022137674 1.3380001 4280165912
0.11289418 0.022154218 1.3390001 4279837201
0.1141414 0.022170762 1.34 4279705613
0.11556247 0.022220399 1.3430001 4280232209
0.11672799 0.022220399 1.3430001 4280824600
0.11789351 0.022220399 1.3430001 4281614111
0.11905903 0.022220399 1.3430001 4284114753
0.12022456 0.022220399 1.3430001 4286549088
0.1212997 0.022203853 1.342 4288194165
0.12191682 0.022104582 1.3360001 4288983932
0.12289201 0.02207149 1.3340001 4289247099
0.12349179 0.021972219 1.3280001 4289312887
0.12445657 0.021939129 1.3260001 4289642105
0.12551261 0.021922583 1.325 4289905529
0.12628013 0.021856401 1.3210001 4289839733
0.12742656 0.021856401 1.3210001 4289971316
0.128573 0.021856401 1.3210001 4290037364
0.13001402 0.021906037 1.3240001 4290037109
0.13136117 0.021939129 1.3260001 4290168700
0.13271181 0.021972219 1.3280001 4290233987
0.13436833 0.022054946 1.3330001 4290233485
0.13572851 0.022088036 1.335 4289969814
0.13729724 0.022154218 1.3390001 4290429614
-0.13046959 0.024491889 1.4070001 4281350202
-0.12906481 0.024457075 1.4050001 4281547836
-0.12775449 0.024439666 1.404 4281745214
-0.12590514 0.024317818 1.3970001 4281876286
-0.12433574 0.024248188 1.393 4281810494
-0.12259648 0.024143746 1.3870001 4281810492
-0.12130524 0.024126338 1.386 4281810235
-0.12001576 0.024108931 1.3850001 4281942078
-0.11864221 0.024074117 1.383 4282073664
-0.11744197 0.024074117 1.383 4282336580
-0.1161577 0.02405671 1.3820001 4282468166
-0.1150415 0.024074117 1.383 4282336581
-0.11384127 0.024074117 1.383 4282007616
-0.11272249 0.024091525 1.3840001 4281612858
-0.11168254 0.024126338 1.386 4281283893
-0.11055941 0.024143746 1.3870001 4281349686
-0.10935571 0.024143746 1.3870001 4281547065
-0.10822997 0.024161153 1.388 4281678651
-0.10694829 0.024143746 1.3870001 4281810237
-0.10574459 0.024143746 1.3870001 4281810237
-0.10446551 0.024126338 1.386 4282007616
-0.10318816 0.024108931 1.3850001 4282073921
-0.10191256 0.024091525 1.3840001 4282139970
-0.10071146 0.024091525 1.3840001 4282271554
-0.099510349 0.024091525 1.3840001 4282271554
-0.098380275 0.024108931 1.3850001 4282205763
-0.097248472 0.024126338 1.386 4281811005
-0.096184224 0.024161153 1.388 4281153073
-0.094518252 0.024352631 1.399 4280824108
-0.09317074 0.024317818 1.3970001 4280824108
-0.09110263 0.024091525 1.3840001 4280824109
-0.08964169 0.024021896 1.3800001 4280824110
-0.087803163 0.023847824 1.3700001 4281021489
-0.086550981 0.023830418 1.3690001 4281613625
-0.085238196 0.023795603 1.3670001 4282139968
-0.083867386 0.023743382 1.3640001 4282205761
-0.082683638 0.023743382 1.3640001 4281811003
-0.081499889 0.023743382 1.3640001 4281350452
-0.080433905 0.023778196 1.3660001 4281021489
-0.079248428 0.023778196 1.3660001 4280955696
-0.07812009 0.023795603 1.3670001 4281086512
-0.076990016 0.023813009 1.368 4280955183
-0.07607986 0.023900045 1.373 4280691754
-0.07494285 0.023917453 1.3740001 4280954926
-0.073857777 0.023952268 1.376 4281020721
-0.072452381 0.023882639 1.3720001 4281415479
-0.071157813 0.023847824 1.3700001 4282731339
-0.069458142 0.023673752 1.36 4283126097
-0.068227656 0.023656346 1.3590001 4282928205
-0.066998921 0.023638938 1.358 4282270532
-0.065723434 0.023604125 1.3560001 4281152307
-0.064499035 0.023586717 1.355 4280494377
-0.063323103 0.023586717 1.355 4280428584
-0.062238894 0.023621531 1.3570001 4280494377
-0.061106224 0.023638938 1.358 4280428584
-0.059971809 0.023656346 1.3590001 4280362791
-0.059008714 0.023743382 1.3640001 4280560170
-0.057909749 0.023778196 1.3660001 4281349686
-0.056765798 0.023795603 1.3670001 4281612858
-0.05570142 0.023847824 1.3700001 4281678651
-0.054512467 0.023847824 1.3700001 4281415477
-0.053323515 0.023847824 1.3700001 4281020719
-0.051830124 0.023708567 1.3620001 4280954926
-0.050648116 0.023708567 1.3620001 4280757547
-0.049466103 0.023708567 1.3620001 4280560168
-0.048248641 0.023691161 1.3610001 4280691754
-0.047032915 0.023673752 1.36 4280889390
-0.045751497 0.023621531 1.3570001 4281349940
-0.044540975 0.023604125 1.3560001 4281613626
-0.043364171 0.023604125 1.3560001 4281745212
-0.042125147 0.02356931 1.3540001 4281547833
-0.040950079 0.02356931 1.3540001 4281350454
-0.039775014 0.02356931 1.3540001 4281350454
-0.038628452 0.023586717 1.355 4281350454
-0.037480153 0.023604125 1.3560001 4281349684
-0.036303353 0.023604125 1.3560001 4281152305
-0.035152454 0.023621531 1.3570001 4281020719
-0.033949744 0.023604125 1.3560001 4280889133
-0.03277294 0.023604125 1.3560001 4280889131
-0.031409733 0.023464868 1.348 4281020717
-0.030239873 0.023464868 1.348 4281152303
-0.028919052 0.023343017 1.3410001 4281283889
-0.027755268 0.023343017 1.3410001 4281218350
-0.026591482 0.023343017 1.3410001 4281284143
-0.025446657 0.023360424 1.342 4281218350
-0.024282003 0.023360424 1.342 4281284143
-0.023117349 0.023360424 1.342 4281547315
-0.021936338 0.023343017 1.3410001 4281481522
-0.020772552 0.023343017 1.3410001 4281613108
-0.019608768 0.023343017 1.3410001 4281678901
-0.018458735 0.023360424 1.342 4281547061
-0.017294081 0.023360424 1.342 4281283889
-0.016141446 0.023377832 1.3430001 4281152303
-0.014987078 0.023395238 1.3440001 4281086510
-0.013841255 0.023430053 1.3460001 4281086510
-0.012663715 0.023412645 1.345 4281218096
-0.011505004 0.023430053 1.3460001 4281218098
-0.010359919 0.023482274 1.3490001 4281152305
-0.009196002 0.023499681 1.35 4281152305
-0.0080303494 0.023517089 1.3510001 4281086512
-0.0068680374 0.023551904 1.353 4281152305
-0.0056938375 0.023551904 1.353 4281152305
-0.0045196377 0.023551904 1.353 4280954926
-0.0033479105 0.02356931 1.3540001 4280823340
-0.0021744473 0.023586717 1.355 4280757545
-0.00099851179 0.023586717 1.355 4280560166
0.00017742388 0.023586717 1.355 4280560166
0.0013523607 0.02356931 1.3540001 4280560166
0.0025106287 0.023412645 1.345 4280494373
0.0036751514 0.023395238 1.3440001 4280494373
0.0048379381 0.023377832 1.3430001 4280625961
0.0059811086 0.023290794 1.3380001 4280625961
0.0071369526 0.023273388 1.337 4280625961
0.0082662376 0.02318635 1.332 4280560168
0.0094222128 0.02318635 1.332 4280494375
0.010578188 0.02318635 1.332 4280428582
0.011707734 0.023134129 1.3290001 4280362789
0.012851429 0.023116723 1.3280001 4280231203
0.013993388 0.023099314 1.327 4280231203
0.015087957 0.023012279 1.322 4280362789
0.016222974 0.022994872 1.3210001 4280362789
0.017303661 0.022907836 1.3160001 4280494375
0.018431732 0.02289043 1.3150001 4280494375
0.019572955 0.02289043 1.3150001 4280494375
0.020714177 0.02289043 1.3150001 4280625961
0.021872018 0.022907836 1.3160001 4280757547
0.023014108 0.022907836 1.3160001 4280757545
0.024211265 0.022960057 1.319 4280757545
0.025355957 0.022960057 1.319 4280691752
0.026520742 0.022977466 1.3200001 4280691752
0.02775014 0.023047093 1.3240001 4280757545
0.028920999 0.023064502 1.325 4280889131
0.030093595 0.023081908 1.3260001 4280954924
0.031338613 0.023151537 1.33 4280889131
0.032517284 0.023168944 1.3310001 4280625959
0.033672392 0.023168944 1.3310001 4280296994
0.034853663 0.02318635 1.332 4280296994
0.03600964 0.02318635 1.332 4280362787
0.037165612 0.02318635 1.332 4280362787
0.038321588 0.02318635 1.332 4280362787
0.039359014 0.023116723 1.3280001 4280362787
0.040450506 0.023081908 1.3260001 4280494373
0.0415699 0.023064502 1.325 4280625959
0.042558596 0.022977466 1.3200001 4280560166
0.043671045 0.022960057 1.319 4280560420
0.044645853 0.022873022 1.314 4280560420
0.045751363 0.022855615 1.3130001 4280363040
0.046819422 0.022820801 1.3110001 4280231454
0.047884014 0.022785986 1.309 4280165915
0.049020026 0.022785986 1.309 4279968536
0.050156042 0.022785986 1.309 4280165915
0.051252872 0.022768579 1.3080001 4280231708
0.05238802 0.022768579 1.3080001 4280231708
0.053482246 0.022751173 1.307 4280231708
0.054574735 0.022733765 1.3060001 4280165915
0.055750802 0.022751173 1.307 4280429087
0.056885079 0.022751173 1.307 4280429087
0.058019359 0.022751173 1.307 4280429087
0.059153635 0.022751173 1.307 4280297501
0.061563179 0.022803394 1.3100001 4280034075
0.062747926 0.022820801 1.3110001 4279902489
0.063983135 0.022855615 1.3130001 4279770903
0.065122619 0.022855615 1.3130001 4279705110
0.066211641 0.022838207 1.312 4279573524
0.08397907 0.022716358 1.3050001 4279770903
0.085242048 0.022751173 1.307 4279902489
0.086442418 0.022768579 1.3080001 4280034075
0.087644525 0.022785986 1.309 4280297247
0.088780537 0.022785986 1.309 4280363040
0.089779168 0.022751173 1.307 4280363040
0.090913445 0.022751173 1.307 4280297248
0.092047721 0.022751173 1.307 4280099869
0.0932533 0.022768579 1.3080001 4280034075
0.094388448 0.022768579 1.3080001 4280099868
0.095596626 0.022785986 1.309 4280231454
0.096732639 0.022785986 1.309 4280297247
0.098242484 0.022873022 1.314 4280297248
0.099458471 0.02289043 1.3150001 4280297248
0.10067619 0.022907836 1.3160001 4280165661
0.10342979 0.023012279 1.322 4280231709
0.10473531 0.023047093 1.3240001 4280231708
0.10604428 0.023081908 1.3260001 4280165918
0.10759926 0.023168944 1.3310001 4280165661
0.10891778 0.023203759 1.3330001 4280231454
0.1101572 0.023221165 1.3340001 4280297502
0.11173213 0.023308203 1.3390001 4280429087
0.1129785 0.023325609 1.34 4280231708
0.11422659 0.023343017 1.3410001 4280165914
0.11564852 0.023395238 1.3440001 4279902997
0.11681491 0.023395238 1.3440001 4279639822
0.1179813 0.023395238 1.3440001 4279705866
0.11914769 0.023395238 1.3440001 4280561171
0.12022456 0.023377832 1.3430001 4281351195
0.12139007 0.023377832 1.3430001 4282930476
0.12191682 0.02325598 1.3360001 4285036101
0.12289201 0.023221165 1.3340001 4286746969
0.1233988 0.023099314 1.327 4288260459
0.12445657 0.023081908 1.3260001 4289313398
0.12541789 0.023047093 1.3240001 4289708409
0.12628013 0.022994872 1.3210001 4289576819
0.12742656 0.022994872 1.3210001 4289774194
0.12847565 0.022977466 1.3200001 4289839985
0.13001402 0.023047093 1.3240001 4289905779
0.13136117 0.023081908 1.3260001 4290168443
0.13271181 0.023116723 1.3280001 4290102401
0.13456993 0.023238571 1.335 4290101897
0.13593183 0.023273388 1.337 4289772688
0.13739976 0.023325609 1.34 4290166437
-0.13000594 0.025613133 1.4020001 4281284663
-0.1286055 0.025576595 1.4000001 4281613627
-0.12720853 0.025540056 1.3980001 4281811005
-0.12545452 0.025430443 1.3920001 4281811005
-0.12415721 0.025412172 1.391 4281811005
-0.12250809 0.025320828 1.386 4282073663
-0.12121773 0.025302559 1.3850001 4282204993
-0.11992911 0.02528429 1.3840001 4282270786
-0.11855642 0.025247753 1.3820001 4282402372
-0.11735706 0.025247753 1.3820001 4282468165
-0.1161577 0.025247753 1.3820001 4282402373
-0.1150415 0.025266021 1.383 4282270786
-0.11384127 0.025266021 1.383 4281876029
-0.11272249 0.02528429 1.3840001 4281547063
-0.11168254 0.025320828 1.386 4281415478
-0.1104797 0.025320828 1.386 4281547064
-0.10927686 0.025320828 1.386 4281612857
-0.10807402 0.025320828 1.386 4281744442
-0.10687118 0.025320828 1.386 4281876028
-0.10566834 0.025320828 1.386 4281876028
-0.10431477 0.02528429 1.3840001 4282007614
-0.10311366 0.02528429 1.3840001 4282139200
-0.10183892 0.025266021 1.383 4282336579
-0.10063869 0.025266021 1.383 4282533958
-0.099438451 0.025266021 1.383 4282468421
-0.098380275 0.025302559 1.3850001 4282205763
-0.097248472 0.025320828 1.386 4281876798
-0.096184224 0.025357366 1.388 4281218868
-0.09552709 0.025503518 1.396 4280824110
-0.094315566 0.025503518 1.396 4280955696
-0.09310405 0.025503518 1.396 4281021488
-0.091168448 0.025302559 1.3850001 4280955696
-0.089771606 0.025247753 1.3820001 4281218868
-0.087803163 0.025028525 1.3700001 4281350454
-0.086550981 0.025010256 1.3690001 4282008384
-0.085238196 0.024973718 1.3670001 4282533958
-0.083867386 0.02491891 1.3640001 4282468165
-0.082683638 0.02491891 1.3640001 4282073407
-0.081499889 0.02491891 1.3640001 4281547063
-0.080433905 0.02495545 1.3660001 4281217841
-0.079248428 0.02495545 1.3660001 4281151792
-0.07812009 0.024973718 1.3670001 4281086512
-0.077158861 0.025046794 1.3710001 4280954926
-0.07607986 0.025083331 1.373 4280889133
-0.074997388 0.025119869 1.3750001 4280823340
-0.073911451 0.025156409 1.3770001 4280889135
-0.072505191 0.025083331 1.373 4281678651
-0.071157813 0.025028525 1.3700001 4282862412
-0.069509216 0.024864104 1.3610001 4283125584
-0.068227656 0.024827566 1.3590001 4282862925
-0.066998921 0.024809295 1.358 4282468167
-0.065723434 0.02477276 1.3560001 4281218100
-0.064499035 0.024754489 1.355 4280099619
-0.063323103 0.024754489 1.355 4279968033
-0.062238894 0.024791028 1.3570001 4280362791
-0.061106224 0.024809295 1.358 4280033826
-0.060015939 0.024845835 1.36 4280165412
-0.059051968 0.024937179 1.365 4280889135
-0.057909749 0.02495545 1.3660001 4281547065
-0.056807321 0.024991985 1.368 4281941823
-0.055742078 0.025046794 1.3710001 4281678651
-0.054552257 0.025046794 1.3710001 4281415479
-0.053401355 0.025065063 1.3720001 4281218100
-0.051906236 0.02491891 1.3640001 4281020721
-0.050722487 0.02491891 1.3640001 4280954928
-0.049538743 0.02491891 1.3640001 4280889133
-0.048319545 0.024900641 1.363 4281020719
-0.047136664 0.024900641 1.363 4281349684
-0.045785211 0.024809295 1.358 4281678649
-0.044573825 0.024791028 1.3570001 4281679419
-0.043332193 0.024754489 1.355 4281745212
-0.042062923 0.024699682 1.3520001 4281679421
-0.040889591 0.024699682 1.3520001 4281482042
-0.039716259 0.024699682 1.3520001 4281612856
-0.038542926 0.024699682 1.3520001 4281612856
-0.037397236 0.024717953 1.353 4281481270
-0.036249809 0.02473622 1.3540001 4281283891
-0.035074741 0.02473622 1.3540001 4281152303
-0.033899672 0.02473622 1.3540001 4280954924
-0.032531254 0.024590069 1.3460001 4280889385
-0.03136313 0.024590069 1.3460001 4281020971
-0.030195005 0.024590069 1.3460001 4281284143
-0.028897485 0.024480455 1.34 4281284142
-0.027755268 0.024498723 1.3410001 4281349935
-0.026591482 0.024498723 1.3410001 4281284396
-0.025427695 0.024498723 1.3410001 4281284396
-0.024263911 0.024498723 1.3410001 4281415982
-0.023100125 0.024498723 1.3410001 4281678901
-0.021936338 0.024498723 1.3410001 4281678901
-0.020772552 0.024498723 1.3410001 4281876280
-0.019608768 0.024498723 1.3410001 4281876280
-0.018458735 0.024516992 1.342 4281547061
-0.017294081 0.024516992 1.342 4281020717
-0.016141446 0.024535263 1.3430001 4280889385
-0.014964774 0.024516992 1.342 4280889131
-0.013820688 0.02455353 1.3440001 4280757547
-0.012663715 0.024571799 1.345 4281020721
-0.011496457 0.024571799 1.345 4281086512
-0.010352239 0.024626607 1.348 4281086512
-0.0091891903 0.024644876 1.3490001 4281020717
-0.008018462 0.024644876 1.3490001 4281020717
-0.006857885 0.024681414 1.3510001 4281020971
-0.0056854212 0.024681414 1.3510001 4280954924
-0.0045129568 0.024681414 1.3510001 4280823342
-0.0033454378 0.024717953 1.353 4280691756
-0.002171238 0.024717953 1.353 4280691754
-0.00099777489 0.02473622 1.3540001 4280560166
0.00017742388 0.024754489 1.355 4280428580
0.0013523607 0.02473622 1.3540001 4280362787
0.0025068955 0.024535263 1.3430001 4280428580
0.0036696824 0.024516992 1.342 4280494373
0.0048307339 0.024498723 1.3410001 4280560166
0.0059811086 0.024443917 1.3380001 4280691752
0.0071369526 0.024425648 1.337 4280625959
0.0082662376 0.024334302 1.332 4280625959
0.0094151394 0.024316033 1.3310001 4280428580
0.010562305 0.024297766 1.33 4280231201
0.011690116 0.024242958 1.327 4280296994
0.012832074 0.024224689 1.3260001 4280296994
0.013972297 0.02420642 1.325 4280231201
0.015076545 0.024133343 1.3210001 4280296994
0.016210694 0.024115076 1.3200001 4280428580
0.017290512 0.02402373 1.3150001 4280428580
0.018431732 0.02402373 1.3150001 4280428580
0.019558068 0.02400546 1.314 4280494373
0.020714177 0.02402373 1.3150001 4280560166
0.021855399 0.02402373 1.3150001 4280691752
0.023014108 0.024041999 1.3160001 4280757545
0.024192909 0.024078537 1.3180001 4280823338
0.025355957 0.024096806 1.319 4280625959
0.026520742 0.024115076 1.3200001 4280560166
0.027729182 0.024169883 1.3230001 4280560166
0.028899174 0.02418815 1.3240001 4280691752
0.030093595 0.024224689 1.3260001 4280889131
0.031315051 0.024279496 1.3290001 4280889131
0.032492854 0.024297766 1.33 4280823338
0.033672392 0.024316033 1.3310001 4280625959
0.03487983 0.024352573 1.3330001 4280362787
0.036036674 0.024352573 1.3330001 4280362787
0.037193518 0.024352573 1.3330001 4280362787
0.038350359 0.024352573 1.3330001 4280296994
0.039388653 0.024279496 1.3290001 4280165408
0.040481012 0.024242958 1.327 4280296994
0.041601274 0.024224689 1.3260001 4280428580
0.042590838 0.024133343 1.3210001 4280428580
0.043704156 0.024115076 1.3200001 4280362787
0.044679832 0.02402373 1.3150001 4280428580
0.045786206 0.02400546 1.314 4280494627
0.046890851 0.023987193 1.3130001 4280494627
0.047957171 0.023950653 1.3110001 4280428833
0.049094923 0.023950653 1.3110001 4280297246
0.050232671 0.023950653 1.3110001 4280231454
0.051292054 0.023914116 1.309 4280165661
0.05238802 0.023895847 1.3080001 4280165915
0.053482246 0.023877578 1.307 4280165915
0.054574735 0.023859309 1.3060001 4280099868
0.055708148 0.023859309 1.3060001 4280100124
0.056841556 0.023859309 1.3060001 4280231454
0.057974968 0.023859309 1.3060001 4280428833
0.059153635 0.023877578 1.307 4280494625
0.060380172 0.023914116 1.309 4280494625
0.061563179 0.023932386 1.3100001 4280560420
0.062747926 0.023950653 1.3110001 4280494627
0.063885681 0.023950653 1.3110001 4280363041
0.06502343 0.023950653 1.3110001 4280231455
0.066110708 0.023932386 1.3100001 4280165662
0.082719557 0.023804503 1.3030001 4280099868
0.08391472 0.02382277 1.304 4280363040
0.085111618 0.02384104 1.3050001 4280428833
0.086310245 0.023859309 1.3060001 4280428834
0.087443657 0.023859309 1.3060001 4280494627
0.088577069 0.023859309 1.3060001 4280363043
0.089710474 0.023859309 1.3060001 4280297248
0.090843886 0.023859309 1.3060001 4280231455
0.091977298 0.023859309 1.3060001 4280165661
0.093182005 0.023877578 1.307 4280231454
0.094388448 0.023895847 1.3080001 4280297247
0.095596626 0.023914116 1.309 4280362786
0.096806534 0.023932386 1.3100001 4280362786
0.098242484 0.02400546 1.314 4280296993
