# .PCD v0.7 - Point Cloud Data file format
VERSION 0.7
FIELDS x y z rgba
SIZE 4 4 4 4
TYPE F F F U
COUNT 1 1 1 1
WIDTH 1093
HEIGHT 1
VIEWPOINT 0 0 0 1 0 0 0
POINTS 1093
DATA ascii
0.065221824 0.027423631 1.3150001 4280231454
0.066211641 0.027361067 1.312 4280428833
0.067196257 0.027298503 1.309 4280428833
0.068280071 0.027277648 1.3080001 4280363040
0.069415219 0.027277648 1.3080001 4280231454
0.070550367 0.027277648 1.3080001 4280165661
0.071630701 0.027256796 1.307 4280165661
0.072764985 0.027256796 1.307 4280165661
0.084343858 0.028090972 1.3470001 4280362786
0.085512854 0.028090972 1.3470001 4280560166
0.0866175 0.02807012 1.3460001 4280889130
0.090543941 0.027840719 1.335 4281416231
0.091771215 0.027861575 1.3360001 4282008619
0.094230957 0.027903283 1.3380001 4287864698
0.095534727 0.027944991 1.34 4289246352
0.09676981 0.027965847 1.3410001 4288324999
0.098006621 0.027986702 1.342 4284442709
-0.049123462 0.028687229 1.3210001 4278915094
-0.047868077 0.028622078 1.3180001 4282862672
-0.046653353 0.028578646 1.3160001 4286349701
-0.045407511 0.028513499 1.3130001 4289968316
-0.044234313 0.02849178 1.312 4291942106
-0.043062847 0.028470067 1.3110001 4291021004
-0.04173322 0.028339766 1.3050001 4287731354
-0.040569566 0.028318053 1.304 4282665292
-0.039286669 0.028209468 1.299 4278849298
-0.038100582 0.028166037 1.2970001 4278981138
-0.036946476 0.02814432 1.296 4280296998
-0.03571118 0.028057456 1.2920001 4280165412
-0.034563147 0.028035739 1.291 4280099619
-0.033390943 0.027992308 1.289 4280231203
-0.032247253 0.02797059 1.2880001 4280231203
-0.031129461 0.02797059 1.2880001 4280033824
-0.029988373 0.027948875 1.2870001 4280033824
-0.028871451 0.027948875 1.2870001 4279968030
-0.027754527 0.027948875 1.2870001 4279968029
-0.026616907 0.027927157 1.286 4280033822
-0.025461195 0.027883727 1.284 4280296994
-0.024327913 0.027862009 1.2830001 4280428580
-0.023178276 0.027818576 1.281 4280560166
-0.022049336 0.027796861 1.2800001 4280757545
-0.020873055 0.027709994 1.276 4280757545
-0.019765681 0.027709994 1.276 4280757799
-0.018643681 0.027688278 1.2750001 4280363041
-0.017523421 0.027666563 1.274 4280034076
-0.016404893 0.027644847 1.273 4280165662
-0.015300121 0.027644847 1.273 4280363041
-0.014184198 0.02762313 1.2720001 4280692006
-0.013090578 0.027644847 1.273 4280889131
-0.011985806 0.027644847 1.273 4280889131
-0.01088958 0.027666563 1.274 4280823338
-0.0097916201 0.027688278 1.2750001 4280560166
-0.008685112 0.027688278 1.2750001 4280363041
-0.007584549 0.027709994 1.276 4280297248
-0.0064873258 0.027753428 1.2780001 4280297248
-0.0053782146 0.027753428 1.2780001 4280165662
-0.0042724437 0.027775144 1.279 4280034076
-0.0031649375 0.027796861 1.2800001 4280231455
-0.0020556953 0.027818576 1.281 4280757545
-0.00094398047 0.027818576 1.281 4281283889
0.00016760337 0.027796861 1.2800001 4281283889
0.0012774515 0.027775144 1.279 4281218096
0.0023855639 0.027753428 1.2780001 4281020717
0.0034946753 0.027753428 1.2780001 4281020717
0.0046037864 0.027753428 1.2780001 4281152303
0.0057173679 0.027775144 1.279 4281020717
0.006827347 0.027775144 1.279 4280954924
0.0079373261 0.027775144 1.279 4280691752
0.009061452 0.027818576 1.281 4280362787
0.010181108 0.027840294 1.2820001 4280231201
0.011302501 0.027862009 1.2830001 4280034076
0.012435306 0.027905442 1.2850001 4280034076
0.013561037 0.027927157 1.286 4280099869
0.014677092 0.027927157 1.286 4280165662
0.015805427 0.027948875 1.2870001 4280231455
0.016935498 0.02797059 1.2880001 4280297248
0.018053286 0.02797059 1.2880001 4280297248
0.019200845 0.028014023 1.2900001 4280297248
0.020336123 0.028035739 1.291 4280231454
0.021473136 0.028057456 1.2920001 4280099868
0.02266435 0.02814432 1.296 4279968282
0.023807436 0.028166037 1.2970001 4279836696
0.024952261 0.028187754 1.2980001 4279639317
0.026118912 0.028231187 1.3000001 4279507731
0.027226157 0.028209468 1.299 4279441938
0.028353494 0.028209468 1.299 4279376145
0.049843892 0.02890439 1.3310001 4279244559
0.051075634 0.028947825 1.3330001 4279244559
0.052310843 0.028991256 1.335 4279244559
0.053229112 0.028860958 1.3290001 4279376145
0.054423399 0.028882677 1.33 4279376145
0.055285126 0.028730661 1.3230001 4279310352
0.056475949 0.028752379 1.3240001 4279244559
0.057668503 0.028774092 1.325 4279244559
0.058774013 0.028752379 1.3240001 4279310352
0.059877783 0.028730661 1.3230001 4279376145
0.060979821 0.028708944 1.322 4279441938
0.061939143 0.028622078 1.3180001 4279705110
0.063035108 0.028600365 1.317 4280034075
0.06412933 0.028578646 1.3160001 4280363040
0.065172225 0.028535215 1.314 4280494626
0.066262111 0.028513499 1.3130001 4280428833
0.067350261 0.02849178 1.312 4280297247
0.068488881 0.02849178 1.312 4280165661
0.069574431 0.028470067 1.3110001 4280099868
0.076296538 0.028860958 1.3290001 4280231200
0.077566467 0.02890439 1.3310001 4280231201
0.078839868 0.028947825 1.3330001 4280165408
0.08029677 0.029056404 1.3380001 4280165408
0.08145795 0.029056404 1.3380001 4280099870
0.082680881 0.029078122 1.3390001 4280297248
0.083279386 0.028882677 1.33 4280428578
0.084497109 0.02890439 1.3310001 4280626213
0.085716568 0.028926108 1.332 4281020969
0.086807325 0.02890439 1.3310001 4281284394
0.087896347 0.028882677 1.33 4281481770
0.088983625 0.028860958 1.3290001 4281153057
0.090204827 0.028882677 1.33 4281416733
0.091427751 0.02890439 1.3310001 4284114497
0.09293066 0.029012972 1.3360001 4287601778
0.094230957 0.029056404 1.3380001 4289377932
0.096697643 0.029099839 1.34 4286680176
0.098006621 0.02914327 1.342 4283390025
-0.049160652 0.029848278 1.322 4281941572
-0.047940716 0.029803121 1.3200001 4293850100
-0.046688803 0.029735388 1.317 4294113272
-0.045372929 0.029622495 1.312 4294376443
-0.044200599 0.02959992 1.3110001 4294376446
-0.04289861 0.029487027 1.3060001 4294376445
-0.041701242 0.029441873 1.304 4294244857
-0.040538456 0.029419294 1.3030001 4292468449
-0.039226182 0.029283825 1.2970001 4283915359
-0.038071208 0.029261246 1.296 4279704861
-0.03691797 0.029238667 1.2950001 4279375896
-0.035683542 0.029148357 1.291 4280165412
-0.034536377 0.029125778 1.2900001 4280033826
-0.033365041 0.029080624 1.2880001 4280033824
-0.032222215 0.029058045 1.2870001 4279968031
-0.031105295 0.029058045 1.2870001 4279639065
-0.029988373 0.029058045 1.2870001 4279770650
-0.028849015 0.029035464 1.286 4279704857
-0.027711397 0.029012885 1.2850001 4279507478
-0.026575513 0.02899031 1.284 4279902236
-0.025461195 0.02899031 1.284 4279968029
-0.024327913 0.028967731 1.2830001 4280231201
-0.023160182 0.028899997 1.2800001 4280231201
-0.022049336 0.028899997 1.2800001 4280296994
-0.020873055 0.028809683 1.276 4280494373
-0.019750189 0.028787108 1.2750001 4280494627
-0.018629061 0.028764529 1.274 4280363041
-0.017523421 0.028764529 1.274 4280363041
-0.016392006 0.028719369 1.2720001 4280494627
-0.015288102 0.028719369 1.2720001 4280823337
-0.014184198 0.028719369 1.2720001 4281086510
-0.013080294 0.028719369 1.2720001 4281020717
-0.011985806 0.02874195 1.273 4280757545
-0.010881034 0.02874195 1.273 4280560166
-0.0097916201 0.028787108 1.2750001 4280362787
-0.008685112 0.028787108 1.2750001 4280428580
-0.0075786049 0.028787108 1.2750001 4280560166
-0.0064873258 0.028854841 1.2780001 4280626213
-0.0053782146 0.028854841 1.2780001 4280494627
-0.0042724437 0.028877417 1.279 4280297248
-0.0031674101 0.028922576 1.281 4280626213
-0.0020556953 0.028922576 1.281 4281547061
-0.00094398047 0.028922576 1.281 4281810233
0.00016773431 0.028922576 1.281 4281612854
0.0012784502 0.028899997 1.2800001 4281481268
0.0023874305 0.028877417 1.279 4281152303
0.0034974096 0.028877417 1.279 4281086510
0.0046073887 0.028877417 1.279 4281086510
0.0057218382 0.028899997 1.2800001 4281020717
0.0068326849 0.028899997 1.2800001 4281086510
0.0079497369 0.028922576 1.281 4281020717
0.0090756007 0.028967731 1.2830001 4280692006
0.010196992 0.02899031 1.284 4280428834
0.01131131 0.02899031 1.284 4280165662
0.012444983 0.029035464 1.286 4280231455
0.013561037 0.029035464 1.286 4280099869
0.014688505 0.029058045 1.2870001 4280034076
0.015817707 0.029080624 1.2880001 4280099869
0.016935498 0.029080624 1.2880001 4280165662
0.018053286 0.029080624 1.2880001 4280297248
0.01918596 0.029103199 1.289 4280297248
0.020320369 0.029125778 1.2900001 4280363041
0.021439895 0.029125778 1.2900001 4280363041
0.022611884 0.029193511 1.2930001 4280297247
0.023752371 0.029216092 1.294 4280165661
0.024894591 0.029238667 1.2950001 4280034075
0.026058637 0.029283825 1.2970001 4279836696
0.027184239 0.029283825 1.2970001 4279705110
0.028288011 0.029261246 1.296 4279573524
0.049731549 0.029983746 1.3280001 4279178766
0.050922368 0.030006325 1.3290001 4279244559
0.051919002 0.029916011 1.325 4279310352
0.054259725 0.02993859 1.3260001 4279310352
0.055159763 0.029803121 1.3200001 4279310352
0.056347981 0.0298257 1.3210001 4279310352
0.057537932 0.029848278 1.322 4279376145
0.058640838 0.0298257 1.3210001 4279507731
0.059742004 0.029803121 1.3200001 4279770903
0.060887564 0.029803121 1.3200001 4279968282
0.061892148 0.029735388 1.317 4280297247
0.062987238 0.029712809 1.3160001 4280363040
0.064080596 0.02969023 1.3150001 4280428833
0.065172225 0.029667653 1.314 4280363040
0.066262111 0.029645074 1.3130001 4280231454
0.067401595 0.029645074 1.3130001 4280165661
0.068488881 0.029622495 1.312 4280231454
0.069627501 0.029622495 1.312 4280231454
0.076411359 0.030051479 1.3310001 4280297248
0.077624738 0.030074058 1.332 4280165663
0.078839868 0.030096637 1.3330001 4280165662
0.080176748 0.030164372 1.3360001 4280231199
0.081336193 0.030164372 1.3360001 4280297248
0.081939906 0.029961169 1.327 4280428834
0.083154157 0.029983746 1.3280001 4280494627
0.084370136 0.030006325 1.3290001 4280889384
0.085587867 0.030028904 1.33 4281350189
0.086676881 0.030006325 1.3290001 4281416234
0.087764166 0.029983746 1.3280001 4280889886
0.088983625 0.030006325 1.3290001 4280956186
0.090136997 0.030006325 1.3290001 4282996018
0.091359064 0.030028904 1.33 4286812262
0.09293066 0.030164372 1.3360001 4289049222
0.095392138 0.030209526 1.3380001 4287864697
0.096697643 0.030254684 1.34 4284837715
0.098079652 0.030322419 1.3430001 4282468665
-0.048863158 0.030800093 1.314 4282796881
-0.047977034 0.030964172 1.3210001 4294705151
-0.046724252 0.030893849 1.3180001 4294573823
-0.045372929 0.03075321 1.312 4294705151
-0.044200599 0.030729773 1.3110001 4294705151
-0.042865761 0.03058913 1.3050001 4294639615
-0.041701242 0.030565692 1.304 4294705151
-0.040507343 0.030518811 1.302 4294508030
-0.039226182 0.030401612 1.2970001 4289244592
-0.038041834 0.030354731 1.2950001 4281283893
-0.036889456 0.030331293 1.294 4279507482
-0.035655901 0.030237533 1.2900001 4279836445
-0.034509603 0.030214092 1.289 4279968031
-0.033339139 0.030167213 1.2870001 4279836445
-0.032222215 0.030167213 1.2870001 4279770652
-0.031105295 0.030167213 1.2870001 4279573271
-0.029941769 0.030120332 1.2850001 4279639064
-0.028826583 0.030120332 1.2850001 4279507478
-0.027711397 0.030120332 1.2850001 4279639064
-0.026575513 0.030096894 1.284 4279704857
-0.025441365 0.030073453 1.2830001 4279770650
-0.024327913 0.030073453 1.2830001 4279836443
-0.023160182 0.030003132 1.2800001 4279968029
-0.022032108 0.029979693 1.279 4280099615
-0.020856697 0.029885935 1.2750001 4280033822
-0.019734699 0.029862493 1.274 4280231455
-0.018629061 0.029862493 1.274 4280363041
-0.017509665 0.029839052 1.273 4280494627
-0.016392006 0.029815612 1.2720001 4280560420
-0.015288102 0.029815612 1.2720001 4280757545
-0.014173047 0.029792175 1.271 4280823338
-0.013080294 0.029815612 1.2720001 4280560166
-0.01197639 0.029815612 1.2720001 4280296994
-0.010881034 0.029839052 1.273 4280296994
-0.0097839404 0.029862493 1.274 4280362787
-0.008685112 0.029885935 1.2750001 4280757545
-0.0075786049 0.029885935 1.2750001 4280954924
-0.0064822496 0.029932814 1.2770001 4280954924
-0.0053782146 0.029956255 1.2780001 4280691752
-0.0042724437 0.029979693 1.279 4280428580
-0.0031674101 0.030026574 1.281 4280823338
-0.0020556953 0.030026574 1.281 4281810233
-0.00094471738 0.030050011 1.2820001 4281810233
0.00016773431 0.030026574 1.281 4281678647
0.0012794491 0.030026574 1.281 4281547061
0.0023892971 0.030003132 1.2800001 4281415475
0.0034974096 0.029979693 1.279 4281283889
0.0046109911 0.030003132 1.2800001 4281086764
0.0057218382 0.030003132 1.2800001 4281020971
0.0068380232 0.030026574 1.281 4280955178
0.0079559432 0.030050011 1.2820001 4280889385
0.010196992 0.030096894 1.284 4280560420
0.01132012 0.030120332 1.2850001 4280494627
0.013571583 0.030167213 1.2870001 4280363041
0.014699917 0.030190654 1.2880001 4280165662
0.015817707 0.030190654 1.2880001 4280034076
0.016935498 0.030190654 1.2880001 4280099869
0.018053286 0.030190654 1.2880001 4280099869
0.019171076 0.030190654 1.2880001 4280099869
0.020288866 0.030190654 1.2880001 4280165662
0.021423275 0.030214092 1.289 4280165662
0.02257691 0.030260973 1.291 4280231454
0.023715658 0.03028441 1.2920001 4280231454
0.024856143 0.030307852 1.2930001 4280165661
0.026018456 0.030354731 1.2950001 4280099868
0.02714232 0.030354731 1.2950001 4280034075
0.028266184 0.030354731 1.2950001 4279968282
0.049619202 0.03105793 1.325 4279310352
0.05080742 0.031081371 1.3260001 4279376145
0.051801451 0.030987609 1.322 4279441938
0.052988797 0.031011051 1.3230001 4279441938
0.054177884 0.031034492 1.3240001 4279376145
0.055076189 0.030893849 1.3180001 4279441938
0.056262668 0.030917291 1.319 4279573524
0.057407361 0.030917291 1.319 4279836696
0.058507666 0.030893849 1.3180001 4280099868
0.05965149 0.030893849 1.3180001 4280297247
0.060749192 0.030870412 1.317 4280297247
0.061798155 0.030823531 1.3150001 4280494626
0.062939376 0.030823531 1.3150001 4280363040
0.064080596 0.030823531 1.3150001 4280297247
0.065172225 0.030800093 1.314 4280165661
0.066312581 0.030800093 1.314 4280165661
0.06745293 0.030800093 1.314 4280231454
0.06854108 0.030776652 1.3130001 4280297247
0.069680564 0.030776652 1.3130001 4280363040
0.07652618 0.031245451 1.3330001 4280231457
0.077683024 0.031245451 1.3330001 4280165408
0.078899011 0.031268891 1.3340001 4280165662
0.080056719 0.031268891 1.3340001 4280297248
0.081214428 0.031268891 1.3340001 4280363040
0.081816405 0.03105793 1.325 4280494626
0.08302892 0.031081371 1.3260001 4280757798
0.084243178 0.031104812 1.327 4281021225
0.085394815 0.031104812 1.327 4281152808
0.086546451 0.031104812 1.327 4280889630
0.087698087 0.031104812 1.327 4280824344
0.088849723 0.031104812 1.327 4282469418
0.090136997 0.03115169 1.3290001 4285825368
0.09129037 0.03115169 1.3290001 4288720256
0.092861094 0.03129233 1.335 4289509518
0.095392138 0.031362649 1.3380001 4285956197
0.09676981 0.031432968 1.3410001 4282929470
0.098079652 0.03147985 1.3430001 4281613105
-0.048863158 0.031932529 1.314 4278651922
-0.047650166 0.031883925 1.312 4288520869
-0.0464761 0.031859625 1.3110001 4294639615
-0.045234598 0.031786717 1.3080001 4294639615
-0.043998305 0.031713814 1.3050001 4294639615
-0.042734373 0.03161661 1.3010001 4294639615
-0.041573323 0.031592306 1.3000001 4294573823
-0.040414006 0.031568002 1.299 4293587184
-0.039165698 0.031470794 1.2950001 4285757817
-0.038012456 0.031446494 1.294 4280889135
-0.03686095 0.03142219 1.2930001 4279704861
-0.035600621 0.031300686 1.2880001 4279770652
-0.034482829 0.031300686 1.2880001 4279704859
-0.03331323 0.031252079 1.286 4279704859
-0.03217214 0.031227777 1.2850001 4279770652
-0.031032788 0.031203477 1.284 4279639064
-0.029918469 0.031203477 1.284 4279507478
-0.028804151 0.031203477 1.284 4279573271
-0.027668266 0.031179175 1.2830001 4279375892
-0.02653412 0.031154871 1.2820001 4279573525
-0.025421536 0.031154871 1.2820001 4279573525
-0.024289992 0.031130573 1.281 4279770904
-0.023142088 0.031081967 1.279 4279968283
-0.022014882 0.031057667 1.2780001 4279968283
-0.020856697 0.030984761 1.2750001 4279968283
-0.019750189 0.030984761 1.2750001 4280165662
-0.018629061 0.030960459 1.274 4280165662
-0.017509665 0.030936155 1.273 4280231455
-0.016392006 0.030911854 1.2720001 4280297248
-0.015288102 0.030911854 1.2720001 4280494373
-0.014184198 0.030911854 1.2720001 4280494373
-0.013080294 0.030911854 1.2720001 4280296994
-0.011985806 0.030936155 1.273 4280165408
-0.010881034 0.030936155 1.273 4280231203
-0.0097839404 0.030960459 1.274 4280494375
-0.008685112 0.030984761 1.2750001 4280954924
-0.0075786049 0.030984761 1.2750001 4280889131
-0.0064822496 0.031033365 1.2770001 4280625959
-0.0053782146 0.031057667 1.2780001 4280231201
-0.0042724437 0.031081967 1.279 4280033822
-0.0031674101 0.031130573 1.281 4280560166
-0.0020572999 0.031154871 1.2820001 4281086510
-0.00094545429 0.031179175 1.2830001 4281415475
0.00016812712 0.031203477 1.284 4281678647
0.0012824455 0.031203477 1.284 4281349682
0.0023948972 0.031179175 1.2830001 4281283889
0.0035110821 0.031203477 1.284 4281283889
0.0046254005 0.031203477 1.284 4281086764
0.005744189 0.031227777 1.2850001 4280757799
0.0068700514 0.031276383 1.2870001 4280823592
0.0079931794 0.031300686 1.2880001 4280692006
0.0091109686 0.031300686 1.2880001 4280626213
0.010244641 0.031349286 1.2900001 4280560420
0.011381786 0.03139789 1.2920001 4280757799
0.012503047 0.03139789 1.2920001 4280692006
0.013645398 0.031446494 1.294 4280560420
0.014768397 0.031446494 1.294 4280363041
0.015891394 0.031446494 1.294 4280231201
0.016988091 0.03139789 1.2920001 4280165408
0.018095337 0.03137359 1.291 4280099869
0.01918596 0.031324983 1.289 4280034076
0.020304618 0.031324983 1.289 4279968283
0.021406656 0.031300686 1.2880001 4279902490
0.022524446 0.031300686 1.2880001 4279968282
0.023660591 0.031324983 1.289 4280099868
0.024798471 0.031349286 1.2900001 4280099868
0.02595818 0.03139789 1.2920001 4280034075
0.027100401 0.03142219 1.2930001 4280099868
0.028222529 0.03142219 1.2930001 4280165661
0.029412745 0.031495098 1.296 4280165661
0.030561041 0.031519398 1.2970001 4280099868
0.031711068 0.031543702 1.2980001 4280034075
0.032913435 0.03161661 1.3010001 4279902489
0.034042507 0.03161661 1.3010001 4279770903
0.035171576 0.03161661 1.3010001 4279770903
0.036300648 0.03161661 1.3010001 4279705110
0.037487261 0.03166521 1.3030001 4279639317
0.038647708 0.031689513 1.304 4279573524
0.039840393 0.031738114 1.3060001 4279507731
0.041036554 0.031786717 1.3080001 4279441938
0.04220394 0.031811021 1.309 4279376145
0.04340617 0.031859625 1.3110001 4279441938
0.044611879 0.031908229 1.3130001 4279507731
0.045786206 0.031932529 1.314 4279573524
0.046997987 0.031981133 1.3160001 4279573524
0.048176657 0.032005437 1.317 4279639317
0.049282163 0.031981133 1.3160001 4279639317
0.050424255 0.031981133 1.3160001 4279705110
0.051527161 0.031956829 1.3150001 4279836696
0.052668381 0.031956829 1.3150001 4279836696
0.053809606 0.031956829 1.3150001 4279902489
0.054909036 0.031932529 1.314 4280034075
0.056006737 0.031908229 1.3130001 4280165661
0.057146221 0.031908229 1.3130001 4280297247
0.058241315 0.031883925 1.312 4280363040
0.059379935 0.031883925 1.312 4280363040
0.060518552 0.031883925 1.312 4280297247
0.061704163 0.031908229 1.3130001 4280297247
0.062891521 0.031932529 1.314 4280231454
0.064031869 0.031932529 1.314 4280231454
0.065271415 0.031981133 1.3160001 4280297247
0.066413507 0.031981133 1.3160001 4280363040
0.067555599 0.031981133 1.3160001 4280363040
0.069585122 0.032394264 1.3330001 4280297248
0.070741966 0.032394264 1.3330001 4280231455
0.071844868 0.03236996 1.332 4280297248
0.073055655 0.032394264 1.3330001 4280297248
0.074268162 0.032418568 1.3340001 4280231455
0.075425878 0.032418568 1.3340001 4280231455
0.076640993 0.032442864 1.335 4280231455
0.077741295 0.032418568 1.3340001 4280296992
0.078839868 0.032394264 1.3330001 4280297248
0.079756655 0.032297056 1.3290001 4280363041
0.080727383 0.032224152 1.3260001 4280626212
0.081692904 0.032151245 1.3230001 4280757798
0.082841069 0.032151245 1.3230001 4280889384
0.083925754 0.032126945 1.322 4280692259
0.085073054 0.032126945 1.322 4280495132
0.086220346 0.032126945 1.322 4280495126
0.087433726 0.032151245 1.3230001 4282337579
0.088715807 0.032199848 1.325 4285693528
0.089933529 0.032224152 1.3260001 4288654463
0.091221683 0.032272752 1.3280001 4289707405
-0.048863158 0.033064969 1.314 4278190598
-0.047650166 0.03301464 1.312 4279573021
-0.0464761 0.03298948 1.3110001 4283717980
-0.045165434 0.032863658 1.3060001 4287336849
-0.043964591 0.032813333 1.304 4292139738
-0.042701527 0.032712679 1.3000001 4294639614
-0.041541342 0.032687511 1.299 4294047733
-0.040382896 0.032662351 1.2980001 4288915879
-0.039135452 0.032561697 1.294 4281020719
-0.038012456 0.032561697 1.294 4279770652
-0.03686095 0.032536533 1.2930001 4279968031
-0.035628259 0.032435875 1.289 4279836445
-0.034456059 0.03238555 1.2870001 4279639066
-0.033287328 0.032335222 1.2850001 4279770652
-0.03217214 0.032335222 1.2850001 4279770652
-0.031032788 0.032310061 1.284 4279573271
-0.029918469 0.032310061 1.284 4279639064
-0.028781716 0.032284897 1.2830001 4279639064
-0.027668266 0.032284897 1.2830001 4279639064
-0.02653412 0.032259732 1.2820001 4279573271
-0.025421536 0.032259732 1.2820001 4279573271
-0.024289992 0.032234572 1.281 4279704857
-0.023142088 0.032184239 1.279 4279902236
-0.022014882 0.032159079 1.2780001 4279968283
-0.020873055 0.03210875 1.276 4279968283
-0.019750189 0.03208359 1.2750001 4280099869
-0.018643681 0.03208359 1.2750001 4280099869
-0.017523421 0.032058425 1.274 4280099869
-0.016404893 0.032033261 1.273 4280165662
-0.015300121 0.032033261 1.273 4280231455
-0.014195349 0.032033261 1.273 4280297248
-0.013100861 0.032058425 1.274 4280231201
-0.011995221 0.032058425 1.274 4280165408
-0.01088958 0.032058425 1.274 4280296994
-0.0097916201 0.03208359 1.2750001 4280362787
-0.008685112 0.03208359 1.2750001 4280494373
-0.0075786049 0.03208359 1.2750001 4280428580
-0.0064822496 0.032133915 1.2770001 4280165408
-0.0053782146 0.032159079 1.2780001 4279836443
-0.0042691035 0.032159079 1.2780001 4279836443
-0.0031674101 0.032234572 1.281 4279902236
-0.0020572999 0.032259732 1.2820001 4280231201
-0.00094545429 0.032284897 1.2830001 4280691752
0.00016812712 0.032310061 1.284 4281086510
0.0012834442 0.032335222 1.2850001 4280954924
0.0023967638 0.032310061 1.284 4280823593
0.0035165511 0.032360386 1.286 4280823593
0.0046326052 0.032360386 1.286 4280692006
0.0057531293 0.03238555 1.2870001 4280560420
0.0068753893 0.032410715 1.2880001 4280494627
0.0079993848 0.032435875 1.289 4280428834
0.0091251163 0.032461043 1.2900001 4280363041
0.010268466 0.032536533 1.2930001 4280428834
0.011399405 0.032561697 1.294 4280494627
0.01253208 0.032586858 1.2950001 4280494627
0.013666488 0.032612022 1.296 4280428834
0.014791221 0.032612022 1.296 4280428834
0.015915954 0.032612022 1.296 4280363041
0.01701439 0.032561697 1.294 4280231455
0.018137386 0.032561697 1.294 4280165662
0.019215729 0.032486208 1.291 4280099869
0.020320369 0.032461043 1.2900001 4279968283
0.021439895 0.032461043 1.2900001 4279836697
0.022559421 0.032461043 1.2900001 4279836696
0.023697304 0.032486208 1.291 4279902489
0.024817696 0.032486208 1.291 4279902489
0.025978271 0.032536533 1.2930001 4279968282
0.027121361 0.032561697 1.294 4280034075
0.028244358 0.032561697 1.294 4280099868
0.029412745 0.032612022 1.296 4280165661
0.030561041 0.032637186 1.2970001 4280231454
0.031711068 0.032662351 1.2980001 4280231454
0.032862838 0.032687511 1.299 4280231454
0.033990175 0.032687511 1.299 4280231455
0.035117511 0.032687511 1.299 4280165662
0.036272746 0.032712679 1.3000001 4280165661
0.037458491 0.032763004 1.302 4280099868
0.038588431 0.032763004 1.302 4280099868
0.039748874 0.032788169 1.3030001 4280034075
0.040973805 0.032863658 1.3060001 4279902489
0.042139456 0.032888822 1.307 4279836696
0.043306846 0.032913983 1.3080001 4279902489
0.044543922 0.03298948 1.3110001 4279968282
0.045716517 0.03301464 1.312 4280099868
0.046855137 0.03301464 1.312 4280099868
0.048030335 0.033039805 1.3130001 4280165661
0.049169824 0.033039805 1.3130001 4280297247
0.050309308 0.033039805 1.3130001 4280363040
0.051448792 0.033039805 1.3130001 4280494626
0.05258828 0.033039805 1.3130001 4280297248
0.053727765 0.033039805 1.3130001 4280363041
0.054825462 0.03301464 1.312 4280363041
0.055964082 0.03301464 1.312 4280363041
0.057059176 0.03298948 1.3110001 4280297248
0.058196928 0.03298948 1.3110001 4280297248
0.059334677 0.03298948 1.3110001 4280231455
0.060518552 0.03301464 1.312 4280231455
0.061704163 0.033039805 1.3130001 4280165662
0.062891521 0.033064969 1.314 4280363041
0.064080596 0.033090129 1.3150001 4280494627
0.065321021 0.033140458 1.317 4280560420
0.066463977 0.033140458 1.317 4280494627
0.067606933 0.033140458 1.317 4280297248
0.069637321 0.033568241 1.3340001 4280165662
0.070795029 0.033568241 1.3340001 4280165661
0.071898811 0.033543076 1.3330001 4280231454
0.073055655 0.033543076 1.3330001 4280297502
0.074268162 0.033568241 1.3340001 4280099868
0.075425878 0.033568241 1.3340001 4280231454
0.07652618 0.033543076 1.3330001 4280297250
0.077624738 0.033517912 1.332 4280494372
0.078721575 0.033492748 1.3310001 4280626213
0.07969664 0.033417258 1.3280001 4280758053
0.080666505 0.033341765 1.325 4280955430
0.081631161 0.033266276 1.322 4280824098
0.082778454 0.033266276 1.322 4280626717
0.083925754 0.033266276 1.322 4280495127
0.085073054 0.033266276 1.322 4280429583
0.086285561 0.03329144 1.3230001 4282403879
0.087367646 0.033266276 1.322 4285628243
0.088715807 0.033341765 1.325 4288720509
0.090001352 0.033392094 1.327 4289707403
0.09129037 0.033442423 1.3290001 4289641610
-0.0487516 0.03411933 1.3110001 4278191368
-0.047541212 0.034067277 1.309 4278257161
-0.046192493 0.033911128 1.3030001 4279112470
-0.0450271 0.033885099 1.302 4279375896
-0.043863446 0.033859078 1.3010001 4281876030
-0.042602982 0.033754975 1.2970001 4285297264
-0.041445404 0.03372895 1.296 4285692022
-0.040289562 0.033702921 1.2950001 4282139200
-0.03910521 0.033650871 1.2930001 4279310101
-0.037953701 0.033624846 1.2920001 4279639066
-0.036803935 0.033598822 1.291 4279836445
-0.03557298 0.033494718 1.2870001 4279770652
-0.034429286 0.033468693 1.286 4279639066
-0.033261426 0.033416644 1.284 4279836445
-0.032147106 0.033416644 1.284 4279770652
-0.031032788 0.033416644 1.284 4279704857
-0.029895166 0.033390619 1.2830001 4279770650
-0.028781716 0.033390619 1.2830001 4279770650
-0.027646702 0.03336459 1.2820001 4279639064
-0.02651342 0.033338569 1.281 4279573271
-0.025401706 0.033338569 1.281 4279639064
-0.024289992 0.033338569 1.281 4279704857
-0.023142088 0.033286516 1.279 4279836443
-0.022032108 0.033286516 1.279 4279902490
-0.020873055 0.033208441 1.276 4279902490
-0.019765681 0.033208441 1.276 4280099869
-0.018658305 0.033208441 1.276 4280034076
-0.017537175 0.033182416 1.2750001 4280034076
-0.016430667 0.033182416 1.2750001 4280099869
-0.015312141 0.033156391 1.274 4280165662
-0.0142065 0.033156391 1.274 4280231455
-0.013111143 0.033182416 1.2750001 4280231201
-0.012004635 0.033182416 1.2750001 4280231201
-0.010898128 0.033182416 1.2750001 4280165408
-0.0097992998 0.033208441 1.276 4280231201
-0.0086919246 0.033208441 1.276 4280296994
-0.007584549 0.033208441 1.276 4280296994
-0.0064822496 0.033234466 1.2770001 4280033822
-0.0053782146 0.033260491 1.2780001 4279902236
-0.0042691035 0.033260491 1.2780001 4279770650
-0.0031674101 0.033338569 1.281 4279704857
-0.0020556953 0.033338569 1.281 4279770650
-0.00094471738 0.03336459 1.2820001 4280165408
0.00016825808 0.033442669 1.2850001 4280494373
0.0012834442 0.033442669 1.2850001 4280560166
0.0023986304 0.033442669 1.2850001 4280428834
0.0035192855 0.033494718 1.2870001 4280363041
0.0046362076 0.033494718 1.2870001 4280297248
0.0057575996 0.033520747 1.2880001 4280297248
0.0068914033 0.033598822 1.291 4280363041
0.0080117974 0.033598822 1.291 4280297248
0.009139264 0.033624846 1.2920001 4280231455
0.010292291 0.03372895 1.296 4280231455
0.011417024 0.03372895 1.296 4280231455
0.012551433 0.033754975 1.2970001 4280231455
0.013687579 0.033780999 1.2980001 4280231455
0.014814046 0.033780999 1.2980001 4280231455
0.015940515 0.033780999 1.2980001 4280297248
0.017053835 0.033754975 1.2970001 4280231455
0.018165419 0.03372895 1.296 4280165662
0.019245498 0.033650871 1.2930001 4280165662
0.020351876 0.033624846 1.2920001 4280034076
0.021473136 0.033624846 1.2920001 4279968283
0.022594398 0.033624846 1.2920001 4279902489
0.023715658 0.033624846 1.2920001 4279902489
0.024856143 0.033650871 1.2930001 4280034075
0.025998365 0.0336769 1.294 4280034075
0.02714232 0.033702921 1.2950001 4279968282
0.028266184 0.033702921 1.2950001 4279902489
0.029412745 0.03372895 1.296 4279968282
0.030561041 0.033754975 1.2970001 4280034075
0.031686641 0.033754975 1.2970001 4280099868
0.032837536 0.033780999 1.2980001 4280099868
0.033964004 0.033780999 1.2980001 4280231454
0.035090473 0.033780999 1.2980001 4280231454
0.036216941 0.033780999 1.2980001 4280297247
0.037343409 0.033780999 1.2980001 4280297247
0.038529154 0.033833049 1.3000001 4280363040
0.039687864 0.033859078 1.3010001 4280363040
0.040785562 0.033833049 1.3000001 4280297247
0.041946009 0.033859078 1.3010001 4280231454
0.043075081 0.033859078 1.3010001 4280231454
0.044272106 0.033911128 1.3030001 4280297247
0.045437757 0.033937152 1.304 4280363040
0.046605147 0.033963177 1.3050001 4280428833
0.047810853 0.034015231 1.307 4280428833
0.048945129 0.034015231 1.307 4280560419
0.050079409 0.034015231 1.307 4280560419
0.051292054 0.034067277 1.309 4280494626
0.052468125 0.034093305 1.3100001 4280297248
0.053605005 0.034093305 1.3100001 4280231455
0.054741889 0.034093305 1.3100001 4280231455
0.055836115 0.034067277 1.309 4280231455
0.056928609 0.034041252 1.3080001 4280165662
0.05815253 0.034093305 1.3100001 4280231455
0.059334677 0.03411933 1.3110001 4280297248
0.060472429 0.03411933 1.3110001 4280363041
0.061751164 0.034197409 1.314 4280494627
0.062939376 0.03422343 1.3150001 4280560420
0.06412933 0.034249458 1.3160001 4280494627
0.065370619 0.034301508 1.3180001 4280428834
0.06651444 0.034301508 1.3180001 4280231455
0.067606933 0.034275483 1.317 4280099869
0.069532916 0.034665864 1.332 4280165662
0.070688888 0.034665864 1.332 4280231454
0.071844868 0.034665864 1.332 4280363040
0.072562404 0.034457661 1.3240001 4280297246
0.073711433 0.034457661 1.3240001 4280297247
0.074973546 0.034509711 1.3260001 4280363040
0.07612431 0.034509711 1.3260001 4280560420
0.077100247 0.034431636 1.3230001 4280823592
0.078130126 0.034379587 1.3210001 4281086763
0.079276554 0.034379587 1.3210001 4280955432
0.080422983 0.034379587 1.3210001 4280823846
0.081631161 0.034405608 1.322 4280560671
0.082715847 0.034379587 1.3210001 4280692510
0.083798781 0.034353558 1.3200001 4281679655
0.085008703 0.034379587 1.3210001 4283390522
0.086220346 0.034405608 1.322 4285956954
0.087367646 0.034405608 1.322 4288786301
0.088782758 0.034509711 1.3260001 4289970570
0.090069175 0.034561761 1.3280001 4289838986
0.091359064 0.034613814 1.33 4287865199
-0.048677225 0.035195407 1.309 4279178263
-0.047504891 0.035168521 1.3080001 4278651919
-0.04615704 0.035007197 1.302 4279112469
-0.044992518 0.034980312 1.3010001 4279046931
-0.043829732 0.034953423 1.3000001 4279375895
-0.042602982 0.034872763 1.2970001 4279968031
-0.041445404 0.034845874 1.296 4280231203
-0.040258449 0.034792099 1.294 4279770652
-0.039044719 0.034711439 1.291 4280033824
-0.037924327 0.034711439 1.291 4279902238
-0.036775429 0.03468455 1.2900001 4279968031
-0.03557298 0.03460389 1.2870001 4279902238
-0.034429286 0.034577001 1.286 4279770652
-0.033261426 0.034523226 1.284 4279836443
-0.032147106 0.034523226 1.284 4279770650
-0.031032788 0.034523226 1.284 4279639064
-0.029895166 0.034496341 1.2830001 4279704857
-0.028781716 0.034496341 1.2830001 4279770650
-0.027668266 0.034496341 1.2830001 4279704857
-0.02653412 0.034469452 1.2820001 4279639064
-0.025401706 0.034442566 1.281 4279639064
-0.024289992 0.034442566 1.281 4279704857
-0.023178276 0.034442566 1.281 4279836443
-0.022049336 0.034415677 1.2800001 4279968283
-0.020938488 0.034415677 1.2800001 4279968283
-0.019827642 0.034415677 1.2800001 4280034076
-0.018702172 0.034388788 1.279 4280034076
-0.017592192 0.034388788 1.279 4280034076
-0.016482214 0.034388788 1.279 4280034076
-0.015372234 0.034388788 1.279 4280099869
-0.014262255 0.034388788 1.279 4280165662
-0.013141993 0.034361906 1.2780001 4280165662
-0.012032882 0.034361906 1.2780001 4280165662
-0.010923771 0.034361906 1.2780001 4280099869
-0.0098069804 0.034335017 1.2770001 4280099869
-0.0086987372 0.034335017 1.2770001 4280165662
-0.0075904937 0.034335017 1.2770001 4280165662
-0.0064873258 0.034361906 1.2780001 4280099869
-0.0053782146 0.034361906 1.2780001 4279968283
-0.0042691035 0.034361906 1.2780001 4279902490
-0.0031649375 0.034415677 1.2800001 4279836697
-0.0020540906 0.034415677 1.2800001 4279902236
-0.00094398047 0.034442566 1.281 4280165408
0.00016786525 0.034469452 1.2820001 4280362787
0.0012814467 0.034496341 1.2830001 4280494373
0.0023967638 0.034523226 1.284 4280428834
0.0035220201 0.034630779 1.2880001 4280428834
0.0046470147 0.03468455 1.2900001 4280363041
0.0057754801 0.034738325 1.2920001 4280297248
0.0069287694 0.034899652 1.2980001 4280363041
0.0080614444 0.034926534 1.299 4280297248
0.009195854 0.034953423 1.3000001 4280231455
0.010355824 0.035060972 1.304 4280165662
0.011487499 0.035060972 1.304 4280099869
0.012628851 0.035087857 1.3050001 4280034076
0.013750849 0.035060972 1.304 4280034076
0.014871112 0.035034087 1.3030001 4280099869
0.015989639 0.035007197 1.302 4280099869
0.017080132 0.034926534 1.299 4280099869
0.018207468 0.034926534 1.299 4280165662
0.01931992 0.034899652 1.2980001 4280165662
0.020430636 0.034872763 1.2970001 4280165662
0.021556236 0.034872763 1.2970001 4280099869
0.022681836 0.034872763 1.2970001 4280034076
0.023844149 0.034926534 1.299 4279968283
0.024990708 0.034953423 1.3000001 4280099868
0.026139004 0.034980312 1.3010001 4280099868
0.027309995 0.035034087 1.3030001 4280034075
0.028462628 0.035060972 1.304 4279968282
0.029594304 0.035060972 1.304 4279968282
0.03072598 0.035060972 1.304 4279968282
0.031833224 0.035034087 1.3030001 4279968282
0.032913435 0.034980312 1.3010001 4279836696
0.034042507 0.034980312 1.3010001 4279968282
0.035144541 0.034953423 1.3000001 4280099868
0.036189042 0.034872763 1.2970001 4280231454
0.03740095 0.034953423 1.3000001 4280165661
0.038469877 0.034899652 1.2980001 4280231454
0.039596345 0.034899652 1.2980001 4280297247
0.040816937 0.034980312 1.3010001 4280363040
0.041946009 0.034980312 1.3010001 4280231454
0.043108191 0.035007197 1.302 4280231454
0.044340063 0.035087857 1.3050001 4280297247
0.045472603 0.035087857 1.3050001 4280363040
0.046640858 0.035114747 1.3060001 4280297247
0.047847435 0.035168521 1.3080001 4280297247
0.048982579 0.035168521 1.3080001 4280363040
0.050156042 0.035195407 1.309 4280363040
0.051370423 0.035249185 1.3110001 4280297247
0.052548226 0.03527607 1.312 4280165662
0.053686846 0.03527607 1.312 4280099869
0.054825462 0.03527607 1.312 4280165662
0.055921424 0.035249185 1.3110001 4280231455
0.05701565 0.035222296 1.3100001 4280297248
0.058418881 0.035383619 1.3160001 4280363041
0.059560969 0.035383619 1.3160001 4280494627
0.060749192 0.035410509 1.317 4280560420
0.061986133 0.035464279 1.319 4280560420
0.063178688 0.035491168 1.3200001 4280494627
0.064372987 0.035518058 1.3210001 4280297248
0.065717801 0.035625603 1.325 4280165662
0.066918164 0.035652492 1.3260001 4280033821
0.068120271 0.035679381 1.327 4280099614
0.069376312 0.035733152 1.3290001 4280231201
0.070529684 0.035733152 1.3290001 4280362787
0.071683057 0.035733152 1.3290001 4280494373
0.072397985 0.035518058 1.3210001 4280428836
0.073600084 0.035544943 1.322 4280494373
0.074803919 0.035571828 1.3230001 4280823336
0.075894676 0.035544943 1.322 4280955178
0.077041976 0.035544943 1.322 4281020968
0.078070976 0.035491168 1.3200001 4281021221
0.07921654 0.035491168 1.3200001 4280495129
0.080362104 0.035491168 1.3200001 4280297749
0.081445917 0.035464279 1.319 4280495377
0.08259061 0.035464279 1.319 4282403877
0.083735302 0.035464279 1.319 4284575295
0.084944345 0.035491168 1.3200001 4286680926
0.086155131 0.035518058 1.3210001 4288654970
0.087367646 0.035544943 1.322 4289773449
0.088782758 0.035652492 1.3260001 4289905036
0.090069175 0.035706263 1.3280001 4288128119
0.091359064 0.035760041 1.33 4284969807
-0.048602853 0.036268041 1.307 4279967779
-0.047432255 0.036240291 1.3060001 4280231205
-0.04612159 0.036101546 1.3010001 4280231205
-0.044957936 0.036073796 1.3000001 4280033826
-0.043829732 0.036073796 1.3000001 4280099619
-0.042537291 0.035935048 1.2950001 4280033824
-0.041381445 0.035907302 1.294 4279968031
-0.040227339 0.035879552 1.2930001 4279968031
-0.039044719 0.035824057 1.291 4279968031
-0.037894953 0.035796307 1.2900001 4279902236
-0.036775429 0.035796307 1.2900001 4279902236
-0.035545338 0.035685308 1.286 4279836443
-0.034429286 0.035685308 1.286 4279836443
-0.033261426 0.035629813 1.284 4279770650
-0.032147106 0.035629813 1.284 4279704857
-0.031032788 0.035629813 1.284 4279770650
-0.029918469 0.035629813 1.284 4279836443
-0.028781716 0.035602063 1.2830001 4279770650
-0.027668266 0.035602063 1.2830001 4279770650
-0.02653412 0.03557431 1.2820001 4279770650
-0.025421536 0.03557431 1.2820001 4279704857
-0.024308953 0.03557431 1.2820001 4279770650
-0.023178276 0.035546564 1.281 4279902236
-0.022066562 0.035546564 1.281 4279968283
-0.020954847 0.035546564 1.281 4279902490
-0.019827642 0.035518814 1.2800001 4279968283
-0.018716795 0.035518814 1.2800001 4279968283
-0.017605947 0.035518814 1.2800001 4279968283
-0.016495101 0.035518814 1.2800001 4280099869
-0.015384254 0.035518814 1.2800001 4280165662
-0.014273407 0.035518814 1.2800001 4280165662
-0.013152276 0.035491064 1.279 4280165662
-0.012042297 0.035491064 1.279 4280165662
-0.010932318 0.035491064 1.279 4280099869
-0.0098146601 0.035463318 1.2780001 4280099869
-0.008705548 0.035463318 1.2780001 4280034076
-0.0075964374 0.035463318 1.2780001 4280034076
-0.0064873258 0.035463318 1.2780001 4280034076
-0.0053782146 0.035463318 1.2780001 4280034076
-0.0042691035 0.035463318 1.2780001 4280034076
-0.0031624648 0.035491064 1.279 4280034076
-0.0020524857 0.035491064 1.279 4280231201
-0.00094250665 0.035491064 1.279 4280428580
0.00016773431 0.035546564 1.281 4280626213
0.0012804479 0.03557431 1.2820001 4280560420
0.0023930306 0.03557431 1.2820001 4280560420
0.0035220201 0.035740808 1.2880001 4280626213
0.0046470147 0.035796307 1.2900001 4280560420
0.0057754801 0.035851803 1.2920001 4280428834
0.0069341077 0.036046047 1.299 4280494627
0.0080676498 0.036073796 1.3000001 4280428834
0.0092100007 0.036129292 1.302 4280363041
0.010363765 0.036212541 1.3050001 4280231455
0.011496308 0.036212541 1.3050001 4280165662
0.012638529 0.036240291 1.3060001 4280099869
0.013750849 0.036184791 1.304 4280099869
0.014871112 0.036157042 1.3030001 4280099869
0.015989639 0.036129292 1.302 4280033822
0.017080132 0.036046047 1.299 4280033822
0.018193452 0.036018301 1.2980001 4280165662
0.019305035 0.035990551 1.2970001 4280165662
0.020430636 0.035990551 1.2970001 4280165662
0.021556236 0.035990551 1.2970001 4280231455
0.022699324 0.036018301 1.2980001 4280231455
0.02388086 0.036101546 1.3010001 4280231455
0.025029156 0.036129292 1.302 4280165661
0.026179187 0.036157042 1.3030001 4280231454
0.027372871 0.036240291 1.3060001 4280231454
0.028506283 0.036240291 1.3060001 4280165661
0.029662389 0.036268041 1.307 4280099868
0.030796668 0.036268041 1.307 4280034075
0.031906515 0.036240291 1.3060001 4279902489
0.032989331 0.036184791 1.304 4279770903
0.034094837 0.036157042 1.3030001 4279836696
0.035198614 0.036129292 1.302 4279968282
0.036328554 0.036129292 1.302 4280034075
0.03742972 0.036101546 1.3010001 4279968282
0.038529154 0.036073796 1.3000001 4279968282
0.039687864 0.036101546 1.3010001 4280034075
0.040848311 0.036129292 1.302 4280099868
0.04201049 0.036157042 1.3030001 4279968282
0.043141298 0.036157042 1.3030001 4279968282
0.044374038 0.036240291 1.3060001 4280034075
0.045507446 0.036240291 1.3060001 4280099868
0.046676572 0.036268041 1.307 4280034075
0.047884014 0.036323536 1.309 4280034075
0.049057476 0.036351286 1.3100001 4280099868
0.050194357 0.036351286 1.3100001 4280099869
0.051448792 0.036434535 1.3130001 4280099869
0.05258828 0.036434535 1.3130001 4280165662
0.053768683 0.036462285 1.314 4280231455
0.054909036 0.036462285 1.314 4280297248
0.056006737 0.036434535 1.3130001 4280428834
0.057102699 0.036406785 1.312 4280494627
0.058552053 0.036601029 1.319 4280560420
0.059696749 0.036601029 1.319 4280560420
0.060841441 0.036601029 1.319 4280560420
0.062080126 0.036656529 1.3210001 4280297248
0.063274413 0.036684275 1.322 4280165662
0.06447044 0.036712024 1.3230001 4280099614
0.065717801 0.03676752 1.325 4280033822
0.066867702 0.03676752 1.325 4280033822
0.068068936 0.036795273 1.3260001 4280165408
0.069219701 0.036795273 1.3260001 4280428580
0.070370473 0.036795273 1.3260001 4280494373
0.071521237 0.036795273 1.3260001 4280560169
0.072288372 0.036601029 1.319 4280625961
0.073488735 0.036628779 1.3200001 4280691753
0.074690841 0.036656529 1.3210001 4280955178
0.075837269 0.036656529 1.3210001 4281086763
0.076925419 0.036628779 1.3200001 4280889637
0.078011833 0.036601029 1.319 4280494877
0.079096518 0.03657328 1.3180001 4280165909
0.080240346 0.03657328 1.3180001 4280231955
0.081384167 0.03657328 1.3180001 4282272044
0.082527995 0.03657328 1.3180001 4285299022
0.083671823 0.03657328 1.3180001 4287338853
0.084944345 0.036628779 1.3200001 4288786553
0.086155131 0.036656529 1.3210001 4289510275
0.087367646 0.036684275 1.322 4289773448
0.088782758 0.036795273 1.3260001 4288259956
0.090001352 0.036823023 1.327 4285035594
0.09129037 0.036878519 1.3290001 4281679904
-0.064828113 0.037594721 1.314 4279770401
-0.063687757 0.037594721 1.314 4279046678
-0.062595002 0.037623331 1.3150001 4279046678
-0.061360318 0.03756611 1.3130001 4279244056
-0.060220834 0.03756611 1.3130001 4279441435
-0.058946356 0.03748028 1.3100001 4279704607
-0.057809472 0.03748028 1.3100001 4280362537
-0.056629326 0.037451666 1.309 4283389015
-0.055450916 0.037423056 1.3080001 4289573557
-0.054274246 0.037394445 1.307 4294508031
-0.053139966 0.037394445 1.307 4294442237
-0.051926106 0.037337221 1.3050001 4289047210
-0.050754644 0.037308615 1.304 4280954928
-0.049622968 0.037308615 1.304 4279836448
-0.048379734 0.03722278 1.3010001 4280691756
-0.047250662 0.03722278 1.3010001 4280625963
-0.046050686 0.037165556 1.299 4280428584
-0.044888768 0.03713695 1.2980001 4280362789
-0.043728583 0.037108336 1.2970001 4280099617
-0.042504441 0.037022505 1.294 4279968031
-0.041317485 0.036965281 1.2920001 4279902238
-0.040165115 0.036936671 1.291 4279836445
-0.03895399 0.03685084 1.2880001 4279770652
-0.037806824 0.036822226 1.2870001 4279770650
-0.036604378 0.036736395 1.284 4279704857
-0.03546242 0.036707785 1.2830001 4279639064
-0.034348968 0.036707785 1.2830001 4279639064
-0.033209614 0.036679171 1.2820001 4279573271
-0.03209703 0.036679171 1.2820001 4279573271
-0.03098445 0.036679171 1.2820001 4279704857
-0.029871866 0.036679171 1.2820001 4279770650
-0.028759284 0.036679171 1.2820001 4279770650
-0.027646702 0.036679171 1.2820001 4279902236
-0.02653412 0.036679171 1.2820001 4279968029
-0.025421536 0.036679171 1.2820001 4280033822
-0.024308953 0.036679171 1.2820001 4280033820
-0.023196371 0.036679171 1.2820001 4279902490
-0.022083789 0.036679171 1.2820001 4279836697
-0.020971205 0.036679171 1.2820001 4279770904
-0.019858623 0.036679171 1.2820001 4279836697
-0.018760661 0.036707785 1.2830001 4279770904
-0.017647211 0.036707785 1.2830001 4279836697
-0.016520875 0.036679171 1.2820001 4280034076
-0.015408292 0.036679171 1.2820001 4280231455
-0.01429571 0.036679171 1.2820001 4280297248
-0.013172843 0.036650561 1.281 4280297248
-0.012051713 0.036621951 1.2800001 4280231455
-0.010940866 0.036621951 1.2800001 4280297248
-0.0098223388 0.03659334 1.279 4280231455
-0.0087123597 0.03659334 1.279 4280034076
-0.0075964374 0.03656473 1.2780001 4279968283
-0.0064873258 0.03656473 1.2780001 4280034076
-0.0053782146 0.03656473 1.2780001 4280099869
-0.0042657629 0.03653612 1.2770001 4280165662
-0.0031550471 0.036507506 1.276 4280231455
-0.0020492761 0.03653612 1.2770001 4280297248
-0.00094103283 0.03653612 1.2770001 4280428834
0.0001673415 0.03656473 1.2780001 4280560420
0.0012774515 0.03659334 1.279 4280494627
0.0023874305 0.03659334 1.279 4280494627
0.0035138165 0.036765005 1.2850001 4280626213
0.00463981 0.03685084 1.2880001 4280626213
0.0057754801 0.036965281 1.2920001 4280560420
0.0069394456 0.03719417 1.3000001 4280560420
0.0080800615 0.037251391 1.302 4280494627
0.0092241485 0.037308615 1.304 4280363041
0.01038759 0.037423056 1.3080001 4280231455
0.011522736 0.037423056 1.3080001 4280165662
0.012657884 0.037423056 1.3080001 4280099869
0.01377194 0.037365835 1.3060001 4280034076
0.014882525 0.037308615 1.304 4280034076
0.015977357 0.03722278 1.3010001 4280034076
0.017053835 0.037108336 1.2970001 4280099869
0.018179435 0.037108336 1.2970001 4280165662
0.019305035 0.037108336 1.2970001 4280165662
0.020430636 0.037108336 1.2970001 4280034076
0.021572856 0.03713695 1.2980001 4280099869
0.022716813 0.037165556 1.299 4280231455
0.023935927 0.037308615 1.304 4280297248
0.02510605 0.037365835 1.3060001 4280231455
0.026279643 0.037423056 1.3080001 4280297248
0.027519587 0.03756611 1.3130001 4280297247
0.0286809 0.037594721 1.314 4280231454
0.029843949 0.037623331 1.3150001 4280165661
0.031008732 0.037651941 1.3160001 4280099868
0.032126393 0.037623331 1.3150001 4279968282
0.033217017 0.03756611 1.3130001 4279902489
0.049469408 0.037795 1.3210001 4280099869
0.050577521 0.037766386 1.3200001 4280231455
0.051762268 0.037795 1.3210001 4280297248
0.052908696 0.037795 1.3210001 4280363041
0.054055125 0.037795 1.3210001 4280428834
0.055368703 0.037909441 1.325 4280494627
0.056134701 0.037651941 1.3160001 4280494627
0.057189748 0.037594721 1.314 4280428834
0.058685228 0.037823606 1.322 4280363041
0.059832525 0.037823606 1.322 4280297248
0.060979821 0.037823606 1.322 4280231455
0.062174112 0.03785222 1.3230001 4280099869
0.063322276 0.03785222 1.3230001 4279968283
0.064519174 0.03788083 1.3240001 4280034076
0.06566821 0.03788083 1.3240001 4280099613
0.066867702 0.037909441 1.325 4280165408
0.068017602 0.037909441 1.325 4280362787
0.069063097 0.03785222 1.3230001 4280560166
0.070211262 0.03785222 1.3230001 4280626214
0.07103581 0.037680555 1.317 4280691751
0.072233565 0.037709162 1.3180001 4280757799
0.073433064 0.037737776 1.319 4280823592
0.074577756 0.037737776 1.319 4280757798
0.075722449 0.037737776 1.319 4280889381
0.07680887 0.037709162 1.3180001 4280560667
0.077893548 0.037680555 1.317 4280429332
0.079036511 0.037680555 1.317 4280429837
0.080179468 0.037680555 1.317 4282009119
0.081322424 0.037680555 1.317 4284772673
0.08246538 0.037680555 1.317 4287536232
0.083608337 0.037680555 1.317 4288852345
0.084879994 0.037737776 1.319 4289444227
0.086089902 0.037766386 1.3200001 4289510279
0.087367646 0.037823606 1.322 4288062328
0.088648856 0.03788083 1.3240001 4284969808
0.089933529 0.037938051 1.3260001 4281482275
0.091221683 0.037995271 1.3280001 4280297751
-0.064729437 0.038668212 1.312 4279244056
-0.063639291 0.038697686 1.3130001 4279573021
-0.062499806 0.038697686 1.3130001 4279704607
-0.061313584 0.038668212 1.312 4279902240
-0.060174964 0.038668212 1.312 4279638812
-0.058946356 0.03860927 1.3100001 4279573019
-0.057765342 0.038579796 1.309 4279507482
-0.056586064 0.038550321 1.3080001 4279902240
-0.055366132 0.038491379 1.3060001 4281218101
-0.05423272 0.038491379 1.3060001 4286415748
-0.053099312 0.038491379 1.3060001 4289705397
-0.05188632 0.038432434 1.304 4284705129
-0.050715722 0.03840296 1.3030001 4279902240
-0.049546856 0.038373485 1.302 4279507480
-0.048342548 0.038314544 1.3000001 4280560168
-0.047214344 0.038314544 1.3000001 4280428582
-0.046015237 0.038255598 1.2980001 4280362789
-0.044854183 0.038226124 1.2970001 4280231203
-0.043728583 0.038226124 1.2970001 4279836445
-0.042471595 0.038108233 1.2930001 4279770652
-0.041317485 0.038078759 1.2920001 4279770652
-0.040165115 0.038049288 1.291 4279639064
