# .PCD v0.7 - Point Cloud Data file format
VERSION 0.7
FIELDS x y z rgba
SIZE 4 4 4 4
TYPE F F F U
COUNT 1 1 1 1
WIDTH 1079
HEIGHT 1
VIEWPOINT 0 0 0 1 0 0 0
POINTS 1079
DATA ascii
-0.23214035 -0.097727202 1.3050001 4286543716
-0.22997303 -0.098326296 1.3130001 4284240959
-0.22689988 -0.09855096 1.3160001 4284504131
-0.22347093 -0.098625839 1.317 4284963912
-0.21986958 -0.098625839 1.317 4285161289
-0.21643245 -0.098700732 1.3180001 4285687887
-0.21315132 -0.098850511 1.3200001 4285885266
-0.20985927 -0.099000275 1.322 4285688657
-0.20655626 -0.099150054 1.3240001 4285754450
-0.20278248 -0.099075168 1.3230001 4285688403
-0.19916473 -0.099075168 1.3230001 4285950805
-0.19539918 -0.099000275 1.322 4286279770
-0.191494 -0.098850511 1.3200001 4286411358
-0.18759978 -0.098700732 1.3180001 4286082393
-0.18399569 -0.098700732 1.3180001 4285951577
-0.18039161 -0.098700732 1.3180001 4285820504
-0.17678753 -0.098700732 1.3180001 4285557078
-0.17292064 -0.09855096 1.3160001 4287004524
-0.16764939 -0.09757743 1.3030001 4287333232
-0.16207145 -0.096379235 1.2870001 4287267439
-0.15756659 -0.095780142 1.279 4287136111
-0.15406914 -0.095780142 1.279 4287070320
-0.1505717 -0.095780142 1.279 4287136113
-0.14718926 -0.095855035 1.2800001 4287136113
-0.14368908 -0.095855035 1.2800001 4286806635
-0.14018892 -0.095855035 1.2800001 4287069805
-0.13668874 -0.095855035 1.2800001 4287004267
-0.13391694 -0.096379235 1.2870001 4287201644
-0.13191742 -0.097502545 1.302 4286806884
-0.1295401 -0.098401181 1.314 4285688403
-0.12613866 -0.09855096 1.3160001 4286674530
-0.12281939 -0.098775618 1.319 4286608737
-0.11930294 -0.098850511 1.3200001 4287661425
-0.11586869 -0.099000275 1.322 4288319355
-0.11225367 -0.099000275 1.322 4288517502
-0.10872082 -0.099075168 1.3230001 4289110152
-0.10510306 -0.099075168 1.3230001 4289767571
-0.1014853 -0.099075168 1.3230001 4289701778
-0.09771961 -0.098925389 1.3210001 4287727220
-0.094036072 -0.098850511 1.3200001 4287004012
-0.089946985 -0.098326296 1.3130001 4287201393
-0.085698873 -0.09757743 1.3030001 4287399285
-0.081442416 -0.096753672 1.2920001 4287004527
-0.077728525 -0.096529014 1.289 4285754719
-0.074146174 -0.096454129 1.2880001 4286478442
-0.070678957 -0.096529014 1.289 4286873200
-0.06798774 -0.097727202 1.3050001 4287202165
-0.067035466 -0.1016962 1.358 4288451979
-0.34096515 -0.096683994 1.34 4286941058
-0.32370818 -0.09278778 1.286 4287005564
-0.31595892 -0.091561191 1.2690001 4287268475
-0.31224257 -0.091489039 1.268 4286545005
-0.30853167 -0.09141688 1.2670001 4287005556
-0.30530784 -0.091489039 1.268 4287400312
-0.30231658 -0.091633335 1.2700001 4287596921
-0.3002556 -0.092066251 1.276 4287399283
-0.29955727 -0.092932075 1.2880001 4287070060
-0.29925299 -0.09394221 1.302 4286542944
-0.2970553 -0.094375119 1.3080001 4285161291
-0.29392731 -0.094519429 1.3100001 4284371775
-0.29056674 -0.09459158 1.3110001 4284832326
-0.28676292 -0.094519429 1.3100001 4285095498
-0.28339687 -0.09459158 1.3110001 4285490256
-0.2795985 -0.094519429 1.3100001 4285358670
-0.27601629 -0.094519429 1.3100001 4285556821
-0.27139422 -0.094158664 1.3050001 4278190080
-0.26597863 -0.093509294 1.296 4287267697
-0.25939727 -0.092427015 1.281 4286873198
-0.2546958 -0.091994099 1.2750001 4287004784
-0.25081524 -0.091849796 1.273 4287333749
-0.24752851 -0.09192194 1.274 4287201906
-0.24385318 -0.091849796 1.273 4287201906
-0.24056098 -0.09192194 1.274 4286872426
-0.23744938 -0.092066251 1.276 4287201646
-0.23469357 -0.092354864 1.2800001 4287596404
-0.23299961 -0.093076386 1.2900001 4287399025
-0.23231824 -0.094230823 1.3060001 4287004267
-0.23049849 -0.094952345 1.3160001 4284898891
-0.22741713 -0.095168799 1.319 4284372545
-0.2238103 -0.095168799 1.319 4284504131
-0.22053738 -0.095313102 1.3210001 4285095496
-0.21692508 -0.095313102 1.3210001 4285621840
-0.21347429 -0.095385253 1.322 4285819219
-0.21001799 -0.095457412 1.3230001 4285490256
-0.20671228 -0.095601708 1.325 4285819219
-0.20308904 -0.095601708 1.325 4285819219
-0.19961634 -0.095673859 1.3260001 4285819219
-0.19599038 -0.095673859 1.3260001 4286082134
-0.1920743 -0.095529564 1.3240001 4286542942
-0.18831146 -0.095457412 1.3230001 4286213977
-0.18455411 -0.095385253 1.322 4286148184
-0.18093909 -0.095385253 1.322 4285885012
-0.17718993 -0.095313102 1.3210001 4285556819
-0.17318344 -0.095096648 1.3180001 4286938474
-0.16816404 -0.094302975 1.307 4287596404
-0.16282703 -0.09329284 1.2930001 4287069805
-0.15818256 -0.09264347 1.284 4287136111
-0.15467145 -0.09264347 1.284 4287136113
-0.15104261 -0.092571318 1.2830001 4287136113
-0.14753424 -0.092571318 1.2830001 4287004527
-0.14402586 -0.092571318 1.2830001 4286938221
-0.14051749 -0.092571318 1.2830001 4286872939
-0.13700911 -0.092571318 1.2830001 4287070318
-0.13412505 -0.093004234 1.289 4287399023
-0.13191742 -0.09394221 1.302 4288320123
-0.1295401 -0.094808035 1.314 4288320123
-0.1262345 -0.095024489 1.317 4288647807
-0.1229125 -0.095240958 1.3200001 4288647807
-0.11939333 -0.095313102 1.3210001 4288648318
-0.11578105 -0.095313102 1.3210001 4289240455
-0.11216876 -0.095313102 1.3210001 4289437834
-0.10863864 -0.095385253 1.322 4289832592
-0.10502362 -0.095385253 1.322 4289832594
-0.1014853 -0.095457412 1.3230001 4289437836
-0.097867548 -0.095457412 1.3230001 4288779908
-0.094178557 -0.095385253 1.322 4287332977
-0.090084001 -0.094880193 1.3150001 4287398770
-0.085764647 -0.094086513 1.304 4287332977
-0.081631519 -0.093437143 1.2950001 4286872941
-0.077849127 -0.09314853 1.291 4285820510
-0.074318871 -0.09314853 1.291 4286149477
-0.071172446 -0.093653604 1.2980001 4286807407
-0.068144038 -0.094375119 1.3080001 4286807407
-0.066838011 -0.097694129 1.3540001 4288254855
-0.34376413 -0.093783341 1.3510001 4278190080
-0.32496676 -0.089618281 1.291 4287334529
-0.31645685 -0.088229932 1.271 4287531906
-0.31224257 -0.088021681 1.268 4286281579
-0.30877519 -0.088021681 1.268 4286808177
-0.30554864 -0.08809109 1.2690001 4286873968
-0.30231658 -0.088160515 1.2700001 4287662457
-0.30002031 -0.0885076 1.2750001 4287596662
-0.29909214 -0.089271195 1.286 4287070058
-0.29879332 -0.090243042 1.3000001 4286674528
-0.29660109 -0.090659551 1.3060001 4285753426
-0.29347858 -0.090798378 1.3080001 4285292875
-0.2903451 -0.09093722 1.3100001 4285358668
-0.28698179 -0.091006644 1.3110001 4285292875
-0.28339687 -0.091006644 1.3110001 4286871907
-0.2795985 -0.09093722 1.3100001 4287398253
-0.27601629 -0.09093722 1.3100001 4287332462
-0.27160221 -0.090659551 1.3060001 4278190080
-0.26577342 -0.089895949 1.2950001 4287267696
-0.25919479 -0.088854693 1.2800001 4287004784
-0.25449604 -0.088438183 1.274 4287202163
-0.25101227 -0.088438183 1.274 4287465335
-0.24752851 -0.088438183 1.274 4287267956
-0.24404474 -0.088438183 1.274 4287070577
-0.24074981 -0.0885076 1.2750001 4286872939
-0.23744938 -0.088577017 1.276 4287267697
-0.23451021 -0.088785268 1.279 4287662197
-0.23227713 -0.089271195 1.286 4287399025
-0.23178458 -0.0904513 1.3030001 4286609509
-0.23032333 -0.091284312 1.3150001 4286017372
-0.22741713 -0.091561981 1.319 4285030477
-0.2238103 -0.091561981 1.319 4284504131
-0.22037043 -0.091631405 1.3200001 4285292877
-0.21676087 -0.091631405 1.3200001 4285292877
-0.21315132 -0.091631405 1.3200001 4285950807
-0.20985927 -0.091770232 1.322 4285950807
-0.20655626 -0.091909073 1.3240001 4286213977
-0.20308904 -0.091978483 1.325 4286542431
-0.19946583 -0.091978483 1.325 4286213466
-0.19599038 -0.0920479 1.3260001 4286410845
-0.19221938 -0.091978483 1.325 4286608478
-0.18831146 -0.091839649 1.3230001 4286345563
-0.18441451 -0.091700815 1.3210001 4286082391
-0.18080221 -0.091700815 1.3210001 4285819221
-0.17692167 -0.091561981 1.319 4285030477
-0.17305204 -0.091423139 1.317 4286872681
-0.16790673 -0.090590134 1.3050001 4287398770
-0.16282703 -0.089757122 1.2930001 4287201391
-0.15842895 -0.089271195 1.286 4286872939
-0.15479191 -0.089201778 1.2850001 4286741355
-0.15116033 -0.089132361 1.284 4287004527
-0.14764923 -0.089132361 1.284 4287004527
-0.14413811 -0.089132361 1.284 4287136113
-0.14073654 -0.089201778 1.2850001 4287070320
-0.13722269 -0.089201778 1.2850001 4287267697
-0.13412505 -0.089479446 1.289 4287465075
-0.13151215 -0.090104207 1.2980001 4288320125
-0.12914576 -0.09093722 1.3100001 4288845699
-0.1260428 -0.091284312 1.3150001 4288845440
-0.12263316 -0.091423139 1.317 4289042819
-0.11894142 -0.091353729 1.3160001 4288779647
-0.1153428 -0.091353729 1.3160001 4289174405
-0.11165928 -0.091284312 1.3150001 4289569420
-0.10822776 -0.091423139 1.317 4289701006
-0.10462641 -0.091423139 1.317 4289766801
-0.10110177 -0.091492563 1.3180001 4289372043
-0.09742371 -0.091423139 1.317 4288649092
-0.093822367 -0.091423139 1.317 4287136111
-0.089809984 -0.091006644 1.3110001 4287333492
-0.085633107 -0.090381883 1.302 4287136113
-0.081505448 -0.089757122 1.2930001 4286807407
-0.077788822 -0.089548863 1.2900001 4285820512
-0.074203745 -0.089479446 1.289 4286281063
-0.071062781 -0.089965373 1.296 4286742384
-0.06798774 -0.090590134 1.3050001 4286610798
-0.066344373 -0.093297422 1.3440001 4288123269
-0.34630862 -0.090755858 1.3610001 4278190080
-0.3269805 -0.086621501 1.299 4287663496
-0.31795076 -0.085154466 1.2770001 4287202684
-0.31347379 -0.084887736 1.273 4286544235
-0.30999276 -0.084887736 1.273 4287004786
-0.30651173 -0.084887736 1.273 4287136370
-0.30326876 -0.084954418 1.274 4287728248
-0.30072623 -0.085221149 1.2780001 4287530868
-0.29955727 -0.085887983 1.2880001 4287333230
-0.29879332 -0.086688183 1.3000001 4286542944
-0.29682821 -0.087154962 1.307 4287266667
-0.29392731 -0.08735501 1.3100001 4288056181
-0.29078838 -0.087488383 1.312 4287858802
-0.28741962 -0.087555066 1.3130001 4288582525
-0.28361303 -0.087488383 1.312 4288911744
-0.2795985 -0.08735501 1.3100001 4288977537
-0.27622697 -0.087421693 1.3110001 4288911490
-0.27181017 -0.087154962 1.307 4287925365
-0.26618385 -0.086488128 1.2970001 4287333230
-0.26000476 -0.085621253 1.284 4287201904
-0.25509533 -0.085154466 1.2770001 4287333490
-0.25160336 -0.085154466 1.2770001 4287070577
-0.24811138 -0.085154466 1.2770001 4287136370
-0.24481098 -0.085221149 1.2780001 4286807405
-0.24131627 -0.085221149 1.2780001 4287399285
-0.23800765 -0.085287832 1.279 4287267699
-0.23469357 -0.085354514 1.2800001 4287465075
-0.23227713 -0.085754618 1.286 4287530611
-0.23160669 -0.086821549 1.302 4286938474
-0.23049849 -0.087755114 1.3160001 4285622614
-0.22776195 -0.088088527 1.3210001 4284701512
-0.22431935 -0.08815521 1.322 4284635717
-0.22087127 -0.088221893 1.3230001 4285095498
-0.21708931 -0.08815521 1.322 4285687635
-0.2133128 -0.088088527 1.3210001 4286279772
-0.21001799 -0.088221893 1.3230001 4287529839
-0.20702429 -0.088488631 1.327 4288056183
-0.20370214 -0.088621996 1.3290001 4287595632
-0.20006797 -0.088621996 1.3290001 4287331947
-0.19643381 -0.088621996 1.3290001 4287463533
-0.1925095 -0.088488631 1.327 4287793009
-0.18859614 -0.088355266 1.325 4287595630
-0.18469369 -0.088221893 1.3230001 4286279770
-0.18093909 -0.08815521 1.322 4286740321
-0.17732406 -0.08815521 1.322 4286148958
-0.17318344 -0.087888479 1.3180001 4287201646
-0.16829272 -0.087221645 1.3080001 4287596149
-0.16320482 -0.086421445 1.296 4287727735
-0.15892173 -0.086021349 1.2900001 4287201906
-0.15527375 -0.085954666 1.289 4286873198
-0.15163124 -0.085887983 1.2880001 4287070577
-0.14799421 -0.085821301 1.2870001 4287070577
-0.14458714 -0.085887983 1.2880001 4287070577
-0.14106509 -0.085887983 1.2880001 4287004784
-0.13764983 -0.085954666 1.289 4287070831
-0.13433315 -0.086088032 1.291 4286676072
-0.13161346 -0.086621501 1.299 4287925367
-0.12904717 -0.087288328 1.309 4288779906
-0.1260428 -0.087688431 1.3150001 4288845699
-0.12263316 -0.087821797 1.317 4288714113
-0.11885104 -0.087688431 1.3150001 4288779906
-0.11516752 -0.087621748 1.314 4289306252
-0.11148945 -0.087555066 1.3130001 4289372045
-0.10798123 -0.087621748 1.314 4289701010
-0.10438808 -0.087621748 1.314 4289568911
-0.10079493 -0.087621748 1.314 4289240457
-0.097201794 -0.087621748 1.314 4288451711
-0.093608648 -0.087621748 1.314 4287530869
-0.089741468 -0.08735501 1.3100001 4287531382
-0.085633107 -0.086821549 1.302 4286675819
-0.081631519 -0.086354762 1.2950001 4286741612
-0.07796973 -0.086221397 1.2930001 4286083684
-0.07466428 -0.086488128 1.2970001 4286281063
-0.071282111 -0.086688183 1.3000001 4286873970
-0.068144038 -0.087221645 1.3080001 4286939761
-0.066048197 -0.089222148 1.3380001 4287728509
-0.34758088 -0.087353937 1.3660001 4278190080
-0.32748395 -0.083197266 1.3010001 4287400322
-0.31819975 -0.081726447 1.2780001 4287268987
-0.31347379 -0.081406705 1.273 4286742384
-0.30999276 -0.081406705 1.273 4286807405
-0.30651173 -0.081406705 1.273 4287465335
-0.3030307 -0.081406705 1.273 4287201904
-0.3002556 -0.08159855 1.276 4287596404
-0.29885954 -0.082174093 1.2850001 4287398255
-0.29787394 -0.082877524 1.296 4286740325
-0.2961469 -0.083389118 1.304 4287727220
-0.2932542 -0.083580956 1.307 4288121976
-0.2903451 -0.083772808 1.3100001 4288319355
-0.28698179 -0.083836749 1.3110001 4288845697
-0.28318071 -0.083772808 1.3100001 4289174916
-0.2795985 -0.083772808 1.3100001 4289174916
-0.27601629 -0.083772808 1.3100001 4288779904
-0.27160221 -0.083517015 1.3060001 4287991158
-0.26597863 -0.082877524 1.296 4287662195
-0.26000476 -0.082110137 1.284 4287267696
-0.25509533 -0.081662498 1.2770001 4287268210
-0.25160336 -0.081662498 1.2770001 4287399796
-0.24811138 -0.081662498 1.2770001 4287465335
-0.24500252 -0.081790395 1.279 4287267956
-0.24131627 -0.081726447 1.2780001 4287202163
-0.23782158 -0.081726447 1.2780001 4287202163
-0.23451021 -0.081790395 1.279 4287465589
-0.23191589 -0.082110137 1.284 4287399025
-0.23071727 -0.082941473 1.2970001 4287333232
-0.22979788 -0.083900705 1.312 4286213981
-0.22758953 -0.084412292 1.3200001 4286279774
-0.22431935 -0.084540188 1.322 4286082393
-0.22070433 -0.084540188 1.322 4286871909
-0.21692508 -0.08447624 1.3210001 4287595632
-0.21315132 -0.084412292 1.3200001 4288121976
-0.20985927 -0.084540188 1.322 4288516734
-0.20671228 -0.084732033 1.325 4288385148
-0.20339559 -0.084859937 1.327 4288121976
-0.19976689 -0.084859937 1.327 4288187767
-0.19584259 -0.084732033 1.325 4288516732
-0.1920743 -0.084668085 1.3240001 4288714111
-0.18816914 -0.084540188 1.322 4288648318
-0.18455411 -0.084540188 1.322 4288319353
-0.18080221 -0.08447624 1.3210001 4288583297
-0.17718993 -0.08447624 1.3210001 4287596661
-0.17318344 -0.084284395 1.3180001 4287136111
-0.16816404 -0.083580956 1.307 4287596664
-0.1630789 -0.082813576 1.2950001 4287464565
-0.15879853 -0.082429886 1.289 4286741612
-0.15527375 -0.082429886 1.289 4287070577
-0.15151352 -0.082301989 1.2870001 4287004784
-0.14810918 -0.08236593 1.2880001 4287136370
-0.14458714 -0.08236593 1.2880001 4287004784
-0.14117461 -0.082429886 1.289 4286675821
-0.13764983 -0.082429886 1.289 4286873198
-0.13433315 -0.082557783 1.291 4286807659
-0.13141082 -0.082941473 1.2970001 4287859833
-0.12855425 -0.083389118 1.304 4288254591
-0.1254677 -0.083708853 1.309 4288583299
-0.12198135 -0.083772808 1.3100001 4288649092
-0.11830875 -0.083708853 1.309 4288451458
-0.11464164 -0.083644912 1.3080001 4288780936
-0.1110649 -0.083644912 1.3080001 4289372560
-0.10748816 -0.083644912 1.3080001 4289175181
-0.10391142 -0.083644912 1.3080001 4288648837
-0.10025797 -0.083580956 1.307 4288319872
-0.096683964 -0.083580956 1.307 4288386178
-0.093038723 -0.083517015 1.3060001 4287465335
-0.08939895 -0.083453059 1.3050001 4287136370
-0.085567333 -0.083197266 1.3010001 4287004784
-0.081694558 -0.082877524 1.296 4286939761
-0.078090332 -0.082813576 1.2950001 4286084454
-0.074606709 -0.082877524 1.296 4286478958
-0.071227282 -0.083069369 1.299 4287202681
-0.067935638 -0.083389118 1.304 4286676591
-0.065357111 -0.084668085 1.3240001 4287531646
-0.34834424 -0.083802231 1.3690001 4278190080
-0.32849079 -0.079884522 1.3050001 4287466117
-0.31919566 -0.0784766 1.2820001 4287268987
-0.31421253 -0.078109317 1.276 4286610798
-0.3107233 -0.078109317 1.276 4286544233
-0.30723408 -0.078109317 1.276 4287596921
-0.30398288 -0.07817053 1.2770001 4287662455
-0.30072623 -0.078231744 1.2780001 4287333490
-0.29885954 -0.078660242 1.2850001 4287135598
-0.29741427 -0.079211168 1.294 4286805863
-0.29591978 -0.079762094 1.3030001 4288055930
-0.29280546 -0.079884522 1.3050001 4288187516
-0.28990182 -0.080068171 1.3080001 4288450943
-0.2863251 -0.080068171 1.3080001 4288649090
-0.28274834 -0.080068171 1.3080001 4288714881
-0.27874476 -0.079945743 1.3060001 4288517502
-0.27538419 -0.080006957 1.307 4288385916
-0.27118629 -0.079823315 1.304 4287727988
-0.26577342 -0.079272382 1.2950001 4287333489
-0.26040974 -0.078721456 1.286 4287202417
-0.25549483 -0.078292958 1.279 4287136624
-0.25199741 -0.078292958 1.279 4287202163
-0.24849996 -0.078292958 1.279 4287399542
-0.2455772 -0.0784766 1.2820001 4287136370
-0.24188274 -0.078415386 1.281 4287333749
-0.23819375 -0.078354172 1.2800001 4287267956
-0.23469357 -0.078354172 1.2800001 4286741866
-0.23209649 -0.078660242 1.2850001 4287268209
-0.23053938 -0.079333596 1.296 4287333232
-0.22962272 -0.080251813 1.3110001 4287398255
-0.22758953 -0.080802739 1.3200001 4288319357
-0.22431935 -0.080925167 1.322 4288121978
-0.22087127 -0.080986381 1.3230001 4288121978
-0.21708931 -0.080925167 1.322 4288582527
-0.21347429 -0.080925167 1.322 4288582527
-0.21001799 -0.080986381 1.3230001 4288779393
-0.20671228 -0.081108809 1.325 4289174664
-0.20339559 -0.081231236 1.327 4289372041
-0.19961634 -0.081170022 1.3260001 4289569163
-0.19584259 -0.081108809 1.325 4289832335
-0.19221938 -0.081108809 1.325 4289701260
-0.18831146 -0.080986381 1.3230001 4289438088
-0.18455411 -0.080925167 1.322 4289108869
-0.18093909 -0.080925167 1.322 4288320125
-0.17732406 -0.080925167 1.322 4287859576
-0.17331484 -0.080741525 1.319 4287596662
-0.16855004 -0.080190599 1.3100001 4287662457
-0.16345669 -0.079456031 1.2980001 4287333492
-0.15916812 -0.07908874 1.2920001 4287070577
-0.15551467 -0.079027526 1.291 4287136370
-0.15174897 -0.078905098 1.289 4287070577
-0.14810918 -0.078843884 1.2880001 4287070577
-0.14458714 -0.078843884 1.2880001 4287267956
-0.14150319 -0.07908874 1.2920001 4287136370
-0.13797019 -0.07908874 1.2920001 4286741612
-0.13464531 -0.079211168 1.294 4287202163
-0.13141082 -0.07939481 1.2970001 4286807405
-0.12845567 -0.079762094 1.3030001 4287267956
-0.12508431 -0.079884522 1.3050001 4287531128
-0.12151577 -0.079884522 1.3050001 4287202163
-0.11794724 -0.079884522 1.3050001 4287333749
-0.1143787 -0.079884522 1.3050001 4287267956
-0.11081016 -0.079884522 1.3050001 4287333749
-0.10724163 -0.079884522 1.3050001 4287860347
-0.10367309 -0.079884522 1.3050001 4287794041
-0.10010456 -0.079884522 1.3050001 4287070318
-0.096536025 -0.079884522 1.3050001 4287267697
-0.093038723 -0.079945743 1.3060001 4287267956
-0.08939895 -0.079884522 1.3050001 4287267956
-0.085698873 -0.079762094 1.3030001 4287399542
-0.081946701 -0.079578459 1.3000001 4286873970
-0.07845214 -0.079639666 1.3010001 4285886821
-0.074952111 -0.079700887 1.302 4285228891
-0.071446605 -0.079762094 1.3030001 4287136888
-0.068091936 -0.080006957 1.307 4286873716
-0.065307744 -0.080986381 1.3230001 4287268474
-0.34910759 -0.080234133 1.3720001 4278190080
-0.32924595 -0.07649143 1.3080001 4287137666
-0.31944466 -0.07502944 1.2830001 4287071098
-0.3139663 -0.074561596 1.2750001 4286215786
-0.3107233 -0.074620083 1.276 4286281833
-0.30747485 -0.074678555 1.2770001 4287202933
-0.30398288 -0.074678555 1.2770001 4287728507
-0.30049092 -0.074678555 1.2770001 4287399285
-0.29792926 -0.074912481 1.281 4286740840
-0.29626507 -0.075380318 1.289 4286477668
-0.29455712 -0.075848155 1.2970001 4288319102
-0.2914592 -0.075965114 1.299 4288319872
-0.28835037 -0.076082073 1.3010001 4288517764
-0.28479278 -0.076082073 1.3010001 4288583556
-0.28123519 -0.076082073 1.3010001 4288451970
-0.27746415 -0.076023594 1.3000001 4288451970
-0.27412 -0.076082073 1.3010001 4288254591
-0.2699385 -0.075906634 1.2980001 4287465076
-0.26495248 -0.075497277 1.291 4287662457
-0.26000476 -0.07508792 1.284 4287333492
-0.2552951 -0.074737042 1.2780001 4287202163
-0.25180039 -0.074737042 1.2780001 4287531128
-0.24849996 -0.074795514 1.279 4287465337
-0.2455772 -0.074970961 1.2820001 4287333749
-0.24188274 -0.074912481 1.281 4287136370
-0.23800765 -0.074795514 1.279 4287202163
-0.23451021 -0.074795514 1.279 4287334003
-0.23155463 -0.074970961 1.2820001 4287399282
-0.22982785 -0.075555757 1.2920001 4287596661
-0.22874698 -0.076374471 1.3060001 4287069288
-0.22672746 -0.076900788 1.3150001 4288648320
-0.22364062 -0.077076226 1.3180001 4288516734
-0.22020349 -0.077134706 1.319 4288516734
-0.21676087 -0.077193186 1.3200001 4288648320
-0.2133128 -0.077251665 1.3210001 4288911492
-0.20970051 -0.077251665 1.3210001 4289174151
-0.20608823 -0.077251665 1.3210001 4289437323
-0.20262922 -0.077310145 1.322 4289503370
-0.19886366 -0.077251665 1.3210001 4289700749
-0.19525136 -0.077251665 1.3210001 4289766542
-0.19163908 -0.077251665 1.3210001 4289635467
-0.18802679 -0.077251665 1.3210001 4289503881
-0.18441451 -0.077251665 1.3210001 4289043076
-0.18066534 -0.077193186 1.3200001 4288583297
-0.17692167 -0.077134706 1.319 4288189052
-0.17292064 -0.076959267 1.3160001 4287465589
-0.16816404 -0.076432951 1.307 4287531382
-0.16320482 -0.075789675 1.296 4287596921
-0.15904492 -0.075497277 1.291 4286939761
-0.15539421 -0.075438797 1.2900001 4286873968
-0.15163124 -0.075321838 1.2880001 4287136370
-0.14799421 -0.075263359 1.2870001 4287333492
-0.14436263 -0.075204879 1.286 4287004525
-0.14150319 -0.075555757 1.2920001 4287333489
-0.13797019 -0.075555757 1.2920001 4287201904
-0.13454126 -0.075614236 1.2930001 4287070577
-0.13120818 -0.075731196 1.2950001 4286544233
-0.12815991 -0.076023594 1.3000001 4286675819
-0.1247009 -0.076082073 1.3010001 4287267956
-0.12114331 -0.076082073 1.3010001 4286741612
-0.11740495 -0.075965114 1.299 4286544233
-0.11411576 -0.076140553 1.302 4287202163
-0.11064034 -0.076199032 1.3030001 4286675819
-0.10724163 -0.076315992 1.3050001 4286346854
-0.10367309 -0.076315992 1.3050001 4286544233
-0.10010456 -0.076315992 1.3050001 4286741355
-0.096388072 -0.076199032 1.3030001 4287004525
-0.092967488 -0.076315992 1.3050001 4287333492
-0.089261942 -0.076199032 1.3030001 4287465078
-0.085698873 -0.076199032 1.3030001 4286873198
-0.082009733 -0.076082073 1.3010001 4287070581
-0.078512445 -0.076140553 1.302 4285886822
-0.074952111 -0.076140553 1.302 4285623650
-0.071446605 -0.076199032 1.3030001 4286873717
-0.068039834 -0.076374471 1.3060001 4286742131
-0.065159656 -0.077193186 1.3200001 4287531646
-0.33100799 -0.073304914 1.3150001 4287335046
-0.32044059 -0.071744047 1.2870001 4287268734
-0.31470504 -0.07124234 1.2780001 4286742130
-0.31169736 -0.07135383 1.2800001 4286676591
-0.3079564 -0.071298078 1.279 4287334521
-0.30493507 -0.071409576 1.281 4287596923
-0.30119684 -0.07135383 1.2800001 4287333749
-0.29839441 -0.071521066 1.2830001 4287070320
-0.29603523 -0.071799785 1.2880001 4286872426
-0.29410294 -0.072190002 1.2950001 4288188286
-0.29101047 -0.072301492 1.2970001 4288648837
-0.28768545 -0.072357245 1.2980001 4288254591
-0.28391716 -0.072301492 1.2970001 4288517763
-0.2803705 -0.072301492 1.2970001 4288320385
-0.2766104 -0.072245747 1.296 4287991420
-0.27327719 -0.072301492 1.2970001 4288056700
-0.26931459 -0.072190002 1.2950001 4287793530
-0.26515773 -0.072022766 1.2920001 4287596664
-0.26040974 -0.071688294 1.286 4287201906
-0.25589436 -0.071409576 1.281 4287465335
-0.25258848 -0.071465313 1.2820001 4287267958
-0.24908283 -0.071465313 1.2820001 4287333751
-0.24596033 -0.071576804 1.284 4287267958
-0.24226038 -0.071521066 1.2830001 4287333749
-0.23856591 -0.071465313 1.2820001 4287136113
-0.23542699 -0.071576804 1.284 4287334003
-0.23227713 -0.071688294 1.286 4287399795
-0.23018362 -0.072134256 1.294 4287333489
-0.22839668 -0.072691716 1.304 4288188539
-0.22638263 -0.073193423 1.3130001 4288320125
-0.22313157 -0.073304914 1.3150001 4288845440
-0.21986958 -0.073416397 1.317 4288582268
-0.21676087 -0.073583633 1.3200001 4288648318
-0.21315132 -0.073583633 1.3200001 4288911492
-0.20954177 -0.073583633 1.3200001 4288977285
-0.2056202 -0.073472142 1.3180001 4289437836
-0.20201612 -0.073472142 1.3180001 4289306250
-0.19841203 -0.073472142 1.3180001 4289635213
-0.19480795 -0.073472142 1.3180001 4289766799
-0.19134894 -0.073527887 1.319 4289832592
-0.18774213 -0.073527887 1.319 4289174662
-0.1841353 -0.073527887 1.319 4289043076
-0.18039161 -0.073472142 1.3180001 4288451711
-0.17651926 -0.073360652 1.3160001 4288188798
-0.17239505 -0.073137671 1.312 4287597175
-0.16803539 -0.072803199 1.3060001 4287663484
-0.16333075 -0.072301492 1.2970001 4287400314
-0.1594145 -0.072134256 1.294 4287005554
-0.15563513 -0.072022766 1.2920001 4287005554
-0.15198441 -0.071967028 1.291 4287267956
-0.14822419 -0.071855538 1.289 4287070577
-0.14469941 -0.071855538 1.289 4287333749
-0.14172223 -0.072134256 1.294 4287267956
-0.13818377 -0.072134256 1.294 4287070577
-0.13464531 -0.072134256 1.294 4286873198
-0.13130949 -0.072245747 1.296 4286215268
-0.12825851 -0.072524473 1.3010001 4285623131
-0.1248926 -0.072635964 1.3030001 4286281061
-0.12123642 -0.072580226 1.302 4286412647
-0.11758571 -0.072524473 1.3010001 4286346854
-0.1142034 -0.072635964 1.3030001 4286346854
-0.11081016 -0.072747454 1.3050001 4286346854
-0.10740598 -0.072858945 1.307 4286346854
-0.10383198 -0.072858945 1.307 4286412390
-0.10018127 -0.072803199 1.3060001 4286346595
-0.096536025 -0.072747454 1.3050001 4286675560
-0.093038723 -0.072803199 1.3060001 4287267699
-0.089535959 -0.072858945 1.307 4287333492
-0.08583042 -0.072747454 1.3050001 4286938991
-0.082135804 -0.072635964 1.3030001 4287202681
-0.07863304 -0.072691716 1.304 4286939510
-0.075182378 -0.072803199 1.3060001 4285228892
-0.071611106 -0.072803199 1.3060001 4287136888
-0.068248227 -0.07302618 1.3100001 4286873717
-0.065258384 -0.073695123 1.322 4287268728
-0.33176312 -0.069868058 1.3180001 4287006081
-0.32068956 -0.068277739 1.2880001 4287466113
-0.31495127 -0.067800641 1.279 4286807923
-0.31145385 -0.067800641 1.279 4286281579
-0.30771565 -0.06774763 1.2780001 4287005556
-0.30422094 -0.06774763 1.2780001 4287399544
-0.30096152 -0.067800641 1.279 4287136370
-0.29792926 -0.06790667 1.281 4287070320
-0.29580539 -0.068224728 1.2870001 4286872941
-0.2931945 -0.068436772 1.291 4287728248
-0.28988862 -0.068489783 1.2920001 4287794040
-0.28635564 -0.068489783 1.2920001 4287662967
-0.28260374 -0.068436772 1.291 4287202417
-0.27928966 -0.068489783 1.2920001 4287268210
-0.27554324 -0.068436772 1.291 4287465076
-0.27222368 -0.068489783 1.2920001 4287135600
-0.26869071 -0.068489783 1.2920001 4287267186
-0.26474726 -0.068383761 1.2900001 4287661944
-0.26061225 -0.068224728 1.2870001 4287465078
-0.25629389 -0.068012692 1.2830001 4287465078
-0.25258848 -0.067959674 1.2820001 4287202163
-0.24908283 -0.067959674 1.2820001 4287399542
-0.24596033 -0.068065695 1.284 4287399285
-0.24244922 -0.068065695 1.284 4287530871
-0.23875201 -0.068012692 1.2830001 4287136370
-0.23542699 -0.068065695 1.284 4287268210
-0.23227713 -0.068171717 1.286 4287531381
-0.22982785 -0.068489783 1.2920001 4287465075
-0.22734578 -0.068807848 1.2980001 4288188539
-0.22517571 -0.069231935 1.3060001 4288714113
-0.2219438 -0.069337957 1.3080001 4288977283
-0.21870096 -0.069443978 1.3100001 4288845697
-0.21528295 -0.069496982 1.3110001 4288845697
-0.21185949 -0.069549993 1.312 4288845699
-0.20811307 -0.069496982 1.3110001 4288912262
-0.20437214 -0.069443978 1.3100001 4289043850
-0.20078993 -0.069443978 1.3100001 4289504399
-0.19735824 -0.069496982 1.3110001 4289438606
-0.19362551 -0.069443978 1.3100001 4289635985
-0.1900433 -0.069443978 1.3100001 4289635985
-0.18646109 -0.069443978 1.3100001 4289437836
-0.18287888 -0.069443978 1.3100001 4288978055
-0.17915981 -0.06939096 1.309 4288714883
-0.1754462 -0.069337957 1.3080001 4288254591
-0.17160666 -0.069231935 1.3060001 4287268210
-0.16739208 -0.06896688 1.3010001 4287334519
-0.1630789 -0.068648815 1.2950001 4287005554
-0.15929131 -0.068542793 1.2930001 4287334521
-0.15563513 -0.068489783 1.2920001 4287137142
-0.15210214 -0.068489783 1.2920001 4287202163
-0.14845416 -0.068436772 1.291 4287004784
-0.14503618 -0.068489783 1.2920001 4287267956
-0.14161271 -0.068542793 1.2930001 4287136370
-0.13786341 -0.068436772 1.291 4287201906
-0.13443722 -0.068489783 1.2920001 4287333492
-0.13120818 -0.068648815 1.2950001 4286346597
-0.12806132 -0.068860859 1.299 4286017632
-0.1247009 -0.06896688 1.3010001 4286346597
-0.12114331 -0.06896688 1.3010001 4286083425
-0.11749533 -0.06891387 1.3000001 4286083425
-0.11411576 -0.069019891 1.302 4286280802
-0.11072525 -0.069125913 1.304 4286149216
-0.1073238 -0.069231935 1.3060001 4286017630
-0.10367309 -0.069178917 1.3050001 4286017630
-0.10010456 -0.069178917 1.3050001 4286083423
-0.096388072 -0.069072902 1.3030001 4286609767
-0.092967488 -0.069178917 1.3050001 4286741355
-0.08939895 -0.069178917 1.3050001 4287530871
-0.08583042 -0.069178917 1.3050001 4286938993
-0.082072772 -0.069019891 1.302 4286807923
-0.078572743 -0.069072902 1.3030001 4287334267
-0.075182378 -0.069231935 1.3060001 4284044617
-0.071665943 -0.069284938 1.307 4286873970
-0.068196133 -0.06939096 1.309 4286873970
-0.065159656 -0.06997408 1.3200001 4287334521
-0.063461885 -0.072147518 1.3610001 4287926407
-0.33327344 -0.066565633 1.3240001 4286808701
-0.32193449 -0.065007076 1.2930001 4287400574
-0.31593627 -0.06450431 1.2830001 4286873717
-0.31218439 -0.064454034 1.2820001 4286412651
-0.30843797 -0.064403757 1.281 4287202165
-0.30469701 -0.064353481 1.2800001 4287267958
-0.30143216 -0.064403757 1.281 4287004273
-0.29885954 -0.064604864 1.2850001 4287201906
-0.29626507 -0.06480597 1.289 4286543976
-0.2934216 -0.064956792 1.2920001 4286609767
-0.28988862 -0.064956792 1.2920001 4286807145
-0.28635564 -0.064956792 1.2920001 4287070830
-0.28282264 -0.064956792 1.2920001 4287136624
-0.27972201 -0.065057345 1.294 4286939245
-0.27597013 -0.065007076 1.2930001 4286873452
-0.27243438 -0.065007076 1.2930001 4286478183
-0.26869071 -0.064956792 1.2920001 4286872941
-0.26515773 -0.064956792 1.2920001 4287267699
-0.26101723 -0.06480597 1.289 4287399285
-0.25689319 -0.06465514 1.286 4287530871
-0.25317955 -0.064604864 1.2850001 4287202163
-0.24986002 -0.06465514 1.286 4287596921
-0.246535 -0.064705417 1.2870001 4287465335
-0.2432045 -0.064755693 1.2880001 4287596921
-0.23968245 -0.064755693 1.2880001 4287399285
-0.23634376 -0.06480597 1.289 4287334003
-0.23281898 -0.06480597 1.289 4287399796
-0.23018362 -0.065057345 1.294 4287727990
-0.22734578 -0.065258458 1.2980001 4287794040
-0.22448602 -0.065459557 1.302 4288845701
-0.22109538 -0.065509833 1.3030001 4288714113
-0.21736537 -0.065459557 1.302 4288121976
-0.21380503 -0.065459557 1.302 4288121976
-0.21040618 -0.065509833 1.3030001 4288582529
-0.20700188 -0.06556011 1.304 4288320127
-0.20343608 -0.06556011 1.304 4288780678
-0.20002353 -0.065610386 1.3050001 4288714115
-0.196455 -0.065610386 1.3050001 4288320125
-0.19288646 -0.065610386 1.3050001 4288517504
-0.18917286 -0.06556011 1.304 4288714883
-0.18560708 -0.06556011 1.304 4288187258
-0.18204127 -0.06556011 1.304 4288056955
-0.17820174 -0.065459557 1.302 4287596404
-0.17477553 -0.065509833 1.3030001 4287859576
-0.17108107 -0.065459557 1.302 4287202417
-0.16739208 -0.06540928 1.3010001 4287728507
-0.16333075 -0.065208174 1.2970001 4287137140
-0.15966091 -0.065157898 1.296 4287268728
-0.15611698 -0.065157898 1.296 4287070579
-0.15245533 -0.065107621 1.2950001 4287202163
-0.14891414 -0.065107621 1.2950001 4287136370
-0.14526068 -0.065057345 1.294 4287202163
-0.14172223 -0.065057345 1.294 4287333749
-0.13818377 -0.065057345 1.294 4287136370
-0.13474938 -0.065107621 1.2950001 4287399285
-0.13151215 -0.065258458 1.2980001 4287069807
-0.12815991 -0.065359004 1.3000001 4287727737
-0.12479676 -0.065459557 1.302 4288912009
-0.12132953 -0.065509833 1.3030001 4288714632
-0.11785686 -0.06556011 1.304 4288517251
-0.1142034 -0.065509833 1.3030001 4288451971
-0.11072525 -0.06556011 1.304 4288386178
-0.10724163 -0.065610386 1.3050001 4288188801
-0.10367309 -0.065610386 1.3050001 4288386178
-0.10010456 -0.065610386 1.3050001 4288254592
-0.096536025 -0.065610386 1.3050001 4287662457
-0.093181208 -0.065761216 1.3080001 4287531128
-0.089741468 -0.065861769 1.3100001 4287399544
-0.08583042 -0.065610386 1.3050001 4287202165
-0.082261883 -0.065610386 1.3050001 4287268728
-0.078753643 -0.065660663 1.3060001 4287071095
-0.075355075 -0.065811485 1.309 4285426270
-0.071830437 -0.065861769 1.3100001 4287005556
-0.068404526 -0.066012599 1.3130001 4286742384
-0.065258384 -0.06646508 1.322 4287202933
-0.063135482 -0.068073913 1.3540001 4288057991
-0.3340286 -0.063087769 1.327 4286940287
-0.32218346 -0.061518889 1.294 4287531908
-0.31544378 -0.060900852 1.281 4287137142
-0.31145385 -0.060805764 1.279 4286347626
-0.3081972 -0.06085331 1.2800001 4286347626
-0.30445898 -0.060805764 1.279 4287596923
-0.30143216 -0.060900852 1.281 4287267958
-0.29839441 -0.060995936 1.2830001 4287465078
-0.29603523 -0.06123364 1.2880001 4286675562
-0.2931945 -0.06137627 1.291 4286609767
-0.28966424 -0.06137627 1.291 4286872938
-0.286134 -0.06137627 1.291 4286609766
-0.28260374 -0.06137627 1.291 4286807146
-0.27928966 -0.061423808 1.2920001 4286807659
-0.27554324 -0.06137627 1.291 4286610280
-0.27201298 -0.06137627 1.291 4286478181
-0.26848274 -0.06137627 1.291 4286412388
-0.26495248 -0.06137627 1.291 4287136111
-0.26081473 -0.06123364 1.2880001 4287728248
-0.25669339 -0.061091021 1.2850001 4287530871
-0.25298256 -0.061043475 1.284 4287399542
-0.24986002 -0.061138559 1.286 4287268726
-0.246535 -0.061186101 1.2870001 4287334519
-0.2432045 -0.06123364 1.2880001 4287531898
-0.23949638 -0.061186101 1.2870001 4287267956
-0.23579369 -0.061138559 1.286 4287268724
-0.23245774 -0.061186101 1.2870001 4287400310
-0.22947209 -0.061328724 1.2900001 4287465075
-0.22682032 -0.061566435 1.2950001 4286938731
-0.22362396 -0.061661519 1.2970001 4287529841
-0.22007729 -0.061661519 1.2970001 4287793013
-0.21619675 -0.061566435 1.2950001 4287793013
-0.21249133 -0.061518889 1.294 4287661427
-0.20911437 -0.061566435 1.2950001 4287399025
-0.20589066 -0.061661519 1.2970001 4287530611
-0.20250002 -0.061709061 1.2980001 4287070317
-0.19910388 -0.0617566 1.299 4288517506
-0.19540124 -0.061709061 1.2980001 4289109900
-0.19199963 -0.0617566 1.299 4289043850
-0.18844751 -0.0617566 1.299 4288583299
-0.18489537 -0.0617566 1.299 4288779908
-0.18134324 -0.0617566 1.299 4288845699
-0.17751738 -0.061661519 1.2970001 4288451713
-0.17410487 -0.061709061 1.2980001 4288254334
-0.17068687 -0.0617566 1.299 4287530871
-0.16700608 -0.061709061 1.2980001 4287794300
-0.1630789 -0.061566435 1.2950001 4287596921
-0.15929131 -0.06147135 1.2930001 4287070579
-0.15599652 -0.061566435 1.2950001 4287531130
-0.15245533 -0.061566435 1.2950001 4287005554
-0.14902912 -0.061613973 1.296 4287137140
-0.14537294 -0.061566435 1.2950001 4286939761
-0.14183176 -0.061566435 1.2950001 4287137142
-0.13829057 -0.061566435 1.2950001 4287070579
-0.13474938 -0.061566435 1.2950001 4287399031
-0.13141082 -0.061661519 1.2970001 4286807148
-0.12806132 -0.0617566 1.299 4287728250
-0.12479676 -0.061899226 1.302 4288977802
-0.12123642 -0.061899226 1.302 4288517764
-0.11776647 -0.061946765 1.3030001 4288517764
-0.11411576 -0.061899226 1.302 4288780936
-0.11072525 -0.06199431 1.304 4288715145
-0.10724163 -0.062041849 1.3050001 4288517512
-0.10367309 -0.062041849 1.3050001 4288451973
-0.10018127 -0.062089395 1.3060001 4288254594
-0.096609995 -0.062089395 1.3060001 4287728507
-0.093252443 -0.062232014 1.309 4287794302
-0.089672968 -0.062232014 1.309 4287005556
-0.085764647 -0.06199431 1.304 4286873970
-0.082261883 -0.062041849 1.3050001 4286939763
-0.078813948 -0.062136933 1.307 4287005556
-0.075355075 -0.062232014 1.309 4287004786
-0.071830437 -0.06227956 1.3100001 4287005554
-0.068300322 -0.062327098 1.3110001 4286939761
-0.065159656 -0.062754974 1.3200001 4287334519
-0.06280908 -0.064038604 1.3470001 4287992197
-0.33503544 -0.059638299 1.3310001 4287072127
-0.3229304 -0.05811486 1.2970001 4287532159
-0.31618252 -0.057532366 1.284 4287268728
-0.31242791 -0.057487562 1.2830001 4285623903
-0.30916032 -0.057532366 1.284 4286150247
-0.30564922 -0.057532366 1.284 4287268728
-0.30213809 -0.057532366 1.284 4287399544
-0.29909214 -0.057621978 1.286 4287201906
-0.29649493 -0.057801206 1.2900001 4286938732
-0.2934216 -0.057890821 1.2920001 4286807145
-0.28988862 -0.057890821 1.2920001 4287004265
-0.28635564 -0.057890821 1.2920001 4286017629
-0.28282264 -0.057890821 1.2920001 4285951836
-0.27972201 -0.057980433 1.294 4286215522
-0.27618355 -0.057980433 1.294 4286215522
-0.27264509 -0.057980433 1.294 4286478694
-0.26889867 -0.057935629 1.2930001 4286610280
-0.26536295 -0.057935629 1.2930001 4287267697
-0.26121974 -0.057801206 1.2900001 4287596664
-0.25729269 -0.057711594 1.2880001 4287728250
-0.25377065 -0.057711594 1.2880001 4287399542
-0.2506372 -0.057801206 1.2900001 4287400312
-0.24710968 -0.057801206 1.2900001 4287400312
-0.24377097 -0.057846017 1.291 4287466105
-0.23986855 -0.057756402 1.289 4287334519
-0.23652713 -0.057801206 1.2900001 4287268724
-0.23299961 -0.057801206 1.2900001 4287137138
-0.23000574 -0.057935629 1.2930001 4287530868
-0.22699545 -0.058070049 1.296 4287596661
-0.22345152 -0.058070049 1.296 4289241229
-0.21973793 -0.058025245 1.2950001 4288846469
-0.21602979 -0.057980433 1.294 4288846471
-0.21249133 -0.057980433 1.294 4288912264
-0.20911437 -0.058025245 1.2950001 4288780423
-0.20573191 -0.058070049 1.296 4288912009
-0.20250002 -0.058159668 1.2980001 4289175181
-0.19895062 -0.058159668 1.2980001 4289371790
-0.19525068 -0.05811486 1.2970001 4289569939
-0.19185184 -0.058159668 1.2980001 4289767318
-0.18830244 -0.058159668 1.2980001 4289570194
-0.18489537 -0.058204472 1.299 4289043850
-0.18134324 -0.058204472 1.299 4288912264
-0.17751738 -0.05811486 1.2970001 4288715143
-0.17410487 -0.058159668 1.2980001 4288583557
-0.17068687 -0.058204472 1.299 4287662457
-0.16713475 -0.058204472 1.299 4287794043
-0.16345669 -0.058159668 1.2980001 4287531128
-0.15978409 -0.05811486 1.2970001 4287333751
-0.15623744 -0.05811486 1.2970001 4287267956
-0.1528085 -0.058159668 1.2980001 4287267956
-0.14914411 -0.05811486 1.2970001 4287333749
-0.14570972 -0.058159668 1.2980001 4287399544
-0.14216033 -0.058159668 1.2980001 4287333751
-0.13882451 -0.058249284 1.3000001 4287201654
-0.13516559 -0.058204472 1.299 4287135861
-0.13171478 -0.058249284 1.3000001 4286938480
-0.12815991 -0.058249284 1.3000001 4287727996
-0.12498846 -0.058428511 1.304 4287465078
-0.12151577 -0.058473315 1.3050001 4287399285
-0.11839914 -0.05869735 1.3100001 4287794043
-0.11481693 -0.05869735 1.3100001 4287465335
-0.11114981 -0.058652543 1.309 4287136370
-0.10748816 -0.058607738 1.3080001 4287202163
-0.10399086 -0.058652543 1.309 4287267956
-0.10041139 -0.058652543 1.309 4287399542
-0.096979871 -0.058742154 1.3110001 4287137140
-0.093537398 -0.058831774 1.3130001 4287071349
-0.090015501 -0.058876578 1.314 4287334521
-0.0860935 -0.058652543 1.309 4287202935
-0.082577065 -0.05869735 1.3100001 4287267958
-0.079055153 -0.058742154 1.3110001 4287399031
-0.07558535 -0.058831774 1.3130001 4287399542
-0.072049767 -0.058876578 1.314 4287202163
-0.068508722 -0.058921389 1.3150001 4287334519
-0.065258384 -0.059235036 1.322 4287202933
-0.062762454 -0.060310408 1.3460001 4287465853
-0.33478373 -0.055956598 1.33 4287269253
-0.32243246 -0.054484054 1.2950001 4287203195
-0.31569004 -0.053937111 1.2820001 4287203192
-0.31194088 -0.053895041 1.281 4285887073
-0.30916032 -0.054021254 1.284 4286741614
-0.30541116 -0.053979184 1.2830001 4287531130
-0.30213809 -0.054021254 1.284 4287267958
-0.29862699 -0.054021254 1.284 4287333492
-0.29603523 -0.054189544 1.2880001 4287004524
-0.2931945 -0.054315764 1.291 4287662195
-0.28988862 -0.054357834 1.2920001 4288649090
-0.286134 -0.054315764 1.291 4288649349
-0.28260374 -0.054315764 1.291 4287859833
-0.27907348 -0.054315764 1.291 4287531382
-0.27575669 -0.054357834 1.2920001 4287531382
-0.27243438 -0.054399908 1.2930001 4287399542
-0.26889867 -0.054399908 1.2930001 4287202163
-0.26515773 -0.054357834 1.2920001 4287333492
-0.26121974 -0.054273691 1.2900001 4287596664
-0.25729269 -0.054189544 1.2880001 4287728250
-0.25377065 -0.054189544 1.2880001 4287662714
-0.25044289 -0.054231621 1.289 4287662714
-0.24691811 -0.054231621 1.289 4287531898
-0.24358216 -0.054273691 1.2900001 4287400312
-0.23968245 -0.054189544 1.2880001 4287334519
-0.23597705 -0.054147474 1.2870001 4287334519
-0.23263836 -0.054189544 1.2880001 4287334519
-0.22964996 -0.054315764 1.291 4287596921
-0.22664516 -0.054441981 1.294 4287596662
-0.22293431 -0.054399908 1.2930001 4288780936
-0.21939859 -0.054399908 1.2930001 4288714630
-0.21552895 -0.054315764 1.291 4288385920
-0.21232714 -0.054399908 1.2930001 4288583299
-0.20879142 -0.054399908 1.2930001 4288517251
-0.20541443 -0.054441981 1.294 4288385665
-0.20171997 -0.054399908 1.2930001 4288517253
-0.19833751 -0.054441981 1.294 4288583046
-0.19464853 -0.054399908 1.2930001 4288451460
-0.19126061 -0.054441981 1.294 4288583044
-0.18772215 -0.054441981 1.294 4288451460
-0.18446836 -0.054526124 1.296 4288057215
-0.18078485 -0.054484054 1.2950001 4288122493
-0.17738052 -0.054526124 1.296 4287859836
-0.1738366 -0.054526124 1.296 4287728250
-0.17055547 -0.054610275 1.2980001 4287728250
-0.16700608 -0.054610275 1.2980001 4287596664
-0.16345669 -0.054610275 1.2980001 4287333492
-0.1599073 -0.054610275 1.2980001 4287530871
-0.15647836 -0.054652344 1.299 4287596664
-0.15304396 -0.054694418 1.3000001 4287399542
-0.14948909 -0.054694418 1.3000001 4287202163
-0.14593422 -0.054694418 1.3000001 4287465337
-0.1424889 -0.054736488 1.3010001 4287070577
-0.13893129 -0.054736488 1.3010001 4287267958
-0.13526964 -0.054694418 1.3000001 4287267447
-0.13171478 -0.054694418 1.3000001 4287070066
-0.12825851 -0.054736488 1.3010001 4287530617
-0.12556355 -0.055115145 1.3100001 4287596664
-0.12216758 -0.055199288 1.312 4287465078
-0.11848952 -0.055157214 1.3110001 4287267699
-0.11490458 -0.055157214 1.3110001 4287399542
-0.11123472 -0.055115145 1.3100001 4287333749
-0.10765251 -0.055115145 1.3100001 4287136370
-0.10407031 -0.055115145 1.3100001 4287333749
-0.10056481 -0.055157214 1.3110001 4287202163
-0.096979871 -0.055157214 1.3110001 4287071347
-0.093466163 -0.055199288 1.312 4287531128
-0.089809984 -0.055157214 1.3110001 4287136370
-0.0860935 -0.055073068 1.309 4287004784
-0.082577065 -0.055115145 1.3100001 4287136370
-0.079055153 -0.055157214 1.3110001 4287070577
-0.07552778 -0.055199288 1.312 4287465335
-0.071994938 -0.055241365 1.3130001 4287136370
-0.06845662 -0.055283435 1.314 4287334519
-0.065209024 -0.055577945 1.3210001 4287268726
-0.33503544 -0.052359037 1.3310001 4287664011
-0.3229304 -0.051021539 1.2970001 4287268734
-0.31692129 -0.050628159 1.2870001 4287334267
-0.31315845 -0.05058882 1.286 4286610028
-0.30988264 -0.050628159 1.2870001 4285886305
-0.30612528 -0.05058882 1.286 4287531132
-0.30284402 -0.050628159 1.2870001 4287596925
-0.29955727 -0.050667495 1.2880001 4287530871
-0.29649493 -0.050746173 1.2900001 4287268210
-0.2931945 -0.050785512 1.291 4288057212
-0.28988862 -0.050824847 1.2920001 4288781189
-0.286134 -0.050785512 1.291 4288386177
-0.28260374 -0.050785512 1.291 4288123005
-0.27928966 -0.050824847 1.2920001 4287728761
-0.27597013 -0.05086419 1.2930001 4287597175
-0.27285579 -0.050942864 1.2950001 4287596921
-0.26931459 -0.050942864 1.2950001 4287202163
-0.26556817 -0.050903525 1.294 4287399542
-0.26162472 -0.050824847 1.2920001 4287794043
-0.25789198 -0.050785512 1.291 4287728250
-0.25416473 -0.050746173 1.2900001 4287596664
-0.25083148 -0.050785512 1.291 4287465335
-0.24730122 -0.050785512 1.291 4287596921
-0.24414863 -0.05086419 1.2930001 4287596921
-0.24061291 -0.05086419 1.2930001 4287334519
-0.23707719 -0.05086419 1.2930001 4287663484
-0.23354146 -0.05086419 1.2930001 4287202933
-0.23018362 -0.050903525 1.294 4287596921
-0.22699545 -0.0509822 1.296 4287860093
-0.22327913 -0.050942864 1.2950001 4288057472
-0.21973793 -0.050942864 1.2950001 4288123006
-0.21602979 -0.050903525 1.294 4287991420
-0.21281976 -0.0509822 1.296 4287727735
-0.20927583 -0.0509822 1.296 4287332977
-0.20604941 -0.051060881 1.2980001 4287530358
-0.202344 -0.051021539 1.2970001 4287267699
-0.19895062 -0.051060881 1.2980001 4287399285
-0.19525068 -0.051021539 1.2970001 4287728250
-0.19185184 -0.051060881 1.2980001 4287728250
-0.18830244 -0.051060881 1.2980001 4287333492
-0.18489537 -0.051100217 1.299 4287202163
-0.18134324 -0.051100217 1.299 4287267956
-0.17779112 -0.051100217 1.299 4287531128
-0.17423899 -0.051100217 1.299 4287728509
-0.17094967 -0.051178891 1.3010001 4287662203
-0.16752073 -0.051218234 1.302 4287794043
-0.16383448 -0.051178891 1.3010001 4287530871
-0.16052327 -0.051257569 1.3030001 4287596664
-0.15696019 -0.051257569 1.3030001 4287465335
-0.15375032 -0.051375583 1.3060001 4287465335
-0.14994906 -0.051296908 1.304 4287399542
-0.14638326 -0.051296908 1.304 4287465335
-0.14292698 -0.051336244 1.3050001 4287465335
-0.13935845 -0.051336244 1.3050001 4287399285
-0.13568586 -0.051296908 1.304 4287333238
-0.13201873 -0.051257569 1.3030001 4287267958
-0.12934293 -0.051611613 1.312 4287070579
-0.12594695 -0.051690288 1.314 4287530617
-0.12235381 -0.051690288 1.314 4287530871
-0.11885104 -0.051729627 1.3150001 4287202163
-0.11525516 -0.051729627 1.3150001 4287333749
-0.11157437 -0.051690288 1.314 4287596921
-0.10781687 -0.051611613 1.312 4287399542
-0.10430863 -0.051650953 1.3130001 4287004784
-0.10071822 -0.051650953 1.3130001 4287399542
-0.097201794 -0.051690288 1.314 4287333749
-0.093679883 -0.051729627 1.3150001 4287399542
-0.090084001 -0.051729627 1.3150001 4287202163
-0.086422347 -0.051690288 1.314 4286938991
-0.082892239 -0.051729627 1.3150001 4287004784
-0.079296358 -0.051729627 1.3150001 4287202163
-0.075700477 -0.051729627 1.3150001 4287071349
-0.072159432 -0.051768962 1.3160001 4287268728
-0.068612911 -0.051808305 1.317 4287268728
-0.065307744 -0.052044332 1.3230001 4287400314
-0.32342836 -0.047548089 1.299 4287531906
-0.31716752 -0.047145449 1.2880001 4287400060
-0.31315845 -0.047072239 1.286 4287662716
-0.30988264 -0.047108848 1.2870001 4287662716
-0.30588722 -0.047035638 1.2850001 4287596923
-0.3026087 -0.047072239 1.286 4287662716
-0.29909214 -0.047072239 1.286 4287596664
-0.29603523 -0.047145449 1.2880001 4287399285
-0.29274029 -0.047182053 1.289 4287662454
-0.28966424 -0.047255259 1.291 4288189052
-0.28635564 -0.04729186 1.2920001 4287794294
-0.28260374 -0.047255259 1.291 4287925626
-0.27907348 -0.047255259 1.291 4287596921
-0.27575669 -0.04729186 1.2920001 4287333749
-0.27264509 -0.047365069 1.294 4287465335
-0.26910663 -0.047365069 1.294 4287596921
-0.26556817 -0.047365069 1.294 4287662714
-0.26182723 -0.047328468 1.2930001 4287465335
-0.25829151 -0.047328468 1.2930001 4287596921
-0.25455877 -0.04729186 1.2920001 4287465335
-0.25083148 -0.047255259 1.291 4287399542
-0.24749279 -0.04729186 1.2920001 4287794300
-0.24414863 -0.047328468 1.2930001 4287860093
-0.24079898 -0.047365069 1.294 4287597693
-0.23707719 -0.047328468 1.2930001 4287466107
-0.23372208 -0.047365069 1.294 4287466107
-0.23018362 -0.047365069 1.294 4287400314
-0.22682032 -0.047401674 1.2950001 4287137142
-0.22345152 -0.047438275 1.296 4287729277
-0.22007729 -0.04747488 1.2970001 4287860093
-0.21636368 -0.047438275 1.296 4287991422
-0.21298398 -0.04747488 1.2970001 4287662457
-0.20943733 -0.04747488 1.2970001 4287728507
-0.20620814 -0.047548089 1.299 4287465335
-0.20250002 -0.047511488 1.2980001 4287531130
-0.19895062 -0.047511488 1.2980001 4287267958
-0.19540124 -0.047511488 1.2980001 4287399031
-0.19185184 -0.047511488 1.2980001 4287596410
-0.18830244 -0.047511488 1.2980001 4287859836
-0.18503772 -0.047584694 1.3000001 4287662968
-0.18162246 -0.047621295 1.3010001 4287399542
-0.17806487 -0.047621295 1.3010001 4287531128
-0.1746414 -0.0476579 1.302 4287465335
-0.17121246 -0.047694501 1.3030001 4287531130
-0.16777806 -0.047731109 1.304 4287794302
-0.16408633 -0.047694501 1.3030001 4287531128
