# .PCD v0.7 - Point Cloud Data file format
VERSION 0.7
FIELDS x y z rgba
SIZE 4 4 4 4
TYPE F F F U
COUNT 1 1 1 1
WIDTH 1099
HEIGHT 1
VIEWPOINT 0 0 0 1 0 0 0
POINTS 1099
DATA ascii
-0.14113745 -0.15764566 1.393 4289503629
-0.13545516 -0.15549542 1.3740001 4290556317
-0.12920585 -0.15255301 1.348 4290425503
-0.12430923 -0.15108179 1.335 4290293662
-0.12029714 -0.15062912 1.3310001 4290096796
-0.11718339 -0.15130813 1.337 4290096798
-0.11403682 -0.15198715 1.3430001 4290491815
-0.11044655 -0.15210032 1.3440001 4290294688
-0.10661248 -0.15187398 1.342 4290163101
-0.10255923 -0.15130813 1.337 4290294685
-0.098533317 -0.15074228 1.332 4290360221
-0.094392277 -0.14995009 1.325 4290294426
-0.090495035 -0.1494974 1.3210001 4290360219
-0.0867512 -0.14927107 1.319 4290294174
-0.08327046 -0.1494974 1.3210001 4290359967
-0.079658173 -0.1494974 1.3210001 4290096796
-0.076218583 -0.14983693 1.3240001 4289833624
-0.072543256 -0.14972375 1.3230001 4286807146
-0.069238089 -0.15040278 1.3290001 4287070831
-0.06594947 -0.15119496 1.3360001 4287070318
-0.062762454 -0.15232667 1.3460001 4287070318
-0.059520748 -0.15345836 1.3560001 4286872939
-0.05622435 -0.15459006 1.3660001 4287004784
-0.05295011 -0.1559481 1.378 4287202681
-0.049467485 -0.15685345 1.386 4278190080
-0.018732799 -0.15345836 1.3560001 4278190080
-0.01482536 -0.15142129 1.3380001 4290030753
-0.011149894 -0.15119496 1.3360001 4289965212
-0.0074965889 -0.15119496 1.3360001 4289503378
-0.0038605442 -0.15187398 1.342 4287661944
-0.0001919698 -0.15277934 1.35 4287202163
0.0035359107 -0.15436372 1.3640001 4287136372
0.0073350305 -0.15583493 1.3770001 4287860360
0.011253616 -0.15798515 1.396 4287598220
0.015934659 -0.16703874 1.4760001 4294178555
-0.272762 -0.14875644 1.3470001 4289966237
-0.26568267 -0.14687905 1.33 4290097309
-0.26046959 -0.14599556 1.322 4290425761
-0.25646594 -0.14577469 1.3200001 4290425501
-0.25266486 -0.14566426 1.319 4290425499
-0.24905804 -0.14566426 1.319 4290359710
-0.2456373 -0.14577469 1.3200001 4290425501
-0.2422111 -0.14588512 1.3210001 4290425501
-0.23823757 -0.14566426 1.319 4290228120
-0.23463076 -0.14566426 1.319 4290162327
-0.23119909 -0.14577469 1.3200001 4290162327
-0.22776195 -0.14588512 1.3210001 4290359706
-0.22448902 -0.146106 1.3230001 4290162327
-0.22120517 -0.14632687 1.325 4290294426
-0.21791036 -0.14654773 1.327 4290031254
-0.21444316 -0.14665818 1.3280001 4290162840
-0.21097046 -0.14676861 1.3290001 4290097047
-0.20702429 -0.14654773 1.327 4290162842
-0.20278248 -0.146106 1.3230001 4290031256
-0.1990142 -0.14599556 1.322 4290162327
-0.19510356 -0.14577469 1.3200001 4290228120
-0.19163908 -0.14588512 1.3210001 4290096536
-0.18745744 -0.14544338 1.317 4290162842
-0.18399569 -0.14555381 1.3180001 4288649349
-0.18052849 -0.14566426 1.319 4286412387
-0.17759232 -0.14621644 1.3240001 4285491285
-0.17489162 -0.14698948 1.3310001 4286412387
-0.1722813 -0.14787295 1.3390001 4286543716
-0.16937537 -0.14853558 1.345 4286412128
-0.16643663 -0.14919819 1.3510001 4286609507
-0.16346507 -0.1498608 1.3570001 4286674528
-0.16069616 -0.15074429 1.365 4286411356
-0.15799847 -0.1517382 1.3740001 4286806114
-0.1549148 -0.15240082 1.3800001 4286476892
-0.15179831 -0.15306343 1.386 4278190080
-0.14875579 -0.15383647 1.393 4278190080
-0.1445304 -0.15339473 1.3890001 4288056953
-0.13850315 -0.15096515 1.3670001 4290359708
-0.13230047 -0.14820427 1.342 4290425501
-0.12709714 -0.1464373 1.3260001 4290425501
-0.12309873 -0.14599556 1.322 4290162331
-0.11912218 -0.14555381 1.3180001 4290359455
-0.11569339 -0.14577469 1.3200001 4290293917
-0.11233857 -0.146106 1.3230001 4290425760
-0.108803 -0.14621644 1.3240001 4290491553
-0.10502362 -0.14599556 1.322 4290491553
-0.10125518 -0.14577469 1.3200001 4290623393
-0.097645625 -0.14577469 1.3200001 4290162327
-0.093893602 -0.14555381 1.3180001 4290557085
-0.090221018 -0.14544338 1.317 4290425501
-0.08661966 -0.14544338 1.317 4290622880
-0.083144382 -0.14566426 1.319 4290491294
-0.079477265 -0.14555381 1.3180001 4290359710
-0.075988315 -0.14577469 1.3200001 4290293662
-0.072323926 -0.14566426 1.319 4290227869
-0.0689255 -0.146106 1.3230001 4290425761
-0.065603927 -0.14676861 1.3290001 4289964952
-0.062342796 -0.14765209 1.337 4289833366
-0.0590818 -0.14864601 1.3460001 4287004267
-0.055730429 -0.1495295 1.3540001 4287267699
-0.052450582 -0.15074429 1.365 4287465084
-0.049003504 -0.15162776 1.373 4286543986
-0.022771779 -0.15195908 1.376 4278190080
-0.018622281 -0.14886688 1.348 4290097059
-0.014803199 -0.14754166 1.3360001 4290294177
-0.011149894 -0.14754166 1.3360001 4290556836
-0.0075078113 -0.14776252 1.3380001 4290162076
-0.0038691743 -0.14853558 1.345 4290096283
-0.0001922542 -0.14930862 1.3520001 4288123008
0.0035410954 -0.15085472 1.3660001 4287399291
0.0073563377 -0.15251124 1.381 4287926153
0.011285861 -0.15460952 1.4000001 4287992208
0.015772721 -0.16134608 1.4610001 4291348939
-0.27541924 -0.14453456 1.342 4288715921
-0.26709214 -0.14205743 1.319 4289768344
-0.26228675 -0.14141123 1.3130001 4290162842
-0.25830227 -0.14119583 1.3110001 4290030743
-0.25452304 -0.14108813 1.3100001 4290293915
-0.25074926 -0.14098042 1.309 4290293915
-0.24716979 -0.14098042 1.309 4290425501
-0.24414858 -0.14130352 1.312 4290228120
-0.24074428 -0.14141123 1.3130001 4290228120
-0.23697323 -0.14130352 1.312 4290097047
-0.23320766 -0.14119583 1.3110001 4290162840
-0.22979788 -0.14130352 1.312 4290294426
-0.22689988 -0.14173435 1.3160001 4290162840
-0.22313157 -0.14162664 1.3150001 4290359706
-0.21953569 -0.14162664 1.3150001 4290162840
-0.21577559 -0.14151894 1.314 4290097047
-0.21218245 -0.14151894 1.314 4290228633
-0.2085893 -0.14151894 1.314 4290293913
-0.20468414 -0.14130352 1.312 4290359706
-0.20109646 -0.14130352 1.312 4290228120
-0.19750878 -0.14130352 1.312 4290228120
-0.19392112 -0.14130352 1.312 4290359706
-0.19018836 -0.14119583 1.3110001 4290162842
-0.18674576 -0.14130352 1.312 4289965463
-0.18315808 -0.14130352 1.312 4290031002
-0.17998101 -0.14162664 1.3150001 4286346594
-0.17692167 -0.14205743 1.319 4286675302
-0.17436604 -0.14291905 1.327 4286609509
-0.17189533 -0.14388835 1.3360001 4286542946
-0.16912352 -0.14464225 1.3430001 4285819221
-0.16631344 -0.14539617 1.35 4286345563
-0.16334462 -0.14604236 1.3560001 4286082391
-0.16081388 -0.14711937 1.3660001 4285885012
-0.15799847 -0.14798099 1.3740001 4286411356
-0.15502706 -0.14873488 1.381 4286477151
-0.15146974 -0.14895029 1.383 4278190080
-0.14758113 -0.14884259 1.3820001 4287727988
-0.14213718 -0.14711937 1.3660001 4290293915
-0.13586886 -0.14442685 1.3410001 4290359708
-0.13042736 -0.14248824 1.3230001 4290228122
-0.12594695 -0.14151894 1.314 4290293915
-0.12226069 -0.14141123 1.3130001 4290359710
-0.11839914 -0.14108813 1.3100001 4290228124
-0.11472929 -0.14098042 1.309 4290557089
-0.11131964 -0.14119583 1.3110001 4290557089
-0.10781687 -0.14130352 1.312 4290359710
-0.10430863 -0.14141123 1.3130001 4290360221
-0.10056481 -0.14119583 1.3110001 4290360221
-0.097053841 -0.14130352 1.312 4290294428
-0.093466163 -0.14130352 1.312 4290557087
-0.089946985 -0.14141123 1.3130001 4290359708
-0.086225033 -0.14119583 1.3110001 4290425501
-0.082577065 -0.14108813 1.3100001 4290359708
-0.07893455 -0.14098042 1.309 4290293915
-0.075412646 -0.14108813 1.3100001 4290359708
-0.071885265 -0.14119583 1.3110001 4290359710
-0.068352424 -0.14130352 1.312 4290359710
-0.064863473 -0.14151894 1.314 4290425503
-0.061410215 -0.14184204 1.317 4290425503
-0.058116131 -0.14259595 1.3240001 4290425503
-0.054701436 -0.14313444 1.3290001 4290556834
-0.051297821 -0.14378065 1.335 4290294177
-0.022275301 -0.14496537 1.3460001 4287400320
-0.018428875 -0.14367294 1.3340001 4288518541
-0.014758878 -0.14345755 1.332 4289175696
-0.011149894 -0.14388835 1.3360001 4290096798
-0.0075302562 -0.14453456 1.342 4289504659
-0.0038778046 -0.14518076 1.348 4288583559
-0.00019282299 -0.14604236 1.3560001 4286807405
0.0035436875 -0.14722708 1.3670001 4287268474
0.007351011 -0.14862719 1.3800001 4287794821
0.011269739 -0.1505658 1.3980001 4287794829
0.015718741 -0.15681246 1.4560001 4290230458
-0.27275124 -0.13950029 1.3290001 4286873200
-0.26567465 -0.13771585 1.312 4286675559
-0.26148769 -0.13740095 1.309 4289109641
-0.25810525 -0.13750592 1.3100001 4288517504
-0.25413445 -0.13729599 1.3080001 4289701778
-0.25036615 -0.13719103 1.307 4290293917
-0.24660333 -0.13708606 1.3060001 4290030743
-0.24340422 -0.13729599 1.3080001 4290491292
-0.24001084 -0.13740095 1.309 4290228633
-0.23625074 -0.13729599 1.3080001 4290360219
-0.23231824 -0.13708606 1.3060001 4290294426
-0.22892213 -0.13719103 1.307 4290294426
-0.22621021 -0.13771585 1.312 4290294426
-0.22211348 -0.13740095 1.309 4290293913
-0.21853401 -0.13740095 1.309 4290228120
-0.21446189 -0.13708606 1.3060001 4290031254
-0.2110521 -0.13719103 1.307 4290359706
-0.20747811 -0.13719103 1.307 4290228374
-0.20374809 -0.13708606 1.3060001 4290096534
-0.20033009 -0.13719103 1.307 4289964948
-0.19660555 -0.13708606 1.3060001 4290096534
-0.19347769 -0.13740095 1.309 4290359708
-0.18989822 -0.13740095 1.309 4290293915
-0.18646109 -0.13750592 1.3100001 4290491807
-0.18273927 -0.13740095 1.309 4290228635
-0.17929667 -0.13750592 1.3100001 4290228124
-0.17598273 -0.13771585 1.312 4289899159
-0.17331484 -0.13845062 1.319 4289963927
-0.17099467 -0.13950029 1.3290001 4286871911
-0.16874573 -0.14065491 1.34 4286345567
-0.16655982 -0.1419145 1.3520001 4285687122
-0.16406737 -0.14296417 1.3620001 4286410331
-0.16140251 -0.14390887 1.3710001 4286147673
-0.15822846 -0.14443371 1.376 4278190080
-0.15513931 -0.1450635 1.3820001 4278190080
-0.1508126 -0.14453867 1.3770001 4288121978
-0.14565894 -0.1431741 1.3640001 4289899159
-0.13953583 -0.14075989 1.3410001 4290359708
-0.1339438 -0.13876551 1.322 4290425501
-0.12944151 -0.13782082 1.3130001 4290622110
-0.12556355 -0.13750592 1.3100001 4290490011
-0.12198135 -0.13750592 1.3100001 4290227354
-0.11830875 -0.13740095 1.309 4290227354
-0.1143787 -0.13698108 1.3050001 4290293917
-0.11097998 -0.13719103 1.307 4290359710
-0.1073238 -0.13708606 1.3060001 4290491041
-0.10399086 -0.13740095 1.309 4290491807
-0.10025797 -0.13719103 1.307 4290228635
-0.096683964 -0.13719103 1.307 4290491807
-0.093181208 -0.13729599 1.3080001 4290360221
-0.089741468 -0.13750592 1.3100001 4290360221
-0.086027727 -0.13729599 1.3080001 4290294428
-0.082198843 -0.13687612 1.304 4290359708
-0.078512445 -0.13666619 1.302 4290359708
-0.075067244 -0.13687612 1.304 4290359708
-0.071665943 -0.13719103 1.307 4290425501
-0.068039834 -0.13708606 1.3060001 4290425501
-0.06451793 -0.13719103 1.307 4290557089
-0.060897298 -0.13708606 1.3060001 4290425503
-0.057457712 -0.13740095 1.309 4290491296
-0.053919401 -0.13750592 1.3100001 4290359710
-0.050375614 -0.1376109 1.3110001 4290622882
-0.047111891 -0.13855559 1.3200001 4290622882
-0.043930769 -0.13992015 1.3330001 4290425761
-0.040738996 -0.14149465 1.348 4290360227
-0.03428261 -0.1453784 1.3850001 4290229413
-0.025782397 -0.14034002 1.337 4289966500
-0.021993963 -0.13950029 1.3290001 4289373850
-0.018332172 -0.13929035 1.327 4288254853
-0.014747798 -0.13971022 1.3310001 4286741355
-0.011166586 -0.14044498 1.3380001 4287136113
-0.0075639235 -0.14149465 1.348 4287531130
-0.0038979414 -0.14222941 1.355 4287925886
-0.0001933918 -0.14275424 1.36 4287333751
0.0035462799 -0.14359397 1.368 4287465337
0.007351011 -0.14485358 1.3800001 4288057993
0.011261677 -0.14663801 1.3970001 4287860622
0.015707945 -0.15272604 1.455 4289638062
-0.28345621 -0.13934201 1.363 4286017893
-0.27151984 -0.13525273 1.3230001 4287070320
-0.26526967 -0.13392371 1.3100001 4287201646
-0.26128793 -0.13371925 1.3080001 4286938472
-0.25790823 -0.13382149 1.309 4287464816
-0.25394017 -0.13361703 1.307 4288451711
-0.25036615 -0.13361703 1.307 4288320125
-0.2464145 -0.13341255 1.3050001 4289702037
-0.24284595 -0.13341255 1.3050001 4289044107
-0.23909408 -0.13331032 1.304 4289438865
-0.23516703 -0.13310586 1.302 4289899670
-0.23125093 -0.13290139 1.3000001 4290097047
-0.22769606 -0.13290139 1.3000001 4290162840
-0.22448602 -0.13310586 1.302 4290162840
-0.22058634 -0.13290139 1.3000001 4290097047
-0.21686453 -0.13279916 1.299 4290162840
-0.21298398 -0.1325947 1.2970001 4290425499
-0.20976026 -0.13279916 1.299 4290228120
-0.2063669 -0.13290139 1.3000001 4290096534
-0.20281203 -0.13290139 1.3000001 4290293397
-0.19941045 -0.13300362 1.3010001 4290228374
-0.1957023 -0.13290139 1.3000001 4290293913
-0.19214743 -0.13290139 1.3000001 4290425499
-0.18873766 -0.13300362 1.3010001 4290491292
-0.18546472 -0.1332081 1.3030001 4290162327
-0.18190166 -0.1332081 1.3030001 4290228120
-0.17820174 -0.13310586 1.302 4290030741
-0.1746414 -0.13310586 1.302 4290096534
-0.17160666 -0.13351479 1.3060001 4289833364
-0.16893603 -0.13423041 1.3130001 4288977287
-0.16685678 -0.13545719 1.325 4286147675
-0.16545108 -0.13729736 1.3430001 4285949526
-0.16370599 -0.13893306 1.3590001 4285949526
-0.16116706 -0.13995539 1.3690001 4285687122
-0.15788348 -0.14036432 1.373 4278190080
-0.154129 -0.14036432 1.373 4288187769
-0.1488412 -0.13893306 1.3590001 4290490524
-0.14266887 -0.13658175 1.3360001 4290359708
-0.13714261 -0.13474157 1.3180001 4290293915
-0.13242401 -0.13361703 1.307 4290622878
-0.12855425 -0.13331032 1.304 4290227352
-0.12498846 -0.13331032 1.304 4290293145
-0.12132953 -0.1332081 1.3030001 4290490526
-0.11767609 -0.13310586 1.302 4290556319
-0.11376517 -0.13269694 1.2980001 4290228124
-0.11047052 -0.13300362 1.3010001 4290359710
-0.10674857 -0.13279916 1.299 4290491296
-0.1035142 -0.1332081 1.3030001 4290425501
-0.099721014 -0.13290139 1.3000001 4290360221
-0.096240133 -0.13300362 1.3010001 4290294428
-0.092611283 -0.13290139 1.3000001 4290426014
-0.089193441 -0.13310586 1.302 4290360221
-0.085567333 -0.13300362 1.3010001 4290491807
-0.08182063 -0.13269694 1.2980001 4290360219
-0.078210935 -0.1325947 1.2970001 4290360219
-0.07466428 -0.1325947 1.2970001 4290425499
-0.071282111 -0.13290139 1.3000001 4290359706
-0.067779347 -0.13300362 1.3010001 4290425501
-0.064123027 -0.13279916 1.299 4290425503
-0.060570896 -0.13279916 1.299 4290425503
-0.057018768 -0.13279916 1.299 4290425503
-0.05346664 -0.13279916 1.299 4290293917
-0.049914513 -0.13279916 1.299 4290491553
-0.046469457 -0.13310586 1.302 4290491807
-0.04304095 -0.13351479 1.3060001 4290425760
-0.03965101 -0.13412817 1.312 4290425761
-0.036145795 -0.13443488 1.3150001 4290360481
-0.032599419 -0.13463934 1.317 4290228895
-0.028932016 -0.13433264 1.314 4290360229
-0.025300303 -0.13412817 1.312 4290294436
-0.021745725 -0.13433264 1.314 4290228641
-0.018249283 -0.13504826 1.3210001 4290359970
-0.014736718 -0.13596834 1.33 4286083684
-0.011183277 -0.13699067 1.34 4285557340
-0.0075695347 -0.13791075 1.3490001 4287267956
-0.0039008183 -0.13862638 1.3560001 4288057472
-0.0001933918 -0.1390353 1.36 4287004786
0.0035462799 -0.13985315 1.368 4287399544
0.0073403576 -0.14087547 1.378 4287663233
0.011253616 -0.14271565 1.396 4288058254
0.015621578 -0.14792947 1.447 4287532427
-0.31583342 -0.1417837 1.4250001 4289835180
-0.30733979 -0.13969426 1.404 4289506214
-0.30479753 -0.14029124 1.4100001 4289506468
-0.27846506 -0.13322693 1.3390001 4289769113
-0.2711094 -0.13143598 1.3210001 4290096795
-0.26587716 -0.13064 1.3130001 4289439119
-0.26208696 -0.13054049 1.312 4287859574
-0.25869632 -0.13064 1.3130001 4286543714
-0.25471732 -0.13044101 1.3110001 4286280801
-0.25132394 -0.13054049 1.312 4286478181
-0.24735862 -0.1303415 1.3100001 4286543974
-0.24377641 -0.1303415 1.3100001 4287004012
-0.23964414 -0.13004301 1.307 4287069805
-0.23516703 -0.12954552 1.302 4287135851
-0.23107304 -0.12924704 1.299 4288056953
-0.22734578 -0.12914754 1.2980001 4289570190
-0.22362396 -0.12904803 1.2970001 4290426012
-0.21939859 -0.12865005 1.2930001 4290097047
-0.21586286 -0.12865005 1.2930001 4290359706
-0.21249133 -0.12874955 1.294 4290293913
-0.20927583 -0.12894854 1.296 4290556569
-0.20573191 -0.12894854 1.296 4290227604
-0.20218799 -0.12894854 1.296 4290490774
-0.19879735 -0.12904803 1.2970001 4290227604
-0.19540124 -0.12914754 1.2980001 4290556569
-0.19185184 -0.12914754 1.2980001 4290228120
-0.18844751 -0.12924704 1.299 4290359706
-0.18475305 -0.12914754 1.2980001 4290293913
-0.18106404 -0.12904803 1.2970001 4290096534
-0.17738052 -0.12894854 1.296 4290293913
-0.1738366 -0.12894854 1.296 4289964948
-0.17081827 -0.12934653 1.3000001 4288978053
-0.16764939 -0.12964503 1.3030001 4288450941
-0.16547155 -0.1307395 1.314 4286476638
-0.16421913 -0.13262995 1.3330001 4286081112
-0.16310368 -0.13471939 1.3540001 4286015319
-0.16057843 -0.13571435 1.3640001 4278190080
-0.15661858 -0.13551538 1.3620001 4278190080
-0.15165934 -0.13442089 1.3510001 4290490011
-0.14555551 -0.13223197 1.3290001 4290490524
-0.14010596 -0.13054049 1.312 4290557087
-0.13547775 -0.12954552 1.302 4290359708
-0.13141082 -0.12904803 1.2970001 4290162329
-0.12796275 -0.12914754 1.2980001 4290359708
-0.12460505 -0.12934653 1.3000001 4290556317
-0.12095708 -0.12924704 1.299 4290491296
-0.11722418 -0.12904803 1.2970001 4290557089
-0.11350223 -0.12884904 1.2950001 4290425503
-0.11013086 -0.12904803 1.2970001 4290359710
-0.10650203 -0.12894854 1.296 4290228124
-0.103117 -0.12914754 1.2980001 4290293915
-0.099414177 -0.12894854 1.296 4290228122
-0.095796287 -0.12884904 1.2950001 4290228635
-0.092183851 -0.12874955 1.294 4290360221
-0.088850915 -0.12904803 1.2970001 4290360221
-0.085501559 -0.12934653 1.3000001 4290491807
-0.08182063 -0.12914754 1.2980001 4290228633
-0.078090332 -0.12884904 1.2950001 4290360219
-0.074491575 -0.12874955 1.294 4290360219
-0.071062781 -0.12894854 1.296 4290228120
-0.067623056 -0.12914754 1.2980001 4290359708
-0.063974932 -0.12894854 1.296 4290359708
-0.060431011 -0.12894854 1.296 4290359710
-0.056843188 -0.12884904 1.2950001 4290491296
-0.053301997 -0.12884904 1.2950001 4290425760
-0.049837664 -0.12904803 1.2970001 4290360221
-0.046398073 -0.12934653 1.3000001 4290491807
-0.042810258 -0.12924704 1.299 4290426014
-0.039227903 -0.12914754 1.2980001 4290425760
-0.03567851 -0.12914754 1.2980001 4290425760
-0.032104366 -0.12904803 1.2970001 4290491807
-0.028579723 -0.12914754 1.2980001 4290491553
-0.025049616 -0.12924704 1.299 4290688933
-0.021646431 -0.13014251 1.3080001 4290294175
-0.018276913 -0.13163497 1.3230001 4289570454
-0.014792119 -0.13282894 1.335 4286675308
-0.011225005 -0.13382392 1.345 4285030483
-0.0075863684 -0.1345204 1.3520001 4286478440
-0.0039094482 -0.13521688 1.3590001 4287925629
-0.000193534 -0.13541587 1.3610001 4286938480
0.0035488722 -0.13621184 1.3690001 4287399542
0.0073456843 -0.13720682 1.3790001 4287992197
0.011261677 -0.13899778 1.3970001 4288058254
0.015556805 -0.14337565 1.4410001 4287269255
-0.32635206 -0.13904817 1.437 4289967279
-0.30357531 -0.1309201 1.353 4289703593
-0.29322639 -0.12801722 1.3230001 4289900197
-0.28807634 -0.12733988 1.3160001 4289900195
-0.28382921 -0.12704958 1.3130001 4289899427
-0.28002536 -0.12695281 1.312 4289637276
-0.27643767 -0.12695281 1.312 4289307539
-0.27326593 -0.12714635 1.314 4289834137
-0.26946756 -0.12704958 1.3130001 4290096795
-0.26567465 -0.12695281 1.312 4289899157
-0.26208696 -0.12695281 1.312 4289635985
-0.25869632 -0.12704958 1.3130001 4286017629
-0.25491163 -0.12695281 1.312 4286083423
-0.25132394 -0.12695281 1.312 4286082910
-0.24754743 -0.12685606 1.3110001 4285951324
-0.24377641 -0.12675931 1.3100001 4286608486
-0.23982748 -0.12656577 1.3080001 4286608484
-0.23516703 -0.12598521 1.302 4287266669
-0.23089516 -0.12559815 1.2980001 4289899157
-0.22629486 -0.12501757 1.2920001 4290293913
-0.22189981 -0.12453375 1.2870001 4290360217
-0.21770175 -0.1241467 1.2830001 4290426010
-0.21402642 -0.12404995 1.2820001 4290359706
-0.21117765 -0.124437 1.286 4290425499
-0.20798402 -0.12463052 1.2880001 4290227350
-0.20462072 -0.12472728 1.289 4290293143
-0.20125195 -0.12482405 1.2900001 4290556315
-0.19772443 -0.12482405 1.2900001 4290556315
-0.19449799 -0.12501757 1.2920001 4290490522
-0.190965 -0.12501757 1.2920001 4290358936
-0.1875771 -0.12511434 1.2930001 4290424729
-0.18375668 -0.1249208 1.291 4290358936
-0.18008684 -0.12482405 1.2900001 4290293913
-0.17655931 -0.12482405 1.2900001 4289438604
-0.17316593 -0.1249208 1.291 4288056953
-0.17002988 -0.12521109 1.294 4287595632
-0.16700608 -0.12559815 1.2980001 4287595632
-0.16446412 -0.12637225 1.3060001 4288450430
-0.16237119 -0.12753341 1.3180001 4286081880
-0.16081494 -0.12917838 1.335 4284766274
-0.1582239 -0.13004923 1.3440001 4278190080
-0.15385877 -0.12946865 1.3380001 4290621851
-0.14795485 -0.12753341 1.3180001 4290424729
-0.14259841 -0.12598521 1.302 4290359706
-0.13818377 -0.12521109 1.294 4290359706
-0.13443722 -0.12501757 1.2920001 4290293913
-0.1308029 -0.1249208 1.291 4290425499
-0.12727265 -0.1249208 1.291 4290293915
-0.12383825 -0.12501757 1.2920001 4290359708
-0.12021215 -0.1249208 1.291 4290557089
-0.11659151 -0.12482405 1.2900001 4290359710
-0.11297636 -0.12472728 1.289 4290228124
-0.10953648 -0.12482405 1.2900001 4290293917
-0.10592679 -0.12472728 1.289 4290359710
-0.10256089 -0.1249208 1.291 4290490524
-0.098953925 -0.12482405 1.2900001 4290359708
-0.095278457 -0.12463052 1.2880001 4290031256
-0.091613941 -0.124437 1.286 4290162842
-0.088165857 -0.12453375 1.2870001 4290162842
-0.084909633 -0.1249208 1.291 4290491807
-0.081379376 -0.1249208 1.291 4290426014
-0.077788822 -0.12482405 1.2900001 4290426014
-0.074146174 -0.12463052 1.2880001 4290359708
-0.070624121 -0.12463052 1.2880001 4290359708
-0.067154177 -0.12472728 1.289 4290293915
-0.063629389 -0.12472728 1.289 4290228122
-0.060151234 -0.12482405 1.2900001 4290359708
-0.056492034 -0.12453375 1.2870001 4290425760
-0.053096201 -0.12482405 1.2900001 4290294175
-0.049607109 -0.1249208 1.291 4290623139
-0.046112549 -0.12501757 1.2920001 4290360221
-0.042513646 -0.12482405 1.2900001 4290294685
-0.038925689 -0.12463052 1.2880001 4290426273
-0.035403639 -0.12463052 1.2880001 4290557346
-0.031856839 -0.12453375 1.2870001 4290425760
-0.02838156 -0.12472728 1.289 4290557859
-0.024933912 -0.12511434 1.2930001 4290557859
-0.021613332 -0.12637225 1.3060001 4289636758
-0.018276913 -0.12801722 1.3230001 4288781195
-0.014803199 -0.12927513 1.3360001 4287662457
-0.011233351 -0.13024276 1.3460001 4285359702
-0.0075863684 -0.13082333 1.3520001 4287135859
-0.0039094482 -0.13150068 1.3590001 4287859836
-0.0001936762 -0.13179097 1.3620001 4287004527
0.0035514645 -0.13256507 1.3700001 4287202163
0.007351011 -0.1335327 1.3800001 4287925888
0.011261677 -0.13517767 1.3970001 4288057739
0.015502825 -0.13895141 1.4360001 4287269253
-0.30091614 -0.12458751 1.325 4290360494
-0.29190797 -0.12233084 1.3010001 4290229159
-0.286134 -0.12139055 1.291 4290425509
-0.28172815 -0.12101444 1.2870001 4290360227
-0.27842498 -0.12110846 1.2880001 4289899417
-0.27532983 -0.12129653 1.2900001 4288123006
-0.27285579 -0.12176666 1.2950001 4287267439
-0.2709783 -0.1225189 1.3030001 4288517506
-0.26864663 -0.12308306 1.309 4289110154
-0.26587716 -0.12345918 1.3130001 4289110154
-0.26248649 -0.1235532 1.314 4285359953
-0.25928742 -0.12374127 1.3160001 4285754457
-0.25549451 -0.12364724 1.3150001 4286412388
-0.25151551 -0.12345918 1.3130001 4286609254
-0.2481139 -0.1235532 1.314 4286543461
-0.24433468 -0.12345918 1.3130001 4286213981
-0.2401942 -0.12317709 1.3100001 4286279774
-0.23498642 -0.12233084 1.3010001 4289174664
-0.23036151 -0.12176666 1.2950001 4290029971
-0.22524396 -0.12092041 1.286 4290293913
-0.2210377 -0.1205443 1.2820001 4290294167
-0.21668366 -0.12007416 1.2770001 4290359960
-0.21319169 -0.12007416 1.2770001 4290359960
-0.21019237 -0.12035624 1.2800001 4290425499
-0.20733811 -0.12073235 1.284 4290358936
-0.20446196 -0.12110846 1.2880001 4289437836
-0.20109594 -0.1212025 1.289 4288188539
-0.19787769 -0.12139055 1.291 4288385918
-0.19449799 -0.12148458 1.2920001 4288846469
-0.19111282 -0.12157861 1.2930001 4289307018
-0.18728693 -0.12139055 1.291 4289635983
-0.18332967 -0.12110846 1.2880001 4289504397
-0.17952843 -0.12092041 1.286 4289439119
-0.17614871 -0.12101444 1.2870001 4289043848
-0.17316593 -0.12139055 1.291 4287267437
-0.17016128 -0.12176666 1.2950001 4287069288
-0.16700608 -0.12204875 1.2980001 4288516734
-0.16408633 -0.1225189 1.3030001 4289634956
-0.16126244 -0.12308306 1.309 4290029714
-0.1587671 -0.12392931 1.3180001 4290424472
-0.15516302 -0.12392931 1.3180001 4290227350
-0.150639 -0.12317709 1.3100001 4290293143
-0.14548521 -0.12186069 1.296 4290358936
-0.14106509 -0.12110846 1.2880001 4290030741
-0.13722269 -0.12082639 1.2850001 4290228120
-0.13381289 -0.12092041 1.286 4290425501
-0.13049895 -0.12110846 1.2880001 4290557087
-0.12707549 -0.1212025 1.289 4290491294
-0.12345485 -0.12110846 1.2880001 4290228635
-0.11974657 -0.12092041 1.286 4290359710
-0.11623 -0.12092041 1.286 4290293917
-0.11262577 -0.12082639 1.2850001 4290293917
-0.10911193 -0.12082639 1.2850001 4290293917
-0.1055159 -0.12073235 1.284 4290293917
-0.10216368 -0.12092041 1.286 4290359710
-0.098647095 -0.12092041 1.286 4290293917
-0.094982564 -0.12073235 1.284 4290228381
-0.091471456 -0.12073235 1.284 4290359967
-0.087960348 -0.12073235 1.284 4290294428
-0.084646545 -0.12101444 1.2870001 4290162842
-0.081127234 -0.12101444 1.2870001 4290426014
-0.077607915 -0.12101444 1.2870001 4290622880
-0.073858336 -0.12063833 1.2830001 4290425501
-0.070295125 -0.1205443 1.2820001 4290425503
-0.066789486 -0.1205443 1.2820001 4290228124
-0.063431934 -0.12082639 1.2850001 4290293915
-0.059964724 -0.12092041 1.286 4290425501
-0.056316458 -0.12063833 1.2830001 4290426014
-0.052890401 -0.12082639 1.2850001 4290425760
-0.049414985 -0.12092041 1.286 4290557346
-0.045934092 -0.12101444 1.2870001 4290491807
-0.042315912 -0.12073235 1.284 4290294687
-0.038744356 -0.1205443 1.2820001 4290359967
-0.035238713 -0.1205443 1.2820001 4290294174
-0.031757828 -0.12063833 1.2830001 4290360480
-0.028315507 -0.12092041 1.286 4290492066
-0.024953198 -0.12167264 1.294 4290163102
-0.021679528 -0.12317709 1.3100001 4289176207
-0.018345986 -0.1248696 1.3280001 4288189058
-0.014836441 -0.1259039 1.3390001 4287794302
-0.011250042 -0.12675017 1.348 4284635725
-0.007603202 -0.12740836 1.355 4286017632
-0.0039180783 -0.12806657 1.3620001 4288057213
-0.00019424499 -0.12844267 1.3660001 4287399285
0.0035566492 -0.12900685 1.3720001 4287070577
0.0073616649 -0.12994713 1.3820001 4287728509
0.011261677 -0.13135757 1.3970001 4288123532
0.015481234 -0.1348366 1.434 4287269252
-0.30247077 -0.12014265 1.3160001 4289834661
-0.29274029 -0.11767771 1.289 4289702301
-0.28719616 -0.11685607 1.2800001 4290097055
-0.28325272 -0.11667348 1.2780001 4290228382
-0.2801958 -0.11685607 1.2800001 4289570452
-0.27712798 -0.11703866 1.2820001 4287925369
-0.27468953 -0.11749512 1.2870001 4287991162
-0.27201298 -0.11786029 1.291 4286543716
-0.27014646 -0.11859065 1.299 4286741095
-0.26803094 -0.11922971 1.3060001 4288649349
-0.26506716 -0.11950359 1.309 4286938731
-0.26228675 -0.11986876 1.3130001 4286543973
-0.25909036 -0.12005135 1.3150001 4285754458
-0.25568879 -0.12014265 1.3160001 4286082910
-0.25170705 -0.11996005 1.314 4286345567
-0.24773626 -0.11977746 1.312 4286411358
-0.24340422 -0.11941229 1.3080001 4287135079
-0.23891072 -0.11895583 1.3030001 4289898385
-0.23354146 -0.11804289 1.2930001 4290424983
-0.22840478 -0.11722124 1.284 4290490776
-0.22349244 -0.11649089 1.276 4290161811
-0.21931356 -0.11612572 1.2720001 4290293913
-0.21583526 -0.11612572 1.2720001 4290425753
-0.21235697 -0.11612572 1.2720001 4290425499
-0.20953551 -0.11649089 1.276 4290162327
-0.20669219 -0.11685607 1.2800001 4289307020
-0.20398574 -0.11731254 1.2850001 4287793781
-0.20093991 -0.11758642 1.2880001 4286017629
-0.19757114 -0.11767771 1.289 4285886043
-0.19419691 -0.11776901 1.2900001 4286938472
-0.1906694 -0.11776901 1.2900001 4287662708
-0.18685172 -0.11758642 1.2880001 4287399536
-0.18318735 -0.11749512 1.2870001 4288583297
-0.17938882 -0.11731254 1.2850001 4287596404
-0.17614871 -0.11749512 1.2870001 4287070060
-0.17303179 -0.11776901 1.2900001 4287399025
-0.16989848 -0.11804289 1.2930001 4288517504
-0.1668774 -0.11840806 1.2970001 4289701008
-0.16370854 -0.11868194 1.3000001 4290096534
-0.16027687 -0.11877324 1.3010001 4289964948
-0.15647836 -0.11859065 1.299 4290293913
-0.15221988 -0.11804289 1.2930001 4290294426
-0.14787921 -0.11740384 1.286 4290426012
-0.14368908 -0.11685607 1.2800001 4289964948
-0.14007939 -0.11676478 1.279 4290359708
-0.13658196 -0.11676478 1.279 4290425501
-0.13308452 -0.11676478 1.279 4290424731
-0.1296884 -0.11685607 1.2800001 4290490524
-0.1262868 -0.11694737 1.281 4290228122
-0.12268806 -0.11685607 1.2800001 4290228122
-0.11909477 -0.11676478 1.279 4290228122
-0.11568771 -0.11685607 1.2800001 4290162329
-0.11209989 -0.11676478 1.279 4290491296
-0.10860246 -0.11676478 1.279 4290293917
-0.10502283 -0.11667348 1.2780001 4290359710
-0.10168701 -0.11685607 1.2800001 4290293917
-0.098033421 -0.11667348 1.2780001 4290359710
-0.094612703 -0.11676478 1.279 4290425503
-0.091044016 -0.11667348 1.2780001 4290491296
-0.087412313 -0.11649089 1.276 4290294428
-0.083988845 -0.11658219 1.2770001 4290162842
-0.080559909 -0.11667348 1.2780001 4290294428
-0.077246115 -0.11694737 1.281 4290228122
-0.073512934 -0.11658219 1.2770001 4290293917
-0.070020966 -0.11658219 1.2770001 4290228124
-0.066424802 -0.1163996 1.2750001 4290359710
-0.063086398 -0.11667348 1.2780001 4290359710
-0.059591692 -0.11667348 1.2780001 4290491294
-0.056053091 -0.11658219 1.2770001 4290491294
-0.052643441 -0.11676478 1.279 4290491553
-0.049146004 -0.11676478 1.279 4290491553
-0.045541499 -0.11649089 1.276 4290294174
-0.042052262 -0.11649089 1.276 4290228381
-0.038532805 -0.1163996 1.2750001 4290294174
-0.035073791 -0.11649089 1.276 4290425760
-0.031609308 -0.11658219 1.2770001 4290425761
-0.028271468 -0.11722124 1.284 4290492067
-0.024991764 -0.11831677 1.296 4289702297
-0.021712627 -0.11977746 1.312 4288321414
-0.018332172 -0.12114688 1.327 4287663484
-0.014814279 -0.12205982 1.337 4287597693
-0.011233351 -0.12288146 1.3460001 4284702031
-0.0075975908 -0.12361182 1.3540001 4286412649
-0.0039152019 -0.12425087 1.3610001 4287925886
-0.00019410279 -0.12461604 1.365 4287267958
0.0035592415 -0.12534639 1.373 4286873198
0.0073669916 -0.12625933 1.383 4287992451
0.011261677 -0.12753744 1.3970001 4287926153
0.01543805 -0.13055015 1.4300001 4287729289
-0.31351182 -0.11937793 1.348 4278190080
-0.29925299 -0.1153042 1.302 4286611057
-0.29183185 -0.11379869 1.2850001 4286149475
-0.28697178 -0.11326733 1.279 4288057215
-0.28347433 -0.11326733 1.279 4289044108
-0.28041473 -0.11344445 1.281 4288122493
-0.27799267 -0.11388726 1.286 4287267439
-0.27575669 -0.1144186 1.2920001 4286741095
-0.27327719 -0.11486141 1.2970001 4286806888
-0.27077034 -0.1153042 1.302 4287135853
-0.26823619 -0.115747 1.307 4286346595
-0.26526967 -0.11601268 1.3100001 4285688665
-0.26268625 -0.11645547 1.3150001 4285228113
-0.25948441 -0.11663259 1.317 4285557078
-0.25627166 -0.11680971 1.319 4285491028
-0.25228173 -0.11663259 1.317 4285950807
-0.24773626 -0.11618979 1.312 4278190080
-0.24247378 -0.11539277 1.3030001 4290556317
-0.23671046 -0.11433005 1.291 4290358936
-0.23101278 -0.11326733 1.279 4290359960
-0.22680381 -0.1129131 1.2750001 4290228374
-0.22244154 -0.1124703 1.2700001 4290359706
-0.21879631 -0.11238175 1.2690001 4290030741
-0.21515653 -0.11229318 1.268 4290228120
-0.21202305 -0.1124703 1.2700001 4289899155
-0.2093713 -0.1129131 1.2750001 4289899157
-0.20669219 -0.1133559 1.2800001 4287793781
-0.20430323 -0.11397581 1.2870001 4286675300
-0.20140794 -0.11433005 1.291 4285820504
-0.19833751 -0.11459573 1.294 4286478434
-0.19464853 -0.11450717 1.2930001 4286938985
-0.190965 -0.1144186 1.2920001 4286610020
-0.18714188 -0.1142415 1.2900001 4286741352
-0.18375668 -0.11433005 1.291 4286280544
-0.18008684 -0.1142415 1.2900001 4286412130
-0.17683305 -0.1144186 1.2920001 4286675302
-0.1734342 -0.11450717 1.2930001 4288517506
-0.17016128 -0.11468428 1.2950001 4289635985
-0.16674875 -0.11477284 1.296 4290030743
-0.16320482 -0.11477284 1.296 4290359708
-0.1595377 -0.11468428 1.2950001 4288254843
-0.15503283 -0.11397581 1.2870001 4289504910
-0.15068944 -0.1133559 1.2800001 4290031256
-0.14649931 -0.11282454 1.274 4289439119
-0.14279103 -0.11264742 1.2720001 4289965463
-0.13942225 -0.11273599 1.273 4290359708
-0.13604802 -0.11282454 1.274 4290162329
-0.13256425 -0.11282454 1.274 4290227350
-0.12908047 -0.11282454 1.274 4290424729
-0.1256953 -0.1129131 1.2750001 4290293143
-0.1222088 -0.1129131 1.2750001 4290293145
-0.1187223 -0.1129131 1.2750001 4290424731
-0.11514542 -0.11282454 1.274 4290293915
-0.11166166 -0.11282454 1.274 4290162329
-0.1082628 -0.1129131 1.2750001 4290359708
-0.10461195 -0.11273599 1.273 4290425503
-0.1012898 -0.1129131 1.2750001 4290228124
-0.097649887 -0.11273599 1.273 4290162331
-0.094242826 -0.11282454 1.274 4290293915
-0.090687826 -0.11273599 1.273 4290293915
-0.087206796 -0.11273599 1.273 4290228122
-0.083791532 -0.11282454 1.274 4290293915
-0.080370806 -0.1129131 1.2750001 4290293915
-0.077004902 -0.11309022 1.2770001 4290425501
-0.073455371 -0.11300166 1.276 4290228124
-0.069911301 -0.1129131 1.2750001 4290162331
-0.066268511 -0.11264742 1.2720001 4290162331
-0.062790215 -0.11264742 1.2720001 4290096538
-0.059265286 -0.11255886 1.271 4290359708
-0.055877518 -0.11273599 1.273 4290425501
-0.052478805 -0.1129131 1.2750001 4290557600
-0.048992306 -0.1129131 1.2750001 4290491553
-0.045470111 -0.11282454 1.274 4290359967
-0.041986346 -0.11282454 1.274 4290162588
-0.038532805 -0.1129131 1.2750001 4290359710
-0.03510128 -0.11309022 1.2770001 4290359710
-0.031733073 -0.11353302 1.2820001 4290294175
-0.028447615 -0.1144186 1.2920001 4289767831
-0.0251846 -0.11565844 1.3060001 4287794300
-0.021828473 -0.11680971 1.319 4287268726
-0.018387431 -0.11787242 1.3310001 4287729279
-0.014836441 -0.11858089 1.3390001 4287466107
-0.011258388 -0.11946649 1.3490001 4284439629
-0.0076200357 -0.12026352 1.358 4286149477
-0.003923832 -0.12079488 1.3640001 4287662714
-0.00019467159 -0.12123767 1.3690001 4287531128
0.0035644262 -0.12176903 1.3750001 4287202163
0.0073723183 -0.12256607 1.3840001 4288123267
0.011253616 -0.12362878 1.396 4287926153
0.015394866 -0.12628555 1.4260001 4287926668
-0.31118605 -0.11483356 1.3380001 4287072384
-0.29879332 -0.11157221 1.3000001 4286479472
-0.29205897 -0.11037068 1.286 4286675821
-0.28786927 -0.1101132 1.2830001 4287465335
-0.28413925 -0.11002738 1.2820001 4287267956
-0.28085253 -0.1101132 1.2830001 4287136111
-0.27820882 -0.1104565 1.2870001 4287267439
-0.27575669 -0.11088562 1.2920001 4286806888
-0.27327719 -0.11131474 1.2970001 4286806888
-0.27077034 -0.11174387 1.302 4286806888
-0.26803094 -0.11208717 1.3060001 4286543716
-0.26506716 -0.11234464 1.309 4286214751
-0.26208696 -0.11260211 1.312 4285491028
-0.25909036 -0.11285959 1.3150001 4285162063
-0.25588307 -0.11303124 1.317 4278190080
-0.25151551 -0.11268794 1.3130001 4278190080
-0.24603686 -0.1118297 1.3030001 4290425501
-0.23931028 -0.11037068 1.286 4290491294
-0.23341008 -0.10925496 1.273 4290228120
-0.22830349 -0.10848253 1.2640001 4290359706
-0.22449128 -0.10831088 1.2620001 4290293913
-0.22104034 -0.10831088 1.2620001 4290228120
-0.2177618 -0.1083967 1.263 4290424731
-0.21464747 -0.10856836 1.2650001 4290096536
-0.21135528 -0.10865417 1.266 4289372815
-0.20887867 -0.10916913 1.2720001 4287267439
-0.20653071 -0.1097699 1.279 4286478434
-0.20414448 -0.11037068 1.286 4286675813
-0.20140794 -0.11079979 1.291 4286346848
-0.19803098 -0.11088562 1.2920001 4285820504
-0.19449799 -0.11088562 1.2920001 4286017883
-0.19081719 -0.11079979 1.291 4286478434
-0.18743202 -0.11088562 1.2920001 4286280801
-0.18418369 -0.11105727 1.294 4286214751
-0.18064524 -0.11105727 1.294 4286017372
-0.17710678 -0.11105727 1.294 4286411875
-0.1734342 -0.11097144 1.2930001 4288517251
-0.16989848 -0.11097144 1.2930001 4288846729
-0.16636275 -0.11097144 1.2930001 4289636244
-0.16257517 -0.11079979 1.291 4289767830
-0.15892173 -0.11071397 1.2900001 4286346848
-0.15443052 -0.11002738 1.2820001 4287596915
-0.15021853 -0.10951243 1.276 4288123005
-0.14615433 -0.1090833 1.271 4288715142
-0.14245427 -0.10891166 1.2690001 4289833623
-0.13887464 -0.10882583 1.268 4290293917
-0.13540728 -0.10882583 1.268 4290359708
-0.13183588 -0.10874 1.2670001 4290358936
-0.12837125 -0.10874 1.2670001 4290293143
-0.1250052 -0.10882583 1.268 4290293145
-0.12144201 -0.10874 1.2670001 4290293145
-0.11807049 -0.10882583 1.268 4290293145
-0.11469352 -0.10891166 1.2690001 4290162329
-0.11113577 -0.10882583 1.268 4290228122
-0.10758351 -0.10874 1.2670001 4290162329
-0.10395452 -0.10856836 1.2650001 4290359708
-0.10081315 -0.10891166 1.2690001 4290424731
-0.097343057 -0.10891166 1.2690001 4290358938
-0.093872964 -0.10891166 1.2690001 4290358938
-0.090260386 -0.10874 1.2670001 4290228122
-0.086727254 -0.10865417 1.266 4290293913
-0.083199598 -0.10856836 1.2650001 4290491292
-0.07967741 -0.10848253 1.2640001 4290293913
-0.076401889 -0.10874 1.2670001 4290359708
-0.073109969 -0.10899747 1.2700001 4290228122
-0.069637142 -0.10899747 1.2700001 4290359708
-0.066008024 -0.10874 1.2670001 4290293915
-0.062395304 -0.10848253 1.2640001 4290359708
-0.059032142 -0.10865417 1.266 4290096536
-0.055658039 -0.10882583 1.268 4290491292
-0.052231845 -0.10891166 1.2690001 4290425501
-0.048761752 -0.10891166 1.2690001 4290359708
-0.045184586 -0.10865417 1.266 4290228381
-0.041722696 -0.10865417 1.266 4290491553
-0.038351472 -0.10891166 1.2690001 4290425761
-0.035046306 -0.1094266 1.2750001 4290359968
-0.031782579 -0.11019902 1.284 4289636247
-0.028535688 -0.11122892 1.296 4288583559
-0.025300303 -0.11260211 1.312 4287465335
-0.02187812 -0.11346036 1.322 4287991679
-0.018401245 -0.11431862 1.332 4287795072
-0.014836441 -0.11491939 1.3390001 4287663486
-0.011258388 -0.11577763 1.3490001 4284834387
-0.0076088132 -0.1163784 1.3560001 4286346854
-0.0039209551 -0.11697919 1.363 4287596664
-0.00019467159 -0.11749413 1.3690001 4287662457
0.0035644262 -0.11800908 1.3750001 4287267699
0.0073723183 -0.11878151 1.3840001 4287859836
0.011245553 -0.11972558 1.3950001 4288188809
0.015362479 -0.12212867 1.4230001 4287926668
-0.31234893 -0.11159024 1.3430001 4278190080
-0.29971269 -0.10834971 1.304 4286610544
-0.2934216 -0.10735263 1.2920001 4286741612
-0.28899112 -0.10702027 1.2880001 4287399796
-0.28546908 -0.10702027 1.2880001 4287268210
-0.28194702 -0.10702027 1.2880001 4287201904
-0.27928966 -0.10735263 1.2920001 4286741352
-0.2766104 -0.10768499 1.296 4287070060
-0.27369857 -0.10793427 1.299 4286543716
-0.2709783 -0.10826663 1.3030001 4286609509
-0.26803094 -0.1085159 1.3060001 4286083165
-0.26567465 -0.10901444 1.312 4285556821
-0.26268625 -0.10926371 1.3150001 4285030735
-0.25948441 -0.10942989 1.317 4278190080
-0.25530019 -0.10918062 1.314 4278190080
-0.24979149 -0.10834971 1.304 4289372813
-0.24301569 -0.10693718 1.2870001 4290425760
-0.23614676 -0.10544156 1.2690001 4290557346
-0.23157655 -0.10494301 1.263 4290754725
-0.22740038 -0.10461066 1.2590001 4290623139
-0.22395763 -0.10461066 1.2590001 4290425503
-0.22016458 -0.10444447 1.2570001 4290228124
-0.21741699 -0.10477683 1.261 4289964952
-0.21430813 -0.10494301 1.263 4289438606
-0.21168916 -0.10535847 1.268 4287991419
-0.20904286 -0.10577393 1.273 4286938731
-0.20685367 -0.10643864 1.281 4286741606
-0.20462072 -0.10710336 1.289 4286346335
-0.20171997 -0.10743573 1.2930001 4285951579
-0.1984908 -0.1076019 1.2950001 4285819993
-0.19494961 -0.1076019 1.2950001 4285951579
-0.19140841 -0.1076019 1.2950001 4286412130
-0.18815736 -0.10776809 1.2970001 4286412130
-0.18461071 -0.10776809 1.2970001 4285885786
-0.18106404 -0.10776809 1.2970001 4286017372
-0.17738052 -0.10768499 1.296 4286017117
-0.17410487 -0.10785118 1.2980001 4286675047
-0.17029268 -0.10768499 1.296 4287465076
-0.16662009 -0.1076019 1.2950001 4288780935
-0.1627011 -0.10735263 1.2920001 4288320384
-0.15916812 -0.10735263 1.2920001 4286543973
-0.15491237 -0.1068541 1.286 4287004524
-0.15080716 -0.10643864 1.281 4287465076
-0.1466143 -0.1059401 1.2750001 4287530871
-0.14267877 -0.10560774 1.271 4289241487
-0.1386556 -0.10519228 1.266 4290228124
-0.13519371 -0.10519228 1.266 4290293917
-0.13162777 -0.1051092 1.2650001 4290424731
-0.12816861 -0.1051092 1.2650001 4290424731
-0.12451229 -0.10494301 1.263 4290424731
-0.12096275 -0.10485993 1.2620001 4290096536
-0.11760492 -0.10494301 1.263 4290228122
-0.11424161 -0.10502611 1.2640001 4290228122
-0.11069755 -0.10494301 1.263 4290293915
-0.10715894 -0.10485993 1.2620001 4290293915
-0.10370799 -0.10485993 1.2620001 4290293915
-0.10049537 -0.1051092 1.2650001 4290293915
-0.097036213 -0.1051092 1.2650001 4290293145
-0.093429118 -0.10494301 1.263 4290490524
-0.089904189 -0.10485993 1.2620001 4290359708
-0.086521745 -0.10494301 1.263 4290228120
-0.083068058 -0.10494301 1.263 4290293913
-0.0794883 -0.10477683 1.261 4290359706
-0.076040082 -0.10477683 1.261 4290359706
-0.072706997 -0.10494301 1.263 4290162842
-0.069253311 -0.10494301 1.263 4290294428
-0.065747529 -0.10485993 1.2620001 4290359706
-0.062247217 -0.10477683 1.261 4290293913
-0.058845628 -0.10485993 1.2620001 4290096534
-0.055394679 -0.10485993 1.2620001 4290359960
-0.051943727 -0.10485993 1.2620001 4290228120
-0.048531197 -0.10494301 1.263 4290162842
-0.04507751 -0.10494301 1.263 4290557347
-0.041623827 -0.10494301 1.263 4290557346
-0.038351472 -0.10544156 1.2690001 4290096796
-0.035128769 -0.10618936 1.2780001 4289241487
-0.031955849 -0.10726954 1.291 4288780938
-0.028733851 -0.10843281 1.3050001 4287859836
-0.025435291 -0.10959607 1.319 4287596410
-0.021993963 -0.11042698 1.3290001 4287663486
-0.018484134 -0.11117478 1.3380001 4288123267
-0.014891841 -0.11167333 1.3440001 4287729279
-0.011266734 -0.11217187 1.35 4285229145
-0.0076088132 -0.11267041 1.3560001 4286017889
-0.0039209551 -0.11325205 1.363 4287530869
-0.00019467159 -0.11375058 1.3690001 4287793530
0.0035670183 -0.11433222 1.376 4287267699
0.0073723183 -0.11499695 1.3840001 4288122754
0.011253616 -0.11599403 1.396 4288189579
-0.3144421 -0.10864099 1.3520001 4286743162
-0.29994252 -0.10486427 1.3050001 4286281580
-0.2934216 -0.10381965 1.2920001 4286478958
-0.28966424 -0.10373929 1.291 4287267956
-0.28569072 -0.10357858 1.289 4287267699
-0.28216594 -0.10357858 1.289 4287267697
-0.27907348 -0.10373929 1.291 4287399025
-0.27618355 -0.10398036 1.294 4287201646
-0.27327719 -0.10422143 1.2970001 4286871911
-0.27056238 -0.10454285 1.3010001 4286608739
-0.26803094 -0.10494463 1.3060001 4286542946
-0.26567465 -0.10542676 1.312 4286213981
-0.26288602 -0.10574819 1.3160001 4285227856
-0.25987849 -0.10598926 1.319 4278190080
-0.25510591 -0.10550711 1.3130001 4278190080
-0.24845056 -0.10422143 1.2970001 4287596661
-0.24112745 -0.10261431 1.2770001 4287399282
-0.23503023 -0.10148933 1.263 4288254591
-0.23102649 -0.10124826 1.2600001 4288913035
-0.22703914 -0.10100719 1.2570001 4289965723
-0.22342397 -0.10092685 1.256 4289570452
-0.21998943 -0.10092685 1.256 4288912522
-0.21707213 -0.10116791 1.2590001 4288715142
-0.21447781 -0.10156969 1.2640001 4287202157
-0.21185613 -0.10197147 1.2690001 4287070571
-0.20920709 -0.10237324 1.274 4286478180
-0.20685367 -0.10293574 1.281 4286280801
-0.20446196 -0.10349822 1.2880001 4286148958
-0.20156395 -0.10381965 1.2920001 4285753430
-0.19818425 -0.10390001 1.2930001 4285819223
-0.19464853 -0.10390001 1.2930001 4285753430
-0.19155622 -0.10414107 1.296 4286279774
-0.18830244 -0.10430179 1.2980001 4286477153
-0.18461071 -0.10422143 1.2970001 4286083163
-0.18078485 -0.10406071 1.2950001 4286148958
-0.17738052 -0.10414107 1.296 4285425235
-0.17410487 -0.10430179 1.2980001 4285556566
-0.17055547 -0.10430179 1.2980001 4286346082
-0.16674875 -0.10414107 1.296 4285951324
-0.16295296 -0.10398036 1.294 4286609509
-0.15929131 -0.10390001 1.2930001 4286477923
-0.15515329 -0.10349822 1.2880001 4286675302
-0.15104261 -0.10309644 1.2830001 4286609254
-0.1466143 -0.1024536 1.2750001 4288451458
-0.142342 -0.10189112 1.268 4289833111
-0.13799846 -0.10124826 1.2600001 4290227869
-0.13433941 -0.10108755 1.258 4290359710
-0.13089938 -0.10108755 1.258 4290162329
-0.12756069 -0.10116791 1.2590001 4290162329
-0.12382219 -0.10092685 1.256 4290293917
-0.12019596 -0.10076613 1.2540001 4290162331
-0.11676688 -0.10076613 1.2540001 4289899416
-0.11342818 -0.10084648 1.2550001 4289899416
-0.10999637 -0.10084648 1.2550001 4289504658
-0.10647965 -0.10076613 1.2540001 4289438865
-0.10305057 -0.10076613 1.2540001 4289701780
-0.099859834 -0.10100719 1.2570001 4289503376
-0.096575961 -0.10116791 1.2590001 4290096538
-0.092837319 -0.10084648 1.2550001 4290162329
-0.089334272 -0.10076613 1.2540001 4290359706
-0.085905202 -0.10076613 1.2540001 4290031254
-0.082673438 -0.10100719 1.2570001 4290162840
-0.079047047 -0.10076613 1.2540001 4290031256
-0.075617976 -0.10076613 1.2540001 4290097049
-0.072246462 -0.10084648 1.2550001 4290162842
-0.06881465 -0.10084648 1.2550001 4290228635
-0.065382846 -0.10084648 1.2550001 4290162840
-0.062049765 -0.10100719 1.2570001 4290426012
-0.058565855 -0.10092685 1.256 4290162327
-0.055087414 -0.10084648 1.2550001 4290359706
-0.051573288 -0.10068577 1.253 4290359708
-0.048262224 -0.10092685 1.256 4290096795
-0.044863369 -0.10100719 1.2570001 4290294175
-0.041557916 -0.10132861 1.261 4288715656
-0.038321253 -0.10189112 1.268 4287333492
-0.035156254 -0.10277502 1.279 4287596664
-0.03205486 -0.10406071 1.2950001 4287991422
-0.028821925 -0.10518569 1.309 4287925116
-0.025493139 -0.10623032 1.322 4287464824
-0.022010513 -0.10687316 1.33 4287728509
-0.018484134 -0.10751601 1.3380001 4287728509
-0.014880762 -0.10791779 1.3430001 4287795072
-0.011258388 -0.10839993 1.3490001 4286610798
-0.0075975908 -0.10880171 1.3540001 4285886303
-0.0039180783 -0.10944455 1.3620001 4287728250
-0.00019467159 -0.11000704 1.3690001 4287727996
0.0035670183 -0.11056954 1.376 4287465078
0.007377645 -0.11129273 1.3850001 4287728507
0.011261677 -0.11225701 1.3970001 4287794821
-0.31537241 -0.10525442 1.3560001 4286545529
-0.30109173 -0.10168385 1.3100001 4286742390
-0.29410294 -0.10051952 1.2950001 4286676337
-0.29033735 -0.10044191 1.294 4287465335
-0.28635564 -0.10028666 1.2920001 4287465335
-0.28304157 -0.10036428 1.2930001 4287399796
-0.27993816 -0.10051952 1.2950001 4286872938
-0.27682385 -0.10067477 1.2970001 4286806888
-0.27390927 -0.10090763 1.3000001 4286806118
-0.2709783 -0.1011405 1.3030001 4286345567
-0.26864663 -0.10160622 1.309 4286411360
-0.26587716 -0.10191671 1.3130001 4285819223
-0.26348531 -0.10238244 1.319 4285425235
-0.26046959 -0.1026153 1.322 4278190080
-0.25549451 -0.10207196 1.3150001 4286017629
-0.24845056 -0.10067477 1.2970001 4287530869
-0.24112745 -0.099122345 1.2770001 4287530869
-0.23558851 -0.098268509 1.266 4287465589
-0.23175991 -0.098113269 1.2640001 4287201906
-0.22794224 -0.097958021 1.2620001 4287136370
-0.22431341 -0.097880401 1.261 4287137140
-0.22069004 -0.097802788 1.2600001 4287662455
-0.2177618 -0.098035648 1.263 4287399025
-0.21515653 -0.098423757 1.268 4286938985
-0.21285781 -0.098967098 1.2750001 4286346848
-0.21002814 -0.099277586 1.279 4286281055
-0.20733811 -0.099665694 1.284 4286675300
-0.20462072 -0.1000538 1.289 4286280544
-0.20187597 -0.10044191 1.294 4285819221
-0.19864406 -0.10059714 1.296 4286016600
-0.19540124 -0.10075239 1.2980001 4286016600
-0.19199963 -0.10083002 1.299 4286016602
-0.18859258 -0.10090763 1.3000001 4286279772
-0.18475305 -0.10075239 1.2980001 4286148956
-0.18106404 -0.10067477 1.2970001 4286017372
-0.17779112 -0.10083002 1.299 4285754200
-0.1746414 -0.10106288 1.302 4285622614
-0.17108107 -0.10106288 1.302 4285885786
-0.16739208 -0.10098525 1.3010001 4286675302
-0.16345669 -0.10075239 1.2980001 4286609509
-0.15966091 -0.10059714 1.296 4286806116
-0.15527375 -0.1000538 1.289 4286542946
-0.15080716 -0.099432833 1.281 4288648322
-0.14626934 -0.098734237 1.2720001 4290359710
-0.1415562 -0.097880401 1.261 4290228122
-0.13712227 -0.097181819 1.2520001 4290293915
-0.13359189 -0.097104192 1.251 4290228122
-0.13037913 -0.097259432 1.253 4290426014
-0.12695278 -0.097259432 1.253 4290228381
-0.12323069 -0.097026572 1.25 4290491553
-0.119525 -0.096793711 1.2470001 4290031002
-0.1163013 -0.096948944 1.2490001 4289636245
