# .PCD v0.7 - Point Cloud Data file format
VERSION 0.7
FIELDS x y z rgba
SIZE 4 4 4 4
TYPE F F F U
COUNT 1 1 1 1
WIDTH 1055
HEIGHT 1
VIEWPOINT 0 0 0 1 0 0 0
POINTS 1055
DATA ascii
-0.10517482 -0.018575685 1.3640001 4291414211
-0.1040673 -0.018589305 1.365 4291480259
-0.10288269 -0.018589305 1.365 4291546051
-0.10169808 -0.018589305 1.365 4291611844
-0.1005871 -0.018602923 1.3660001 4291677637
-0.099328846 -0.018589305 1.365 4291677383
-0.098144233 -0.018589305 1.365 4291677383
-0.097030655 -0.018602923 1.3660001 4291611845
-0.09584517 -0.018602923 1.3660001 4291677637
-0.094728991 -0.01861654 1.3670001 4291743432
-0.093816362 -0.018671015 1.3710001 4291743433
-0.092694096 -0.018684633 1.3720001 4291809227
-0.091503404 -0.018684633 1.3720001 4291809483
-0.11744121 -0.017463939 1.3690001 4291612363
-0.1161682 -0.017451184 1.368 4291612106
-0.11464479 -0.017400155 1.3640001 4291677641
-0.11337785 -0.017387399 1.363 4291677383
-0.11219498 -0.017387399 1.363 4291611332
-0.11093065 -0.017374642 1.3620001 4291545538
-0.10982922 -0.017387399 1.363 4291611330
-0.10864634 -0.017387399 1.363 4291676866
-0.10746346 -0.017387399 1.363 4291742659
-0.10635857 -0.017400155 1.3640001 4291676866
-0.10517482 -0.017400155 1.3640001 4291611073
-0.10399107 -0.017400155 1.3640001 4291676864
-0.10288269 -0.017412914 1.365 4291676864
-0.10169808 -0.017412914 1.365 4291808449
-0.10051347 -0.017412914 1.365 4291808450
-0.099328846 -0.017412914 1.365 4291808451
-0.098072343 -0.017400155 1.3640001 4291808452
-0.096959621 -0.017412914 1.365 4291677122
-0.09584517 -0.017425669 1.3660001 4291479743
-0.094590396 -0.017412914 1.365 4291546051
-0.093679495 -0.017463939 1.3690001 4291677637
-0.092558973 -0.017476697 1.3700001 4291677639
-0.091436714 -0.017489452 1.3710001 4291677640
-0.11726964 -0.016260311 1.3670001 4291480775
-0.11599837 -0.016248416 1.3660001 4291546055
-0.11456074 -0.016212732 1.363 4291611590
-0.11329467 -0.016200837 1.3620001 4291611589
-0.11211266 -0.016200837 1.3620001 4291545795
-0.11084921 -0.016188942 1.3610001 4291611074
-0.10974864 -0.016200837 1.3620001 4291676866
-0.10856663 -0.016200837 1.3620001 4291676867
-0.10746346 -0.016212732 1.363 4291742659
-0.10628059 -0.016212732 1.363 4291742402
-0.1050977 -0.016212732 1.363 4291676865
-0.10391483 -0.016212732 1.363 4291676863
-0.10280732 -0.016224626 1.3640001 4291742912
-0.10162358 -0.016224626 1.3640001 4291874241
-0.10043983 -0.016224626 1.3640001 4291874498
-0.099256083 -0.016224626 1.3640001 4291808452
-0.098072343 -0.016224626 1.3640001 4291808196
-0.09681756 -0.016212732 1.363 4291676865
-0.095704846 -0.016224626 1.3640001 4291479486
-0.094521098 -0.016224626 1.3640001 4291479743
-0.093542643 -0.016260311 1.3670001 4291611329
-0.092491411 -0.016284101 1.3690001 4291480258
-0.091370024 -0.016295996 1.3700001 4291546051
-0.12456973 -0.015104261 1.3690001 4292533725
-0.12329151 -0.01509323 1.368 4292401624
-0.12210429 -0.01509323 1.368 4292204243
-0.1207403 -0.015071162 1.3660001 4292072399
-0.11946729 -0.015060131 1.365 4291874763
-0.11819603 -0.015049096 1.3640001 4291677383
-0.11684071 -0.01502703 1.3620001 4291546054
-0.11557378 -0.015015997 1.3610001 4291676869
-0.11430859 -0.015004965 1.36 4291676611
-0.11304513 -0.014993931 1.3590001 4291676867
-0.11186571 -0.014993931 1.3590001 4291676865
-0.11068631 -0.014993931 1.3590001 4291676607
-0.10958748 -0.015004965 1.36 4291676864
-0.10840721 -0.015004965 1.36 4291742400
-0.10730578 -0.015015997 1.3610001 4291808193
-0.10612464 -0.015015997 1.3610001 4291742400
-0.10494349 -0.015015997 1.3610001 4291742400
-0.10383859 -0.01502703 1.3620001 4291742655
-0.10265657 -0.01502703 1.3620001 4291808448
-0.10154907 -0.015038065 1.363 4291873984
-0.10036619 -0.015038065 1.363 4291873984
-0.099110544 -0.01502703 1.3620001 4291808449
-0.097856641 -0.015015997 1.3610001 4291808193
-0.096675493 -0.015015997 1.3610001 4291611072
-0.095564514 -0.01502703 1.3620001 4291545279
-0.094382502 -0.01502703 1.3620001 4291611072
-0.093405776 -0.015060131 1.365 4291545279
-0.092288725 -0.015071162 1.3660001 4291611074
-0.091169938 -0.015082196 1.3670001 4291611074
-0.090312719 -0.015137361 1.3720001 4291545797
-0.08925195 -0.015159427 1.3740001 4291677383
-0.088187702 -0.015181493 1.376 4291743436
-0.12447873 -0.013914252 1.368 4292138708
-0.12329151 -0.013914252 1.368 4292006608
-0.12201504 -0.013904081 1.3670001 4291875020
-0.1206519 -0.013883739 1.365 4291808969
-0.11937977 -0.013873567 1.3640001 4291677383
-0.11793607 -0.013843054 1.3610001 4291742918
-0.11675492 -0.013843054 1.3610001 4291742661
-0.11557378 -0.013843054 1.3610001 4291676867
-0.11430859 -0.013832883 1.36 4291676610
-0.11304513 -0.013822711 1.3590001 4291742402
-0.11186571 -0.013822711 1.3590001 4291742401
-0.11068631 -0.013822711 1.3590001 4291676607
-0.10950691 -0.013822711 1.3590001 4291742399
-0.10840721 -0.013832883 1.36 4291808193
-0.10730578 -0.013843054 1.3610001 4291939779
-0.10612464 -0.013843054 1.3610001 4291873985
-0.10494349 -0.013843054 1.3610001 4291742399
-0.10383859 -0.013853225 1.3620001 4291808191
-0.10265657 -0.013853225 1.3620001 4291808191
-0.10140007 -0.013843054 1.3610001 4291808191
-0.10021892 -0.013843054 1.3610001 4291808191
-0.099037781 -0.013843054 1.3610001 4291742655
-0.097856641 -0.013843054 1.3610001 4291677119
-0.096675493 -0.013843054 1.3610001 4291479741
-0.095564514 -0.013853225 1.3620001 4291413947
-0.094382502 -0.013853225 1.3620001 4291479486
-0.093337357 -0.013873567 1.3640001 4291676865
-0.092221163 -0.013883739 1.365 4291742659
-0.091103248 -0.01389391 1.3660001 4291742660
-0.090246893 -0.013944766 1.3710001 4291677382
-0.089186989 -0.013965108 1.373 4291611590
-0.088059522 -0.013975279 1.3740001 4291743436
-0.12438773 -0.012725966 1.3670001 4291940813
-0.12320139 -0.012725966 1.3670001 4291874763
-0.12192579 -0.012716657 1.3660001 4291808712
-0.12056351 -0.012698038 1.3640001 4291742662
-0.11929225 -0.012688728 1.363 4291676868
-0.11793607 -0.012670109 1.3610001 4291676867
-0.11675492 -0.012670109 1.3610001 4291742658
-0.11557378 -0.012670109 1.3610001 4291742401
-0.11422453 -0.01265149 1.3590001 4291742400
-0.11304513 -0.01265149 1.3590001 4291742400
-0.11178341 -0.012642181 1.358 4291742399
-0.11060487 -0.012642181 1.358 4291676605
-0.10950691 -0.01265149 1.3590001 4291742398
-0.10840721 -0.0126608 1.36 4291808192
-0.10730578 -0.012670109 1.3610001 4291873985
-0.10612464 -0.012670109 1.3610001 4291808191
-0.10494349 -0.012670109 1.3610001 4291676606
-0.10368611 -0.0126608 1.36 4291676605
-0.10258121 -0.012670109 1.3610001 4291742398
-0.10140007 -0.012670109 1.3610001 4291742398
-0.10021892 -0.012670109 1.3610001 4291742398
-0.099037781 -0.012670109 1.3610001 4291742398
-0.097856641 -0.012670109 1.3610001 4291742398
-0.096675493 -0.012670109 1.3610001 4291479227
-0.095494352 -0.012670109 1.3610001 4291413434
-0.094382502 -0.012679419 1.3620001 4291413436
-0.093337357 -0.012698038 1.3640001 4291610815
-0.092221163 -0.012707347 1.365 4291742659
-0.091103248 -0.012716657 1.3660001 4291808453
-0.090181068 -0.012753895 1.3700001 4291743175
-0.089122027 -0.012772513 1.3720001 4291743176
-0.088059522 -0.012791132 1.3740001 4291743690
-0.12841478 -0.011590089 1.3720001 4292467416
-0.12703863 -0.011573194 1.3700001 4291940815
-0.12575781 -0.011564746 1.3690001 4291743178
-0.12420575 -0.011530956 1.365 4291743177
-0.12293101 -0.011522507 1.3640001 4291808712
-0.12165801 -0.01151406 1.363 4291808455
-0.12029835 -0.011497165 1.3610001 4291676868
-0.11902969 -0.011488718 1.36 4291676867
-0.11776275 -0.01148027 1.3590001 4291676866
-0.11658335 -0.01148027 1.3590001 4291676865
-0.11540394 -0.01148027 1.3590001 4291742400
-0.11422453 -0.01148027 1.3590001 4291742399
-0.11296195 -0.011471822 1.358 4291742399
-0.11178341 -0.011471822 1.358 4291676606
-0.11060487 -0.011471822 1.358 4291610812
-0.10942633 -0.011471822 1.358 4291676605
-0.10824779 -0.011471822 1.358 4291742398
-0.10714809 -0.01148027 1.3590001 4291742398
-0.10589071 -0.011471822 1.358 4291610812
-0.10471217 -0.011471822 1.358 4291545019
-0.10360987 -0.01148027 1.3590001 4291545019
-0.10243046 -0.01148027 1.3590001 4291610812
-0.10125105 -0.01148027 1.3590001 4291479226
-0.10014529 -0.011488718 1.36 4291479226
-0.098965012 -0.011488718 1.36 4291545019
-0.097784735 -0.011488718 1.36 4291610812
-0.096604459 -0.011488718 1.36 4291545020
-0.095424183 -0.011488718 1.36 4291413434
-0.094243914 -0.011488718 1.36 4291347643
-0.09320049 -0.011505613 1.3620001 4291413436
-0.092086047 -0.01151406 1.363 4291545281
-0.08998359 -0.01154785 1.3670001 4291611588
-0.088927157 -0.011564746 1.3690001 4291611844
-0.087803163 -0.011573194 1.3700001 4291612104
-0.086993538 -0.011623879 1.376 4291546311
-0.085986443 -0.011649222 1.3790001 4291678155
-0.08491265 -0.011666116 1.381 4291743949
-0.12822758 -0.010392493 1.3700001 4292006607
-0.1269459 -0.010384907 1.3690001 4291677384
-0.12557408 -0.010369736 1.3670001 4291545540
-0.12411476 -0.010346978 1.3640001 4291545539
-0.12284089 -0.010339392 1.363 4291676867
-0.12156875 -0.010331807 1.3620001 4291676866
-0.12012157 -0.010309049 1.3590001 4291676608
-0.11894216 -0.010309049 1.3590001 4291676864
-0.11776275 -0.010309049 1.3590001 4291807936
-0.11658335 -0.010309049 1.3590001 4291807680
-0.11540394 -0.010309049 1.3590001 4291742143
-0.11414049 -0.010301463 1.358 4291676606
-0.11296195 -0.010301463 1.358 4291676605
-0.11178341 -0.010301463 1.358 4291610812
-0.11060487 -0.010301463 1.358 4291610812
-0.10934575 -0.010293878 1.3570001 4291610812
-0.10816807 -0.010293878 1.3570001 4291610812
-0.10706925 -0.010301463 1.358 4291545019
-0.10589071 -0.010301463 1.358 4291479226
-0.10471217 -0.010301463 1.358 4291413433
-0.10353363 -0.010301463 1.358 4291545019
-0.10235509 -0.010301463 1.358 4291479226
-0.10125105 -0.010309049 1.3590001 4291413433
-0.10007165 -0.010309049 1.3590001 4291347640
-0.098892242 -0.010309049 1.3590001 4291413433
-0.09771283 -0.010309049 1.3590001 4291545019
-0.096533425 -0.010309049 1.3590001 4291545020
-0.095424183 -0.010316635 1.36 4291413434
-0.09320049 -0.010331807 1.3620001 4291347641
-0.092086047 -0.010339392 1.363 4291413693
-0.08998359 -0.010369736 1.3670001 4291480001
-0.088862196 -0.010377321 1.368 4291480258
-0.086930312 -0.010430422 1.3750001 4291546310
-0.085924082 -0.010453179 1.378 4291612362
-0.084851168 -0.010468351 1.3800001 4291612363
-0.12804037 -0.0091983443 1.368 4291677641
-0.12676044 -0.0091916202 1.3670001 4291545797
-0.12548223 -0.0091848969 1.3660001 4291414209
-0.12402377 -0.0091647245 1.363 4291348416
-0.12275076 -0.0091580003 1.3620001 4291479743
-0.12147949 -0.0091512771 1.3610001 4291545279
-0.12012157 -0.0091378288 1.3590001 4291610815
-0.11885464 -0.0091311047 1.358 4291676607
-0.1176761 -0.0091311047 1.358 4291742143
-0.11649756 -0.0091311047 1.358 4291742142
-0.11531902 -0.0091311047 1.358 4291742142
-0.11414049 -0.0091311047 1.358 4291741885
-0.11296195 -0.0091311047 1.358 4291676348
-0.11161877 -0.0091176573 1.3560001 4291676091
-0.11044197 -0.0091176573 1.3560001 4291676091
-0.10934575 -0.0091243815 1.3570001 4291610555
-0.10816807 -0.0091243815 1.3570001 4291544762
-0.1069904 -0.0091243815 1.3570001 4291479226
-0.10581274 -0.0091243815 1.3570001 4291479226
-0.10463506 -0.0091243815 1.3570001 4291479226
-0.10345739 -0.0091243815 1.3570001 4291545019
-0.10235509 -0.0091311047 1.358 4291545019
-0.10117655 -0.0091311047 1.358 4291413433
-0.10007165 -0.0091378288 1.3590001 4291347640
-0.098892242 -0.0091378288 1.3590001 4291413433
-0.09771283 -0.0091378288 1.3590001 4291545019
-0.096533425 -0.0091378288 1.3590001 4291479227
-0.095354021 -0.0091378288 1.3590001 4291347641
-0.094313212 -0.0091512771 1.3610001 4291281848
-0.09320049 -0.0091580003 1.3620001 4291347641
-0.092086047 -0.0091647245 1.363 4291347900
-0.091036551 -0.0091781728 1.365 4291413693
-0.08998359 -0.0091916202 1.3670001 4291479488
-0.088862196 -0.0091983443 1.368 4291545281
-0.086803876 -0.0092319641 1.373 4291480004
-0.085799381 -0.0092521356 1.376 4291546311
-0.084789678 -0.0092723081 1.3790001 4291546312
-0.13495584 -0.0080779884 1.378 4292401879
-0.13346873 -0.0080604022 1.3750001 4292203986
-0.13169824 -0.008025229 1.3690001 4291875021
-0.13041481 -0.0080193672 1.368 4291743176
-0.12913314 -0.0080135055 1.3670001 4291677381
-0.127666 -0.0079959184 1.3640001 4291611331
-0.12638952 -0.0079900566 1.363 4291545280
-0.12511478 -0.0079841949 1.3620001 4291479485
-0.12375079 -0.0079724705 1.36 4291413692
-0.12257051 -0.0079724705 1.36 4291545020
-0.12121172 -0.0079607461 1.358 4291610556
-0.12003318 -0.0079607461 1.358 4291676349
-0.11885464 -0.0079607461 1.358 4291741885
-0.1176761 -0.0079607461 1.358 4291676348
-0.11649756 -0.0079607461 1.358 4291676348
-0.11531902 -0.0079607461 1.358 4291676348
-0.11414049 -0.0079607461 1.358 4291676091
-0.11287876 -0.0079548843 1.3570001 4291610298
-0.11170109 -0.0079548843 1.3570001 4291610298
-0.11052342 -0.0079548843 1.3570001 4291610298
-0.10934575 -0.0079548843 1.3570001 4291610298
-0.10816807 -0.0079548843 1.3570001 4291479224
-0.1069904 -0.0079548843 1.3570001 4291479480
-0.10581274 -0.0079548843 1.3570001 4291545017
-0.10463506 -0.0079548843 1.3570001 4291545273
-0.10345739 -0.0079548843 1.3570001 4291545019
-0.10227972 -0.0079548843 1.3570001 4291479226
-0.10110205 -0.0079548843 1.3570001 4291413433
-0.099998012 -0.0079607461 1.358 4291347640
-0.098819479 -0.0079607461 1.358 4291347640
-0.097640939 -0.0079607461 1.358 4291479226
-0.096462399 -0.0079607461 1.358 4291413433
-0.095283858 -0.0079607461 1.358 4291347641
-0.094243914 -0.0079724705 1.36 4291281848
-0.093063638 -0.0079724705 1.36 4291216055
-0.091950923 -0.0079783332 1.3610001 4291281850
-0.090969861 -0.0079959184 1.3640001 4291413436
-0.089851938 -0.0080017811 1.365 4291479487
-0.08873228 -0.0080076437 1.3660001 4291479488
-0.087867253 -0.0080369534 1.3710001 4291216830
-0.085612319 -0.0080486778 1.373 4291348675
-0.084543727 -0.0080604022 1.3750001 4291348932
-0.08371415 -0.0080955746 1.381 4291151812
-0.082635157 -0.0081072999 1.383 4291020226
-0.081552684 -0.0081190234 1.3850001 4290691777
-0.080582775 -0.0081424722 1.3890001 4291086535
-0.19424687 -0.0073704203 1.4740001 4293126376
-0.19322948 -0.0073804213 1.4760001 4292994790
-0.19207859 -0.0073854215 1.4770001 4292994791
-0.19066758 -0.0073804213 1.4760001 4293060840
-0.18913002 -0.0073704203 1.4740001 4293192170
-0.18759593 -0.0073604202 1.4720001 4293192170
-0.13456409 -0.0068703922 1.3740001 4292006863
-0.1332746 -0.006865392 1.373 4291875276
-0.13160203 -0.0068403902 1.368 4291677897
-0.13031949 -0.0068353903 1.3670001 4291545797
-0.12903868 -0.0068303901 1.3660001 4291479747
-0.1275724 -0.0068153888 1.363 4291479745
-0.12638952 -0.0068153888 1.363 4291479487
-0.12511478 -0.006810389 1.3620001 4291479486
-0.12375079 -0.006800388 1.36 4291479485
-0.12248038 -0.0067953882 1.3590001 4291545021
-0.12121172 -0.0067903874 1.358 4291610812
-0.12003318 -0.0067903874 1.358 4291610813
-0.11885464 -0.0067903874 1.358 4291676349
-0.1176761 -0.0067903874 1.358 4291545020
-0.11649756 -0.0067903874 1.358 4291478970
-0.1152341 -0.0067853876 1.3570001 4291478712
-0.11405642 -0.0067853876 1.3570001 4291478712
-0.11287876 -0.0067853876 1.3570001 4291478712
-0.11170109 -0.0067853876 1.3570001 4291478712
-0.11052342 -0.0067853876 1.3570001 4291544504
-0.10934575 -0.0067853876 1.3570001 4291544504
-0.10816807 -0.0067853876 1.3570001 4291479223
-0.1069904 -0.0067853876 1.3570001 4291413687
-0.10581274 -0.0067853876 1.3570001 4291479480
-0.10463506 -0.0067853876 1.3570001 4291479480
-0.10345739 -0.0067853876 1.3570001 4291479226
-0.10227972 -0.0067853876 1.3570001 4291413433
-0.10110205 -0.0067853876 1.3570001 4291413433
-0.099924378 -0.0067853876 1.3570001 4291347640
-0.098746702 -0.0067853876 1.3570001 4291347640
-0.097569034 -0.0067853876 1.3570001 4291347640
-0.096462399 -0.0067903874 1.358 4291281848
-0.095283858 -0.0067903874 1.358 4291281848
-0.094174609 -0.0067953882 1.3590001 4291281848
-0.093063638 -0.006800388 1.36 4291216055
-0.091950923 -0.0068053883 1.3610001 4291216057
-0.090969861 -0.0068203895 1.3640001 4291281850
-0.089851938 -0.0068253893 1.365 4291347902
-0.08873228 -0.0068303901 1.3660001 4291413695
-0.087867253 -0.0068553914 1.3710001 4291217086
-0.085612319 -0.006865392 1.373 4291283138
-0.083774768 -0.0069103944 1.3820001 4291086019
-0.082694903 -0.0069203954 1.3840001 4290888640
-0.081611566 -0.0069303955 1.386 4290757056
-0.080640785 -0.0069503966 1.3900001 4290757570
-0.2084595 -0.0061042286 1.475 4293455344
-0.20703897 -0.0061000902 1.4740001 4293389551
-0.20575975 -0.0061000902 1.4740001 4293389808
-0.20434181 -0.0060959519 1.473 4293455344
-0.20292562 -0.0060918136 1.4720001 4293389807
-0.20164815 -0.0060918136 1.4720001 4293323758
-0.20023455 -0.0060876752 1.4710001 4293323756
-0.19895795 -0.0060876752 1.4710001 4293389293
-0.19768134 -0.0060876752 1.4710001 4293191913
-0.1961377 -0.0060793981 1.4690001 4292994534
-0.19486283 -0.0060793981 1.4690001 4292665824
-0.19345617 -0.0060752593 1.4680001 4292402395
-0.19192034 -0.0060669826 1.4660001 4292270552
-0.19051804 -0.0060628443 1.465 4292270553
-0.18924664 -0.0060628443 1.465 4292467931
-0.18784691 -0.0060587055 1.4640001 4292599517
-0.18644895 -0.0060545672 1.4630001 4292599516
-0.18530585 -0.0060587055 1.4640001 4292467931
-0.18403532 -0.0060587055 1.4640001 4292336602
-0.18276478 -0.0060587055 1.4640001 4292336602
-0.18174221 -0.0060669826 1.4660001 4292534237
-0.18046995 -0.0060669826 1.4660001 4292862946
-0.17919767 -0.0060669826 1.4660001 4293126119
-0.17780404 -0.0060628443 1.465 4293257705
-0.17629164 -0.0060545672 1.4630001 4293323242
-0.13446616 -0.0056821061 1.373 4291874506
-0.13308045 -0.005673829 1.3710001 4291808711
-0.13150583 -0.0056572752 1.3670001 4291677124
-0.13022415 -0.0056531369 1.3660001 4291545281
-0.1289442 -0.0056489981 1.365 4291479487
-0.1275724 -0.0056407209 1.363 4291479486
-0.12629679 -0.0056365826 1.3620001 4291479485
-0.12511478 -0.0056365826 1.3620001 4291544764
-0.12375079 -0.005628306 1.36 4291610556
-0.12248038 -0.0056241676 1.3590001 4291610555
-0.12121172 -0.0056200288 1.358 4291610555
-0.12003318 -0.0056200288 1.358 4291610555
-0.11885464 -0.0056200288 1.358 4291610555
-0.11758944 -0.0056158905 1.3570001 4291544762
-0.11649756 -0.0056200288 1.358 4291413176
-0.11531902 -0.0056200288 1.358 4291347126
-0.11405642 -0.0056158905 1.3570001 4291347126
-0.11287876 -0.0056158905 1.3570001 4291347126
-0.11170109 -0.0056158905 1.3570001 4291347126
-0.11052342 -0.0056158905 1.3570001 4291478710
-0.10934575 -0.0056158905 1.3570001 4291478710
-0.10816807 -0.0056158905 1.3570001 4291413430
-0.1069904 -0.0056158905 1.3570001 4291347894
-0.10581274 -0.0056158905 1.3570001 4291347894
-0.10463506 -0.0056158905 1.3570001 4291479480
-0.10345739 -0.0056158905 1.3570001 4291479226
-0.10227972 -0.0056158905 1.3570001 4291413433
-0.10110205 -0.0056158905 1.3570001 4291413433
-0.099924378 -0.0056158905 1.3570001 4291347640
-0.098746702 -0.0056158905 1.3570001 4291281847
-0.097569034 -0.0056158905 1.3570001 4291347640
-0.096462399 -0.0056200288 1.358 4291216055
-0.095283858 -0.0056200288 1.358 4291150262
-0.094174609 -0.0056241676 1.3590001 4291216055
-0.093063638 -0.005628306 1.36 4291216055
-0.091883361 -0.005628306 1.36 4291150264
-0.090903163 -0.0056407209 1.363 4291150264
-0.089786112 -0.0056448597 1.3640001 4291150523
-0.088667326 -0.0056489981 1.365 4291216316
-0.087803163 -0.0056696902 1.3700001 4291282622
-0.08674065 -0.0056779673 1.3720001 4291282879
-0.085674673 -0.0056862445 1.3740001 4291283138
-0.08371415 -0.0057152133 1.381 4291019969
-0.082694903 -0.0057276292 1.3840001 4290691261
-0.081670448 -0.0057400442 1.3870001 4290691263
-0.080698796 -0.0057565984 1.391 4290625727
-0.20775285 -0.0048166532 1.47 4293323757
-0.20647712 -0.0048166532 1.47 4293126635
-0.20506179 -0.0048133768 1.4690001 4293126633
-0.20378692 -0.0048133768 1.4690001 4293060840
-0.20251204 -0.0048133768 1.4690001 4292929254
-0.20110019 -0.0048101 1.4680001 4292797668
-0.1998262 -0.0048101 1.4680001 4292797153
-0.19855219 -0.0048101 1.4680001 4292599774
-0.19714379 -0.0048068236 1.4670001 4292336602
-0.19587065 -0.0048068236 1.4670001 4292007637
-0.19433223 -0.0048002703 1.465 4291941841
-0.19292904 -0.0047969935 1.4640001 4291810255
-0.19152761 -0.0047937171 1.4630001 4291743949
-0.19025794 -0.0047937171 1.4630001 4291678156
-0.18885911 -0.0047904407 1.462 4291875534
-0.18746199 -0.0047871638 1.4610001 4292007119
-0.18619406 -0.0047871638 1.4610001 4292007119
-0.18492612 -0.0047871638 1.4610001 4291875533
-0.1836582 -0.0047871638 1.4610001 4291678156
-0.18239027 -0.0047871638 1.4610001 4291612363
-0.18137029 -0.0047937171 1.4630001 4291678156
-0.18010063 -0.0047937171 1.4630001 4291941328
-0.17870873 -0.0047904407 1.462 4292138708
-0.17731856 -0.0047871638 1.4610001 4292336087
-0.17593014 -0.004783887 1.46 4292533467
-0.13844298 -0.0045119263 1.3770001 4291875277
-0.13704862 -0.0045053731 1.3750001 4291677897
-0.13516368 -0.0044824365 1.368 4291677383
-0.13387853 -0.0044791601 1.3670001 4291742662
-0.13269219 -0.0044791601 1.3670001 4291676868
-0.13121724 -0.00446933 1.3640001 4291545281
-0.13003349 -0.00446933 1.3640001 4291479487
-0.12875529 -0.0044660531 1.363 4291479486
-0.1273852 -0.0044594998 1.3610001 4291545021
-0.12620406 -0.0044594998 1.3610001 4291545020
-0.12493107 -0.0044562235 1.36 4291479226
-0.12365979 -0.0044529471 1.3590001 4291478970
-0.12248038 -0.0044529471 1.3590001 4291413433
-0.12121172 -0.0044496702 1.358 4291413176
-0.11994478 -0.0044463938 1.3570001 4291347640
-0.11876711 -0.0044463938 1.3570001 4291413176
-0.11758944 -0.0044463938 1.3570001 4291413176
-0.11641177 -0.0044463938 1.3570001 4291347640
-0.11531902 -0.0044496702 1.358 4291347126
-0.11405642 -0.0044463938 1.3570001 4291347126
-0.11287876 -0.0044463938 1.3570001 4291281332
-0.11170109 -0.0044463938 1.3570001 4291281332
-0.11052342 -0.0044463938 1.3570001 4291347124
-0.10934575 -0.0044463938 1.3570001 4291412917
-0.10816807 -0.0044463938 1.3570001 4291347637
-0.1069904 -0.0044463938 1.3570001 4291216308
-0.10581274 -0.0044463938 1.3570001 4291347894
-0.10463506 -0.0044463938 1.3570001 4291479480
-0.10345739 -0.0044463938 1.3570001 4291479226
-0.10220435 -0.004443117 1.3560001 4291413433
-0.10102754 -0.004443117 1.3560001 4291347640
-0.099850737 -0.004443117 1.3560001 4291281847
-0.098673932 -0.004443117 1.3560001 4291281847
-0.097569034 -0.0044463938 1.3570001 4291281847
-0.096391365 -0.0044463938 1.3570001 4291084469
-0.095213689 -0.0044463938 1.3570001 4291018676
-0.094105318 -0.0044496702 1.358 4291018678
-0.092926778 -0.0044496702 1.358 4291150264
-0.091748238 -0.0044496702 1.358 4291150264
-0.090703085 -0.0044562235 1.36 4291084471
-0.089588642 -0.0044594998 1.3610001 4291018937
-0.088472448 -0.0044627767 1.3620001 4291150523
-0.087546803 -0.0044758837 1.3660001 4291151036
-0.086487763 -0.0044824365 1.368 4291282879
-0.085362896 -0.0044857133 1.3690001 4291216831
-0.20718755 -0.0035401108 1.4660001 4292928996
-0.20591527 -0.0035401108 1.4660001 4292666081
-0.20450342 -0.0035376963 1.465 4292468702
-0.20323202 -0.0035376963 1.465 4292337116
-0.20196062 -0.0035376963 1.465 4292271322
-0.20068923 -0.0035376963 1.465 4292205272
-0.19941783 -0.0035376963 1.465 4292138965
-0.19814643 -0.0035376963 1.465 4291941842
-0.19660625 -0.0035328665 1.4630001 4291744206
-0.1953366 -0.0035328665 1.4630001 4291612620
-0.19393428 -0.003530452 1.462 4291678155
-0.19253369 -0.0035280369 1.4610001 4291678155
-0.19126576 -0.0035280369 1.4610001 4291546569
-0.18986779 -0.0035256222 1.46 4291546312
-0.18847156 -0.0035232075 1.4590001 4291612104
-0.18720537 -0.0035232075 1.4590001 4291677897
-0.18581173 -0.0035207926 1.4580001 4291612104
-0.1845464 -0.0035207926 1.4580001 4291611848
-0.18328108 -0.0035207926 1.4580001 4291612105
-0.1821406 -0.0035232075 1.4590001 4291546312
-0.18087441 -0.0035232075 1.4590001 4291546055
-0.17973132 -0.0035256222 1.46 4291546312
-0.17834203 -0.0035232075 1.4590001 4291546312
-0.17695446 -0.0035207926 1.4580001 4291612105
-0.17556864 -0.0035183777 1.457 4291809485
-0.1382419 -0.0033203634 1.3750001 4291612103
-0.13664992 -0.0033107041 1.3710001 4291480516
-0.13506489 -0.0033010449 1.3670001 4291479745
-0.13387853 -0.0033010449 1.3670001 4291479488
-0.13259512 -0.00329863 1.3660001 4291479486
-0.13121724 -0.0032938006 1.3640001 4291413948
-0.12993816 -0.0032913857 1.363 4291413691
-0.12875529 -0.0032913857 1.363 4291413691
-0.1273852 -0.0032865561 1.3610001 4291413689
-0.12611134 -0.0032841412 1.36 4291413432
-0.12493107 -0.0032841412 1.36 4291347895
-0.12365979 -0.0032817263 1.3590001 4291282102
-0.12248038 -0.0032817263 1.3590001 4291281589
-0.12112246 -0.0032768967 1.3570001 4291281588
-0.11994478 -0.0032768967 1.3570001 4291281589
-0.11876711 -0.0032768967 1.3570001 4291347125
-0.11758944 -0.0032768967 1.3570001 4291412918
-0.11641177 -0.0032768967 1.3570001 4291412918
-0.1152341 -0.0032768967 1.3570001 4291281845
-0.11405642 -0.0032768967 1.3570001 4291281845
-0.11287876 -0.0032768967 1.3570001 4291281845
-0.11170109 -0.0032768967 1.3570001 4291347637
-0.11044197 -0.003274482 1.3560001 4291347638
-0.10926516 -0.003274482 1.3560001 4291347637
-0.10808836 -0.003274482 1.3560001 4291281844
-0.10691156 -0.003274482 1.3560001 4291216308
-0.10573476 -0.003274482 1.3560001 4291347894
-0.10455795 -0.003274482 1.3560001 4291347894
-0.10338115 -0.003274482 1.3560001 4291413433
-0.10220435 -0.003274482 1.3560001 4291413433
-0.10102754 -0.003274482 1.3560001 4291347640
-0.099850737 -0.003274482 1.3560001 4291281847
-0.098673932 -0.003274482 1.3560001 4291216054
-0.097497128 -0.003274482 1.3560001 4291150261
-0.096320331 -0.003274482 1.3560001 4290887090
-0.095143527 -0.003274482 1.3560001 4290821297
-0.09403602 -0.0032768967 1.3570001 4290755762
-0.092858352 -0.0032768967 1.3570001 4290953142
-0.091680676 -0.0032768967 1.3570001 4290953142
-0.090636387 -0.0032817263 1.3590001 4291018935
-0.089522809 -0.0032841412 1.36 4290953657
-0.08834254 -0.0032841412 1.36 4291085244
-0.087418623 -0.0032938006 1.3640001 4291019965
-0.086361319 -0.00329863 1.3660001 4290888380
-0.085238196 -0.0033010449 1.3670001 4290888381
-0.21804139 -0.0022704632 1.462 4293521138
-0.2167726 -0.0022704632 1.462 4293455344
-0.2156512 -0.0022720161 1.4630001 4293455344
-0.21423501 -0.0022704632 1.462 4293389805
-0.21282053 -0.0022689102 1.4610001 4293323755
-0.21111821 -0.0022642515 1.4580001 4293191911
-0.20970896 -0.0022626985 1.457 4292994532
-0.20844451 -0.0022626985 1.457 4292731360
-0.20703784 -0.0022611453 1.4560001 4292533981
-0.20577425 -0.0022611453 1.4560001 4292271063
-0.20451066 -0.0022611453 1.4560001 4292073684
-0.20324707 -0.0022611453 1.4560001 4291941841
-0.20198348 -0.0022611453 1.4560001 4291941841
-0.20058204 -0.0022595923 1.455 4291941584
-0.1994563 -0.0022611453 1.4560001 4291875791
-0.19819272 -0.0022611453 1.4560001 4291809740
-0.19692913 -0.0022611453 1.4560001 4291809483
-0.19566554 -0.0022611453 1.4560001 4291743946
-0.19440195 -0.0022611453 1.4560001 4291678153
-0.19300573 -0.0022595923 1.455 4291612103
-0.19161123 -0.0022580393 1.4540001 4291611846
-0.19034937 -0.0022580393 1.4540001 4291546310
-0.18908753 -0.0022580393 1.4540001 4291611590
-0.18756731 -0.0022549334 1.452 4291611590
-0.18630719 -0.0022549334 1.452 4291611590
-0.18491963 -0.0022533806 1.4510001 4291545797
-0.18366039 -0.0022533806 1.4510001 4291545797
-0.18240114 -0.0022533806 1.4510001 4291611590
-0.18114188 -0.0022533806 1.4510001 4291677383
-0.17988263 -0.0022533806 1.4510001 4291677383
-0.17862339 -0.0022533806 1.4510001 4291611590
-0.17736414 -0.0022533806 1.4510001 4291611590
-0.17610489 -0.0022533806 1.4510001 4291546054
-0.17484564 -0.0022533806 1.4510001 4291677640
-0.17382565 -0.0022564863 1.4530001 4291677641
-0.17268343 -0.0022580393 1.4540001 4291611849
-0.17153947 -0.0022595923 1.455 4291677899
-0.17074488 -0.0022658044 1.4590001 4291875536
-0.16959484 -0.0022673574 1.46 4292204502
-0.16844307 -0.0022689102 1.4610001 4292467931
-0.13804083 -0.0021322477 1.373 4291480259
-0.13645059 -0.0021260357 1.3690001 4291348927
-0.13496609 -0.0021213768 1.3660001 4291282364
-0.1337806 -0.0021213768 1.3660001 4291282106
-0.13249804 -0.0021198238 1.365 4291282362
-0.13112104 -0.0021167179 1.363 4291282361
-0.12993816 -0.0021167179 1.363 4291282104
-0.12866081 -0.0021151649 1.3620001 4291281847
-0.12729162 -0.0021120589 1.36 4291282102
-0.12611134 -0.0021120589 1.36 4291347894
-0.12493107 -0.0021120589 1.36 4291347381
-0.1235688 -0.002108953 1.358 4291281587
-0.12239026 -0.002108953 1.358 4291215795
-0.12112246 -0.0021073997 1.3570001 4291215538
-0.11994478 -0.0021073997 1.3570001 4291215538
-0.11876711 -0.0021073997 1.3570001 4291215538
-0.11758944 -0.0021073997 1.3570001 4291215538
-0.11641177 -0.0021073997 1.3570001 4291281331
-0.1152341 -0.0021073997 1.3570001 4291216051
-0.11405642 -0.0021073997 1.3570001 4291150515
-0.11287876 -0.0021073997 1.3570001 4291216308
-0.11170109 -0.0021073997 1.3570001 4291282101
-0.11044197 -0.0021058468 1.3560001 4291282101
-0.10926516 -0.0021058468 1.3560001 4291216308
-0.10808836 -0.0021058468 1.3560001 4291150515
-0.10691156 -0.0021058468 1.3560001 4291150515
-0.10573476 -0.0021058468 1.3560001 4291216308
-0.10455795 -0.0021058468 1.3560001 4291216308
-0.10338115 -0.0021058468 1.3560001 4291281847
-0.10220435 -0.0021058468 1.3560001 4291281847
-0.10102754 -0.0021058468 1.3560001 4291281847
-0.099850737 -0.0021058468 1.3560001 4291216054
-0.098673932 -0.0021058468 1.3560001 4291018676
-0.097497128 -0.0021058468 1.3560001 4290887090
-0.096320331 -0.0021058468 1.3560001 4290689710
-0.095143527 -0.0021058468 1.3560001 4290558125
-0.093966722 -0.0021058468 1.3560001 4290755504
-0.092789918 -0.0021058468 1.3560001 4290887091
-0.091613114 -0.0021058468 1.3560001 4291018935
-0.090569705 -0.002108953 1.358 4291084728
-0.089456983 -0.0021105059 1.3590001 4290953914
-0.088277578 -0.0021105059 1.3590001 4291085500
-0.087290436 -0.0021151649 1.3620001 4291414724
-0.086234875 -0.0021182708 1.3640001 4290954173
-0.085175835 -0.0021213768 1.3660001 4289704364
-0.21759398 -0.0010084013 1.4590001 4293389551
-0.21647605 -0.0010090924 1.46 4293192171
-0.21535639 -0.0010097837 1.4610001 4293060585
-0.21394193 -0.0010090924 1.46 4292928740
-0.21252921 -0.0010084013 1.4590001 4292797153
-0.2108286 -0.0010063278 1.4560001 4292599772
-0.20956501 -0.0010063278 1.4560001 4292336601
-0.20830142 -0.0010063278 1.4560001 4292204758
-0.20689565 -0.0010056366 1.455 4292073171
-0.20563293 -0.0010056366 1.455 4291876304
-0.2043702 -0.0010056366 1.455 4291744462
-0.2029679 -0.0010049455 1.4540001 4291809742
-0.20170605 -0.0010049455 1.4540001 4291809741
-0.20044419 -0.0010049455 1.4540001 4291875276
-0.19931932 -0.0010056366 1.455 4291809740
-0.19805661 -0.0010056366 1.455 4291809483
-0.19679388 -0.0010056366 1.455 4291809483
-0.19553116 -0.0010056366 1.455 4291743689
-0.19426845 -0.0010056366 1.455 4291677640
-0.19287308 -0.0010049455 1.4540001 4291546310
-0.19147943 -0.0010042543 1.4530001 4291611846
-0.19021845 -0.0010042543 1.4530001 4291677382
-0.18895747 -0.0010042543 1.4530001 4291677638
-0.18743813 -0.001002872 1.4510001 4291677382
-0.18617888 -0.001002872 1.4510001 4291611589
-0.18479218 -0.001002181 1.45 4291611332
-0.1835338 -0.001002181 1.45 4291611589
-0.18227541 -0.001002181 1.45 4291611845
-0.18101704 -0.001002181 1.45 4291611845
-0.17963469 -0.0010014897 1.4490001 4291611845
-0.17837718 -0.0010014897 1.4490001 4291677382
-0.17724189 -0.001002181 1.45 4291611590
-0.17598352 -0.001002181 1.45 4291611590
-0.17472513 -0.001002181 1.45 4291611590
-0.17370602 -0.0010035632 1.452 4291677383
-0.17244591 -0.0010035632 1.452 4291677640
-0.17130367 -0.0010042543 1.4530001 4291677898
-0.17039378 -0.0010063278 1.4560001 4291809484
-0.16924636 -0.0010070191 1.457 4292006864
-0.16809718 -0.0010077102 1.4580001 4292203988
-0.14593038 -0.00095379975 1.3800001 4293257189
-0.14473276 -0.00095379975 1.3800001 4292862430
-0.14353512 -0.00095379975 1.3800001 4292270035
-0.14192492 -0.00095103512 1.376 4291743433
-0.14062849 -0.00095034391 1.3750001 4291480260
-0.13923238 -0.00094896165 1.373 4291414466
-0.13753812 -0.0009455058 1.368 4291348415
-0.13625124 -0.00094481464 1.3670001 4291282619
-0.13476847 -0.00094274117 1.3640001 4291216313
-0.13358472 -0.00094274117 1.3640001 4291216311
-0.13240097 -0.00094274117 1.3640001 4291281847
-0.13102482 -0.00094135891 1.3620001 4291216311
-0.12984282 -0.00094135891 1.3620001 4291150516
-0.12856635 -0.00094066776 1.3610001 4291084723
-0.12729162 -0.00093997654 1.36 4291150258
-0.1260186 -0.00093928538 1.3590001 4291281588
-0.12483919 -0.00093928538 1.3590001 4291215537
-0.1235688 -0.00093859417 1.358 4291215537
-0.12239026 -0.00093859417 1.358 4291215538
-0.12112246 -0.00093790313 1.3570001 4291215538
-0.11994478 -0.00093790313 1.3570001 4291149745
-0.11876711 -0.00093790313 1.3570001 4291083952
-0.11758944 -0.00093790313 1.3570001 4291018672
-0.11641177 -0.00093790313 1.3570001 4291084465
-0.1152341 -0.00093790313 1.3570001 4291084467
-0.11405642 -0.00093790313 1.3570001 4291084724
-0.11279558 -0.00093721191 1.3560001 4291150261
-0.11161877 -0.00093721191 1.3560001 4291216054
-0.11044197 -0.00093721191 1.3560001 4291150260
-0.10926516 -0.00093721191 1.3560001 4291018674
-0.10808836 -0.00093721191 1.3560001 4290887343
-0.10691156 -0.00093721191 1.3560001 4290953136
-0.10573476 -0.00093721191 1.3560001 4291084467
-0.10455795 -0.00093721191 1.3560001 4291150261
-0.10338115 -0.00093721191 1.3560001 4291216054
-0.10220435 -0.00093721191 1.3560001 4291216054
-0.10102754 -0.00093721191 1.3560001 4291150261
-0.09977711 -0.00093652075 1.355 4290952882
-0.09860117 -0.00093652075 1.355 4290689711
-0.097425237 -0.00093652075 1.355 4290558125
-0.096178263 -0.00093582965 1.3540001 4290426797
-0.095003195 -0.00093582965 1.3540001 4290558127
-0.093828127 -0.00093582965 1.3540001 4290624691
-0.092653058 -0.00093582965 1.3540001 4290953657
-0.091477998 -0.00093582965 1.3540001 4290954172
-0.090369619 -0.00093652075 1.355 4290954172
-0.089193687 -0.00093652075 1.355 4291348932
-0.088082701 -0.00093721191 1.3560001 4291546310
-0.087034084 -0.00093859417 1.358 4291217604
-0.085855544 -0.00093859417 1.358 4289506986
-0.084739357 -0.00093928538 1.3590001 4286217852
-0.083990358 -0.00094412343 1.3660001 4285757301
-0.082926109 -0.0009455058 1.368 4285889146
-0.08191815 -0.00094757928 1.3710001 4285955196
-0.21744482 0.00024883106 1.4580001 4292928997
-0.2161795 0.00024883106 1.4580001 4292731360
-0.21506159 0.00024900172 1.4590001 4292533981
-0.21364886 0.00024883106 1.4580001 4292468186
-0.21209219 0.00024848973 1.4560001 4292336600
-0.21053901 0.0002481484 1.4540001 4292205011
-0.20927717 0.0002481484 1.4540001 4292007633
-0.20801531 0.0002481484 1.4540001 4292007119
-0.20675346 0.0002481484 1.4540001 4291875533
-0.20535026 0.00024797773 1.4530001 4291744202
-0.20394883 0.00024780707 1.452 4291678409
-0.2028283 0.00024797773 1.4530001 4291743946
-0.20156731 0.00024797773 1.4530001 4291743947
-0.20030633 0.00024797773 1.4530001 4291809483
-0.19918235 0.0002481484 1.4540001 4291875019
-0.19792049 0.0002481484 1.4540001 4291940811
-0.19679388 0.00024831906 1.455 4291875275
-0.19539678 0.0002481484 1.4540001 4291809481
-0.19413494 0.0002481484 1.4540001 4291743431
-0.19287308 0.0002481484 1.4540001 4291677382
-0.19134766 0.00024780707 1.452 4291677638
-0.19008754 0.00024780707 1.452 4291808710
-0.18869738 0.0002476364 1.4510001 4291743174
-0.18743813 0.0002476364 1.4510001 4291677380
-0.18605056 0.00024746571 1.45 4291611587
-0.18466474 0.00024729504 1.4490001 4291742660
-0.18340723 0.00024729504 1.4490001 4291742660
-0.18214971 0.00024729504 1.4490001 4291677124
-0.18076737 0.00024712438 1.4480001 4291611587
-0.17951073 0.00024712438 1.4480001 4291611587
-0.17825408 0.00024712438 1.4480001 4291677381
-0.17699744 0.00024712438 1.4480001 4291742918
-0.17586215 0.00024729504 1.4490001 4291677125
-0.17460464 0.00024729504 1.4490001 4291611332
-0.17346674 0.00024746571 1.45 4291677125
-0.17232715 0.0002476364 1.4510001 4291677383
-0.17118578 0.00024780707 1.452 4291743177
-0.17015973 0.0002481484 1.4540001 4291875019
-0.16901404 0.00024831906 1.455 4292006606
-0.1678666 0.00024848973 1.4560001 4292137936
-0.14582464 0.00023534843 1.3790001 4292599001
-0.14462788 0.00023534843 1.3790001 4292138705
-0.14343111 0.00023534843 1.3790001 4291743690
-0.14182179 0.00023466577 1.3750001 4291414724
-0.14052621 0.00023449511 1.3740001 4291348673
-0.13872534 0.0002334711 1.368 4291282879
-0.13753812 0.0002334711 1.368 4291216828
-0.13625124 0.00023330044 1.3670001 4291216826
-0.13476847 0.00023278844 1.3640001 4291150775
-0.13358472 0.00023278844 1.3640001 4291150261
-0.13240097 0.00023278844 1.3640001 4291150516
-0.13102482 0.00023244711 1.3620001 4291150516
-0.12984282 0.00023244711 1.3620001 4291150002
-0.12856635 0.00023227645 1.3610001 4291084208
-0.12729162 0.00023210578 1.36 4290952622
-0.1260186 0.00023193512 1.3590001 4291018158
-0.12483919 0.00023193512 1.3590001 4291083950
-0.12365979 0.00023193512 1.3590001 4291149743
-0.12239026 0.00023176445 1.358 4291215536
-0.12121172 0.00023176445 1.358 4291215537
-0.11994478 0.00023159379 1.3570001 4291084208
-0.11876711 0.00023159379 1.3570001 4290952879
-0.11758944 0.00023159379 1.3570001 4290953136
-0.11641177 0.00023159379 1.3570001 4291018929
-0.1152341 0.00023159379 1.3570001 4291084467
-0.11405642 0.00023159379 1.3570001 4291084468
-0.11279558 0.00023142312 1.3560001 4291150261
-0.11161877 0.00023142312 1.3560001 4291150261
-0.11044197 0.00023142312 1.3560001 4291084468
-0.10926516 0.00023142312 1.3560001 4290887089
-0.10808836 0.00023142312 1.3560001 4290755759
-0.10691156 0.00023142312 1.3560001 4290821296
-0.10573476 0.00023142312 1.3560001 4291018675
-0.10455795 0.00023142312 1.3560001 4291150261
-0.10338115 0.00023142312 1.3560001 4291150261
-0.10220435 0.00023142312 1.3560001 4291084468
-0.10102754 0.00023142312 1.3560001 4290887089
-0.09977711 0.00023125244 1.355 4290689711
-0.09860117 0.00023125244 1.355 4290558125
-0.097353332 0.00023108178 1.3540001 4290558125
-0.096178263 0.00023108178 1.3540001 4290492589
-0.095003195 0.00023108178 1.3540001 4290624175
-0.093828127 0.00023108178 1.3540001 4290821813
-0.092653058 0.00023108178 1.3540001 4291084985
-0.091477998 0.00023108178 1.3540001 4291611588
-0.090302929 0.00023108178 1.3540001 4291743430
-0.089193687 0.00023125244 1.355 4291743689
-0.087952793 0.00023108178 1.3540001 4291875275
-0.086905897 0.00023142312 1.3560001 4290099122
-0.085792318 0.00023159379 1.3570001 4285493612
-0.084677003 0.00023176445 1.358 4281809206
-0.083928868 0.00023295911 1.365 4281546291
-0.082865492 0.00023330044 1.3670001 4281941310
-0.081858397 0.00023381245 1.3700001 4282204482
-0.22453885 0.0015105348 1.4630001 4293652723
-0.22311658 0.0015095023 1.462 4293455345
-0.2212408 0.0015053722 1.4580001 4293192171
-0.21982461 0.0015043397 1.457 4292928999
-0.21841013 0.0015033073 1.4560001 4292533982
-0.21669912 0.0015002098 1.4530001 4292270810
-0.21543814 0.0015002098 1.4530001 4292138965
-0.21388236 0.0014981448 1.4510001 4292138965
-0.21247657 0.0014971122 1.45 4292270292
-0.21121819 0.0014971122 1.45 4292204499
-0.20981501 0.0014960798 1.4490001 4292138704
-0.20841357 0.0014950474 1.4480001 4292007118
-0.20715693 0.0014950474 1.4480001 4292006861
-0.20590028 0.0014950474 1.4480001 4291875531
-0.20464364 0.0014950474 1.4480001 4291744201
-0.20338699 0.0014950474 1.4480001 4291743944
-0.20226993 0.0014960798 1.4490001 4291809226
-0.20101242 0.0014960798 1.4490001 4291875018
-0.19989276 0.0014971122 1.45 4291875018
-0.19863437 0.0014971122 1.45 4291940810
-0.197376 0.0014971122 1.45 4292006347
-0.19611761 0.0014971122 1.45 4291940810
-0.19485924 0.0014971122 1.45 4291940296
-0.19360085 0.0014971122 1.45 4291808967
-0.19220982 0.0014960798 1.4490001 4291874503
-0.19082053 0.0014950474 1.4480001 4291874502
-0.18956389 0.0014950474 1.4480001 4291940038
-0.18830724 0.0014950474 1.4480001 4291808453
-0.1869214 0.0014940149 1.447 4291742659
-0.18566564 0.0014940149 1.447 4291742659
-0.18428241 0.0014929824 1.4460001 4291742659
-0.18290094 0.0014919499 1.4450001 4291742659
-0.1816469 0.0014919499 1.4450001 4291742659
-0.18039285 0.0014919499 1.4450001 4291676866
-0.17901483 0.0014909174 1.4440001 4291676867
-0.17776166 0.0014909174 1.4440001 4291808453
-0.17663072 0.0014919499 1.4450001 4291808453
-0.17537668 0.0014919499 1.4450001 4291808453
-0.17412265 0.0014919499 1.4450001 4291742660
-0.17298822 0.0014929824 1.4460001 4291742661
-0.17173332 0.0014929824 1.4460001 4291808710
-0.1704784 0.0014929824 1.4460001 4291874504
-0.16934052 0.0014940149 1.447 4291940555
-0.16796859 0.0014929824 1.4460001 4292137934
-0.16659839 0.0014919499 1.4450001 4292203727
-0.14919823 0.0014217404 1.3770001 4292796637
-0.14800321 0.0014217404 1.3770001 4292730586
-0.1469148 0.0014227729 1.378 4292335571
-0.14540166 0.0014196755 1.3750001 4291940812
-0.14410348 0.001418643 1.3740001 4291612102
-0.14291106 0.001418643 1.3740001 4291414209
-0.14171863 0.001418643 1.3740001 4291282622
-0.14042394 0.0014176104 1.373 4291282364
-0.13872534 0.001412448 1.368 4291282106
-0.13743758 0.0014114155 1.3670001 4291216312
-0.13615157 0.0014103831 1.3660001 4291150775
-0.13476847 0.0014083181 1.3640001 4291084724
-0.13358472 0.0014083181 1.3640001 4290953137
-0.13240097 0.0014083181 1.3640001 4291084209
-0.13102482 0.0014062531 1.3620001 4291150002
-0.1297475 0.0014052206 1.3610001 4291150001
-0.12856635 0.0014052206 1.3610001 4291018158
-0.12729162 0.0014041881 1.36 4290886571
-0.12611134 0.0014041881 1.36 4290820778
-0.12493107 0.0014041881 1.36 4290886571
-0.12365979 0.0014031556 1.3590001 4291018157
-0.12248038 0.0014031556 1.3590001 4291018157
-0.12121172 0.0014021231 1.358 4291083950
-0.12003318 0.0014021231 1.358 4290952879
-0.11885464 0.0014021231 1.358 4290887343
-0.11758944 0.0014010906 1.3570001 4290953136
-0.11641177 0.0014010906 1.3570001 4290953136
-0.1152341 0.0014010906 1.3570001 4291018675
-0.11397238 0.0014000582 1.3560001 4291084468
-0.11279558 0.0014000582 1.3560001 4291150261
-0.11161877 0.0014000582 1.3560001 4291150261
-0.11044197 0.0014000582 1.3560001 4291084468
-0.10926516 0.0014000582 1.3560001 4291018675
-0.10808836 0.0014000582 1.3560001 4290887089
-0.10691156 0.0014000582 1.3560001 4290821296
-0.10573476 0.0014000582 1.3560001 4290887089
-0.10455795 0.0014000582 1.3560001 4290952882
-0.10338115 0.0014000582 1.3560001 4291018675
-0.10220435 0.0014000582 1.3560001 4290821297
-0.10102754 0.0014000582 1.3560001 4290624175
-0.09977711 0.0013990257 1.355 4290558638
-0.09860117 0.0013990257 1.355 4290558383
-0.097353332 0.0013979931 1.3540001 4290492847
-0.096178263 0.0013979931 1.3540001 4290427569
-0.095003195 0.0013979931 1.3540001 4290756791
-0.093758829 0.0013969607 1.353 4291414466
-0.092584632 0.0013969607 1.353 4291743432
-0.091410428 0.0013969607 1.353 4291546310
-0.090169542 0.0013959282 1.3520001 4291809739
-0.089062028 0.0013969607 1.353 4290625981
-0.087887831 0.0013969607 1.353 4288586654
-0.086841814 0.0013990257 1.355 4285099884
-0.085792318 0.0014010906 1.3570001 4281810234
-0.084677003 0.0014021231 1.358 4280757292
-0.083805896 0.0014072856 1.363 4280757548
-0.082804874 0.0014103831 1.3660001 4281284151
-0.081798643 0.0014134805 1.3690001 4281415738
-0.22565417 0.0027694907 1.462 4293455344
-0.22407842 0.0027657021 1.46 4293455086
-0.22265874 0.0027638078 1.4590001 4293191913
-0.22093731 0.0027581248 1.4560001 4292731360
-0.21952285 0.0027562305 1.455 4292402138
-0.21811013 0.0027543362 1.4540001 4291942098
-0.21640086 0.0027486531 1.4510001 4291876048
-0.21499333 0.002746759 1.45 4291941326
-0.21358755 0.0027448647 1.4490001 4292007119
-0.21233004 0.0027448647 1.4490001 4292138447
-0.21078119 0.0027410761 1.447 4292006861
-0.20952541 0.0027410761 1.447 4291941066
-0.20826963 0.0027410761 1.447 4291875274
-0.20701385 0.0027410761 1.447 4291875273
-0.20575808 0.0027410761 1.447 4291809480
-0.2045023 0.0027410761 1.447 4291809735
-0.20324652 0.0027410761 1.447 4291809479
-0.20213035 0.0027429704 1.4480001 4291940811
-0.2008737 0.0027429704 1.4480001 4291940810
-0.19961706 0.0027429704 1.4480001 4291940809
-0.19849738 0.0027448647 1.4490001 4291940809
-0.19723988 0.0027448647 1.4490001 4291940553
-0.19598237 0.0027448647 1.4490001 4291940552
-0.19472484 0.0027448647 1.4490001 4291940038
-0.19333382 0.0027429704 1.4480001 4291940038
-0.19207717 0.0027429704 1.4480001 4292005831
-0.19068874 0.0027410761 1.447 4291940038
-0.18943296 0.0027410761 1.447 4291874244
-0.18804714 0.0027391817 1.4460001 4291874244
-0.18679224 0.0027391817 1.4460001 4291808451
-0.18553732 0.0027391817 1.4460001 4291808451
-0.18415497 0.0027372874 1.4450001 4291808451
-0.18277435 0.0027353929 1.4440001 4291742658
-0.18152118 0.0027353929 1.4440001 4291742658
-0.18014316 0.0027334986 1.4430001 4291742658
-0.17889085 0.0027334986 1.4430001 4291742659
-0.17776166 0.0027353929 1.4440001 4291808452
-0.17650849 0.0027353929 1.4440001 4291874245
-0.1752553 0.0027353929 1.4440001 4291874245
-0.17400213 0.0027353929 1.4440001 4291874246
-0.17274895 0.0027353929 1.4440001 4292005832
-0.17149578 0.0027353929 1.4440001 4292005832
-0.17024261 0.0027353929 1.4440001 4292071626
-0.16887242 0.0027334986 1.4430001 4292203469
-0.16750395 0.0027316043 1.442 4292269263
-0.14908989 0.0026065796 1.376 4292401620
-0.14789572 0.0026065796 1.376 4292072655
-0.14670156 0.0026065796 1.376 4291677640
-0.1452959 0.0026027909 1.3740001 4291414467
-0.14399861 0.0026008966 1.373 4291282624
-0.14270304 0.0025990023 1.3720001 4291151037
-0.14120293 0.0025933192 1.3690001 4291085243
-0.14001484 0.0025933192 1.3690001 4291084985
-0.13842112 0.0025857422 1.365 4291150520
-0.13723651 0.0025857422 1.365 4291084726
-0.13595222 0.0025838476 1.3640001 4291018931
-0.13457087 0.002580059 1.3620001 4290953138
-0.13329092 0.0025781647 1.3610001 4290887343
-0.13210978 0.0025781647 1.3610001 4290952879
-0.13083243 0.0025762704 1.36 4291083952
-0.12965216 0.0025762704 1.36 4291083951
-0.1284719 0.0025762704 1.36 4291018157
-0.12729162 0.0025762704 1.36 4290820778
-0.12611134 0.0025762704 1.36 4290754985
-0.12493107 0.0025762704 1.36 4290754985
-0.12365979 0.0025743761 1.3590001 4290820778
-0.12248038 0.0025743761 1.3590001 4290820779
-0.12121172 0.0025724818 1.358 4290886573
-0.12003318 0.0025724818 1.358 4290887086
-0.11885464 0.0025724818 1.358 4290887343
-0.11758944 0.0025705877 1.3570001 4290887343
-0.11641177 0.0025705877 1.3570001 4290887343
-0.1152341 0.0025705877 1.3570001 4291018674
-0.11397238 0.0025686934 1.3560001 4291084468
-0.1127124 0.0025667988 1.355 4291150261
-0.11153647 0.0025667988 1.355 4291150261
-0.11036053 0.0025667988 1.355 4291150261
-0.10918459 0.0025667988 1.355 4291150261
-0.10800865 0.0025667988 1.355 4291018675
-0.10683272 0.0025667988 1.355 4290887089
-0.10565679 0.0025667988 1.355 4290887089
-0.10448085 0.0025667988 1.355 4290821296
-0.10330492 0.0025667988 1.355 4290690224
-0.10205361 0.0025649045 1.3540001 4290558638
-0.10087854 0.0025649045 1.3540001 4290624176
-0.099629827 0.0025630102 1.353 4290755762
-0.09845563 0.0025630102 1.353 4290822069
-0.097209536 0.0025611159 1.3520001 4290888119
-0.096036203 0.0025611159 1.3520001 4291414464
-0.094862871 0.0025611159 1.3520001 4291546051
-0.093550943 0.0025573273 1.35 4291414724
-0.092379346 0.0025573273 1.35 4291809482
-0.09120775 0.0025573273 1.35 4290559673
-0.090036154 0.0025573273 1.35 4287401609
-0.088864557 0.0025573273 1.35 4283981144
-0.087757915 0.0025592216 1.3510001 4282007355
-0.086713634 0.0025630102 1.353 4281546550
-0.08553943 0.0025630102 1.353 4280822827
-0.084427588 0.0025649045 1.3540001 4280823342
-0.083436981 0.0025705877 1.3570001 4281547065
-0.082259305 0.0025705877 1.3570001 4281876032
-0.081081636 0.0025705877 1.3570001 4282073155
-0.22503677 0.0040184548 1.4580001 4293257707
-0.22377145 0.0040184548 1.4580001 4292797154
-0.2222009 0.0040129423 1.4560001 4292533982
-0.22048208 0.004004674 1.4530001 4292204502
-0.21907023 0.0040019178 1.452 4292007122
-0.21766011 0.0039991615 1.4510001 4291809741
