# .PCD v0.7 - Point Cloud Data file format
VERSION 0.7
FIELDS x y z rgba
SIZE 4 4 4 4
TYPE F F F U
COUNT 1 1 1 1
WIDTH 1080
HEIGHT 1
VIEWPOINT 0 0 0 1 0 0 0
POINTS 1080
DATA ascii
-0.18288054 -0.040566828 1.4350001 4291742660
-0.1820149 -0.040651638 1.4380001 4291676867
-0.18089265 -0.040679906 1.439 4291480258
-0.17976865 -0.040708177 1.4400001 4291611844
-0.17889085 -0.040792987 1.4430001 4291743430
-0.17776166 -0.040821254 1.4440001 4291940809
-0.17663072 -0.040849522 1.4450001 4291940809
-0.17610489 -0.041019142 1.4510001 4291940809
-0.17508663 -0.04107568 1.4530001 4292006602
-0.17406492 -0.041132219 1.455 4292072395
-0.17142251 -0.043337245 1.5330001 4292203212
-0.17020306 -0.043365516 1.534 4292137419
-0.16898187 -0.043393787 1.5350001 4292137419
-0.24722368 -0.040070117 1.462 4293192171
-0.24528198 -0.039960485 1.4580001 4292073944
-0.24368191 -0.039905675 1.4560001 4290757826
-0.24125285 -0.039713815 1.4490001 4290230710
-0.23966409 -0.039659001 1.447 4290230708
-0.23725499 -0.039467148 1.4400001 4290362037
-0.23584138 -0.039439738 1.439 4290559159
-0.2342665 -0.039384924 1.437 4290690487
-0.23237076 -0.039275296 1.4330001 4290822071
-0.23096585 -0.039247885 1.432 4290953142
-0.22956267 -0.039220478 1.4310001 4290821555
-0.22768256 -0.039110847 1.427 4290821297
-0.22644415 -0.039110847 1.427 4290821297
-0.22520573 -0.039110847 1.427 4290952882
-0.22365341 -0.039056033 1.4250001 4290952882
-0.22226064 -0.039028626 1.424 4291018675
-0.22071439 -0.038973808 1.4220001 4291084468
-0.21948032 -0.038973808 1.4220001 4291150261
-0.21809274 -0.038946401 1.4210001 4291216052
-0.21670693 -0.038918994 1.4200001 4291282101
-0.21532284 -0.038891584 1.419 4291347894
-0.21409136 -0.038891584 1.419 4291282101
-0.21255986 -0.03883677 1.4170001 4291347380
-0.21118098 -0.038809359 1.416 4291412917
-0.20995212 -0.038809359 1.416 4291478710
-0.20872325 -0.038809359 1.416 4291412917
-0.20749436 -0.038809359 1.416 4291412917
-0.20626549 -0.038809359 1.416 4291478711
-0.20518142 -0.03883677 1.4170001 4291544503
-0.20380774 -0.038809359 1.416 4291478710
-0.20257887 -0.038809359 1.416 4291412919
-0.20149219 -0.03883677 1.4170001 4291544506
-0.20026244 -0.03883677 1.4170001 4291742141
-0.19917317 -0.038864177 1.4180001 4291807934
-0.19794255 -0.038864177 1.4180001 4291610812
-0.19671194 -0.038864177 1.4180001 4291545019
-0.19575705 -0.038918994 1.4200001 4291413434
-0.19466169 -0.038946401 1.4210001 4291479227
-0.19356461 -0.038973808 1.4220001 4291610813
-0.19273628 -0.039056033 1.4250001 4291873985
-0.19163398 -0.03908344 1.4260001 4291873987
-0.19052996 -0.039110847 1.427 4291808194
-0.18955682 -0.039165661 1.429 4291873987
-0.18844846 -0.039193071 1.4300001 4291873987
-0.18720743 -0.039193071 1.4300001 4291742660
-0.18635654 -0.039275296 1.4330001 4291611074
-0.18511292 -0.039275296 1.4330001 4291611074
-0.1839976 -0.039302703 1.434 4291742660
-0.18288054 -0.03933011 1.4350001 4291808453
-0.1820149 -0.039412331 1.4380001 4291808453
-0.18076694 -0.039412331 1.4380001 4291611844
-0.17964381 -0.039439738 1.439 4291677637
-0.17889085 -0.039549373 1.4430001 4291743430
-0.17776166 -0.03957678 1.4440001 4291809223
-0.17650849 -0.03957678 1.4440001 4291743430
-0.17598352 -0.039741226 1.45 4291809223
-0.17496614 -0.039796039 1.452 4291875016
-0.17382565 -0.03982345 1.4530001 4291940553
-0.17142251 -0.042016067 1.5330001 4292137420
-0.17020306 -0.042043474 1.534 4292071627
-0.16898187 -0.042070884 1.5350001 4292071627
-0.2467164 -0.038730495 1.4590001 4292797411
-0.24511372 -0.038677402 1.457 4291350220
-0.24351454 -0.038624309 1.455 4290428603
-0.24108635 -0.038438488 1.4480001 4290296502
-0.23949847 -0.038385395 1.4460001 4290164915
-0.23709022 -0.038199574 1.439 4290362036
-0.23567748 -0.038173027 1.4380001 4290559158
-0.23410349 -0.038119938 1.4360001 4290624949
-0.23220861 -0.038013753 1.432 4290756278
-0.23080456 -0.037987206 1.4310001 4290953142
-0.22940226 -0.037960663 1.4300001 4290821555
-0.22768256 -0.037881024 1.427 4290755504
-0.22628546 -0.037854474 1.4260001 4290887089
-0.2250479 -0.037854474 1.4260001 4291018675
-0.22349647 -0.037801385 1.424 4290952882
-0.22226064 -0.037801385 1.424 4291018675
-0.22071439 -0.037748292 1.4220001 4291084468
-0.21932596 -0.037721746 1.4210001 4291084468
-0.21809274 -0.037721746 1.4210001 4291084468
-0.21655431 -0.037668653 1.419 4291150261
-0.21532284 -0.037668653 1.419 4291084468
-0.21394049 -0.03764211 1.4180001 4291018675
-0.21240987 -0.037589017 1.416 4291084209
-0.21118098 -0.037589017 1.416 4291150001
-0.20995212 -0.037589017 1.416 4291281330
-0.20872325 -0.037589017 1.416 4291281331
-0.20749436 -0.037589017 1.416 4291347125
-0.20626549 -0.037589017 1.416 4291478712
-0.20503663 -0.037589017 1.416 4291478712
-0.20380774 -0.037589017 1.416 4291478712
-0.20257887 -0.037589017 1.416 4291478457
-0.20135 -0.037589017 1.416 4291610042
-0.20012112 -0.037589017 1.416 4291676349
-0.19903271 -0.037615564 1.4170001 4291610813
-0.19780296 -0.037615564 1.4170001 4291479226
-0.19657321 -0.037615564 1.4170001 4291413433
-0.1956192 -0.037668653 1.419 4291479227
-0.19452471 -0.037695203 1.4200001 4291676606
-0.19342847 -0.037721746 1.4210001 4291808192
-0.19260104 -0.037801385 1.424 4291873985
-0.19149959 -0.037827931 1.4250001 4291873987
-0.19039643 -0.037854474 1.4260001 4291939780
-0.18942417 -0.037907567 1.4280001 4291939780
-0.18831666 -0.037934113 1.429 4292005573
-0.18720743 -0.037960663 1.4300001 4291874245
-0.18622649 -0.038013753 1.432 4291676867
-0.18511292 -0.038040299 1.4330001 4291676867
-0.18386929 -0.038040299 1.4330001 4291808453
-0.18300799 -0.038119938 1.4360001 4291874246
-0.18188833 -0.038146481 1.437 4291808453
-0.18076694 -0.038173027 1.4380001 4291743430
-0.17964381 -0.038199574 1.439 4291743430
-0.17876689 -0.038279209 1.442 4291677637
-0.17763856 -0.038305759 1.4430001 4291677637
-0.17650849 -0.038332302 1.4440001 4291677637
-0.17586215 -0.03846503 1.4490001 4291677637
-0.17484564 -0.038518123 1.4510001 4291743430
-0.17370602 -0.03854467 1.452 4291808968
-0.17142251 -0.040694889 1.5330001 4292071627
-0.17020306 -0.040721435 1.534 4292006091
-0.16887178 -0.040721435 1.534 4292071627
-0.25103006 -0.03755014 1.462 4293455345
-0.2494196 -0.037498772 1.46 4293521137
-0.24798258 -0.03747309 1.4590001 4293192171
-0.24603999 -0.03737035 1.455 4292139481
-0.24444081 -0.037318986 1.4530001 4290889155
-0.24284507 -0.037267618 1.4510001 4290428602
-0.24058686 -0.03711351 1.4450001 4290428087
-0.23900157 -0.037062146 1.4430001 4290296499
-0.23676069 -0.036908038 1.437 4290427828
-0.23518582 -0.03685667 1.4350001 4290624949
-0.23377742 -0.036830988 1.434 4290690741
-0.2318843 -0.036728252 1.4300001 4290756275
-0.230482 -0.036702566 1.429 4290756018
-0.22908139 -0.036676884 1.4280001 4290756017
-0.22736347 -0.03659983 1.4250001 4290756016
-0.22612678 -0.03659983 1.4250001 4290887089
-0.22473228 -0.036574148 1.424 4291018675
-0.22318256 -0.036522776 1.4220001 4290952882
-0.22194847 -0.036522776 1.4220001 4290887089
-0.22055918 -0.036497094 1.4210001 4290887089
-0.21917161 -0.036471412 1.4200001 4290821296
-0.21778581 -0.036445726 1.419 4290755501
-0.2164017 -0.03642004 1.4180001 4290624171
-0.21486762 -0.036368672 1.416 4290689962
-0.21363874 -0.036368672 1.416 4290689962
-0.21225984 -0.03634299 1.4150001 4290689962
-0.21103184 -0.03634299 1.4150001 4290689962
-0.20980383 -0.03634299 1.4150001 4290821035
-0.20857583 -0.03634299 1.4150001 4290952621
-0.20734783 -0.03634299 1.4150001 4291215538
-0.20611982 -0.03634299 1.4150001 4291412917
-0.20489182 -0.03634299 1.4150001 4291282101
-0.20366381 -0.03634299 1.4150001 4291282101
-0.20243579 -0.03634299 1.4150001 4291413687
-0.20120779 -0.03634299 1.4150001 4291479480
-0.19997978 -0.03634299 1.4150001 4291545019
-0.19889225 -0.036368672 1.416 4291413433
-0.19766337 -0.036368672 1.416 4291216055
-0.19657321 -0.036394358 1.4170001 4291281848
-0.19548133 -0.03642004 1.4180001 4291545020
-0.19438772 -0.036445726 1.419 4291742399
-0.19329235 -0.036471412 1.4200001 4291873985
-0.19246577 -0.036548462 1.4230001 4291873985
-0.19136521 -0.036574148 1.424 4291873987
-0.1901294 -0.036574148 1.424 4291939779
-0.18929154 -0.036651198 1.427 4291808194
-0.18818489 -0.036676884 1.4280001 4291873987
-0.1869456 -0.036676884 1.4280001 4291808451
-0.18609644 -0.036753934 1.4310001 4291611072
-0.18498373 -0.036779616 1.432 4291611074
-0.18386929 -0.036805306 1.4330001 4291808452
-0.18300799 -0.036882356 1.4360001 4291874245
-0.18188833 -0.036908038 1.437 4291874245
-0.18076694 -0.036933724 1.4380001 4291743174
-0.17964381 -0.036959406 1.439 4291677381
-0.17876689 -0.03703646 1.442 4291611844
-0.17763856 -0.037062146 1.4430001 4291611844
-0.17638625 -0.037062146 1.4430001 4291677637
-0.17561941 -0.037164882 1.447 4291677637
-0.17460464 -0.037216246 1.4490001 4291743176
-0.17346674 -0.037241932 1.45 4291808969
-0.17327726 -0.03747309 1.4590001 4291808969
-0.17236476 -0.03755014 1.462 4291874762
-0.17144705 -0.037627194 1.465 4291808969
-0.25103006 -0.03629015 1.462 4293521137
-0.2494196 -0.036240511 1.46 4293455342
-0.24798258 -0.036215689 1.4590001 4292797155
-0.24587089 -0.036091574 1.4540001 4291415756
-0.24427259 -0.03604193 1.452 4290560445
-0.24284507 -0.036017109 1.4510001 4290494394
-0.24058686 -0.035868172 1.4450001 4290493623
-0.23900157 -0.035818532 1.4430001 4290362036
-0.23659594 -0.035644777 1.4360001 4290427828
-0.23518582 -0.035619952 1.4350001 4290559412
-0.23377742 -0.03559513 1.434 4290756533
-0.2318843 -0.03549584 1.4300001 4290756276
-0.230482 -0.035471018 1.429 4290690224
-0.22908139 -0.035446197 1.4280001 4290690223
-0.22736347 -0.035371728 1.4250001 4290690223
-0.22596809 -0.035346907 1.424 4290755759
-0.22473228 -0.035346907 1.424 4290887089
-0.22318256 -0.03529726 1.4220001 4290887089
-0.22194847 -0.03529726 1.4220001 4290821296
-0.22040397 -0.03524762 1.4200001 4290689966
-0.21917161 -0.03524762 1.4200001 4290558637
-0.21763231 -0.035197973 1.4180001 4290558379
-0.21609649 -0.035148326 1.416 4290624171
-0.21486762 -0.035148326 1.416 4290624171
-0.21348786 -0.035123505 1.4150001 4290689964
-0.21225984 -0.035123505 1.4150001 4290624171
-0.21103184 -0.035123505 1.4150001 4290689964
-0.20980383 -0.035123505 1.4150001 4290755757
-0.20857583 -0.035123505 1.4150001 4290821551
-0.20734783 -0.035123505 1.4150001 4291018931
-0.20611982 -0.035123505 1.4150001 4291150261
-0.20489182 -0.035123505 1.4150001 4291150261
-0.20366381 -0.035123505 1.4150001 4291216054
-0.20243579 -0.035123505 1.4150001 4291282104
-0.20120779 -0.035123505 1.4150001 4291413433
-0.19997978 -0.035123505 1.4150001 4291413433
-0.19889225 -0.035148326 1.416 4291281848
-0.19766337 -0.035148326 1.416 4291084725
-0.19657321 -0.035173152 1.4170001 4291281848
-0.1956192 -0.035222795 1.419 4291479484
-0.19438772 -0.035222795 1.419 4291611070
-0.19329235 -0.03524762 1.4200001 4291742399
-0.19246577 -0.035322085 1.4230001 4291873985
-0.19136521 -0.035346907 1.424 4291874241
-0.1901294 -0.035346907 1.424 4291742399
-0.18929154 -0.035421375 1.427 4291545278
-0.18818489 -0.035446197 1.4280001 4291545535
-0.1869456 -0.035446197 1.4280001 4291413693
-0.18609644 -0.035520662 1.4310001 4291413693
-0.18498373 -0.035545483 1.432 4291479486
-0.18386929 -0.035570309 1.4330001 4291676865
-0.18300799 -0.035644777 1.4360001 4291808451
-0.18188833 -0.035669595 1.437 4291874244
-0.18076694 -0.035694417 1.4380001 4291808453
-0.17964381 -0.035719238 1.439 4291677124
-0.17876689 -0.035793707 1.442 4291611588
-0.17763856 -0.035818532 1.4430001 4291677637
-0.17638625 -0.035818532 1.4430001 4291743431
-0.17574078 -0.03594264 1.4480001 4291809224
-0.17460464 -0.035967462 1.4490001 4291808969
-0.17334712 -0.035967462 1.4490001 4291874762
-0.17303972 -0.036166042 1.457 4291874762
-0.17212896 -0.036240511 1.46 4291874762
-0.17121299 -0.036314975 1.4630001 4291808969
-0.25120175 -0.035054125 1.4630001 4293455343
-0.24959044 -0.035006203 1.4610001 4293126633
-0.24798258 -0.034958284 1.4590001 4292139224
-0.24570179 -0.034814522 1.4530001 4291020996
-0.24427259 -0.034790557 1.452 4290560444
-0.24267772 -0.034742638 1.45 4290625722
-0.24042036 -0.034598876 1.4440001 4290625207
-0.23900157 -0.034574918 1.4430001 4290427827
-0.23659594 -0.034407195 1.4360001 4290362034
-0.23518582 -0.03438323 1.4350001 4290493362
-0.23377742 -0.034359273 1.434 4290690740
-0.2318843 -0.034263432 1.4300001 4290822068
-0.230482 -0.034239467 1.429 4290690224
-0.22892098 -0.034191549 1.427 4290558638
-0.22736347 -0.034143627 1.4250001 4290492844
-0.22596809 -0.034119669 1.424 4290492844
-0.22473228 -0.034119669 1.424 4290558637
-0.22318256 -0.034071747 1.4220001 4290624430
-0.22179238 -0.034047786 1.4210001 4290624173
-0.22024876 -0.033999864 1.419 4290492844
-0.21886292 -0.033975907 1.4180001 4290558637
-0.21763231 -0.033975907 1.4180001 4290690223
-0.21609649 -0.033927981 1.416 4290690224
-0.21486762 -0.033927981 1.416 4290624431
-0.21348786 -0.033904023 1.4150001 4290558638
-0.21210985 -0.033880062 1.414 4290624431
-0.21088271 -0.033880062 1.414 4290690224
-0.20965557 -0.033880062 1.414 4290756017
-0.20857583 -0.033904023 1.4150001 4290756017
-0.20734783 -0.033904023 1.4150001 4290887603
-0.20611982 -0.033904023 1.4150001 4291019189
-0.20489182 -0.033904023 1.4150001 4291150775
-0.20366381 -0.033904023 1.4150001 4291150775
-0.20243579 -0.033904023 1.4150001 4291216568
-0.20120779 -0.033904023 1.4150001 4291282361
-0.19997978 -0.033904023 1.4150001 4291150520
-0.19889225 -0.033927981 1.416 4291150521
-0.19780296 -0.033951946 1.4170001 4291150775
-0.19657321 -0.033951946 1.4170001 4291282361
-0.1956192 -0.033999864 1.419 4291413947
-0.19452471 -0.034023829 1.4200001 4291413947
-0.19329235 -0.034023829 1.4200001 4291413947
-0.19246577 -0.034095708 1.4230001 4291545533
-0.19136521 -0.034119669 1.424 4291611326
-0.1901294 -0.034119669 1.424 4291413947
-0.18929154 -0.034191549 1.427 4291216568
-0.18818489 -0.03421551 1.4280001 4291150775
-0.1869456 -0.03421551 1.4280001 4291084728
-0.18609644 -0.034287389 1.4310001 4291084728
-0.18498373 -0.03431135 1.432 4291347900
-0.18386929 -0.034335312 1.4330001 4291611072
-0.18300799 -0.034407195 1.4360001 4291742658
-0.18188833 -0.034431156 1.437 4291808451
-0.18076694 -0.034455113 1.4380001 4291742660
-0.17964381 -0.034479074 1.439 4291611074
-0.17876689 -0.034550954 1.442 4291545281
-0.17763856 -0.034574918 1.4430001 4291677124
-0.17638625 -0.034574918 1.4430001 4291743176
-0.17561941 -0.034670759 1.447 4291808969
-0.17448413 -0.034694716 1.4480001 4291808969
-0.17334712 -0.034718677 1.4490001 4291808969
-0.17303972 -0.034910362 1.457 4291808969
-0.17212896 -0.034982245 1.46 4291874762
-0.17109597 -0.035030164 1.462 4291874762
-0.25120175 -0.033793274 1.4630001 4293257964
-0.2494196 -0.03372398 1.46 4292731619
-0.24764264 -0.033654682 1.457 4291612880
-0.24536358 -0.03351609 1.4510001 4290823617
-0.24376787 -0.033469893 1.4490001 4290692030
-0.24234301 -0.033446796 1.4480001 4290691515
-0.24025387 -0.033331305 1.4430001 4290625207
-0.23850469 -0.033262007 1.4400001 4290362290
-0.23643118 -0.033146512 1.4350001 4290296495
-0.2350219 -0.033123415 1.434 4290427824
-0.23345137 -0.033077218 1.432 4290559154
-0.23172216 -0.03300792 1.429 4290690482
-0.2301594 -0.032961726 1.427 4290690224
-0.22876057 -0.032938626 1.4260001 4290558637
-0.22704436 -0.032869332 1.4230001 4290427051
-0.22565073 -0.032846231 1.4220001 4290295465
-0.22410101 -0.032800034 1.4200001 4290229672
-0.22271171 -0.032776933 1.419 4290229672
-0.22132415 -0.032753836 1.4180001 4290229672
-0.21993832 -0.03273074 1.4170001 4290295465
-0.21855424 -0.032707639 1.416 4290558637
-0.21732536 -0.032707639 1.416 4291019188
-0.21579127 -0.032661442 1.414 4291084982
-0.21456413 -0.032661442 1.414 4290953396
-0.21318612 -0.032638345 1.4130001 4290756017
-0.21195985 -0.032638345 1.4130001 4290756274
-0.21058443 -0.032615244 1.4120001 4290953396
-0.20935902 -0.032615244 1.4120001 4291019189
-0.20828104 -0.032638345 1.4130001 4290953396
-0.20705476 -0.032638345 1.4130001 4290953396
-0.20582849 -0.032638345 1.4130001 4291019190
-0.20474702 -0.032661442 1.414 4291216569
-0.20351988 -0.032661442 1.414 4291282362
-0.20243579 -0.032684542 1.4150001 4291282362
-0.20120779 -0.032684542 1.4150001 4291216825
-0.19997978 -0.032684542 1.4150001 4291019190
-0.19889225 -0.032707639 1.416 4291084983
-0.19780296 -0.03273074 1.4170001 4291282618
-0.19657321 -0.03273074 1.4170001 4291348155
-0.1956192 -0.032776933 1.419 4291282618
-0.19438772 -0.032776933 1.419 4291216568
-0.19329235 -0.032800034 1.4200001 4291150775
-0.19233052 -0.032846231 1.4220001 4291150775
-0.19123082 -0.032869332 1.4230001 4291150775
-0.1901294 -0.032892428 1.424 4291019189
-0.18915887 -0.032938626 1.4260001 4290887603
-0.18805312 -0.032961726 1.427 4290887603
-0.1868147 -0.032961726 1.427 4290953142
-0.1859664 -0.03303102 1.4300001 4291018935
-0.18485455 -0.033054117 1.4310001 4291282107
-0.18374097 -0.033077218 1.432 4291545279
-0.18288054 -0.033146512 1.4350001 4291676865
-0.18176176 -0.033169612 1.4360001 4291676866
-0.18064123 -0.033192713 1.437 4291611074
-0.17964381 -0.033238906 1.439 4291479488
-0.17851895 -0.033262007 1.4400001 4291413695
-0.17739235 -0.033285104 1.4410001 4291545281
-0.17626402 -0.033308201 1.442 4291546053
-0.17549804 -0.033400599 1.4460001 4291743175
-0.17448413 -0.033446796 1.4480001 4291743176
-0.17334712 -0.033469893 1.4490001 4291611590
-0.17280219 -0.033608485 1.455 4291611590
-0.17177527 -0.033654682 1.457 4291808969
-0.1708619 -0.03372398 1.46 4291743176
-0.25068668 -0.032465715 1.46 4293257707
-0.24924877 -0.032443479 1.4590001 4292205017
-0.24764264 -0.032399002 1.457 4291086534
-0.24519448 -0.032243345 1.45 4290757565
-0.24359965 -0.032198872 1.4480001 4290691515
-0.24217564 -0.032176636 1.447 4290691257
-0.24008738 -0.032065451 1.442 4290493620
-0.23833904 -0.031998739 1.439 4290362033
-0.2362664 -0.031887557 1.434 4290230702
-0.23485802 -0.031865321 1.4330001 4290098860
-0.23345137 -0.031843081 1.432 4290164396
-0.23155998 -0.031754136 1.4280001 4290230188
-0.2301594 -0.0317319 1.427 4290427566
-0.22860014 -0.031687427 1.4250001 4290427566
-0.2268848 -0.031620715 1.4220001 4290164137
-0.22565073 -0.031620715 1.4220001 4289901222
-0.22378536 -0.03153177 1.4180001 4289835429
-0.22255476 -0.03153177 1.4180001 4289703844
-0.22116807 -0.031509534 1.4170001 4289835431
-0.21978311 -0.031487294 1.416 4289901224
-0.21839988 -0.031465057 1.4150001 4290230189
-0.21717188 -0.031465057 1.4150001 4290690740
-0.21563865 -0.031420585 1.4130001 4291085498
-0.21441239 -0.031420585 1.4130001 4291414464
-0.21318612 -0.031420585 1.4130001 4291414465
-0.21180983 -0.031398349 1.4120001 4291414465
-0.21058443 -0.031398349 1.4120001 4291546051
-0.20935902 -0.031398349 1.4120001 4291677637
-0.20813362 -0.031398349 1.4120001 4291611844
-0.20690821 -0.031398349 1.4120001 4291480258
-0.20568281 -0.031398349 1.4120001 4291480258
-0.20460223 -0.031420585 1.4130001 4291546051
-0.20351988 -0.031442821 1.414 4291743430
-0.20229274 -0.031442821 1.414 4291677637
-0.20120779 -0.031465057 1.4150001 4291414465
-0.19997978 -0.031465057 1.4150001 4290953914
-0.19889225 -0.031487294 1.416 4291019707
-0.19766337 -0.031487294 1.416 4291085498
-0.19657321 -0.031509534 1.4170001 4291217084
-0.19548133 -0.03153177 1.4180001 4291151289
-0.19438772 -0.031554006 1.419 4291019703
-0.19329235 -0.031576242 1.4200001 4291019189
-0.19233052 -0.031620715 1.4220001 4290756017
-0.19123082 -0.031642955 1.4230001 4290558638
-0.18999587 -0.031642955 1.4230001 4290558638
-0.18915887 -0.03170966 1.4260001 4290690224
-0.18792132 -0.03170966 1.4260001 4290887603
-0.1868147 -0.0317319 1.427 4291019191
-0.1859664 -0.031798612 1.4300001 4291150520
-0.18485455 -0.031820849 1.4310001 4291282107
-0.18361266 -0.031820849 1.4310001 4291413693
-0.18288054 -0.031909794 1.4350001 4291545281
-0.18163517 -0.031909794 1.4350001 4291611073
-0.18038981 -0.031909794 1.4350001 4291479488
-0.17964381 -0.031998739 1.439 4291347902
-0.17851895 -0.032020979 1.4400001 4291413695
-0.17739235 -0.032043215 1.4410001 4291479745
-0.17626402 -0.032065451 1.442 4291546051
-0.17549804 -0.0321544 1.4460001 4291677637
-0.17436363 -0.032176636 1.447 4291611590
-0.17334712 -0.032221109 1.4490001 4291414211
-0.17280219 -0.03235453 1.455 4291348418
-0.17177527 -0.032399002 1.457 4291414211
-0.17074488 -0.032443479 1.4590001 4291414211
-0.25564891 -0.031506699 1.4740001 4293455344
-0.25367945 -0.031421199 1.47 4293323758
-0.25034326 -0.031164698 1.4580001 4292928742
-0.24856542 -0.031100573 1.455 4291744465
-0.24696279 -0.031057825 1.4530001 4290823362
-0.2448563 -0.030950949 1.4480001 4290757566
-0.2432632 -0.030908201 1.4460001 4290691514
-0.24200828 -0.030908201 1.4460001 4290559670
-0.23992088 -0.030801324 1.4410001 4290493619
-0.23817343 -0.030737199 1.4380001 4290362031
-0.2362664 -0.0306517 1.434 4290164396
-0.23469414 -0.030608948 1.432 4290032809
-0.23328835 -0.030587574 1.4310001 4289835429
-0.23139782 -0.030502075 1.427 4289703844
-0.22999811 -0.030480698 1.4260001 4289835429
-0.22860014 -0.030459324 1.4250001 4290032808
-0.2268848 -0.030395199 1.4220001 4289835429
-0.22517467 -0.030331073 1.419 4289440671
-0.22362755 -0.030288326 1.4170001 4289111706
-0.2223978 -0.030288326 1.4170001 4288782742
-0.22101198 -0.03026695 1.416 4288190606
-0.21962789 -0.030245574 1.4150001 4288190606
-0.21824554 -0.0302242 1.414 4288124813
-0.21701841 -0.0302242 1.414 4288585364
-0.21563865 -0.030202826 1.4130001 4289967017
-0.21426064 -0.030181451 1.4120001 4290822328
-0.21303524 -0.030181451 1.4120001 4290493363
-0.21165983 -0.030160075 1.411 4290230191
-0.21043529 -0.030160075 1.411 4290098605
-0.20921075 -0.030160075 1.411 4290295985
-0.20798622 -0.030160075 1.411 4290690742
-0.20676169 -0.030160075 1.411 4290690743
-0.20568281 -0.030181451 1.4120001 4290888121
-0.20460223 -0.030202826 1.4130001 4291085500
-0.20337595 -0.030202826 1.4130001 4291085500
-0.20229274 -0.0302242 1.414 4290822585
-0.2010656 -0.0302242 1.414 4290559156
-0.19997978 -0.030245574 1.4150001 4290230192
-0.19889225 -0.03026695 1.416 4290164398
-0.19766337 -0.03026695 1.416 4290690741
-0.19657321 -0.030288326 1.4170001 4290954169
-0.19548133 -0.030309699 1.4180001 4291085754
-0.19438772 -0.030331073 1.419 4291019960
-0.19315624 -0.030331073 1.419 4290624432
-0.19219527 -0.030373825 1.4210001 4290361517
-0.19109644 -0.030395199 1.4220001 4290229674
-0.18999587 -0.030416576 1.4230001 4290229674
-0.18902622 -0.030459324 1.4250001 4290427309
-0.18792132 -0.030480698 1.4260001 4290756018
-0.18668376 -0.030480698 1.4260001 4290822067
-0.18583636 -0.030544823 1.429 4290953397
-0.1845962 -0.030544823 1.429 4291019192
-0.18348436 -0.030566201 1.4300001 4291216572
-0.18262567 -0.030630326 1.4330001 4291479487
-0.1815086 -0.0306517 1.434 4291479744
-0.18038981 -0.030673074 1.4350001 4291347902
-0.17951897 -0.030737199 1.4380001 4291413695
-0.17839497 -0.030758573 1.439 4291413695
-0.17726925 -0.03077995 1.4400001 4291545281
-0.17614177 -0.030801324 1.4410001 4291611588
-0.17549804 -0.030908201 1.4460001 4291545796
-0.17436363 -0.030929575 1.447 4291348418
-0.17334712 -0.030972322 1.4490001 4291216832
-0.17268343 -0.031079199 1.4540001 4291085246
-0.17165737 -0.031121951 1.4560001 4291085246
-0.17062783 -0.031164698 1.4580001 4291216832
-0.17040797 -0.031357072 1.4670001 4291348418
-0.16948071 -0.031421199 1.47 4291480004
-0.16854824 -0.031485323 1.473 4291545797
-0.25547549 -0.030215856 1.473 4293389552
-0.25367945 -0.030154316 1.47 4293126378
-0.25017154 -0.029887645 1.457 4292270810
-0.24856542 -0.029846618 1.455 4291283914
-0.24696279 -0.029805593 1.4530001 4290823618
-0.2446872 -0.029682513 1.447 4290691773
-0.2432632 -0.029662002 1.4460001 4290559929
-0.2418409 -0.029641487 1.4450001 4290428341
-0.23942138 -0.029497895 1.4380001 4290296754
-0.2380078 -0.029477382 1.437 4290033582
-0.23610164 -0.029395331 1.4330001 4289836203
-0.23469414 -0.029374816 1.432 4289638824
-0.23312533 -0.029333791 1.4300001 4289244066
-0.23123567 -0.029251736 1.4260001 4289112223
-0.22983684 -0.029231224 1.4250001 4289177759
-0.22811887 -0.029169684 1.4220001 4289046431
-0.22640614 -0.029108144 1.419 4288520343
-0.22501597 -0.029087633 1.4180001 4287467655
-0.22346973 -0.029046604 1.416 4286546553
-0.2220839 -0.029026093 1.4150001 4285822831
-0.22069982 -0.02900558 1.414 4284967523
-0.21931747 -0.028985068 1.4130001 4284046421
-0.21793684 -0.028964553 1.4120001 4283454284
-0.21671145 -0.028964553 1.4120001 4282993733
-0.21533343 -0.02894404 1.411 4283717456
-0.2141089 -0.02894404 1.411 4284178007
-0.21273349 -0.028923528 1.4100001 4283454284
-0.21135981 -0.028903013 1.409 4282796099
-0.21013701 -0.028903013 1.409 4282861892
-0.20891421 -0.028903013 1.409 4283059271
-0.20769142 -0.028903013 1.409 4283914580
-0.20646861 -0.028903013 1.409 4284769889
-0.20553716 -0.02894404 1.411 4285296233
-0.20431262 -0.02894404 1.411 4285362026
-0.20323201 -0.028964553 1.4120001 4285033061
-0.20214967 -0.028985068 1.4130001 4284638302
-0.2010656 -0.02900558 1.414 4284638558
-0.19983846 -0.02900558 1.414 4285230694
-0.19889225 -0.029046604 1.416 4286875519
-0.19780296 -0.02906712 1.4170001 4288717722
-0.19657321 -0.02906712 1.4170001 4289770410
-0.1956192 -0.029108144 1.419 4290230961
-0.19438772 -0.029108144 1.419 4290494133
-0.19329235 -0.02912866 1.4200001 4290098862
-0.19233052 -0.029169684 1.4220001 4289769897
-0.19109644 -0.029169684 1.4220001 4289835431
-0.18999587 -0.029190199 1.4230001 4289901224
-0.18902622 -0.029231224 1.4250001 4290098602
-0.18765776 -0.029210711 1.424 4290427311
-0.18655285 -0.029231224 1.4250001 4290493360
-0.18570632 -0.029292764 1.4280001 4290624946
-0.1845962 -0.029313276 1.429 4290822071
-0.18348436 -0.029333791 1.4300001 4291019450
-0.18262567 -0.029395331 1.4330001 4291348414
-0.1815086 -0.029415842 1.434 4291348414
-0.18038981 -0.029436355 1.4350001 4291282109
-0.17951897 -0.029497895 1.4380001 4291347902
-0.17839497 -0.029518407 1.439 4291479488
-0.17726925 -0.029538922 1.4400001 4291479489
-0.17614177 -0.029559433 1.4410001 4291479490
-0.17549804 -0.029662002 1.4460001 4291413954
-0.17448413 -0.029703027 1.4480001 4291282625
-0.17334712 -0.029723538 1.4490001 4291216832
-0.17280219 -0.029846618 1.455 4291151039
-0.17165737 -0.029867133 1.4560001 4291151039
-0.17062783 -0.029908158 1.4580001 4291216832
-0.17029181 -0.030072264 1.4660001 4291348418
-0.16936542 -0.030133804 1.4690001 4291348418
-0.16843382 -0.030195341 1.4720001 4291282625
-0.25530204 -0.028926734 1.4720001 4293257965
-0.25298914 -0.028808828 1.4660001 4292731619
-0.25017154 -0.028631965 1.457 4291481295
-0.24856542 -0.028592661 1.455 4290889155
-0.24696279 -0.028553361 1.4530001 4290823616
-0.2446872 -0.028435452 1.447 4290494394
-0.2432632 -0.028415803 1.4460001 4290362293
-0.2418409 -0.028396148 1.4450001 4290296498
-0.23958787 -0.028278241 1.439 4290033325
-0.2380078 -0.028238939 1.437 4289770408
-0.23610164 -0.028160334 1.4330001 4289638565
-0.23469414 -0.028140683 1.432 4289441186
-0.23328835 -0.028121032 1.4310001 4289112221
-0.23107351 -0.028003123 1.4250001 4288849049
-0.22967555 -0.027983472 1.424 4288454291
-0.22811887 -0.02794417 1.4220001 4287532934
-0.22624658 -0.027865564 1.4180001 4286151282
-0.22485729 -0.027845912 1.4170001 4284111956
-0.22331192 -0.02780661 1.4150001 4282730559
-0.2220839 -0.02780661 1.4150001 4281809459
-0.22069982 -0.027786959 1.414 4281019943
-0.21916226 -0.027747655 1.4120001 4280756771
-0.21793684 -0.027747655 1.4120001 4280756771
-0.21671145 -0.027747655 1.4120001 4280822821
-0.21533343 -0.027728004 1.411 4280822821
-0.2141089 -0.027728004 1.411 4280954150
-0.21273349 -0.027708353 1.4100001 4280493856
-0.21135981 -0.027688703 1.409 4280296222
-0.21013701 -0.027688703 1.409 4280164636
-0.20891421 -0.027688703 1.409 4280033050
-0.20769142 -0.027688703 1.409 4280427808
-0.20646861 -0.027688703 1.409 4280888615
-0.20553716 -0.027728004 1.411 4281217580
-0.20431262 -0.027728004 1.411 4280625186
-0.20308807 -0.027728004 1.411 4280164891
-0.20214967 -0.027767308 1.4130001 4280428063
-0.2010656 -0.027786959 1.414 4280099098
-0.19983846 -0.027786959 1.414 4280033304
-0.19903271 -0.027845912 1.4170001 4281480493
-0.19780296 -0.027845912 1.4170001 4283980627
-0.19671194 -0.027865564 1.4180001 4286086260
-0.1956192 -0.027885215 1.419 4287138691
-0.19452471 -0.027904866 1.4200001 4288191122
-0.19329235 -0.027904866 1.4200001 4288322963
-0.19233052 -0.02794417 1.4220001 4288454549
-0.19109644 -0.02794417 1.4220001 4289440931
-0.18986236 -0.02794417 1.4220001 4289835688
-0.18889359 -0.027983472 1.424 4289966760
-0.18778954 -0.028003123 1.4250001 4290098346
-0.18655285 -0.028003123 1.4250001 4290098345
-0.18570632 -0.028062077 1.4280001 4290427310
-0.1845962 -0.028081728 1.429 4290887607
-0.18348436 -0.028101379 1.4300001 4291019192
-0.1827531 -0.028179985 1.434 4291150778
-0.18163517 -0.028199635 1.4350001 4291150778
-0.18051553 -0.028219288 1.4360001 4291216316
-0.17964381 -0.028278241 1.439 4291347902
-0.17851895 -0.028297894 1.4400001 4291479488
-0.17739235 -0.028317545 1.4410001 4291479489
-0.17663072 -0.028396148 1.4450001 4291347904
-0.17561941 -0.028435452 1.447 4291347904
-0.17448413 -0.028455103 1.4480001 4291348418
-0.17346674 -0.028494406 1.45 4291348418
-0.17280219 -0.028592661 1.455 4291414211
-0.17165737 -0.028612316 1.4560001 4291414211
-0.17062783 -0.028651616 1.4580001 4291414211
-0.17029181 -0.028808828 1.4660001 4291414211
-0.16936542 -0.028867783 1.4690001 4291348418
-0.1683194 -0.028907083 1.4710001 4291282625
-0.25512862 -0.027639339 1.4710001 4293126635
-0.25281659 -0.027526602 1.465 4292139481
-0.24999985 -0.027357496 1.4560001 4290889158
-0.24839459 -0.027319917 1.4540001 4290560190
-0.24679282 -0.027282339 1.452 4290494652
-0.2445181 -0.027169602 1.4460001 4290297271
-0.24309494 -0.027150813 1.4450001 4290099891
-0.24083671 -0.027038075 1.439 4289968305
-0.23942138 -0.027019285 1.4380001 4289770925
-0.23784217 -0.026981706 1.4360001 4289441960
-0.2359369 -0.02690655 1.432 4289046946
-0.23436636 -0.026868969 1.4300001 4288455066
-0.23279926 -0.02683139 1.4280001 4287665550
-0.23091137 -0.026756233 1.424 4286810242
-0.22919168 -0.026699865 1.4210001 4285954933
-0.22715636 -0.026605917 1.416 4284507743
-0.22576793 -0.026587127 1.4150001 4282336831
-0.22438124 -0.026568338 1.414 4281086509
-0.22299628 -0.026549548 1.4130001 4280691752
-0.22161305 -0.026530758 1.4120001 4280494374
-0.22023158 -0.026511969 1.411 4280428581
-0.21885183 -0.026493179 1.4100001 4280165923
-0.21762817 -0.026493179 1.4100001 4280231973
-0.2164045 -0.026493179 1.4100001 4280889390
-0.21518083 -0.026493179 1.4100001 4281020719
-0.21380541 -0.02647439 1.409 4281020719
-0.2125826 -0.02647439 1.409 4280954926
-0.2112098 -0.026455602 1.4080001 4280889133
-0.20998788 -0.026455602 1.4080001 4280823340
-0.20861767 -0.026436811 1.4070001 4280297766
-0.20739661 -0.026436811 1.4070001 4280363302
-0.20617555 -0.026436811 1.4070001 4281416247
-0.20510015 -0.026455602 1.4080001 4281021489
-0.20402302 -0.02647439 1.409 4280428582
-0.20280021 -0.02647439 1.409 4280165410
-0.20200661 -0.026530758 1.4120001 4280230944
-0.20092341 -0.026549548 1.4130001 4280165408
-0.19983846 -0.026568338 1.414 4280033565
-0.19903271 -0.026624706 1.4170001 4280165408
-0.19780296 -0.026624706 1.4170001 4280560165
-0.19671194 -0.026643496 1.4180001 4281349681
-0.1956192 -0.026662286 1.419 4282073659
-0.19452471 -0.026681075 1.4200001 4283060298
-0.19329235 -0.026681075 1.4200001 4283783763
-0.19233052 -0.026718654 1.4220001 4285165160
-0.19109644 -0.026718654 1.4220001 4287730829
-0.18999587 -0.026737442 1.4230001 4288783517
-0.18889359 -0.026756233 1.424 4289704362
-0.18778954 -0.026775021 1.4250001 4289967534
-0.18668376 -0.026793811 1.4260001 4290033069
-0.18583636 -0.026850181 1.429 4290230448
-0.18472539 -0.026868969 1.4300001 4290493620
-0.18361266 -0.02688776 1.4310001 4290690742
-0.18288054 -0.026962917 1.4350001 4290690742
-0.18163517 -0.026962917 1.4350001 4290756535
-0.18051553 -0.026981706 1.4360001 4291018937
-0.17964381 -0.027038075 1.439 4291282109
-0.17851895 -0.027056865 1.4400001 4291413695
-0.17739235 -0.027075654 1.4410001 4291347903
-0.17663072 -0.027150813 1.4450001 4291216318
-0.17561941 -0.027188392 1.447 4291282368
-0.17448413 -0.027207179 1.4480001 4291282625
-0.17346674 -0.02724476 1.45 4291414211
-0.17280219 -0.027338708 1.455 4291480004
-0.17165737 -0.027357496 1.4560001 4291545797
-0.17051081 -0.027376287 1.457 4291545797
-0.17005947 -0.027507812 1.4640001 4291545797
-0.16901954 -0.027545391 1.4660001 4291414211
-0.16797613 -0.027582971 1.4680001 4291348418
-0.16738346 -0.027695706 1.4740001 4291348418
-0.16632962 -0.027733285 1.4760001 4291282882
-0.16527233 -0.027770866 1.478 4291348932
-0.25495517 -0.026353667 1.47 4292928999
-0.25281659 -0.026264029 1.465 4291678931
-0.24982814 -0.026084753 1.455 4290560192
-0.24822377 -0.026048895 1.4530001 4290297274
-0.24662283 -0.026013041 1.4510001 4290297272
-0.24434899 -0.025905475 1.4450001 4290165685
-0.24292672 -0.025887547 1.4440001 4289968305
-0.24066935 -0.025779981 1.4380001 4289902254
-0.23925489 -0.025762053 1.437 4289770410
-0.23767655 -0.025726197 1.4350001 4289309859
-0.23544262 -0.025618631 1.429 4288717723
-0.23403855 -0.025600703 1.4280001 4287731085
-0.23263624 -0.025582777 1.427 4285888625
-0.23058704 -0.025493139 1.4220001 4284244057
-0.22903039 -0.025457282 1.4200001 4282928454
-0.22683552 -0.025349718 1.414 4281678388
-0.22544883 -0.02533179 1.4130001 4280823079
-0.22422256 -0.02533179 1.4130001 4280494116
-0.22268064 -0.025295934 1.411 4280954667
-0.22129917 -0.025278006 1.4100001 4281152046
-0.2200755 -0.025278006 1.4100001 4280954667
-0.21869661 -0.02526008 1.409 4280889132
-0.2174738 -0.02526008 1.409 4280823340
-0.216251 -0.02526008 1.409 4281151792
-0.21487561 -0.025242152 1.4080001 4281217586
-0.21365367 -0.025242152 1.4080001 4281217585
-0.21243174 -0.025242152 1.4080001 4281020206
-0.21105981 -0.025224222 1.4070001 4281020719
-0.20983875 -0.025224222 1.4070001 4280955183
-0.20846939 -0.025206296 1.406 4280954926
-0.20724919 -0.025206296 1.406 4281283892
-0.20602901 -0.025206296 1.406 4281744443
-0.20495449 -0.025224222 1.4070001 4281547063
-0.20387822 -0.025242152 1.4080001 4281020718
-0.20265628 -0.025242152 1.4080001 4280955181
-0.20186354 -0.025295934 1.411 4281152303
-0.2007812 -0.025313862 1.4120001 4281086510
-0.19969714 -0.02533179 1.4130001 4280559910
-0.19889225 -0.025385572 1.416 4280559910
-0.19766337 -0.025385572 1.416 4281020459
-0.1964345 -0.025385572 1.416 4281020459
-0.1956192 -0.025439356 1.419 4280823080
-0.19438772 -0.025439356 1.419 4280362529
-0.19329235 -0.025457282 1.4200001 4280362271
-0.19233052 -0.025493139 1.4220001 4281414702
-0.19109644 -0.025493139 1.4220001 4283783250
-0.18986236 -0.025493139 1.4220001 4286020468
-0.18889359 -0.025528993 1.424 4288322708
-0.18778954 -0.025546921 1.4250001 4289506983
-0.18655285 -0.025546921 1.4250001 4290098862
-0.18583636 -0.025618631 1.429 4290164656
-0.18472539 -0.025636559 1.4300001 4290295985
-0.18361266 -0.025654487 1.4310001 4290493620
-0.18288054 -0.025726197 1.4350001 4290296242
-0.18163517 -0.025726197 1.4350001 4290559413
-0.18051553 -0.025744125 1.4360001 4290821815
-0.17964381 -0.025797909 1.439 4291019194
-0.17851895 -0.025815837 1.4400001 4290953403
-0.17739235 -0.025833763 1.4410001 4290953403
-0.17663072 -0.025905475 1.4450001 4291084989
-0.17561941 -0.025941331 1.447 4291150782
-0.17448413 -0.025959257 1.4480001 4291216832
-0.17334712 -0.025977185 1.4490001 4291414211
-0.17268343 -0.026066823 1.4540001 4291414211
-0.17165737 -0.026102679 1.4560001 4291414211
-0.17051081 -0.026120607 1.457 4291480004
-0.17005947 -0.026246101 1.4640001 4291480004
-0.16901954 -0.026281955 1.4660001 4291480004
-0.16786169 -0.026299883 1.4670001 4291414211
-0.16738346 -0.026425377 1.4740001 4291414211
-0.16632962 -0.026461231 1.4760001 4291282882
-0.16538414 -0.026515014 1.4790001 4291348932
-0.25495517 -0.025086783 1.47 4292402912
-0.25264403 -0.024984388 1.4640001 4291086794
-0.24982814 -0.024830796 1.455 4290165434
-0.24822377 -0.024796663 1.4530001 4290033846
-0.24662283 -0.024762532 1.4510001 4290034101
-0.24417989 -0.024643071 1.4440001 4289902514
-0.24275848 -0.024626005 1.4430001 4289770927
-0.240502 -0.02452361 1.437 4289573548
-0.23892191 -0.024489477 1.4350001 4289178790
-0.23734528 -0.024455346 1.4330001 4288521116
-0.23527785 -0.024370018 1.4280001 4287468428
-0.23387466 -0.024352953 1.427 4285626224
-0.23247322 -0.024335885 1.4260001 4283192140
-0.23026273 -0.02423349 1.4200001 4281744695
-0.2288691 -0.024216427 1.419 4281218096
-0.22667509 -0.024114029 1.4130001 4280823339
-0.22528927 -0.024096964 1.4120001 4280823340
-0.22390518 -0.024079898 1.411 4280954927
-0.22236501 -0.024045767 1.409 4281020721
-0.2211422 -0.024045767 1.409 4281020721
-0.21976332 -0.024028702 1.4080001 4280823342
-0.21838619 -0.024011634 1.4070001 4280626477
-0.21731946 -0.024028702 1.4080001 4280692526
-0.21609753 -0.024028702 1.4080001 4280954930
-0.21472299 -0.024011634 1.4070001 4281217846
-0.21350193 -0.024011634 1.4070001 4280955187
-0.21228087 -0.024011634 1.4070001 4280823858
-0.21090978 -0.023994571 1.406 4280758065
-0.20968959 -0.023994571 1.406 4280692015
-0.20832112 -0.023977503 1.4050001 4280692272
-0.20724919 -0.023994571 1.406 4281350202
-0.20602901 -0.023994571 1.406 4281744960
-0.20495449 -0.024011634 1.4070001 4281218616
-0.20373343 -0.024011634 1.4070001 4280823856
-0.20265628 -0.024028702 1.4080001 4280758319
-0.20157741 -0.024045767 1.409 4280889649
-0.20049682 -0.024062833 1.4100001 4280824112
-0.19941448 -0.024079898 1.411 4280889135
-0.19861132 -0.024131097 1.414 4281020721
-0.19752377 -0.024148161 1.4150001 4281678649
-0.1964345 -0.024165228 1.416 4281810235
-0.19548133 -0.024199359 1.4180001 4281086512
-0.19438772 -0.024216427 1.419 4280231203
-0.19329235 -0.02423349 1.4200001 4280296994
-0.19219527 -0.024250558 1.4210001 4280494373
-0.19109644 -0.024267623 1.4220001 4280888872
-0.18986236 -0.024267623 1.4220001 4282402111
-0.18889359 -0.024301754 1.424 4284244315
-0.18765776 -0.024301754 1.424 4286349691
-0.18655285 -0.02431882 1.4250001 4288651931
-0.18570632 -0.024370018 1.4280001 4289573033
-0.18472539 -0.02440415 1.4300001 4290230963
-0.18361266 -0.024421215 1.4310001 4290494135
-0.1827531 -0.024472414 1.434 4290362549
-0.18163517 -0.024489477 1.4350001 4290559415
-0.18051553 -0.024506545 1.4360001 4290690742
-0.17964381 -0.024557741 1.439 4290756279
-0.17851895 -0.024574809 1.4400001 4290756281
-0.17739235 -0.024591874 1.4410001 4290822074
-0.17663072 -0.024660138 1.4450001 4290953660
-0.17549804 -0.024677202 1.4460001 4291085246
-0.17448413 -0.024711333 1.4480001 4291216832
-0.17334712 -0.024728401 1.4490001 4291414211
-0.17268343 -0.02481373 1.4540001 4291480004
-0.17153947 -0.024830796 1.455 4291348418
-0.17051081 -0.024864927 1.457 4291348418
-0.16994332 -0.024967322 1.4630001 4291282625
-0.16890424 -0.025001455 1.465 4291282625
-0.16786169 -0.025035586 1.4670001 4291414211
-0.16738346 -0.025155047 1.4740001 4291480004
-0.16644232 -0.025206244 1.4770001 4291480004
-0.16549598 -0.025257442 1.48 4291546311
-0.25495517 -0.023819901 1.47 4291876311
-0.25247142 -0.023706473 1.4630001 4290363071
-0.24965645 -0.023560636 1.4540001 4289836470
-0.24805294 -0.023528228 1.452 4289836724
-0.24628291 -0.023479616 1.4490001 4289770929
-0.24384169 -0.023366189 1.442 4289639342
-0.24242203 -0.023349984 1.4410001 4289507755
-0.23983254 -0.023220351 1.4330001 4289112996
-0.23825592 -0.023187943 1.4310001 4288060308
-0.23668279 -0.023155537 1.429 4286481277
-0.23461881 -0.023074515 1.424 4284441694
-0.2330552 -0.023042109 1.4220001 4282204732
-0.23149508 -0.023009699 1.4200001 4281283630
-0.22945194 -0.022928679 1.4150001 4281086252
-0.22774008 -0.022880066 1.4120001 4281152303
-0.2260334 -0.022831455 1.409 4281086511
-0.22465105 -0.022815252 1.4080001 4280954926
-0.22327045 -0.022799047 1.4070001 4281020720
-0.22173373 -0.022766639 1.4050001 4281020721
-0.22051442 -0.022766639 1.4050001 4281020721
-0.21929508 -0.022766639 1.4050001 4280889135
-0.21792054 -0.022750435 1.404 4280625964
-0.21670209 -0.022750435 1.404 4280691756
-0.21548362 -0.022750435 1.404 4281086259
-0.21426517 -0.022750435 1.404 4281481018
-0.2130467 -0.022750435 1.404 4281349689
-0.21182825 -0.022750435 1.404 4281349689
-0.21060978 -0.022750435 1.404 4281283639
-0.20939133 -0.022750435 1.404 4280954931
-0.20817286 -0.022750435 1.404 4281086773
-0.20680699 -0.02273423 1.4030001 4281481788
-0.2055894 -0.02273423 1.4030001 4281679168
-0.20437181 -0.02273423 1.4030001 4281415995
-0.20329903 -0.022750435 1.404 4281086515
-0.20208056 -0.022750435 1.404 4280954929
-0.20129129 -0.022799047 1.4070001 4280955185
-0.20021242 -0.022815252 1.4080001 4280954929
-0.19913182 -0.022831455 1.409 4280823599
-0.1983304 -0.022880066 1.4120001 4281152564
-0.1972446 -0.022896271 1.4130001 4282007615
-0.19615704 -0.022912476 1.414 4281876029
-0.19534348 -0.022961086 1.4170001 4281283891
-0.19411373 -0.022961086 1.4170001 4280889133
-0.19302011 -0.022977291 1.4180001 4280954926
-0.19206001 -0.023009699 1.4200001 4281086512
-0.19096205 -0.023025904 1.4210001 4280757544
-0.18972883 -0.023025904 1.4210001 4280691751
-0.18889359 -0.023074515 1.424 4280954410
-0.18778954 -0.023090718 1.4250001 4281875768
-0.18668376 -0.023106923 1.4260001 4284375644
-0.18583636 -0.023155537 1.429 4287007364
-0.18485455 -0.023187943 1.4310001 4289046433
-0.18374097 -0.023204148 1.432 4290362293
-0.18288054 -0.023252759 1.4350001 4290822844
-0.18176176 -0.023268964 1.4360001 4290888380
-0.18064123 -0.023285167 1.437 4290822329
-0.17976865 -0.02333378 1.4400001 4290756793
-0.17864291 -0.023349984 1.4410001 4290953660
-0.17751546 -0.023366189 1.442 4291019453
-0.17675295 -0.023431003 1.4460001 4291019453
-0.17561941 -0.023447208 1.447 4291085246
-0.17448413 -0.023463411 1.4480001 4291151039
-0.17334712 -0.023479616 1.4490001 4291348418
-0.17268343 -0.023560636 1.4540001 4291414211
-0.17153947 -0.023576841 1.455 4291414211
-0.17039378 -0.023593044 1.4560001 4291348418
-0.16982716 -0.023690268 1.462 4291216832
-0.16878895 -0.023722677 1.4640001 4291216832
-0.16774727 -0.023755083 1.4660001 4291282625
-0.16749702 -0.023900921 1.475 4291480004
-0.166555 -0.023949532 1.478 4291611591
-0.1656078 -0.023998143 1.4810001 4291677898
-0.16391791 -0.024127776 1.4890001 4291678156
-0.16295335 -0.024176387 1.4920001 4291612620
-0.16209191 -0.024241205 1.4960001 4291678672
-0.25495517 -0.022553017 1.47 4291021003
-0.25264403 -0.022460964 1.4640001 4289705142
-0.24965645 -0.022307541 1.4540001 4289639347
-0.24788208 -0.022261515 1.4510001 4289573810
-0.24628291 -0.02223083 1.4490001 4289376430
-0.24367259 -0.022108093 1.4410001 4289113256
-0.24174909 -0.022046724 1.437 4288521119
-0.23949781 -0.021954672 1.4310001 4287337100
-0.23808943 -0.021939328 1.4300001 4285692274
-0.23651713 -0.021908645 1.4280001 4283849814
-0.23428927 -0.021816593 1.4220001 4281941819
-0.23272742 -0.021785907 1.4200001 4280954669
-0.23133206 -0.021770565 1.419 4280691754
-0.22896549 -0.021663168 1.4120001 4280823341
-0.2275788 -0.021647828 1.411 4280823342
-0.22587299 -0.021601802 1.4080001 4280691757
-0.22449151 -0.021586459 1.4070001 4280823088
-0.22311175 -0.021571117 1.406 4281152567
-0.22173373 -0.021555774 1.4050001 4281481789
-0.22035746 -0.021540433 1.404 4281613375
-0.21913901 -0.021540433 1.404 4281481789
-0.21792054 -0.021540433 1.404 4281152824
-0.21670209 -0.021540433 1.404 4281087031
-0.21548362 -0.021540433 1.404 4281481276
-0.21411255 -0.021525091 1.4030001 4282402121
-0.21289496 -0.021525091 1.4030001 4282468427
-0.21167736 -0.021525091 1.4030001 4282468428
-0.21045977 -0.021525091 1.4030001 4282600270
-0.20924218 -0.021525091 1.4030001 4282271305
-0.20802459 -0.021525091 1.4030001 4281679168
-0.2066596 -0.021509748 1.4020001 4281415996
-0.20544288 -0.021509748 1.4020001 4281679168
-0.20437181 -0.021525091 1.4030001 4282139719
-0.20315422 -0.021525091 1.4030001 4282205511
-0.20208056 -0.021540433 1.404 4281679167
-0.20129129 -0.021586459 1.4070001 4281350202
-0.20021242 -0.021601802 1.4080001 4281218616
-0.19899049 -0.021601802 1.4080001 4281152823
-0.1983304 -0.021663168 1.4120001 4281350202
-0.1972446 -0.021678513 1.4130001 4281679167
-0.19601832 -0.021678513 1.4130001 4281547581
-0.19520563 -0.021724539 1.416 4281021237
-0.19411373 -0.02173988 1.4170001 4280889651
-0.19302011 -0.021755222 1.4180001 4281086260
-0.19206001 -0.021785907 1.4200001 4281086260
-0.19096205 -0.02180125 1.4210001 4281152307
-0.18972883 -0.02180125 1.4210001 4280889135
-0.18889359 -0.021847276 1.424 4280954670
-0.18778954 -0.021862619 1.4250001 4280888877
-0.18668376 -0.021877961 1.4260001 4280823081
-0.1859664 -0.021939328 1.4300001 4282467905
-0.18485455 -0.021954672 1.4310001 4285033318
-0.18374097 -0.021970015 1.432 4288322967
-0.18300799 -0.022031382 1.4360001 4289968048
-0.18188833 -0.022046724 1.437 4290296756
-0.18076694 -0.022062067 1.4380001 4290756794
-0.17989348 -0.022108093 1.4410001 4290954173
-0.17876689 -0.022123436 1.442 4291217088
-0.17763856 -0.022138778 1.4430001 4291085246
-0.17687519 -0.022200147 1.447 4290822074
-0.17574078 -0.022215487 1.4480001 4290822074
-0.17460464 -0.02223083 1.4490001 4290887867
-0.17382565 -0.022292199 1.4530001 4291019453
-0.17268343 -0.022307541 1.4540001 4291216832
-0.17153947 -0.022322884 1.455 4291348418
-0.17039378 -0.022338226 1.4560001 4291348418
-0.16982716 -0.02243028 1.462 4291348418
-0.16878895 -0.022460964 1.4640001 4291282625
-0.16774727 -0.022491647 1.4660001 4291282625
-0.16749702 -0.022629729 1.475 4291282882
-0.166555 -0.022675755 1.478 4291414469
-0.1656078 -0.02272178 1.4810001 4291677643
-0.16413809 -0.022875203 1.4910001 4291678156
-0.16317178 -0.022921229 1.4940001 4291546571
-0.1623086 -0.022982599 1.498 4291678672
-0.25512862 -0.021300614 1.4710001 4290560452
-0.25281659 -0.021213733 1.465 4289441970
-0.24965645 -0.021054449 1.4540001 4289442225
-0.24788208 -0.021011006 1.4510001 4289442224
-0.24628291 -0.020982046 1.4490001 4288981672
-0.24350351 -0.020851724 1.4400001 4288257948
-0.24174909 -0.020808283 1.437 4286810501
-0.23933046 -0.020706918 1.4300001 4284836711
-0.23775642 -0.020677958 1.4280001 4282994507
-0.2363515 -0.020663479 1.427 4281678647
-0.23395976 -0.020562114 1.4200001 4280823338
-0.23256354 -0.020547636 1.419 4280625960
-0.23019089 -0.020446273 1.4120001 4280889133
-0.22880334 -0.020431792 1.411 4281349685
-0.2274175 -0.020417312 1.4100001 4281481272
-0.22571257 -0.02037387 1.4070001 4281283895
-0.22433195 -0.020359391 1.406 4281349432
-0.22311175 -0.020359391 1.406 4282139463
-0.22157593 -0.020330431 1.404 4282995028
-0.22035746 -0.020330431 1.404 4283126614
-0.21913901 -0.020330431 1.404 4282863442
-0.21776532 -0.020315949 1.4030001 4282337098
-0.21654773 -0.020315949 1.4030001 4281876547
-0.21533014 -0.020315949 1.4030001 4282402377
-0.21411255 -0.020315949 1.4030001 4283125844
-0.21289496 -0.020315949 1.4030001 4283389016
-0.21167736 -0.020315949 1.4030001 4283323223
-0.21045977 -0.020315949 1.4030001 4283784287
-0.20909305 -0.020301469 1.4020001 4283521372
-0.20787632 -0.020301469 1.4020001 4282139719
-0.2066596 -0.020301469 1.4020001 4281218617
-0.20544288 -0.020301469 1.4020001 4281942340
-0.20422615 -0.020301469 1.4020001 4283126614
-0.20315422 -0.020315949 1.4030001 4283455578
-0.20193662 -0.020315949 1.4030001 4282995027
-0.20114823 -0.020359391 1.406 4282600269
-0.20007023 -0.02037387 1.4070001 4282337097
-0.19899049 -0.020388352 1.4080001 4282139718
-0.19818994 -0.020431792 1.411 4281679167
-0.19710499 -0.020446273 1.4120001 4281613374
-0.19601832 -0.020460753 1.4130001 4281415995
-0.19520563 -0.020504195 1.416 4281218616
-0.19411373 -0.020518674 1.4170001 4281218616
-0.192884 -0.020518674 1.4170001 4281217846
-0.19206001 -0.020562114 1.4200001 4281086260
-0.19096205 -0.020576596 1.4210001 4281086515
-0.18972883 -0.020576596 1.4210001 4281283637
-0.18889359 -0.020620037 1.424 4281481272
-0.18792132 -0.020648997 1.4260001 4281218099
-0.1868147 -0.020663479 1.427 4280559654
-0.18609644 -0.0207214 1.4310001 4280099358
-0.18498373 -0.02073588 1.432 4281020459
