# .PCD v0.7 - Point Cloud Data file format
VERSION 0.7
FIELDS x y z rgba
SIZE 4 4 4 4
TYPE F F F U
COUNT 1 1 1 1
WIDTH 1109
HEIGHT 1
VIEWPOINT 0 0 0 1 0 0 0
POINTS 1109
DATA ascii
-0.081823274 0.15251659 1.784 4286090391
-0.080365032 0.15268756 1.7860001 4286024598
-0.07881505 0.15268756 1.7860001 4286156184
-0.077308334 0.15277307 1.7870001 4286155928
-0.075757489 0.15277307 1.7870001 4286221721
-0.074331217 0.15302955 1.7900001 4286419356
-0.07277777 0.15302955 1.7900001 4286287771
-0.071264103 0.15311503 1.7910001 4286221723
-0.069826551 0.15337151 1.794 4286221723
-0.06830769 0.153457 1.7950001 4286155930
-0.06533739 0.15379897 1.7990001 4286221723
-0.063811578 0.15388446 1.8000001 4286353309
-0.06228403 0.15396996 1.8010001 4286419102
-0.060889613 0.15439741 1.8060001 4286353310
-0.059355121 0.1544829 1.807 4286418590
-0.057818897 0.15456839 1.8080001 4286484383
-0.056405384 0.15499584 1.8130001 4286418590
-0.054862216 0.15508133 1.8140001 4286287004
-0.053317316 0.15516683 1.8150001 4286221723
-0.051913217 0.15567978 1.8210001 4286155930
-0.050360505 0.15576527 1.8220001 4286090137
-0.048806056 0.15585075 1.8230001 4286221723
-0.047405299 0.1564492 1.83 4286550431
-0.045867208 0.15662017 1.8320001 4286616224
-0.044301476 0.15670568 1.8330001 4286681761
-0.04294372 0.15756059 1.8430001 4286813348
-0.041411571 0.15781707 1.8460001 4287076262
-0.039874218 0.15807353 1.8490001 4287405227
-0.038600724 0.1594414 1.8650001 4287799469
-0.037081335 0.15986885 1.8700001 4288128176
-0.035553265 0.16029631 1.8750001 4288785335
-0.27327263 0.16199858 1.876 4294639615
-0.27077574 0.16148047 1.8700001 4294573823
-0.26843324 0.16104871 1.8650001 4293455603
-0.26423952 0.15949436 1.8470001 4290560969
-0.26221001 0.15923528 1.8440001 4289705663
-0.2591964 0.15837175 1.8340001 4289705920
-0.25732386 0.15819904 1.8320001 4289311422
-0.25545478 0.15802634 1.83 4289772487
-0.2527568 0.15733552 1.8220001 4291944426
-0.25089988 0.1571628 1.8200001 4292799735
-0.2490464 0.1569901 1.8180001 4290957790
-0.24665193 0.15647198 1.812 4288852671
-0.24440314 0.15604022 1.807 4288326327
-0.24189422 0.15543574 1.8000001 4288194742
-0.24006505 0.15526304 1.7980001 4288063155
-0.23837203 0.15517668 1.7970001 4287997362
-0.2360218 0.15465857 1.7910001 4287800498
-0.23420565 0.15448585 1.789 4287668912
-0.23239298 0.15431315 1.7870001 4287668912
-0.2303254 0.15396774 1.7830001 4287603119
-0.22864972 0.15388139 1.7820001 4287537584
-0.22697578 0.15379503 1.7810001 4287669170
-0.225177 0.15362233 1.779 4287603376
-0.22350737 0.15353598 1.7780001 4287405997
-0.22196434 0.15353598 1.7780001 4287405738
-0.2200494 0.15327691 1.7750001 4287274152
-0.21838586 0.15319055 1.774 4287274152
-0.21660182 0.15301785 1.7720001 4287274152
-0.21494263 0.1529315 1.771 4287208359
-0.21328516 0.15284514 1.7700001 4287208359
-0.21139017 0.15258609 1.7670001 4287208359
-0.20973793 0.15249974 1.766 4287142566
-0.20808741 0.15241338 1.7650001 4287142566
-0.20620456 0.15215431 1.7620001 4287142566
-0.20467542 0.15215431 1.7620001 4287208359
-0.20314626 0.15215431 1.7620001 4287274152
-0.20150268 0.15206797 1.761 4287339945
-0.19986086 0.15198162 1.7600001 4287339945
-0.19822074 0.15189525 1.7590001 4287274152
-0.19669421 0.15189525 1.7590001 4287077030
-0.19505669 0.15180892 1.7580001 4287011493
-0.19353102 0.15180892 1.7580001 4286946214
-0.19189613 0.15172255 1.7570001 4287142566
-0.1903713 0.15172255 1.7570001 4287010980
-0.18873902 0.1516362 1.756 4287273125
-0.18721507 0.1516362 1.756 4287404711
-0.18558538 0.15154986 1.7550001 4287469221
-0.18385255 0.15137714 1.7530001 4287535014
-0.18222719 0.15129079 1.7520001 4287402656
-0.18060359 0.15120444 1.751 4286876055
-0.17867489 0.15085903 1.7470001 4287072406
-0.17695594 0.15068632 1.7450001 4291480022
-0.17534101 0.15059996 1.7440001 4294834175
-0.17352845 0.1503409 1.7410001 4294768383
-0.17201753 0.1503409 1.7410001 4294637567
-0.1705066 0.1503409 1.7410001 4294572031
-0.16909274 0.15042727 1.7420001 4294637310
-0.16767715 0.1505136 1.743 4294768895
-0.16625983 0.15059996 1.7440001 4294769151
-0.16502969 0.15085903 1.7470001 4294769663
-0.16351356 0.15085903 1.7470001 4294769663
-0.16209015 0.15094538 1.748 4294507518
-0.16084874 0.15120444 1.751 4293389043
-0.15942012 0.15129079 1.7520001 4289770685
-0.15780953 0.15120444 1.751 4286415759
-0.15646845 0.15137714 1.7530001 4285692549
-0.1549471 0.15137714 1.7530001 4286087309
-0.15342577 0.15137714 1.7530001 4286088336
-0.15190442 0.15137714 1.7530001 4286088851
-0.15038309 0.15137714 1.7530001 4286155158
-0.14886175 0.15137714 1.7530001 4286155673
-0.14742446 0.15146349 1.7540001 4286221466
-0.14590225 0.15146349 1.7540001 4286221466
-0.14438003 0.15146349 1.7540001 4286287259
-0.14285783 0.15146349 1.7540001 4286484895
-0.14133562 0.15146349 1.7540001 4286616481
-0.13981342 0.15146349 1.7540001 4286484895
-0.13837005 0.15154986 1.7550001 4286287517
-0.13684697 0.15154986 1.7550001 4286484895
-0.13540101 0.1516362 1.756 4286484895
-0.13387707 0.1516362 1.756 4286484895
-0.13235313 0.1516362 1.756 4286484895
-0.13082919 0.1516362 1.756 4286550429
-0.1294525 0.15180892 1.7580001 4286418843
-0.12792683 0.15180892 1.7580001 4286353050
-0.12647305 0.15189525 1.7590001 4286287257
-0.12501754 0.15198162 1.7600001 4286352537
-0.12349012 0.15198162 1.7600001 4286352537
-0.122032 0.15206797 1.761 4286352537
-0.12057216 0.15215431 1.7620001 4286352537
-0.11904301 0.15215431 1.7620001 4286352537
-0.11758055 0.15224068 1.7630001 4286352537
-0.116248 0.15249974 1.766 4286286744
-0.11478034 0.15258609 1.7670001 4286220951
-0.11324685 0.15258609 1.7670001 4286089365
-0.11190303 0.15284514 1.7700001 4286023572
-0.11036693 0.15284514 1.7700001 4285891986
-0.10889233 0.1529315 1.771 4285826193
-0.10747661 0.15310422 1.7730001 4285760400
-0.10593791 0.15310422 1.7730001 4285694607
-0.10445809 0.15319055 1.774 4285628814
-0.10291853 0.15319055 1.774 4285563021
-0.10137897 0.15319055 1.774 4285694093
-0.099839404 0.15319055 1.774 4285694093
-0.098355241 0.15327691 1.7750001 4285628814
-0.096814811 0.15327691 1.7750001 4285694607
-0.095274381 0.15327691 1.7750001 4285628814
-0.093839571 0.15344961 1.7770001 4285628814
-0.092349336 0.15353598 1.7780001 4285760913
-0.090806298 0.15353598 1.7780001 4285892499
-0.089363679 0.15370867 1.7800001 4285760913
-0.087868236 0.15379503 1.7810001 4285958292
-0.086322598 0.15379503 1.7810001 4286221464
-0.084919758 0.15405409 1.784 4286221464
-0.08337152 0.15405409 1.784 4286156184
-0.081777416 0.15396774 1.7830001 4286024598
-0.08032003 0.15414044 1.7850001 4285958805
-0.07881505 0.15422679 1.7860001 4286090391
-0.077308334 0.15431315 1.7870001 4286287258
-0.075757489 0.15431315 1.7870001 4286353050
-0.074331217 0.1545722 1.7900001 4286287771
-0.072818421 0.15465857 1.7910001 4286221978
-0.071264103 0.15465857 1.7910001 4286155930
-0.069826551 0.15491763 1.794 4286155930
-0.06830769 0.15500398 1.7950001 4286155930
-0.066787086 0.15509033 1.7960001 4286155930
-0.065373711 0.15543574 1.8000001 4286221723
-0.063847028 0.15552211 1.8010001 4286419102
-0.062318616 0.15560845 1.802 4286484896
-0.060889613 0.15595387 1.8060001 4286353310
-0.059387971 0.15612656 1.8080001 4286353053
-0.057850879 0.15621293 1.8090001 4286353054
-0.056405384 0.15655833 1.8130001 4286352798
-0.054892462 0.15673104 1.8150001 4286221211
-0.053346694 0.15681739 1.8160001 4286221723
-0.051913217 0.15724915 1.8210001 4286287516
-0.050360505 0.15733552 1.8220001 4286221723
-0.04883283 0.15750822 1.8240001 4286221723
-0.047405299 0.15802634 1.83 4286484638
-0.045842174 0.15811269 1.8310001 4286550431
-0.044301476 0.15828539 1.8330001 4286616224
-0.04294372 0.15914893 1.8430001 4286879396
-0.041411571 0.15940799 1.8460001 4287207848
-0.039874218 0.15966704 1.8490001 4287339177
-0.038600724 0.16104871 1.8650001 4287864748
-0.037081335 0.16148047 1.8700001 4288193712
-0.035572227 0.16199858 1.876 4288785335
-0.27312696 0.16352814 1.8750001 4294639615
-0.27063096 0.16300486 1.8690001 4294639615
-0.26814535 0.16248158 1.863 4293390066
-0.26409647 0.16099893 1.8460001 4290495176
-0.26192564 0.16065006 1.8420001 4289771456
-0.25905508 0.15986513 1.8330001 4289705920
-0.2571834 0.15969069 1.8310001 4289180092
-0.25517559 0.15942906 1.8280001 4289706951
-0.2527568 0.15890576 1.8220001 4291944171
-0.25089988 0.15873133 1.8200001 4292668151
-0.24890941 0.15846968 1.817 4290694875
-0.24651581 0.15794639 1.8110001 4288721085
-0.24467364 0.15777196 1.8090001 4288260535
-0.242163 0.15716146 1.802 4288194743
-0.24033208 0.15698703 1.8000001 4287932083
-0.23850466 0.15681261 1.7980001 4287800498
-0.23615359 0.15628931 1.7920001 4287800498
-0.23433658 0.15611488 1.7900001 4287669168
-0.23252302 0.15594044 1.7880001 4287603119
-0.23045461 0.15559159 1.784 4287668912
-0.22877803 0.15550436 1.7830001 4287669169
-0.22697578 0.15532994 1.7810001 4287537584
-0.225177 0.15515551 1.779 4287405997
-0.2236331 0.15515551 1.779 4287340204
-0.22196434 0.15506829 1.7780001 4287274411
-0.22017336 0.15489388 1.7760001 4287274154
-0.21850896 0.15480666 1.7750001 4287142566
-0.21672405 0.15463223 1.7730001 4287142566
-0.21506399 0.15454501 1.7720001 4287076773
-0.21340567 0.15445779 1.771 4287208359
-0.21150981 0.15419614 1.7680001 4287274152
-0.20985669 0.15410894 1.7670001 4287208359
-0.2082053 0.15402173 1.766 4287142566
-0.20643862 0.15384729 1.7640001 4287076773
-0.20479158 0.15376008 1.7630001 4287076773
-0.20314626 0.15367286 1.7620001 4287142566
-0.20150268 0.15358564 1.761 4287143079
-0.1999744 0.15358564 1.761 4287208872
-0.19833343 0.15349843 1.7600001 4287142823
-0.19669421 0.15341121 1.7590001 4287274152
-0.19516766 0.15341121 1.7590001 4287077286
-0.19353102 0.15332401 1.7580001 4286945700
-0.19189613 0.15323678 1.7570001 4287010980
-0.1903713 0.15323678 1.7570001 4287208359
-0.18873902 0.15314956 1.756 4287404711
-0.18710846 0.15306236 1.7550001 4287207332
-0.18558538 0.15306236 1.7550001 4287535014
-0.18385255 0.15288793 1.7530001 4287534501
-0.18222719 0.15280071 1.7520001 4287336607
-0.18060359 0.15271349 1.751 4287073176
-0.17877716 0.15245184 1.748 4287203478
-0.17715876 0.15236463 1.7470001 4291282642
-0.17554207 0.15227742 1.7460001 4294900735
-0.1737278 0.15201576 1.743 4294702847
-0.17231394 0.15210299 1.7440001 4294702847
-0.17080042 0.15210299 1.7440001 4294703359
-0.16938396 0.15219021 1.7450001 4294768639
-0.16796575 0.15227742 1.7460001 4294834431
-0.16654582 0.15236463 1.7470001 4294703615
-0.16521862 0.15253907 1.7490001 4294638079
-0.16379435 0.15262628 1.7500001 4294638335
-0.16227561 0.15262628 1.7500001 4293915385
-0.16084874 0.15271349 1.751 4291152083
-0.15932913 0.15271349 1.751 4287007637
-0.15789965 0.15280071 1.7520001 4285231486
-0.15646845 0.15288793 1.7530001 4285890185
-0.1549471 0.15288793 1.7530001 4285955980
-0.15342577 0.15288793 1.7530001 4286022543
-0.15190442 0.15288793 1.7530001 4286022802
-0.15038309 0.15288793 1.7530001 4286089366
-0.14886175 0.15288793 1.7530001 4286155160
-0.1473404 0.15288793 1.7530001 4286155673
-0.14581907 0.15288793 1.7530001 4286089880
-0.14438003 0.15297514 1.7540001 4286155673
-0.14285783 0.15297514 1.7540001 4286287516
-0.14133562 0.15297514 1.7540001 4286419102
-0.13981342 0.15297514 1.7540001 4286287516
-0.13837005 0.15306236 1.7550001 4286155931
-0.13684697 0.15306236 1.7550001 4286353309
-0.13540101 0.15314956 1.756 4286419102
-0.13387707 0.15314956 1.756 4286419102
-0.1324285 0.15323678 1.7570001 4286484638
-0.13090368 0.15323678 1.7570001 4286550429
-0.1294525 0.15332401 1.7580001 4286484636
-0.12792683 0.15332401 1.7580001 4286352794
-0.12640114 0.15332401 1.7580001 4286287001
-0.12494651 0.15341121 1.7590001 4286286744
-0.12349012 0.15349843 1.7600001 4286286744
-0.12189341 0.15341121 1.7590001 4286352537
-0.12050372 0.15358564 1.761 4286418330
-0.11904301 0.15367286 1.7620001 4286484123
-0.11758055 0.15376008 1.7630001 4286484123
-0.11618218 0.15393449 1.7650001 4286352537
-0.11471538 0.15402173 1.766 4286286744
-0.11324685 0.15410894 1.7670001 4286220951
-0.1118398 0.15428336 1.7690001 4286155158
-0.11030458 0.15428336 1.7690001 4286023572
-0.10883084 0.15437058 1.7700001 4285891986
-0.10735537 0.15445779 1.771 4285760400
-0.10587815 0.15454501 1.7720001 4285694607
-0.10434032 0.15454501 1.7720001 4285628814
-0.10286051 0.15463223 1.7730001 4285694607
-0.10132182 0.15463223 1.7730001 4285694093
-0.099783123 0.15463223 1.7730001 4285628557
-0.098299839 0.15471943 1.774 4285694607
-0.096760273 0.15471943 1.774 4285826193
-0.095220707 0.15471943 1.774 4285826193
-0.093786761 0.15489388 1.7760001 4285760657
-0.092297398 0.15498108 1.7770001 4285892242
-0.090755232 0.15498108 1.7770001 4285958036
-0.08931347 0.15515551 1.779 4285826450
-0.087818906 0.15524273 1.7800001 4286024085
-0.086322598 0.15532994 1.7810001 4286221208
-0.084824562 0.15541716 1.7820001 4286287257
-0.083278053 0.15541716 1.7820001 4286090391
-0.081777416 0.15550436 1.7830001 4285958805
-0.080275029 0.15559159 1.784 4286024598
-0.078770921 0.15567881 1.7850001 4286155928
-0.077265069 0.15576601 1.7860001 4286287516
-0.075757489 0.15585323 1.7870001 4286353052
-0.074331217 0.15611488 1.7900001 4286221723
-0.072818421 0.15620209 1.7910001 4286221723
-0.071303897 0.15628931 1.7920001 4286155930
-0.06986548 0.15655096 1.7950001 4286090137
-0.068345748 0.15663816 1.7960001 4286090137
-0.066824272 0.15672539 1.7970001 4286090137
-0.065410025 0.15707424 1.8010001 4286221724
-0.063882478 0.15716146 1.802 4286353310
-0.062353201 0.15724868 1.8030001 4286353310
-0.060923323 0.15759754 1.807 4286287517
-0.05942082 0.15777196 1.8090001 4286221725
-0.057882853 0.15785918 1.8100001 4286287518
-0.056436494 0.15820803 1.8140001 4286353055
-0.054892462 0.15829526 1.8150001 4286287005
-0.053346694 0.15838248 1.8160001 4286287261
-0.051913217 0.15881854 1.8210001 4286418846
-0.050360505 0.15890576 1.8220001 4286418845
-0.048806056 0.15899296 1.8230001 4286353052
-0.047379393 0.15951626 1.8290001 4286418845
-0.045867208 0.15977791 1.8320001 4286484638
-0.044325646 0.15995234 1.8340001 4286616224
-0.04294372 0.16073728 1.8430001 4286945189
-0.041434009 0.16108614 1.8470001 4287273641
-0.039895784 0.16134779 1.8500001 4287405227
-0.038559332 0.16248158 1.863 4287996592
-0.037041675 0.16291766 1.868 4288259505
-0.035534304 0.16344094 1.8740001 4288719542
-0.27298132 0.16505601 1.8740001 4294705151
-0.27063096 0.16461562 1.8690001 4294639359
-0.26828927 0.16417523 1.8640001 4293455857
-0.26409647 0.16258985 1.8460001 4290692554
-0.26192564 0.16223754 1.8420001 4289706175
-0.25905508 0.16144484 1.8330001 4289574591
-0.2571834 0.1612687 1.8310001 4289114557
-0.25517559 0.16100447 1.8280001 4289575878
-0.25247937 0.16029985 1.8200001 4291878633
-0.25076205 0.16021177 1.8190001 4292668149
-0.24890941 0.16003561 1.817 4290497239
-0.24651581 0.15950716 1.8110001 4288392120
-0.24453838 0.15924293 1.8080001 4288063668
-0.24202862 0.15862639 1.8010001 4288063668
-0.24033208 0.15853831 1.8000001 4287866289
-0.23850466 0.15836217 1.7980001 4287866289
-0.23615359 0.15783371 1.7920001 4287735216
-0.23433658 0.15765755 1.7900001 4287669423
-0.23265305 0.15756947 1.789 4287603376
-0.23045461 0.15712908 1.784 4287603376
-0.22877803 0.157041 1.7830001 4287603376
-0.22710323 0.15695293 1.7820001 4287603376
-0.225177 0.15668871 1.779 4287340204
-0.2236331 0.15668871 1.779 4287142825
-0.22196434 0.15660062 1.7780001 4287077032
-0.22017336 0.15642448 1.7760001 4287077032
-0.21850896 0.1563364 1.7750001 4287076773
-0.21672405 0.15616024 1.7730001 4287076773
-0.21506399 0.15607215 1.7720001 4287142566
-0.21352616 0.15607215 1.7720001 4287274152
-0.21150981 0.15571985 1.7680001 4287274152
-0.20985669 0.15563178 1.7670001 4287142566
-0.2082053 0.1555437 1.766 4287010980
-0.2063216 0.15527947 1.7630001 4287010980
-0.20467542 0.15519139 1.7620001 4286945700
-0.20314626 0.15519139 1.7620001 4286879907
-0.20150268 0.15510333 1.761 4286945700
-0.1999744 0.15510333 1.761 4287011493
-0.19833343 0.15501525 1.7600001 4287011493
-0.19669421 0.15492716 1.7590001 4287143079
-0.19516766 0.15492716 1.7590001 4287077286
-0.19353102 0.1548391 1.7580001 4286945443
-0.19189613 0.15475102 1.7570001 4287010467
-0.19026297 0.15466292 1.756 4287273382
-0.18863153 0.15457486 1.7550001 4287338918
-0.18710846 0.15457486 1.7550001 4287075746
-0.18547964 0.15448678 1.7540001 4287403428
-0.18374766 0.15431063 1.7520001 4287402915
-0.18222719 0.15431063 1.7520001 4287401886
-0.18060359 0.15422255 1.751 4287204249
-0.17877716 0.15395832 1.748 4286875283
-0.17715876 0.15387024 1.7470001 4290822862
-0.17554207 0.15378217 1.7460001 4294703615
-0.17382747 0.15360601 1.7440001 4294637823
-0.17231394 0.15360601 1.7440001 4294571775
-0.17089835 0.15369409 1.7450001 4294637567
-0.16948101 0.15378217 1.7460001 4294637823
-0.16796575 0.15378217 1.7460001 4294637567
-0.16654582 0.15387024 1.7470001 4294572287
-0.16521862 0.1540464 1.7490001 4294572286
-0.16370074 0.1540464 1.7490001 4294177788
-0.16218288 0.1540464 1.7490001 4291941343
-0.16084874 0.15422255 1.751 4287730851
-0.15932913 0.15422255 1.751 4285034108
-0.15780953 0.15422255 1.751 4284770936
-0.15637918 0.15431063 1.7520001 4285495685
-0.15485871 0.15431063 1.7520001 4285758860
-0.15333824 0.15431063 1.7520001 4285891216
-0.15181777 0.15431063 1.7520001 4285957011
-0.1502973 0.15431063 1.7520001 4286023574
-0.14877681 0.15431063 1.7520001 4285958038
-0.1473404 0.15439869 1.7530001 4285958294
-0.14581907 0.15439869 1.7530001 4285958294
-0.14429773 0.15439869 1.7530001 4285958294
-0.14277638 0.15439869 1.7530001 4286090137
-0.14133562 0.15448678 1.7540001 4286155930
-0.13981342 0.15448678 1.7540001 4286090137
-0.13837005 0.15457486 1.7550001 4286155930
-0.13684697 0.15457486 1.7550001 4286353309
-0.1353239 0.15457486 1.7550001 4286419102
-0.13387707 0.15466292 1.756 4286484638
-0.13235313 0.15466292 1.756 4286484638
-0.13082919 0.15466292 1.756 4286418843
-0.12937887 0.15475102 1.7570001 4286353050
-0.12792683 0.1548391 1.7580001 4286418330
-0.12640114 0.1548391 1.7580001 4286549916
-0.12487547 0.1548391 1.7580001 4286484123
-0.12334979 0.1548391 1.7580001 4286418330
-0.12182411 0.1548391 1.7580001 4286484123
-0.12043529 0.15501525 1.7600001 4286484123
-0.11897544 0.15510333 1.761 4286549916
-0.11751386 0.15519139 1.7620001 4286549916
-0.11618218 0.15545562 1.7650001 4286418330
-0.11471538 0.1555437 1.766 4286418330
-0.11318276 0.1555437 1.766 4286352537
-0.11177658 0.15571985 1.7680001 4286286744
-0.11030458 0.15580793 1.7690001 4286220951
-0.10876935 0.15580793 1.7690001 4286089365
-0.10735537 0.15598407 1.771 4286023572
-0.10581841 0.15598407 1.771 4285957779
-0.10428145 0.15598407 1.771 4285826193
-0.1028025 0.15607215 1.7720001 4285891986
-0.10126467 0.15607215 1.7720001 4285694607
-0.099726841 0.15607215 1.7720001 4285694607
-0.098244421 0.15616024 1.7730001 4285826193
-0.096705727 0.15616024 1.7730001 4286023572
-0.095220707 0.15624832 1.774 4286023572
-0.093786761 0.15642448 1.7760001 4285957779
-0.09224546 0.15642448 1.7760001 4285957779
-0.090755232 0.15651254 1.7770001 4285957779
-0.08931347 0.15668871 1.779 4285957779
-0.087818906 0.15677677 1.7800001 4286220951
-0.086225666 0.15668871 1.779 4286352537
-0.084824562 0.15695293 1.7820001 4286418586
-0.083278053 0.15695293 1.7820001 4286221464
-0.081731543 0.15695293 1.7820001 4286024085
-0.080275029 0.15712908 1.784 4286155671
-0.078770921 0.15721716 1.7850001 4286221465
-0.077265069 0.15730523 1.7860001 4286221466
-0.075715095 0.15730523 1.7860001 4286221723
-0.074331217 0.15765755 1.7900001 4286287516
-0.07277777 0.15765755 1.7900001 4286353309
-0.071264103 0.15774563 1.7910001 4286221723
-0.06986548 0.15809794 1.7950001 4286090137
-0.068345748 0.158186 1.7960001 4286024344
-0.066824272 0.15827408 1.7970001 4286155930
-0.065410025 0.15862639 1.8010001 4286221724
-0.063882478 0.15871446 1.802 4286287517
-0.062353201 0.15880254 1.8030001 4286221724
-0.060923323 0.15915486 1.807 4286155931
-0.059387971 0.15924293 1.8080001 4286221725
-0.057850879 0.15933101 1.8090001 4286287518
-0.056436494 0.15977138 1.8140001 4286353311
-0.054892462 0.15985946 1.8150001 4286353312
-0.053346694 0.15994754 1.8160001 4286418590
-0.051884707 0.16029985 1.8200001 4286418590
-0.050332867 0.16038793 1.8210001 4286418845
-0.048806056 0.16056408 1.8230001 4286418845
-0.047405299 0.16118062 1.83 4286418845
-0.045867208 0.16135676 1.8320001 4286484638
-0.044325646 0.16153292 1.8340001 4286682017
-0.042967021 0.1624137 1.8440001 4286879396
-0.041434009 0.16267793 1.8470001 4287273641
-0.039895784 0.16294216 1.8500001 4287536812
-0.038559332 0.16408715 1.863 4288062641
-0.037021846 0.16443945 1.8670001 4288391091
-0.035477418 0.16479178 1.8710001 4288916664
-0.27283564 0.16658212 1.8730001 4294639615
-0.27048615 0.16613743 1.868 4294573823
-0.26598638 0.16435865 1.848 4293258735
-0.26395339 0.16409184 1.845 4290561225
-0.26192564 0.16382502 1.8420001 4289771968
-0.25891376 0.16293563 1.8320001 4289509055
-0.25690249 0.16266881 1.8290001 4289114557
-0.255036 0.16249095 1.8270001 4289575878
-0.25247937 0.16186836 1.8200001 4291615461
-0.25062415 0.16169049 1.8180001 4292207598
-0.24890941 0.16160156 1.817 4289971151
-0.24651581 0.16106792 1.8110001 4288326327
-0.24453838 0.1608011 1.8080001 4287997875
-0.242163 0.16026747 1.802 4287866289
-0.24033208 0.1600896 1.8000001 4287866289
-0.23850466 0.15991172 1.7980001 4287866289
-0.23615359 0.1593781 1.7920001 4287800755
-0.23433658 0.15920021 1.7900001 4287669169
-0.23265305 0.15911126 1.789 4287537583
-0.23045461 0.15866658 1.784 4287603376
-0.22877803 0.15857764 1.7830001 4287537583
-0.22710323 0.15848871 1.7820001 4287471790
-0.225177 0.15822189 1.779 4287274411
-0.2236331 0.15822189 1.779 4287142825
-0.22196434 0.15813294 1.7780001 4287142825
-0.22017336 0.15795508 1.7760001 4287142825
-0.21863206 0.15795508 1.7760001 4287142566
-0.21672405 0.15768826 1.7730001 4287076773
-0.21518536 0.15768826 1.7730001 4287076773
-0.21352616 0.15759932 1.7720001 4287142566
-0.21162944 0.15733249 1.7690001 4287076773
-0.20985669 0.15715463 1.7670001 4287010980
-0.2082053 0.15706569 1.766 4287010980
-0.2063216 0.15679887 1.7630001 4287010980
-0.20467542 0.15670992 1.7620001 4286879907
-0.20314626 0.15670992 1.7620001 4286814114
-0.20150268 0.15662099 1.761 4286814114
-0.1999744 0.15662099 1.761 4286879907
-0.19833343 0.15653205 1.7600001 4287077286
-0.19669421 0.1564431 1.7590001 4287011493
-0.19516766 0.1564431 1.7590001 4287011493
-0.19353102 0.15635417 1.7580001 4287011493
-0.19189613 0.15626524 1.7570001 4287142053
-0.19026297 0.1561763 1.756 4287076260
-0.18852405 0.15599842 1.7540001 4287141539
-0.18700185 0.15599842 1.7540001 4287207332
-0.18547964 0.15599842 1.7540001 4287337635
-0.18374766 0.15582055 1.7520001 4287337122
-0.1821232 0.1557316 1.751 4287467679
-0.18060359 0.1557316 1.751 4287138455
-0.17877716 0.15546478 1.748 4286743697
-0.17715876 0.15537585 1.7470001 4290493896
-0.17554207 0.15528692 1.7460001 4294440447
-0.17392714 0.15519798 1.7450001 4294835199
-0.17241275 0.15519798 1.7450001 4294637823
-0.17089835 0.15519798 1.7450001 4294572031
-0.16957809 0.15537585 1.7470001 4294506495
-0.16806196 0.15537585 1.7470001 4294374909
-0.16654582 0.15537585 1.7470001 4294506751
-0.16521862 0.15555373 1.7490001 4294638334
-0.16370074 0.15555373 1.7490001 4292862188
-0.16218288 0.15555373 1.7490001 4288586157
-0.16084874 0.1557316 1.751 4284901752
-0.15932913 0.1557316 1.751 4284441971
-0.15780953 0.1557316 1.751 4284574070
-0.15637918 0.15582055 1.7520001 4285035391
-0.15485871 0.15582055 1.7520001 4285430408
-0.15333824 0.15582055 1.7520001 4285759887
-0.15173112 0.1557316 1.751 4285891475
-0.1502973 0.15582055 1.7520001 4285760402
-0.14877681 0.15582055 1.7520001 4285826708
-0.14725634 0.15582055 1.7520001 4285760915
-0.14573587 0.15582055 1.7520001 4285695122
-0.1442154 0.15582055 1.7520001 4285826708
-0.14277638 0.15590948 1.7530001 4285892758
-0.14125505 0.15590948 1.7530001 4286024344
-0.13973372 0.15590948 1.7530001 4286155930
-0.13829121 0.15599842 1.7540001 4286353309
-0.13684697 0.15608737 1.7550001 4286484895
-0.1353239 0.15608737 1.7550001 4286484895
-0.13387707 0.1561763 1.756 4286550430
-0.13235313 0.1561763 1.756 4286418844
-0.13082919 0.1561763 1.756 4286353050
-0.12937887 0.15626524 1.7570001 4286418587
-0.1277813 0.1561763 1.756 4286549916
-0.12632924 0.15626524 1.7570001 4286615709
-0.12480444 0.15626524 1.7570001 4286615709
-0.12334979 0.15635417 1.7580001 4286484123
-0.12182411 0.15635417 1.7580001 4286484123
-0.12043529 0.15653205 1.7600001 4286549916
-0.11897544 0.15662099 1.761 4286615709
-0.11744715 0.15662099 1.761 4286615709
-0.11611634 0.15688781 1.7640001 4286549916
-0.11465043 0.15697674 1.7650001 4286549916
-0.11318276 0.15706569 1.766 4286549915
-0.11177658 0.15724355 1.7680001 4286418586
-0.11024223 0.15724355 1.7680001 4286484122
-0.10876935 0.15733249 1.7690001 4286418329
-0.10729475 0.15742144 1.7700001 4286220950
-0.10575865 0.15742144 1.7700001 4286155157
-0.10428145 0.15751037 1.771 4286089364
-0.10274449 0.15751037 1.771 4285957778
-0.10120752 0.15751037 1.771 4285891986
-0.099670567 0.15751037 1.771 4285891986
-0.098189011 0.15759932 1.7720001 4286023572
-0.096705727 0.15768826 1.7730001 4286155158
-0.095167033 0.15768826 1.7730001 4286023572
-0.093733944 0.15786614 1.7750001 4285957779
-0.09224546 0.15795508 1.7760001 4285957779
-0.090704158 0.15795508 1.7760001 4285957779
-0.089213066 0.15804401 1.7770001 4286089365
-0.08772023 0.15813294 1.7780001 4286286744
-0.086225666 0.15822189 1.779 4286353050
-0.08477696 0.15839976 1.7810001 4286353050
-0.083278053 0.15848871 1.7820001 4286221464
-0.081731543 0.15848871 1.7820001 4286155671
-0.080275029 0.15866658 1.784 4286155671
-0.078770921 0.15875553 1.7850001 4286155671
-0.077221811 0.15875553 1.7850001 4286155673
-0.075715095 0.15884446 1.7860001 4286287259
-0.074289694 0.15911126 1.789 4286353309
-0.07277777 0.15920021 1.7900001 4286419102
-0.06986548 0.15964492 1.7950001 4286221723
-0.068345748 0.15973385 1.7960001 4286090137
-0.066824272 0.15982279 1.7970001 4286090137
-0.065373711 0.1600896 1.8000001 4286090138
-0.063882478 0.16026747 1.802 4286090137
-0.062353201 0.16035642 1.8030001 4286090138
-0.060923323 0.16071217 1.807 4286090138
-0.059387971 0.1608011 1.8080001 4286155931
-0.057850879 0.16089004 1.8090001 4286221724
-0.056436494 0.16133474 1.8140001 4286353310
-0.054892462 0.16142368 1.8150001 4286419103
-0.053317316 0.16142368 1.8150001 4286352797
-0.051884707 0.16186836 1.8200001 4286287004
-0.050360505 0.16204625 1.8220001 4286353052
-0.048806056 0.16213518 1.8230001 4286418845
-0.047405299 0.16275775 1.83 4286484638
-0.045867208 0.16293563 1.8320001 4286550431
-0.044325646 0.16311352 1.8340001 4286813346
-0.042967021 0.16400291 1.8440001 4287010725
-0.041456439 0.16435865 1.848 4287273641
-0.03991735 0.16462547 1.8510001 4287602606
-0.038517937 0.16551486 1.8610001 4288127921
-0.036962356 0.16578168 1.8640001 4288456884
-0.035439495 0.16622636 1.8690001 4288916665
-0.27283564 0.16819632 1.8730001 4294639615
-0.27034137 0.16765751 1.8670001 4294639615
-0.26584244 0.16586152 1.8470001 4293192430
-0.26381034 0.16559212 1.8440001 4290626762
-0.26149905 0.1651431 1.8390001 4289969348
-0.25877243 0.1644247 1.8310001 4289706178
-0.25690249 0.1642451 1.8290001 4289180606
-0.2548964 0.16397569 1.8260001 4289312450
-0.25247937 0.16343689 1.8200001 4290496981
-0.25076205 0.1633471 1.8190001 4290891740
-0.24890941 0.16316749 1.817 4289313222
-0.24665193 0.16271849 1.812 4288326327
-0.24467364 0.16244909 1.8090001 4288063412
-0.24229738 0.16191028 1.8030001 4287866289
-0.24046563 0.16173069 1.8010001 4287932084
-0.23863731 0.16155109 1.7990001 4287932341
-0.23628536 0.16101228 1.7930001 4287866548
-0.2345984 0.16092248 1.7920001 4287669169
-0.23278312 0.16074288 1.7900001 4287471790
-0.23071295 0.16038367 1.7860001 4287471790
-0.22890636 0.16020407 1.784 4287405997
-0.22723067 0.16011427 1.7830001 4287274411
-0.22543015 0.15993467 1.7810001 4287274411
-0.2237588 0.15984488 1.7800001 4287142825
-0.22221403 0.15984488 1.7800001 4287142825
-0.22042131 0.15966527 1.7780001 4287077032
-0.21875517 0.15957546 1.7770001 4287076773
-0.21696854 0.15939587 1.7750001 4287010980
-0.21530673 0.15930606 1.774 4287076773
-0.21352616 0.15912648 1.7720001 4287142566
-0.21162944 0.15885706 1.7690001 4287076773
-0.20997545 0.15876727 1.7680001 4287076773
-0.2083232 0.15867747 1.7670001 4287076773
-0.20643862 0.15840808 1.7640001 4287010980
-0.20479158 0.15831827 1.7630001 4286879907
-0.20314626 0.15822846 1.7620001 4286814114
-0.20150268 0.15813868 1.761 4286814114
-0.1999744 0.15813868 1.761 4286814114
-0.19833343 0.15804887 1.7600001 4287011493
-0.19669421 0.15795906 1.7590001 4286879907
-0.19505669 0.15786926 1.7580001 4286879907
-0.19353102 0.15786926 1.7580001 4286945700
-0.19178692 0.15768966 1.756 4287010467
-0.19015461 0.15759987 1.7550001 4286878881
-0.18852405 0.15751006 1.7540001 4286944160
-0.18700185 0.15751006 1.7540001 4287009953
-0.1853739 0.15742026 1.7530001 4287337635
-0.18374766 0.15733047 1.7520001 4287271329
-0.1821232 0.15724066 1.751 4287139484
-0.18060359 0.15724066 1.751 4287007639
-0.17887942 0.15706107 1.7490001 4286612111
-0.17726016 0.15697126 1.748 4290033346
-0.17574316 0.15697126 1.748 4294308861
-0.17412649 0.15688145 1.7470001 4294900991
-0.17270915 0.15697126 1.748 4294506239
-0.17119215 0.15697126 1.748 4294440447
-0.16967516 0.15697126 1.748 4294506495
-0.16825435 0.15706107 1.7490001 4294440702
-0.16673648 0.15706107 1.7490001 4294507007
-0.16531309 0.15715085 1.7500001 4293783288
-0.16379435 0.15715085 1.7500001 4290493898
-0.16227561 0.15715085 1.7500001 4286218123
-0.16084874 0.15724066 1.751 4284573044
-0.15932913 0.15724066 1.751 4284574070
-0.15780953 0.15724066 1.751 4284903292
-0.15628992 0.15724066 1.751 4284904319
-0.15477031 0.15724066 1.751 4285167493
-0.15325072 0.15724066 1.751 4285496714
-0.15173112 0.15724066 1.751 4285497486
-0.15021151 0.15724066 1.751 4285694609
-0.14869191 0.15724066 1.751 4285629329
-0.1471723 0.15724066 1.751 4285563536
-0.1456527 0.15724066 1.751 4285563793
-0.14413309 0.15724066 1.751 4285761172
-0.14269494 0.15733047 1.7520001 4285958551
-0.14117447 0.15733047 1.7520001 4286090137
-0.13973372 0.15742026 1.7530001 4286287516
-0.13829121 0.15751006 1.7540001 4286419102
-0.13684697 0.15759987 1.7550001 4286616481
-0.1353239 0.15759987 1.7550001 4286484895
-0.13387707 0.15768966 1.756 4286484636
-0.13235313 0.15768966 1.756 4286418587
-0.13075466 0.15759987 1.7550001 4286484123
-0.12930524 0.15768966 1.756 4286549916
-0.1277813 0.15768966 1.756 4286549916
-0.12625736 0.15768966 1.756 4286484123
-0.12480444 0.15777947 1.7570001 4286352537
-0.12327963 0.15777947 1.7570001 4286286744
-0.12175482 0.15777947 1.7570001 4286352537
-0.12036687 0.15795906 1.7590001 4286549916
-0.11890788 0.15804887 1.7600001 4286681502
-0.11738046 0.15804887 1.7600001 4286747294
-0.11605053 0.15831827 1.7630001 4286747295
-0.11458546 0.15840808 1.7640001 4286681758
-0.11305458 0.15840808 1.7640001 4286681756
-0.11165014 0.15858766 1.766 4286681756
-0.11017987 0.15867747 1.7670001 4286615963
-0.10864639 0.15867747 1.7670001 4286550170
-0.10717352 0.15876727 1.7680001 4286352791
-0.10569891 0.15885706 1.7690001 4286221205
-0.10416368 0.15885706 1.7690001 4286221205
-0.10268647 0.15894687 1.7700001 4286155412
-0.10115038 0.15894687 1.7700001 4286155158
-0.099614285 0.15894687 1.7700001 4286155158
-0.098189011 0.15912648 1.7720001 4286220951
-0.096705727 0.15921627 1.7730001 4286220951
-0.095167033 0.15921627 1.7730001 4286155158
-0.093733944 0.15939587 1.7750001 4286089365
-0.092193514 0.15939587 1.7750001 4286089365
-0.090653084 0.15939587 1.7750001 4286023572
-0.089213066 0.15957546 1.7770001 4286287000
-0.08772023 0.15966527 1.7780001 4286484123
-0.086225666 0.15975508 1.779 4286418843
-0.08477696 0.15993467 1.7810001 4286353050
-0.083278053 0.16002448 1.7820001 4286287257
-0.081731543 0.16002448 1.7820001 4286287257
-0.080275029 0.16020407 1.784 4286287257
-0.078770921 0.16029388 1.7850001 4286221464
-0.077265069 0.16038367 1.7860001 4286221464
-0.074289694 0.16065307 1.789 4286418844
-0.07277777 0.16074288 1.7900001 4286550430
-0.06986548 0.1611919 1.7950001 4286287516
-0.068345748 0.16128168 1.7960001 4286155930
-0.066824272 0.16137148 1.7970001 4286024344
-0.065410025 0.16173069 1.8010001 4285892758
-0.063882478 0.16182049 1.802 4285892758
-0.062353201 0.16191028 1.8030001 4285892759
-0.060923323 0.16226949 1.807 4286024344
-0.059387971 0.16235928 1.8080001 4286090138
-0.057850879 0.16244909 1.8090001 4286221723
-0.056405384 0.1628083 1.8130001 4286287517
-0.054862216 0.16289809 1.8140001 4286287517
-0.053346694 0.1630777 1.8160001 4286352797
-0.051913217 0.1635267 1.8210001 4286221211
-0.050388146 0.16370629 1.8230001 4286287259
-0.04883283 0.1637961 1.8240001 4286418845
-0.047457106 0.1645145 1.8320001 4286550175
-0.045917284 0.1646941 1.8340001 4286616224
-0.044398151 0.1649635 1.8370001 4286878883
-0.043036927 0.16586152 1.8470001 4287076262
-0.041501306 0.16613092 1.8500001 4287339434
-0.039982043 0.16649011 1.8540001 4287668399
-0.27283564 0.16981052 1.8730001 4294639615
-0.27048615 0.16935721 1.868 4294574079
-0.26584244 0.1674533 1.8470001 4293192687
-0.26381034 0.16718131 1.8440001 4290627277
-0.26164123 0.16681866 1.84 4290035398
-0.25877243 0.16600271 1.8310001 4289903814
-0.25690249 0.16582137 1.8290001 4289377987
-0.255036 0.16564006 1.8270001 4289115072
-0.2526181 0.16509607 1.8210001 4289312708
-0.25076205 0.16491476 1.8190001 4289444294
-0.2490464 0.1648241 1.8180001 4288918463
-0.24665193 0.16428012 1.812 4288457913
-0.24494414 0.16418946 1.8110001 4288129461
-0.24229738 0.16346416 1.8030001 4287997875
-0.24059914 0.16337349 1.802 4287800755
-0.23876996 0.16319217 1.8000001 4287800755
-0.23641714 0.1626482 1.794 4287669169
-0.2347293 0.16255753 1.7930001 4287537583
-0.23291317 0.16237621 1.7910001 4287471790
-0.23071295 0.16192289 1.7860001 4287537583
-0.22903468 0.16183224 1.7850001 4287471790
-0.2273581 0.16174157 1.784 4287405997
-0.22543015 0.16146958 1.7810001 4287208618
-0.22388451 0.16146958 1.7810001 4287142825
-0.22233886 0.16146958 1.7810001 4287142568
-0.22042131 0.1611976 1.7780001 4287010982
-0.21887827 0.1611976 1.7780001 4286945187
-0.2168463 0.16083494 1.774 4286945187
-0.21530673 0.16083494 1.774 4287010980
-0.21364667 0.16074429 1.7730001 4287010980
-0.21162944 0.16038164 1.7690001 4287076773
-0.21009421 0.16038164 1.7690001 4287076773
-0.20844109 0.16029097 1.7680001 4287076773
-0.20643862 0.15992834 1.7640001 4286945187
-0.20490773 0.15992834 1.7640001 4286879394
-0.20326155 0.15983766 1.7630001 4286945187
-0.20150268 0.15965635 1.761 4286945700
-0.1999744 0.15965635 1.761 4286879907
-0.19833343 0.15956567 1.7600001 4286879907
-0.19669421 0.15947501 1.7590001 4286814114
-0.19505669 0.15938435 1.7580001 4286748065
-0.19353102 0.15938435 1.7580001 4286682528
-0.19178692 0.15920302 1.756 4286813088
-0.19015461 0.15911236 1.7550001 4286747295
-0.18852405 0.15902171 1.7540001 4286878367
-0.18700185 0.15902171 1.7540001 4286943903
-0.1853739 0.15893103 1.7530001 4287206049
-0.18374766 0.15884039 1.7520001 4287140256
-0.1821232 0.15874971 1.751 4287007898
-0.18060359 0.15874971 1.751 4286876312
-0.17887942 0.1585684 1.7490001 4286546318
-0.17736156 0.1585684 1.7490001 4289441209
-0.17574316 0.15847774 1.748 4294243839
-0.17422616 0.15847774 1.748 4294770175
-0.17261036 0.15838706 1.7470001 4294572031
-0.17119215 0.15847774 1.748 4294440703
-0.16977222 0.1585684 1.7490001 4294375167
-0.16825435 0.1585684 1.7490001 4294375167
-0.16683182 0.15865906 1.7500001 4294375934
-0.16540755 0.15874971 1.751 4292731114
-0.16388795 0.15874971 1.751 4288257706
-0.16236834 0.15874971 1.751 4285034106
-0.16084874 0.15874971 1.751 4284639351
-0.15932913 0.15874971 1.751 4284969342
-0.15780953 0.15874971 1.751 4285035136
-0.15628992 0.15874971 1.751 4285036163
-0.15477031 0.15874971 1.751 4285101956
-0.15325072 0.15874971 1.751 4285036677
-0.15173112 0.15874971 1.751 4285431950
-0.15021151 0.15874971 1.751 4285563536
-0.14869191 0.15874971 1.751 4285498000
-0.1471723 0.15874971 1.751 4285563793
-0.1456527 0.15874971 1.751 4285695379
-0.14413309 0.15874971 1.751 4285958551
-0.14269494 0.15884039 1.7520001 4286155930
-0.14125505 0.15893103 1.7530001 4286221723
-0.13973372 0.15893103 1.7530001 4286353309
-0.13837005 0.15911236 1.7550001 4286419102
-0.13684697 0.15911236 1.7550001 4286550687
-0.13540101 0.15920302 1.756 4286419101
-0.13380082 0.15911236 1.7550001 4286418843
-0.13227774 0.15911236 1.7550001 4286484636
-0.13075466 0.15911236 1.7550001 4286549916
-0.12930524 0.15920302 1.756 4286549916
-0.1277813 0.15920302 1.756 4286484123
-0.12625736 0.15920302 1.756 4286286744
-0.12480444 0.1592937 1.7570001 4286155158
-0.12327963 0.1592937 1.7570001 4286286744
-0.12175482 0.1592937 1.7570001 4286352537
-0.12036687 0.15947501 1.7590001 4286484123
-0.11890788 0.15956567 1.7600001 4286549915
-0.11738046 0.15956567 1.7600001 4286615708
-0.11605053 0.15983766 1.7630001 4286747549
-0.11458546 0.15992834 1.7640001 4286747549
-0.11305458 0.15992834 1.7640001 4286747549
-0.11165014 0.16010965 1.766 4286879135
-0.11011752 0.16010965 1.766 4286681756
-0.10864639 0.16020031 1.7670001 4286550170
-0.10717352 0.16029097 1.7680001 4286484377
-0.10563916 0.16029097 1.7680001 4286286998
-0.10416368 0.16038164 1.7690001 4286286998
-0.10268647 0.1604723 1.7700001 4286418584
-0.10115038 0.1604723 1.7700001 4286484123
-0.099670567 0.16056296 1.771 4286418330
-0.098189011 0.16065362 1.7720001 4286418330
-0.096705727 0.16074429 1.7730001 4286418330
-0.095167033 0.16074429 1.7730001 4286286744
-0.093733944 0.16092561 1.7750001 4286220951
-0.092193514 0.16092561 1.7750001 4286220951
-0.090704158 0.16101627 1.7760001 4286221207
-0.08926326 0.1611976 1.7780001 4286418843
-0.087769568 0.16128826 1.779 4286550429
-0.086274132 0.16137892 1.7800001 4286484636
-0.084824562 0.16156025 1.7820001 4286353050
-0.083278053 0.16156025 1.7820001 4286418843
-0.081731543 0.16156025 1.7820001 4286550429
-0.080275029 0.16174157 1.784 4286484636
-0.078770921 0.16183224 1.7850001 4286287257
-0.077265069 0.16192289 1.7860001 4286221464
-0.074331217 0.16228555 1.7900001 4286287257
-0.07277777 0.16228555 1.7900001 4286484636
-0.06986548 0.16273886 1.7950001 4286353309
-0.068345748 0.16282952 1.7960001 4286221723
-0.066824272 0.16292018 1.7970001 4286090137
-0.065410025 0.16328284 1.8010001 4285892758
-0.063882478 0.16337349 1.802 4285892758
-0.062353201 0.16346416 1.8030001 4285892758
-0.060923323 0.16382681 1.807 4285958551
-0.059355121 0.16382681 1.807 4286090137
-0.057818897 0.16391747 1.8080001 4286155930
-0.056405384 0.16437079 1.8130001 4286221724
-0.054862216 0.16446143 1.8140001 4286221723
-0.053346694 0.16464277 1.8160001 4286287004
-0.051941726 0.16518675 1.8220001 4286221467
-0.050388146 0.16527739 1.8230001 4286353052
-0.0488596 0.16545872 1.825 4286418845
-0.047483012 0.16618402 1.8330001 4286549918
-0.045942318 0.16636534 1.835 4286681504
-0.044398151 0.16654667 1.8370001 4286813090
-0.043060225 0.16754396 1.848 4287010469
-0.04152374 0.16781594 1.8510001 4287273385
-0.039982043 0.16808793 1.8540001 4287668142
-0.27298132 0.17151624 1.8740001 4294639615
-0.27034137 0.17087558 1.8670001 4294508543
-0.26584244 0.16904509 1.8470001 4293390323
-0.26381034 0.16877052 1.8440001 4290824656
-0.26178342 0.16849595 1.8410001 4290035399
-0.25891376 0.16767222 1.8320001 4289838534
-0.25704294 0.16748917 1.83 4289509572
-0.25517559 0.16730614 1.8280001 4289049534
-0.2526181 0.16666546 1.8210001 4288852414
-0.25089988 0.16657393 1.8200001 4288786878
-0.2490464 0.1663909 1.8180001 4288590012
-0.24678807 0.16593327 1.8130001 4288326840
-0.24480888 0.1656587 1.8100001 4287998133
-0.24243176 0.16510956 1.8040001 4287998134
-0.24059914 0.1649265 1.802 4287801012
-0.23890263 0.16483499 1.8010001 4287734962
-0.23654895 0.16428584 1.7950001 4287537840
-0.2347293 0.16410278 1.7930001 4287471790
-0.23304321 0.16401127 1.7920001 4287537583
-0.23084213 0.16355364 1.7870001 4287537583
-0.22916298 0.16346212 1.7860001 4287471790
-0.22748555 0.16337059 1.7850001 4287340204
-0.22555673 0.16309603 1.7820001 4287077032
-0.22401021 0.16309603 1.7820001 4287011239
-0.22233886 0.16300449 1.7810001 4287010982
-0.22042131 0.16272992 1.7780001 4287010982
-0.21875517 0.1626384 1.7770001 4286945187
-0.21696854 0.16245535 1.7750001 4286879394
-0.21530673 0.16236383 1.774 4286879394
-0.21364667 0.1622723 1.7730001 4286813601
-0.21174906 0.16199774 1.7700001 4286879394
-0.21009421 0.16190621 1.7690001 4286945187
-0.20844109 0.16181467 1.7680001 4286879394
-0.20655565 0.16154011 1.7650001 4286813601
-0.20490773 0.1614486 1.7640001 4286813601
-0.20326155 0.16135706 1.7630001 4286945187
-0.20150268 0.16117401 1.761 4287076773
-0.1999744 0.16117401 1.761 4287076773
-0.19844612 0.16117401 1.761 4286945700
-0.19669421 0.16099097 1.7590001 4286748321
-0.19505669 0.16089945 1.7580001 4286616222
-0.19353102 0.16089945 1.7580001 4286550429
-0.19178692 0.16071638 1.756 4286681502
-0.19026297 0.16071638 1.756 4286747295
-0.18852405 0.16053334 1.7540001 4286944160
-0.18700185 0.16053334 1.7540001 4287009953
-0.18547964 0.16053334 1.7540001 4287140256
-0.18374766 0.16035031 1.7520001 4287074463
-0.18222719 0.16035031 1.7520001 4287007898
-0.18060359 0.16025877 1.751 4286744726
-0.17898171 0.16016725 1.7500001 4286217610
-0.17736156 0.16007572 1.7490001 4288388522
-0.17574316 0.1599842 1.748 4293849340
-0.17422616 0.1599842 1.748 4294704383
-0.17270915 0.1599842 1.748 4294440959
-0.17119215 0.1599842 1.748 4294309375
-0.1698693 0.16016725 1.7500001 4294309375
-0.16835056 0.16016725 1.7500001 4294440959
-0.16683182 0.16016725 1.7500001 4293718008
-0.16540755 0.16025877 1.751 4291218132
-0.16388795 0.16025877 1.751 4286875797
-0.16246107 0.16035031 1.7520001 4284771448
-0.16094059 0.16035031 1.7520001 4285231746
-0.15942012 0.16035031 1.7520001 4285035137
-0.15789965 0.16035031 1.7520001 4285101699
-0.15637918 0.16035031 1.7520001 4284970370
-0.15477031 0.16025877 1.751 4284904577
-0.15325072 0.16025877 1.751 4284970884
-0.15173112 0.16025877 1.751 4285102985
-0.15021151 0.16025877 1.751 4285431950
-0.14869191 0.16025877 1.751 4285563793
-0.1471723 0.16025877 1.751 4285695122
-0.1456527 0.16025877 1.751 4285826964
-0.14413309 0.16025877 1.751 4286090136
-0.14269494 0.16035031 1.7520001 4286287515
-0.14125505 0.16044182 1.7530001 4286419101
-0.13973372 0.16044182 1.7530001 4286484894
-0.13837005 0.16062488 1.7550001 4286550687
-0.136769 0.16053334 1.7540001 4286616222
-0.1353239 0.16062488 1.7550001 4286484636
-0.13387707 0.16071638 1.756 4286484636
-0.13235313 0.16071638 1.756 4286550173
-0.13082919 0.16071638 1.756 4286484123
-0.12930524 0.16071638 1.756 4286352537
-0.1277813 0.16071638 1.756 4286286744
-0.12625736 0.16071638 1.756 4286155158
-0.12480444 0.16080792 1.7570001 4286286744
-0.12327963 0.16080792 1.7570001 4286418330
-0.12175482 0.16080792 1.7570001 4286352537
-0.12036687 0.16099097 1.7590001 4286352537
-0.11890788 0.16108249 1.7600001 4286352791
-0.11738046 0.16108249 1.7600001 4286484377
-0.11605053 0.16135706 1.7630001 4286681756
-0.11452051 0.16135706 1.7630001 4286813342
-0.11305458 0.1614486 1.7640001 4286813342
-0.11165014 0.16163163 1.766 4286813342
-0.11011752 0.16163163 1.766 4286681756
-0.1085849 0.16163163 1.766 4286550170
-0.10717352 0.16181467 1.7680001 4286550170
-0.10563916 0.16181467 1.7680001 4286484377
-0.10416368 0.16190621 1.7690001 4286550170
-0.10268647 0.16199774 1.7700001 4286550171
-0.10120752 0.16208924 1.771 4286615709
-0.099670567 0.16208924 1.771 4286484123
-0.098189011 0.16218078 1.7720001 4286484123
-0.096651182 0.16218078 1.7720001 4286549916
-0.095167033 0.1622723 1.7730001 4286549916
-0.093733944 0.16245535 1.7750001 4286418330
-0.09224546 0.16254687 1.7760001 4286484123
-0.090755232 0.1626384 1.7770001 4286484123
-0.08931347 0.16282146 1.779 4286615966
-0.087818906 0.16291296 1.7800001 4286681759
-0.086274132 0.16291296 1.7800001 4286616222
-0.084824562 0.16309603 1.7820001 4286550172
-0.083278053 0.16309603 1.7820001 4286615965
-0.081777416 0.16318753 1.7830001 4286616222
-0.08032003 0.16337059 1.7850001 4286484380
-0.078770921 0.16337059 1.7850001 4286221207
-0.077265069 0.16346212 1.7860001 4286155414
-0.075757489 0.16355364 1.7870001 4286089622
-0.074331217 0.16382821 1.7900001 4286221464
-0.072818421 0.16391975 1.7910001 4286418843
-0.06986548 0.16428584 1.7950001 4286353052
-0.068345748 0.16437736 1.7960001 4286155930
-0.066824272 0.16446888 1.7970001 4286024344
-0.065410025 0.16483499 1.8010001 4286024344
-0.063882478 0.1649265 1.802 4286024344
-0.062353201 0.16501802 1.8030001 4285958551
-0.060889613 0.16529261 1.8060001 4285958551
-0.059355121 0.16538413 1.807 4286024344
-0.057850879 0.16556717 1.8090001 4286155930
-0.056405384 0.16593327 1.8130001 4286221723
-0.054892462 0.16611631 1.8150001 4286155930
-0.053346694 0.16620785 1.8160001 4286287259
-0.051941726 0.16675699 1.8220001 4286353052
-0.050415784 0.16694003 1.8240001 4286484638
-0.048886374 0.16712308 1.8260001 4286550431
-0.047483012 0.16776375 1.8330001 4286615711
-0.045967352 0.16803832 1.8360001 4286615711
-0.044422321 0.16822137 1.8380001 4286813090
-0.043083526 0.16922814 1.8490001 4287010469
-0.04154617 0.16950271 1.8520001 4287404457
-0.040025175 0.16986881 1.8560001 4287667629
-0.28112233 0.17516381 1.8960001 4294835967
-0.27888727 0.17479426 1.8920001 4294770431
-0.27651262 0.17433232 1.8870001 4294639615
-0.27298132 0.1731313 1.8740001 4294639615
-0.27048615 0.17257699 1.868 4294508543
-0.26598638 0.17072926 1.848 4293719544
-0.26395339 0.1704521 1.845 4291087828
-0.26178342 0.17008257 1.8410001 4290035399
-0.2591964 0.16943586 1.8340001 4289641412
-0.2571834 0.16915871 1.8310001 4289312705
-0.25531518 0.16897392 1.8290001 4288852925
-0.25289553 0.16841961 1.8230001 4288655548
-0.25117558 0.16832724 1.8220001 4288655292
-0.2493204 0.16814245 1.8200001 4288261047
-0.2470603 0.16768053 1.8150001 4288195254
-0.24521466 0.16749576 1.8130001 4287998134
-0.24270053 0.16684906 1.8060001 4287866548
-0.24099968 0.16675666 1.8050001 4287735732
-0.23916791 0.1665719 1.8030001 4287604146
-0.2368125 0.16601758 1.7970001 4287472560
-0.23512207 0.16592519 1.7960001 4287406767
-0.23330329 0.16574043 1.794 4287537583
-0.23122968 0.16537088 1.7900001 4287405997
-0.22954789 0.16527849 1.789 4287274411
-0.22774044 0.16509372 1.7870001 4287208618
-0.22593644 0.16490896 1.7850001 4287011239
-0.22426163 0.16481656 1.784 4286945446
-0.22258854 0.16472417 1.7830001 4287010980
-0.22079322 0.16453941 1.7810001 4287010980
-0.21900138 0.16435464 1.779 4286945187
-0.217213 0.16416986 1.7770001 4286945187
-0.21554945 0.16407748 1.7760001 4286945187
-0.21388766 0.16398509 1.7750001 4286813601
-0.21198833 0.16370793 1.7720001 4286944674
-0.21033175 0.16361554 1.771 4286944674
-0.20867687 0.16352317 1.7700001 4286878881
-0.20667268 0.16315362 1.766 4286813088
-0.2050239 0.16306123 1.7650001 4286878881
-0.20337684 0.16296884 1.7640001 4287076259
-0.20161712 0.16278407 1.7620001 4287142307
-0.1999744 0.1626917 1.761 4287076514
-0.19844612 0.1626917 1.761 4286944930
-0.19669421 0.16250691 1.7590001 4286747808
-0.19505669 0.16241454 1.7580001 4286615709
-0.19353102 0.16241454 1.7580001 4286615709
-0.19178692 0.16222976 1.756 4286616222
-0.19026297 0.16222976 1.756 4286682015
-0.18863153 0.16213737 1.7550001 4287009953
-0.18710846 0.16213737 1.7550001 4287075746
-0.18547964 0.16204499 1.7540001 4287206049
-0.18385255 0.1619526 1.7530001 4287140256
-0.18233122 0.1619526 1.7530001 4286942618
-0.18080989 0.1619526 1.7530001 4286678933
-0.17898171 0.16167544 1.7500001 4286020744
-0.17746298 0.16167544 1.7500001 4287467420
-0.17594424 0.16167544 1.7500001 4292928494
-0.17442551 0.16167544 1.7500001 4294573055
-0.17290677 0.16167544 1.7500001 4294440703
-0.17148596 0.16176783 1.751 4294177535
-0.17006342 0.16186023 1.7520001 4293849340
-0.16854295 0.16186023 1.7520001 4293981180
-0.16702248 0.16186023 1.7520001 4292599786
-0.16550201 0.16186023 1.7520001 4289441722
-0.16407514 0.1619526 1.7530001 4285823624
