# .PCD v0.7 - Point Cloud Data file format
VERSION 0.7
FIELDS x y z rgba
SIZE 4 4 4 4
TYPE F F F U
COUNT 1 1 1 1
WIDTH 1106
HEIGHT 1
VIEWPOINT 0 0 0 1 0 0 0
POINTS 1106
DATA ascii
-0.10744011 0.17846465 1.654 4288721339
-0.1059406 0.17835675 1.6530001 4288852925
-0.10444283 0.17824885 1.6520001 4288787132
-0.10300914 0.17824885 1.6520001 4288721339
-0.10151397 0.17814095 1.651 4288721339
-0.10002053 0.17803305 1.6500001 4288590010
-0.098528825 0.17792515 1.649 4288392631
-0.097038858 0.17781726 1.6480001 4288326840
-0.095550627 0.17770936 1.6470001 4288458426
-0.094121277 0.17770936 1.6470001 4288524219
-0.092917047 0.17814095 1.651 4288392633
-0.091484234 0.17814095 1.651 4288195254
-0.090105958 0.17824885 1.6520001 4288063668
-0.088672273 0.17824885 1.6520001 4288128948
-0.08729139 0.17835675 1.6530001 4288260534
-0.085908778 0.17846465 1.654 4288194741
-0.084473357 0.17846465 1.654 4288063155
-0.083138339 0.17868045 1.6560001 4287931569
-0.08175052 0.17878835 1.6570001 4287997362
-0.08031249 0.17878835 1.6570001 4287997362
-0.078922071 0.17889625 1.6580001 4287865776
-0.077529907 0.17900415 1.659 4287668397
-0.076136008 0.17911205 1.6600001 4287668397
-0.074695379 0.17911205 1.6600001 4287668397
-0.073298879 0.17921995 1.6610001 4287602604
-0.071857385 0.17921995 1.6610001 4287471018
-0.070415884 0.17921995 1.6610001 4287536811
-0.068974391 0.17921995 1.6610001 4287668397
-0.067573547 0.17932785 1.6620001 4287734190
-0.066131182 0.17932785 1.6620001 4287602604
-0.06476666 0.17954363 1.664 4287602604
-0.063360617 0.17965154 1.6650001 4287602604
-0.061952829 0.17975944 1.6660001 4287536811
-0.060579635 0.17997524 1.6680001 4287471018
-0.059167508 0.18008314 1.669 4287471018
-0.057719067 0.18008314 1.669 4287471531
-0.056338064 0.18029892 1.6710001 4287471531
-0.054920733 0.18040684 1.6720001 4287537324
-0.053501666 0.18051472 1.6730001 4287537324
-0.052143089 0.18083842 1.6760001 4287603117
-0.050688576 0.18083842 1.6760001 4287603117
-0.049263436 0.18094632 1.677 4287733676
-0.04786507 0.18116212 1.6790001 4287536297
-0.046463232 0.18137792 1.6810001 4287471018
-0.045031149 0.18148582 1.682 4287536811
-0.043623239 0.18170162 1.6840001 4287536811
-0.042186815 0.18180951 1.6850001 4287668397
-0.040748656 0.18191741 1.6860001 4287734190
-0.039355367 0.18224111 1.6890001 4287536811
-0.037934437 0.1824569 1.6910001 4287602604
-0.036488466 0.18256481 1.692 4287668397
-0.035123553 0.18310429 1.697 4287799469
-0.033710305 0.183428 1.7 4287799469
-0.032272883 0.1836438 1.702 4287930542
-0.20521165 0.18521939 1.7030001 4290233032
-0.20361409 0.18511063 1.702 4289444032
-0.20201825 0.18500185 1.7010001 4289575618
-0.20018834 0.18467557 1.6980001 4289575876
-0.1985977 0.18456681 1.697 4289378497
-0.19712496 0.18456681 1.697 4288918718
-0.19565222 0.18456681 1.697 4288721339
-0.19406505 0.18445806 1.6960001 4288458426
-0.19259319 0.18445806 1.6960001 4288392633
-0.19100863 0.1843493 1.6950001 4288457913
-0.18953761 0.1843493 1.6950001 4288523706
-0.18773375 0.18402301 1.692 4288655292
-0.18615526 0.18391424 1.6910001 4288655292
-0.18457851 0.1838055 1.6900001 4288457913
-0.18278679 0.18347922 1.687 4288260534
-0.18132274 0.18347922 1.687 4288128948
-0.17975207 0.18337046 1.6860001 4288194741
-0.17797163 0.18304417 1.6830001 4288063155
-0.17651105 0.18304417 1.6830001 4288063155
-0.17494643 0.1829354 1.682 4288129461
-0.17338358 0.18282665 1.6810001 4288129461
-0.17182244 0.18271789 1.6800001 4288129461
-0.17036445 0.18271789 1.6800001 4288129461
-0.16890648 0.18271789 1.6800001 4288261047
-0.1673488 0.18260913 1.6790001 4288261047
-0.16579288 0.18250036 1.6780001 4288260788
-0.16433664 0.18250036 1.6780001 4288194995
-0.16288039 0.18250036 1.6780001 4288063155
-0.16123173 0.18228284 1.6760001 4287997362
-0.15977721 0.18228284 1.6760001 4288128948
-0.15822823 0.18217409 1.6750001 4288194741
-0.15658739 0.18195656 1.6730001 4288128948
-0.15504275 0.18184781 1.6720001 4288063155
-0.15359172 0.18184781 1.6720001 4287997877
-0.15186769 0.18152152 1.669 4287997877
-0.15041925 0.18152152 1.669 4287997618
-0.14888154 0.18141276 1.6680001 4288195254
-0.14743397 0.18141276 1.6680001 4288392633
-0.14589888 0.18130399 1.6670001 4288261047
-0.14445218 0.18130399 1.6670001 4288129461
-0.14291969 0.18119524 1.6660001 4288063668
-0.14138892 0.18108648 1.6650001 4288326838
-0.13994396 0.18108648 1.6650001 4288590011
-0.13849899 0.18108648 1.6650001 4288721598
-0.13705403 0.18108648 1.6650001 4288655805
-0.13560906 0.18108648 1.6650001 4288655807
-0.13408351 0.18097772 1.664 4288721600
-0.1325597 0.18086895 1.6630001 4288786880
-0.13103762 0.18076019 1.6620001 4288786880
-0.12936133 0.18043391 1.659 4288590012
-0.12792157 0.18043391 1.659 4288721598
-0.12640557 0.18032515 1.6580001 4288787391
-0.12481593 0.18010764 1.6560001 4288721598
-0.12330427 0.17999887 1.6550001 4288721598
-0.12186798 0.17999887 1.6550001 4288590012
-0.12028614 0.17978135 1.6530001 4288524219
-0.11885159 0.17978135 1.6530001 4288655805
-0.11741704 0.17978135 1.6530001 4288787132
-0.11591232 0.17967258 1.6520001 4288721339
-0.11447863 0.17967258 1.6520001 4288721339
-0.11311337 0.17978135 1.6530001 4288655546
-0.11167882 0.17978135 1.6530001 4288589753
-0.11024426 0.17978135 1.6530001 4288589753
-0.10880971 0.17978135 1.6530001 4288589753
-0.10737515 0.17978135 1.6530001 4288589753
-0.10587651 0.17967258 1.6520001 4288721339
-0.1043796 0.17956382 1.651 4288787132
-0.10294678 0.17956382 1.651 4288589753
-0.10151397 0.17956382 1.651 4288589753
-0.099899292 0.17923754 1.6480001 4288523706
-0.098469079 0.17923754 1.6480001 4288260534
-0.097038858 0.17923754 1.6480001 4288260534
-0.095550627 0.17912878 1.6470001 4288326327
-0.094121277 0.17912878 1.6470001 4288457913
-0.092691936 0.17912878 1.6470001 4288326327
-0.091262586 0.17912878 1.6470001 4288128948
-0.089887783 0.17923754 1.6480001 4287997362
-0.088457569 0.17923754 1.6480001 4288063155
-0.087132968 0.17945507 1.6500001 4288063155
-0.085752957 0.17956382 1.651 4287997362
-0.084320135 0.17956382 1.651 4287997362
-0.083037928 0.17989011 1.654 4287865776
-0.081651844 0.17999887 1.6550001 4287865776
-0.080215558 0.17999887 1.6550001 4287799983
-0.078874461 0.1802164 1.6570001 4287734190
-0.077483177 0.18032515 1.6580001 4287734190
-0.076044276 0.18032515 1.6580001 4287799983
-0.074650384 0.18043391 1.659 4287668397
-0.073210627 0.18043391 1.659 4287602604
-0.071770862 0.18043391 1.659 4287470504
-0.070331097 0.18043391 1.659 4287667883
-0.068932861 0.18054268 1.6600001 4287602604
-0.067492232 0.18054268 1.6600001 4287536811
-0.066051602 0.18054268 1.6600001 4287471018
-0.064688817 0.18076019 1.6620001 4287471018
-0.063284501 0.18086895 1.6630001 4287471531
-0.061841272 0.18086895 1.6630001 4287471531
-0.060506992 0.18119524 1.6660001 4287405738
-0.059061155 0.18119524 1.6660001 4287339945
-0.057615321 0.18119524 1.6660001 4287274152
-0.056270633 0.18152152 1.669 4287405738
-0.054855037 0.18163027 1.6700001 4287537324
-0.05343771 0.18173905 1.6710001 4287537324
-0.05208087 0.18206532 1.674 4287471531
-0.050628088 0.18206532 1.674 4287405738
-0.049204685 0.18217409 1.6750001 4287405738
-0.047836561 0.18250036 1.6780001 4287471531
-0.046407953 0.18260913 1.6790001 4287405738
-0.044977605 0.18271789 1.6800001 4287339945
-0.043571427 0.1829354 1.682 4287405738
-0.04213674 0.18304417 1.6830001 4287471531
-0.040700324 0.18315293 1.6840001 4287471531
-0.039308768 0.18347922 1.687 4287537324
-0.037867136 0.18358797 1.6880001 4287602604
-0.036423773 0.18369673 1.6890001 4287536811
-0.035061464 0.18424053 1.6940001 4287536811
-0.033630986 0.18445806 1.6960001 4287536811
-0.032178074 0.18456681 1.697 4287667883
-0.030868182 0.18554567 1.7060001 4287733676
-0.029439308 0.18587194 1.7090001 4288062128
-0.02798887 0.18608947 1.7110001 4288259507
-0.20497066 0.18646783 1.7010001 4289443516
-0.20337482 0.18635821 1.7 4289509825
-0.20166194 0.18613896 1.6980001 4289575618
-0.19995254 0.18591972 1.6960001 4289444290
-0.19848067 0.18591972 1.6960001 4289246911
-0.1970088 0.18591972 1.6960001 4288918718
-0.19553693 0.18591972 1.6960001 4288787132
-0.19406505 0.18591972 1.6960001 4288655292
-0.19247963 0.18581009 1.6950001 4288523706
-0.19089593 0.18570046 1.6940001 4288392120
-0.1894258 0.18570046 1.6940001 4288655292
-0.18773375 0.18548122 1.692 4288984257
-0.18615526 0.18537159 1.6910001 4289050050
-0.18457851 0.18526198 1.6900001 4288852671
-0.18278679 0.18493311 1.687 4288457913
-0.18121526 0.18482348 1.6860001 4288194741
-0.17964545 0.18471386 1.6850001 4288063155
-0.17786588 0.18438499 1.682 4288128948
-0.17640616 0.18438499 1.682 4288194741
-0.17484243 0.18427537 1.6810001 4288261047
-0.17317729 0.18405612 1.6790001 4288261047
-0.17172016 0.18405612 1.6790001 4288129461
-0.17026304 0.18405612 1.6790001 4288063668
-0.16880593 0.18405612 1.6790001 4288129461
-0.16724914 0.18394651 1.6780001 4288195254
-0.16579288 0.18394651 1.6780001 4288326327
-0.16433664 0.18394651 1.6780001 4288260534
-0.16278331 0.18383689 1.677 4288128948
-0.16123173 0.18372726 1.6760001 4288063155
-0.15968189 0.18361765 1.6750001 4288063155
-0.15822823 0.18361765 1.6750001 4288063155
-0.1564938 0.18328878 1.6720001 4287997362
-0.15495002 0.18317915 1.6710001 4287931569
-0.15349984 0.18317915 1.6710001 4287932082
-0.15177669 0.18285029 1.6680001 4288063668
-0.15032911 0.18285029 1.6680001 4288195254
-0.1487923 0.18274066 1.6670001 4288524219
-0.14725721 0.18263105 1.6660001 4288721598
-0.14581136 0.18263105 1.6660001 4288524219
-0.14419222 0.18241179 1.664 4288392633
-0.14274812 0.18241179 1.664 4288326840
-0.14130402 0.18241179 1.664 4288458424
-0.13985991 0.18241179 1.664 4288655803
-0.13841581 0.18241179 1.664 4288721598
-0.13697171 0.18241179 1.664 4288590012
-0.13544618 0.18230218 1.6630001 4288590014
-0.13392235 0.18219255 1.6620001 4288590014
-0.13247998 0.18219255 1.6620001 4288590014
-0.13095878 0.18208292 1.6610001 4288590014
-0.12928335 0.18175405 1.6580001 4288524219
-0.12776735 0.18164444 1.6570001 4288524219
-0.12625308 0.18153481 1.6560001 4288655805
-0.12466519 0.18131557 1.654 4288655805
-0.12322976 0.18131557 1.654 4288590012
-0.1217207 0.18120594 1.6530001 4288590012
-0.12021338 0.18109632 1.6520001 4288590012
-0.1187797 0.18109632 1.6520001 4288590012
-0.11727498 0.18098669 1.651 4288655803
-0.11584216 0.18098669 1.651 4288524217
-0.11440934 0.18098669 1.651 4288524217
-0.11297651 0.18098669 1.651 4288524217
-0.11161126 0.18109632 1.6520001 4288589753
-0.11017758 0.18109632 1.6520001 4288458167
-0.10874388 0.18109632 1.6520001 4288458167
-0.1073102 0.18109632 1.6520001 4288523960
-0.10581242 0.18098669 1.651 4288589753
-0.1043796 0.18098669 1.651 4288655546
-0.10282208 0.18076745 1.649 4288458167
-0.101391 0.18076745 1.649 4288392374
-0.099899292 0.18065783 1.6480001 4288457913
-0.098409325 0.18054822 1.6470001 4288326327
-0.096979976 0.18054822 1.6470001 4288260534
-0.095492616 0.18043859 1.646 4288260534
-0.094064139 0.18043859 1.646 4288194741
-0.092635654 0.18043859 1.646 4288128948
-0.091207176 0.18043859 1.646 4288128948
-0.089833237 0.18054822 1.6470001 4288063155
-0.088457569 0.18065783 1.6480001 4287931569
-0.087080158 0.18076745 1.649 4287931569
-0.085701011 0.18087707 1.6500001 4287931569
-0.084320135 0.18098669 1.651 4287865776
-0.082987726 0.18120594 1.6530001 4287668397
-0.081602506 0.18131557 1.654 4287734190
-0.080215558 0.18142518 1.6550001 4287734190
-0.078874461 0.18164444 1.6570001 4287734190
-0.07743644 0.18164444 1.6570001 4287734190
-0.076044276 0.18175405 1.6580001 4287799983
-0.074605383 0.18175405 1.6580001 4287668397
-0.073210627 0.18186368 1.659 4287536811
-0.071770862 0.18186368 1.659 4287536297
-0.070331097 0.18186368 1.659 4287667883
-0.068932861 0.18197331 1.6600001 4287602604
-0.067492232 0.18197331 1.6600001 4287602604
-0.066051602 0.18197331 1.6600001 4287536811
-0.064688817 0.18219255 1.6620001 4287536811
-0.063246451 0.18219255 1.6620001 4287405738
-0.06180409 0.18219255 1.6620001 4287339945
-0.060470678 0.18252142 1.6650001 4287339945
-0.059025709 0.18252142 1.6650001 4287208359
-0.057615321 0.18263105 1.6660001 4287142566
-0.056270633 0.18295991 1.669 4287208359
-0.054855037 0.18306953 1.6700001 4287339945
-0.05343771 0.18317915 1.6710001 4287405738
-0.052049756 0.1833984 1.6730001 4287339945
-0.050628088 0.18350802 1.674 4287274152
-0.049204685 0.18361765 1.6750001 4287471531
-0.047836561 0.18394651 1.6780001 4287471531
-0.046407953 0.18405612 1.6790001 4287471531
-0.044950835 0.18405612 1.6790001 4287339945
-0.043571427 0.18438499 1.682 4287274152
-0.04213674 0.18449461 1.6830001 4287339945
-0.040700324 0.18460424 1.6840001 4287405738
-0.039308768 0.18493311 1.687 4287471531
-0.037867136 0.18504272 1.6880001 4287536811
-0.036423773 0.18515235 1.6890001 4287405225
-0.035061464 0.18570046 1.6940001 4287536297
-0.033611156 0.18581009 1.6950001 4287602090
-0.032178074 0.18602933 1.697 4287602090
-0.030850084 0.18690632 1.705 4287667883
-0.029404854 0.18712556 1.7070001 4287864749
-0.027956154 0.1873448 1.7090001 4288062128
-0.20902999 0.18760234 1.6980001 4292337894
-0.20743413 0.18749185 1.697 4290101446
-0.20584004 0.18738137 1.6960001 4289312446
-0.20412715 0.18716039 1.6940001 4289509824
-0.20253739 0.18704991 1.6930001 4289378497
-0.20106812 0.18704991 1.6930001 4289312704
-0.19936305 0.18682894 1.6910001 4289050047
-0.19789553 0.18682894 1.6910001 4288918461
-0.19642799 0.18682894 1.6910001 4288852925
-0.19496046 0.18682894 1.6910001 4288852925
-0.19349292 0.18682894 1.6910001 4288721085
-0.19191185 0.18671846 1.6900001 4288589499
-0.19044517 0.18671846 1.6900001 4288457913
-0.18897851 0.18671846 1.6900001 4288655292
-0.18728994 0.18649749 1.6880001 4288852671
-0.18571492 0.18638702 1.687 4288852671
-0.18414165 0.18627653 1.6860001 4288655292
-0.18235341 0.18594506 1.6830001 4288392120
-0.18078533 0.18583459 1.682 4288260534
-0.17921899 0.18572411 1.6810001 4288128948
-0.17733714 0.18528217 1.677 4288063155
-0.17577688 0.18517168 1.6760001 4288128948
-0.17432237 0.18517168 1.6760001 4288326327
-0.17266156 0.18495071 1.674 4288326327
-0.17110652 0.18484023 1.6730001 4288063668
-0.16965459 0.18484023 1.6730001 4287932082
-0.16820268 0.18484023 1.6730001 4287932082
-0.16675077 0.18484023 1.6730001 4288063411
-0.16529886 0.18484023 1.6730001 4288260534
-0.16384695 0.18484023 1.6730001 4288194741
-0.16239505 0.18484023 1.6730001 4288063155
-0.16094314 0.18484023 1.6730001 4287997362
-0.15939589 0.18472975 1.6720001 4287931569
-0.15785037 0.18461926 1.6710001 4287931569
-0.15611941 0.1842878 1.6680001 4287997875
-0.1545791 0.18417732 1.6670001 4288129461
-0.15304054 0.18406685 1.6660001 4288261047
-0.15132174 0.18373539 1.6630001 4288458426
-0.14978836 0.18362491 1.6620001 4288524219
-0.14834601 0.18362491 1.6620001 4288721598
-0.14663847 0.18329345 1.659 4288787391
-0.14511119 0.18318295 1.6580001 4288655805
-0.14367229 0.18318295 1.6580001 4288458426
-0.14214762 0.18307249 1.6570001 4288326840
-0.14070959 0.18307249 1.6570001 4288458424
-0.13935561 0.18318295 1.6580001 4288590010
-0.13783354 0.18307249 1.6570001 4288590012
-0.13639551 0.18307249 1.6570001 4288590012
-0.13495749 0.18307249 1.6570001 4288590012
-0.13343887 0.182962 1.6560001 4288524219
-0.13192201 0.18285151 1.6550001 4288458426
-0.13048571 0.18285151 1.6550001 4288524219
-0.12889348 0.18263054 1.6530001 4288524219
-0.12738182 0.18252006 1.6520001 4288392633
-0.12594813 0.18252006 1.6520001 4288458426
-0.12436369 0.18229909 1.6500001 4288524219
-0.12285724 0.1821886 1.649 4288458424
-0.12142616 0.1821886 1.649 4288524218
-0.1199223 0.18207811 1.6480001 4288655805
-0.11842019 0.18196765 1.6470001 4288590012
-0.11699084 0.18196765 1.6470001 4288590010
-0.11556149 0.18196765 1.6470001 4288524217
-0.11413214 0.18196765 1.6470001 4288458424
-0.1127028 0.18196765 1.6470001 4288524217
-0.11127345 0.18196765 1.6470001 4288524217
-0.1098441 0.18196765 1.6470001 4288458424
-0.10841475 0.18196765 1.6470001 4288458167
-0.10698541 0.18196765 1.6470001 4288523960
-0.10549197 0.18185715 1.646 4288523960
-0.1040635 0.18185715 1.646 4288458167
-0.10263502 0.18185715 1.646 4288260788
-0.10114504 0.18174666 1.6450001 4288326581
-0.099717438 0.18174666 1.6450001 4288392120
-0.098230071 0.18163618 1.6440001 4288326327
-0.09680333 0.18163618 1.6440001 4288260534
-0.095376581 0.18163618 1.6440001 4288194741
-0.093892694 0.18152569 1.6430001 4287997362
-0.092466824 0.18152569 1.6430001 4287997362
-0.091096349 0.18163618 1.6440001 4288128948
-0.089669608 0.18163618 1.6440001 4288063155
-0.08829654 0.18174666 1.6450001 4287799983
-0.086974539 0.18196765 1.6470001 4287734190
-0.085597135 0.18207811 1.6480001 4287865776
-0.084166922 0.18207811 1.6480001 4287799983
-0.082887314 0.18240957 1.651 4287668397
-0.081503838 0.18252006 1.6520001 4287668397
-0.080070153 0.18252006 1.6520001 4287734190
-0.078779265 0.18285151 1.6550001 4287668397
-0.077342972 0.18285151 1.6550001 4287668397
-0.075952545 0.182962 1.6560001 4287668397
-0.074515387 0.182962 1.6560001 4287602604
-0.07312236 0.18307249 1.6570001 4287471018
-0.071684331 0.18307249 1.6570001 4287536811
-0.070246309 0.18307249 1.6570001 4287536811
-0.06880828 0.18307249 1.6570001 4287602604
-0.067410916 0.18318295 1.6580001 4287668397
-0.065932229 0.18307249 1.6570001 4287602604
-0.064533129 0.18318295 1.6580001 4287471018
-0.063132294 0.18329345 1.659 4287274152
-0.061692528 0.18329345 1.659 4287142566
-0.060434356 0.18384586 1.664 4287142566
-0.059025709 0.18395635 1.6650001 4287010980
-0.057615321 0.18406685 1.6660001 4287010980
-0.056270633 0.18439829 1.669 4287142566
-0.054855037 0.18450877 1.6700001 4287274152
-0.053405728 0.18450877 1.6700001 4287339945
-0.052049756 0.18484023 1.6730001 4287405738
-0.050628088 0.18495071 1.674 4287405738
-0.049204685 0.1850612 1.6750001 4287471531
-0.047808055 0.18528217 1.677 4287405738
-0.046380311 0.18539265 1.6780001 4287339945
-0.044950835 0.18550313 1.6790001 4287339945
-0.043571427 0.18583459 1.682 4287339945
-0.04213674 0.18594506 1.6830001 4287339945
-0.040700324 0.18605556 1.6840001 4287339945
-0.039308768 0.18638702 1.687 4287339945
-0.037867136 0.18649749 1.6880001 4287471018
-0.036423773 0.18660797 1.6890001 4287405225
-0.035040766 0.18704991 1.6930001 4287470504
-0.033611156 0.18727088 1.6950001 4287602090
-0.032178074 0.18749185 1.697 4287602090
-0.030795803 0.18804428 1.702 4287602090
-0.029370403 0.18837573 1.705 4287667883
-0.027939795 0.18870719 1.7080001 4287799469
-0.20890687 0.18895437 1.697 4290101446
-0.2073119 0.18884303 1.6960001 4289246651
-0.20571867 0.18873167 1.6950001 4289510081
-0.20400666 0.18850899 1.6930001 4289312702
-0.20241776 0.18839763 1.692 4289115838
-0.20071183 0.18817495 1.6900001 4288984253
-0.19924517 0.18817495 1.6900001 4288721339
-0.19766147 0.18806361 1.6890001 4288721339
-0.19619568 0.18806361 1.6890001 4288787132
-0.19461457 0.18795225 1.6880001 4288852925
-0.19326408 0.18806361 1.6890001 4288786878
-0.19179828 0.18806361 1.6890001 4288721085
-0.19021979 0.18795225 1.6880001 4288589499
-0.18875486 0.18795225 1.6880001 4288655292
-0.18717898 0.18784091 1.687 4288721085
-0.18560484 0.18772957 1.6860001 4288589499
-0.18403243 0.18761821 1.6850001 4288457913
-0.1821367 0.18717283 1.6810001 4288392120
-0.18057036 0.18706149 1.6800001 4288260534
-0.17900576 0.18695013 1.6790001 4288194741
-0.1772314 0.18661609 1.6760001 4288128948
-0.17567201 0.18650477 1.6750001 4288128948
-0.17411435 0.18639341 1.674 4288194741
-0.17245528 0.18617073 1.6720001 4288260534
-0.17100424 0.18617073 1.6720001 4288128948
-0.16945177 0.18605937 1.6710001 4287997362
-0.16800161 0.18605937 1.6710001 4287931571
-0.16655143 0.18605937 1.6710001 4287931571
-0.16510126 0.18605937 1.6710001 4288063155
-0.16374902 0.18617073 1.6720001 4288063155
-0.16229798 0.18617073 1.6720001 4288063155
-0.16075073 0.18605937 1.6710001 4288128948
-0.15920523 0.18594801 1.6700001 4288063155
-0.15775591 0.18594801 1.6700001 4288128948
-0.15593222 0.18550265 1.6660001 4288326840
-0.15448639 0.18550265 1.6660001 4288524219
-0.15294868 0.18539129 1.6650001 4288721598
-0.15113974 0.18494591 1.6610001 4288787391
-0.14960812 0.18483457 1.6600001 4288721598
-0.14807823 0.18472321 1.659 4288787391
-0.1463733 0.18438917 1.6560001 4288721598
-0.14493614 0.18438917 1.6560001 4288590012
-0.14341234 0.18427783 1.6550001 4288524217
-0.14197604 0.18427783 1.6550001 4288326838
-0.14053975 0.18427783 1.6550001 4288392633
-0.13910346 0.18427783 1.6550001 4288392633
-0.13766716 0.18427783 1.6550001 4288458426
-0.13623089 0.18427783 1.6550001 4288524219
-0.13479459 0.18427783 1.6550001 4288590012
-0.13327773 0.18416649 1.654 4288458426
-0.13176258 0.18405515 1.6530001 4288458426
-0.13032803 0.18405515 1.6530001 4288524219
-0.12873754 0.18383244 1.651 4288655292
-0.12730472 0.18383244 1.651 4288457913
-0.12579565 0.18372111 1.6500001 4288458167
-0.12421294 0.1834984 1.6480001 4288458167
-0.12278273 0.1834984 1.6480001 4288392631
-0.12127888 0.18338707 1.6470001 4288392632
-0.11977677 0.18327571 1.646 4288524219
-0.11834829 0.18327571 1.646 4288524219
-0.11691982 0.18327571 1.646 4288458424
-0.11542116 0.18316436 1.6450001 4288458424
-0.11399355 0.18316436 1.6450001 4288392631
-0.11256594 0.18316436 1.6450001 4288326838
-0.11113833 0.18316436 1.6450001 4288392631
-0.10977741 0.18327571 1.646 4288524217
-0.10828311 0.18316436 1.6450001 4288589753
-0.1068555 0.18316436 1.6450001 4288523960
-0.10542788 0.18316436 1.6450001 4288392374
-0.10400027 0.18316436 1.6450001 4288260788
-0.10257266 0.18316436 1.6450001 4288194995
-0.10108356 0.18305303 1.6440001 4288392374
-0.099596202 0.18294168 1.6430001 4288392120
-0.098170325 0.18294168 1.6430001 4288194741
-0.096744448 0.18294168 1.6430001 4288063155
-0.095260553 0.18283033 1.6420001 4288128948
-0.093835548 0.18283033 1.6420001 4288063155
-0.092410542 0.18283033 1.6420001 4288063155
-0.091040947 0.18294168 1.6430001 4288194741
-0.089615069 0.18294168 1.6430001 4288063155
-0.088242866 0.18305303 1.6440001 4287865776
-0.086921737 0.18327571 1.646 4287799983
-0.085545197 0.18338707 1.6470001 4287931569
-0.084115848 0.18338707 1.6470001 4287865776
-0.082837112 0.18372111 1.6500001 4287668397
-0.081454501 0.18383244 1.651 4287602604
-0.080021679 0.18383244 1.651 4287602604
-0.078731664 0.18416649 1.654 4287602604
-0.077296242 0.18416649 1.654 4287471018
-0.075906686 0.18427783 1.6550001 4287471018
-0.074470393 0.18427783 1.6550001 4287536811
-0.07307823 0.18438917 1.6560001 4287471018
-0.071641073 0.18438917 1.6560001 4287471018
-0.070203915 0.18438917 1.6560001 4287536811
-0.068766758 0.18438917 1.6560001 4287602604
-0.067329593 0.18438917 1.6560001 4287668397
-0.065892436 0.18438917 1.6560001 4287537324
-0.064494208 0.18450053 1.6570001 4287339945
-0.063094236 0.18461187 1.6580001 4287208359
-0.061655339 0.18461187 1.6580001 4287076773
-0.060325403 0.18494591 1.6610001 4287076773
-0.058919359 0.18505725 1.6620001 4287010980
-0.057476994 0.18505725 1.6620001 4287076773
-0.05613577 0.18539129 1.6650001 4287142566
-0.05472365 0.18550265 1.6660001 4287274152
-0.053309791 0.18561397 1.6670001 4287274152
-0.051987536 0.18605937 1.6710001 4287405738
-0.050567601 0.18617073 1.6720001 4287471531
-0.049145933 0.18628205 1.6730001 4287405738
-0.047779545 0.18661609 1.6760001 4287274152
-0.046325028 0.18661609 1.6760001 4287339945
-0.044897288 0.18672745 1.677 4287471531
-0.04351962 0.18706149 1.6800001 4287405738
-0.042086668 0.18717283 1.6810001 4287339945
-0.040651985 0.18728417 1.682 4287339945
-0.039262164 0.18761821 1.6850001 4287274152
-0.037822269 0.18772957 1.6860001 4287405225
-0.036380645 0.18784091 1.687 4287405225
-0.034999371 0.18828629 1.6910001 4287405225
-0.033551667 0.18839763 1.692 4287471018
-0.032102227 0.18850899 1.6930001 4287602090
-0.030741522 0.18917707 1.6990001 4287536297
-0.029284276 0.18928841 1.7 4287602090
-0.027841646 0.18951111 1.702 4287733676
-0.026488489 0.19040187 1.71 4287864749
-0.025033712 0.19062456 1.7120001 4287930542
-0.023589218 0.1909586 1.715 4287995565
-0.20890687 0.19041689 1.697 4289245883
-0.2073119 0.19030468 1.6960001 4289444288
-0.2055973 0.19008026 1.6940001 4289312960
-0.20376566 0.18974364 1.6910001 4289050302
-0.20229812 0.18974364 1.6910001 4288852925
-0.20047429 0.18940701 1.6880001 4288721339
-0.19900937 0.18940701 1.6880001 4288655803
-0.19742741 0.18929482 1.687 4288655803
-0.19596335 0.18929482 1.687 4288787132
-0.19449928 0.18929482 1.687 4288852925
-0.19303523 0.18929482 1.687 4288852925
-0.19157116 0.18929482 1.687 4288852925
-0.19010711 0.18929482 1.687 4288786878
-0.18864304 0.18929482 1.687 4288786878
-0.18695708 0.18907039 1.6850001 4288721085
-0.18538466 0.18895818 1.6840001 4288589499
-0.18381399 0.18884598 1.6830001 4288523960
-0.18202835 0.18850935 1.6800001 4288458167
-0.18046288 0.18839714 1.6790001 4288392120
-0.17889914 0.18828493 1.6780001 4288260534
-0.17701989 0.18783611 1.674 4288260534
-0.17546225 0.18772389 1.6730001 4288260534
-0.17369831 0.18738727 1.6700001 4288260534
-0.17224899 0.18738727 1.6700001 4288260534
-0.17079969 0.18738727 1.6700001 4288194741
-0.16924897 0.18727507 1.669 4288128948
-0.16780053 0.18727507 1.669 4288063155
-0.16635209 0.18727507 1.669 4288128948
-0.16490366 0.18727507 1.669 4288128948
-0.16355315 0.18738727 1.6700001 4288194741
-0.16210383 0.18738727 1.6700001 4288392120
-0.16055833 0.18727507 1.669 4288523706
-0.15910989 0.18727507 1.669 4288458169
-0.15756698 0.18716286 1.6680001 4288392633
-0.15583862 0.18682623 1.6650001 4288590012
-0.15430093 0.18671402 1.664 4288721598
-0.1526731 0.18648961 1.6620001 4288655805
-0.15086676 0.18604077 1.6580001 4288721598
-0.14942788 0.18604077 1.6580001 4288787391
-0.14789972 0.18592857 1.6570001 4288787391
-0.14619653 0.18559195 1.654 4288787389
-0.1447611 0.18559195 1.654 4288721596
-0.14323902 0.18547975 1.6530001 4288655803
-0.14180447 0.18547975 1.6530001 4288458425
-0.14036991 0.18547975 1.6530001 4288326840
-0.13885131 0.18536752 1.6520001 4288261047
-0.13750081 0.18547975 1.6530001 4288326840
-0.13606624 0.18547975 1.6530001 4288458426
-0.13455024 0.18536752 1.6520001 4288524219
-0.13311656 0.18536752 1.6520001 4288458426
-0.13160317 0.18525532 1.651 4288589499
-0.13017035 0.18525532 1.651 4288655292
-0.12858158 0.18503091 1.649 4288655292
-0.12715049 0.18503091 1.649 4288655291
-0.12564316 0.18491869 1.6480001 4288523960
-0.12413758 0.1848065 1.6470001 4288458167
-0.12270823 0.1848065 1.6470001 4288458167
-0.12120526 0.18469428 1.646 4288326581
-0.11970399 0.18458207 1.6450001 4288326327
-0.11827638 0.18458207 1.6450001 4288392120
-0.11677774 0.18446986 1.6440001 4288261045
-0.115351 0.18446986 1.6440001 4288195252
-0.11392426 0.18446986 1.6440001 4288129459
-0.11249751 0.18446986 1.6440001 4288129459
-0.11107077 0.18446986 1.6440001 4288261045
-0.10957734 0.18435766 1.6430001 4288458424
-0.10815146 0.18435766 1.6430001 4288523960
-0.10679054 0.18446986 1.6440001 4288392374
-0.10536379 0.18446986 1.6440001 4288326581
-0.10393704 0.18446986 1.6440001 4288260788
-0.10244796 0.18435766 1.6430001 4288326581
-0.10102208 0.18435766 1.6430001 4288392374
-0.099535577 0.18424544 1.6420001 4288260534
-0.098110572 0.18424544 1.6420001 4288063155
-0.096685566 0.18424544 1.6420001 4287997362
-0.095202535 0.18413325 1.641 4288128948
-0.093778394 0.18413325 1.641 4288128948
-0.09235426 0.18413325 1.641 4288194741
-0.090930119 0.18413325 1.641 4288194741
-0.089560524 0.18424544 1.6420001 4288128948
-0.088189192 0.18435766 1.6430001 4287997362
-0.086868927 0.18458207 1.6450001 4287865776
-0.085493259 0.18469428 1.646 4287865776
-0.084064782 0.18469428 1.646 4287865776
-0.08278691 0.18503091 1.649 4287668397
-0.081405163 0.18514311 1.6500001 4287536811
-0.080021679 0.18525532 1.651 4287471018
-0.078684062 0.18547975 1.6530001 4287536811
-0.077296242 0.18559195 1.654 4287536811
-0.075860821 0.18559195 1.654 4287536811
-0.074425392 0.18559195 1.654 4287602604
-0.073034108 0.18570416 1.6550001 4287602604
-0.071597815 0.18570416 1.6550001 4287405225
-0.070161521 0.18570416 1.6550001 4287471018
-0.068725236 0.18570416 1.6550001 4287405738
-0.067288943 0.18570416 1.6550001 4287405738
-0.06585265 0.18570416 1.6550001 4287339945
-0.064494208 0.18592857 1.6570001 4287274152
-0.063056178 0.18592857 1.6570001 4287208359
-0.061655339 0.18604077 1.6580001 4287142566
-0.060289081 0.1862652 1.6600001 4287208359
-0.058883905 0.18637739 1.6610001 4287142566
-0.057476994 0.18648961 1.6620001 4287076773
-0.056102056 0.18671402 1.664 4287142566
-0.054690801 0.18682623 1.6650001 4287208359
-0.053277813 0.18693845 1.6660001 4287208359
-0.051925309 0.18727507 1.669 4287208359
-0.050507113 0.18738727 1.6700001 4287208359
-0.049087182 0.18749948 1.6710001 4287208359
-0.04772253 0.18783611 1.674 4287208359
-0.04629739 0.18794832 1.6750001 4287405738
-0.044843744 0.18794832 1.6750001 4287537324
-0.043493714 0.18839714 1.6790001 4287339945
-0.042061631 0.18850935 1.6800001 4287208359
-0.040627811 0.18862157 1.6810001 4287208359
-0.039238863 0.18895818 1.6840001 4287339945
-0.037799839 0.18907039 1.6850001 4287339432
-0.036359075 0.18918259 1.6860001 4287405225
-0.034978673 0.18963143 1.6900001 4287405225
-0.033512007 0.18963143 1.6900001 4287405225
-0.032083265 0.18985584 1.692 4287405225
-0.030705335 0.19041689 1.697 4287471018
-0.029267047 0.1906413 1.6990001 4287667883
-0.027808931 0.19075352 1.7 4287733676
-0.026457509 0.19165118 1.7080001 4287667883
-0.025004467 0.19187559 1.71 4287799469
-0.02356171 0.19221221 1.7130001 4287798956
-0.2133251 0.19187939 1.697 4293390325
-0.21185236 0.19187939 1.697 4290627534
-0.21025565 0.19176634 1.6960001 4289246651
-0.20841447 0.19142713 1.6930001 4289509825
-0.20682296 0.19131406 1.692 4289378752
-0.20511183 0.19108792 1.6900001 4288918716
-0.20316316 0.19063564 1.6860001 4288984509
-0.20169997 0.19063564 1.6860001 4288655803
-0.19988048 0.19029643 1.6830001 4288590010
-0.1984199 0.19029643 1.6830001 4288590010
-0.19684227 0.19018336 1.682 4288721596
-0.19538255 0.19018336 1.682 4288721596
-0.19392282 0.19018336 1.682 4288655803
-0.1924631 0.19018336 1.682 4288655803
-0.19100338 0.19018336 1.682 4288721596
-0.18943097 0.19007029 1.6810001 4288852925
-0.18797211 0.19007029 1.6810001 4288787132
-0.18640231 0.18995722 1.6800001 4288655546
-0.18483423 0.18984415 1.6790001 4288589753
-0.18326789 0.18973108 1.6780001 4288523960
-0.18148659 0.18939188 1.6750001 4288523960
-0.17992546 0.1892788 1.674 4288458167
-0.17836607 0.18916573 1.6730001 4288392374
-0.17638542 0.18860038 1.6680001 4288458167
-0.17483297 0.18848731 1.6670001 4288457911
-0.17317824 0.18826117 1.6650001 4288392120
-0.17173328 0.18826117 1.6650001 4288392120
-0.17018603 0.1881481 1.664 4288326327
-0.16874194 0.1881481 1.664 4288260534
-0.16729784 0.1881481 1.664 4288326327
-0.16585374 0.1881481 1.664 4288392120
-0.16440964 0.1881481 1.664 4288457913
-0.16306347 0.18826117 1.6650001 4288589499
-0.16161849 0.18826117 1.6650001 4288786878
-0.16017352 0.18826117 1.6650001 4288852927
-0.15863323 0.1881481 1.664 4288721598
-0.15718913 0.1881481 1.664 4288655805
-0.15537064 0.18769583 1.6600001 4288590012
-0.15383728 0.18758276 1.659 4288655805
-0.15230566 0.18746968 1.6580001 4288524219
-0.1505028 0.18701741 1.654 4288590012
-0.14897723 0.18690434 1.6530001 4288721598
-0.14718565 0.18645205 1.649 4288787391
-0.14575458 0.18645205 1.649 4288787389
-0.14423597 0.18633898 1.6480001 4288721596
-0.14280574 0.18633898 1.6480001 4288721596
-0.14128976 0.18622592 1.6470001 4288524217
-0.13986041 0.18622592 1.6470001 4288326838
-0.13843106 0.18622592 1.6470001 4288195253
-0.13700171 0.18622592 1.6470001 4288326840
-0.13557236 0.18622592 1.6470001 4288458426
-0.13414301 0.18622592 1.6470001 4288589499
-0.13263309 0.18611285 1.646 4288523706
-0.13120461 0.18611285 1.646 4288589499
-0.12977614 0.18611285 1.646 4288655292
-0.12826967 0.18599977 1.6450001 4288655546
-0.12684205 0.18599977 1.6450001 4288721339
-0.12541445 0.18599977 1.6450001 4288655546
-0.12391146 0.18588671 1.6440001 4288589753
-0.12241022 0.18577364 1.6430001 4288523706
-0.12098435 0.18577364 1.6430001 4288326327
-0.11948569 0.18566056 1.6420001 4288194741
-0.11806068 0.18566056 1.6420001 4288260534
-0.11656465 0.1855475 1.641 4288326581
-0.11514051 0.1855475 1.641 4288194995
-0.11371636 0.1855475 1.641 4288129202
-0.1122238 0.18543443 1.6400001 4288260788
-0.11080053 0.18543443 1.6400001 4288392374
-0.10937726 0.18543443 1.6400001 4288458167
-0.1080198 0.1855475 1.641 4288392374
-0.10659567 0.1855475 1.641 4288326581
-0.10517152 0.1855475 1.641 4288326581
-0.10381061 0.18566056 1.6420001 4288326581
-0.1023856 0.18566056 1.6420001 4288392374
-0.1008991 0.1855475 1.641 4288326581
-0.099474959 0.1855475 1.641 4288128948
-0.098050818 0.1855475 1.641 4288063155
-0.096626677 0.1855475 1.641 4288063155
-0.095144525 0.18543443 1.6400001 4288128948
-0.093721256 0.18543443 1.6400001 4288063155
-0.092297986 0.18543443 1.6400001 4288128948
-0.090874709 0.18543443 1.6400001 4287997362
-0.089505978 0.1855475 1.641 4287931569
-0.088081837 0.1855475 1.641 4287997362
-0.086763315 0.18577364 1.6430001 4287865776
-0.085389376 0.18588671 1.6440001 4287734190
-0.083962634 0.18588671 1.6440001 4287865776
-0.082686499 0.18622592 1.6470001 4287799983
-0.081306487 0.18633898 1.6480001 4287536811
-0.079876274 0.18633898 1.6480001 4287471018
-0.078588858 0.18667819 1.651 4287668397
-0.077156045 0.18667819 1.651 4287734190
-0.075769089 0.18679126 1.6520001 4287734190
-0.074335404 0.18679126 1.6520001 4287603117
-0.072901718 0.18679126 1.6520001 4287537324
-0.071468033 0.18679126 1.6520001 4287405738
-0.070076734 0.18690434 1.6530001 4287405738
-0.068642177 0.18690434 1.6530001 4287339945
-0.06720762 0.18690434 1.6530001 4287208359
-0.06577307 0.18690434 1.6530001 4287142566
-0.064377435 0.18701741 1.654 4287208359
-0.062980071 0.18713047 1.6550001 4287274152
-0.061543781 0.18713047 1.6550001 4287274152
-0.060216445 0.18746968 1.6580001 4287274152
-0.058777552 0.18746968 1.6580001 4287142566
-0.057373244 0.18758276 1.659 4287010980
-0.056034625 0.18792197 1.6620001 4287076773
-0.054625109 0.18803504 1.6630001 4287142566
-0.053181875 0.18803504 1.6630001 4287076773
-0.051863085 0.18848731 1.6670001 4287076773
-0.05044663 0.18860038 1.6680001 4287076773
-0.04902843 0.18871346 1.669 4287076773
-0.047665514 0.18905267 1.6720001 4287142566
-0.046214469 0.18905267 1.6720001 4287274152
-0.044790197 0.18916573 1.6730001 4287405738
-0.043415997 0.18950494 1.6760001 4287274152
-0.041986521 0.18961801 1.677 4287142566
-0.040555306 0.18973108 1.6780001 4287208359
-0.039192263 0.19018336 1.682 4287339945
-0.037710104 0.19007029 1.6810001 4287339945
-0.036272816 0.19018336 1.682 4287405738
-0.034937277 0.19086178 1.6880001 4287405225
-0.033492178 0.19097485 1.6890001 4287339432
-0.032064304 0.19120099 1.6910001 4287405225
-0.030687241 0.19176634 1.6960001 4287602604
-0.029249823 0.19199248 1.6980001 4287668397
-0.027792571 0.19210555 1.6990001 4287668397
-0.026411038 0.19278397 1.705 4287536811
-0.024975223 0.19312318 1.7080001 4287405225
-0.023534199 0.19346239 1.7110001 4287733676
-0.21319939 0.19322799 1.6960001 4291417306
-0.21160269 0.19311406 1.6950001 4289640640
-0.21013168 0.19311406 1.6950001 4289378239
-0.20829137 0.19277227 1.692 4289378240
-0.20657849 0.1925444 1.6900001 4289312704
-0.20462635 0.19208868 1.6860001 4288852925
-0.20292217 0.19186081 1.6840001 4288918718
-0.2014607 0.19186081 1.6840001 4288655546
-0.1997617 0.19163294 1.682 4288589753
-0.19830199 0.19163294 1.682 4288524217
-0.19672525 0.19151902 1.6810001 4288590010
-0.19515023 0.19140509 1.6800001 4288655803
-0.19369225 0.19140509 1.6800001 4288590010
-0.19223426 0.19140509 1.6800001 4288524217
-0.19077627 0.19140509 1.6800001 4288590010
-0.18931828 0.19140509 1.6800001 4288655546
-0.1878603 0.19140509 1.6800001 4288655546
-0.18629135 0.19129115 1.6790001 4288589753
-0.18472415 0.19117722 1.6780001 4288589753
-0.18315867 0.19106328 1.677 4288589753
-0.18137825 0.1907215 1.674 4288589753
-0.17981797 0.19060756 1.6730001 4288523960
-0.17825946 0.19049364 1.6720001 4288458167
-0.17627968 0.18992397 1.6670001 4288589753
-0.1747281 0.18981005 1.6660001 4288655546
-0.17307423 0.18958217 1.664 4288589754
-0.17163013 0.18958217 1.664 4288589497
-0.17008376 0.18946825 1.6630001 4288523706
-0.16864052 0.18946825 1.6630001 4288523706
-0.1671973 0.18946825 1.6630001 4288523706
-0.16575406 0.18946825 1.6630001 4288523706
-0.16431083 0.18946825 1.6630001 4288721085
-0.16296554 0.18958217 1.664 4288786878
-0.16152143 0.18958217 1.664 4288721598
-0.16007733 0.18958217 1.664 4288721598
-0.15844256 0.18935432 1.6620001 4288721598
-0.1570002 0.18935432 1.6620001 4288590012
-0.15527704 0.18901253 1.659 4288524219
-0.15374455 0.18889859 1.6580001 4288524219
-0.1522138 0.18878466 1.6570001 4288524219
-0.1505028 0.18844287 1.654 4288590012
-0.14897723 0.18832894 1.6530001 4288655805
-0.14718565 0.1878732 1.649 4288721598
-0.14566618 0.18775927 1.6480001 4288655803
-0.14423597 0.18775927 1.6480001 4288590010
-0.14271909 0.18764535 1.6470001 4288590010
-0.14120397 0.18753141 1.646 4288524217
-0.13977548 0.18753141 1.646 4288261045
-0.13834701 0.18753141 1.646 4288195252
-0.13691853 0.18753141 1.646 4288392375
-0.13549004 0.18753141 1.646 4288589753
-0.13406157 0.18753141 1.646 4288589499
-0.13263309 0.18753141 1.646 4288523706
-0.13112488 0.18741748 1.6450001 4288523706
-0.12969728 0.18741748 1.6450001 4288589499
-0.12819169 0.18730354 1.6440001 4288589753
-0.12676495 0.18730354 1.6440001 4288589753
-0.12533821 0.18730354 1.6440001 4288589753
-0.12383609 0.18718961 1.6430001 4288589753
-0.12241022 0.18718961 1.6430001 4288523706
-0.1209107 0.18707567 1.6420001 4288392120
-0.11941293 0.18696176 1.641 4288326327
-0.11798879 0.18696176 1.641 4288326327
-0.11649362 0.18684782 1.6400001 4288392119
-0.11500017 0.18673389 1.6390001 4288194741
-0.11357778 0.18673389 1.6390001 4288128948
-0.11215537 0.18673389 1.6390001 4288260534
-0.11073297 0.18673389 1.6390001 4288392374
-0.10931056 0.18673389 1.6390001 4288392374
-0.10795398 0.18684782 1.6400001 4288392374
-0.10659567 0.18696176 1.641 4288392374
-0.10517152 0.18696176 1.641 4288392374
-0.10381061 0.18707567 1.6420001 4288326581
-0.1023856 0.18707567 1.6420001 4288458167
-0.1008991 0.18696176 1.641 4288326581
-0.099474959 0.18696176 1.641 4288063409
-0.098050818 0.18696176 1.641 4288129202
-0.096626677 0.18696176 1.641 4288128948
-0.095144525 0.18684782 1.6400001 4288128948
-0.093721256 0.18684782 1.6400001 4287997362
-0.092297986 0.18684782 1.6400001 4287997362
-0.090874709 0.18684782 1.6400001 4287865776
-0.089505978 0.18696176 1.641 4287799983
-0.088081837 0.18696176 1.641 4287799983
-0.086763315 0.18718961 1.6430001 4287668397
-0.085389376 0.18730354 1.6440001 4287668397
-0.083962634 0.18730354 1.6440001 4287799983
-0.082686499 0.18764535 1.6470001 4287799983
-0.08125715 0.18764535 1.6470001 4287536811
-0.079876274 0.18775927 1.6480001 4287536811
-0.078541256 0.18798713 1.6500001 4287668397
-0.077156045 0.18810107 1.651 4287603117
-0.075677358 0.18798713 1.6500001 4287537324
-0.074245408 0.18798713 1.6500001 4287537324
-0.072901718 0.188215 1.6520001 4287471531
-0.071468033 0.188215 1.6520001 4287471531
-0.07003434 0.188215 1.6520001 4287339945
-0.068642177 0.18832894 1.6530001 4287208359
-0.06720762 0.18832894 1.6530001 4287142566
-0.06577307 0.18832894 1.6530001 4287208359
-0.064377435 0.18844287 1.654 4287274152
-0.062942013 0.18844287 1.654 4287274152
-0.061543781 0.18855679 1.6550001 4287208359
-0.060180128 0.18878466 1.6570001 4287208359
-0.058777552 0.18889859 1.6580001 4287142566
-0.057373244 0.18901253 1.659 4287076773
-0.056000911 0.18924038 1.6610001 4287076773
-0.054592259 0.18935432 1.6620001 4287076773
-0.053181875 0.18946825 1.6630001 4286945187
-0.051831976 0.18981005 1.6660001 4286945187
-0.05041638 0.18992397 1.6670001 4287010980
-0.048999056 0.19003791 1.6680001 4287010980
-0.047637008 0.19037969 1.6710001 4287010980
-0.046186831 0.19037969 1.6710001 4287142566
-0.044763427 0.19049364 1.6720001 4287274152
-0.043390095 0.19083543 1.6750001 4287274152
-0.041961484 0.19094935 1.6760001 4287208359
-0.040555306 0.19117722 1.6780001 4287142566
-0.03914566 0.19140509 1.6800001 4287208359
-0.037710104 0.19151902 1.6810001 4287274152
-0.036272816 0.19163294 1.682 4287339945
-0.034895882 0.19208868 1.6860001 4287339945
-0.033452522 0.19220261 1.687 4287274152
-0.032007419 0.19231653 1.6880001 4287339945
-0.03063296 0.1928862 1.6930001 4287537324
-0.029180916 0.19300012 1.6940001 4287603117
-0.027727138 0.19311406 1.6950001 4287603117
-0.026349077 0.19379765 1.7010001 4287668397
-0.024916733 0.19413944 1.7040001 4287405225
-0.023465429 0.19436732 1.7060001 4287404711
-0.022062197 0.1950509 1.7120001 4287733676
-0.020588459 0.19516483 1.7130001 4288061357
-0.019124134 0.1953927 1.715 4288061358
-0.21307369 0.19457485 1.6950001 4290035653
-0.21160269 0.19457485 1.6950001 4289575361
-0.2100077 0.19446005 1.6940001 4289575618
-0.20804515 0.19400088 1.6900001 4289378497
-0.20645626 0.19388609 1.6890001 4289181118
-0.20438361 0.19331212 1.6840001 4288984511
-0.20292217 0.19331212 1.6840001 4288721339
-0.20134108 0.19319732 1.6830001 4288721339
-0.19964296 0.19296774 1.6810001 4288523960
-0.1981841 0.19296774 1.6810001 4288458424
-0.19660822 0.19285294 1.6800001 4288590010
-0.19503406 0.19273815 1.6790001 4288655803
-0.19357695 0.19273815 1.6790001 4288590010
-0.19211982 0.19273815 1.6790001 4288524217
-0.19066271 0.19273815 1.6790001 4288590010
-0.18920559 0.19273815 1.6790001 4288589753
-0.18774846 0.19273815 1.6790001 4288523960
-0.18606944 0.19250856 1.677 4288458167
-0.18461405 0.19250856 1.677 4288458167
-0.18304946 0.19239378 1.6760001 4288458167
-0.1812699 0.1920494 1.6730001 4288458167
-0.17971051 0.19193462 1.6720001 4288458167
-0.17815283 0.19181982 1.6710001 4288523960
-0.17617394 0.19124585 1.6660001 4288787132
-0.17462321 0.19113106 1.6650001 4288852925
-0.17297024 0.19090147 1.6630001 4288787132
-0.171527 0.19090147 1.6630001 4288721339
-0.16998148 0.19078667 1.6620001 4288721340
-0.16853912 0.19078667 1.6620001 4288721083
-0.16709675 0.19078667 1.6620001 4288655292
-0.16565439 0.19078667 1.6620001 4288655292
-0.16421202 0.19078667 1.6620001 4288655805
-0.16276966 0.19078667 1.6620001 4288655805
-0.16132729 0.19078667 1.6620001 4288590012
-0.15978873 0.19067188 1.6610001 4288524219
-0.15834723 0.19067188 1.6610001 4288590012
-0.15690573 0.19067188 1.6610001 4288524219
-0.15518345 0.1903275 1.6580001 4288524219
-0.15365183 0.19021271 1.6570001 4288524219
-0.15212193 0.19009791 1.6560001 4288590012
-0.1504118 0.18975353 1.6530001 4288590012
-0.14879699 0.18952394 1.651 4288655805
-0.1470964 0.18917955 1.6480001 4288721598
-0.14566618 0.18917955 1.6480001 4288655805
-0.14414844 0.18906477 1.6470001 4288524219
-0.14263245 0.18894997 1.646 4288655292
-0.14120397 0.18894997 1.646 4288589755
-0.13977548 0.18894997 1.646 4288326581
-0.13826294 0.18883517 1.6450001 4288260788
-0.13683534 0.18883517 1.6450001 4288326581
-0.13540773 0.18883517 1.6450001 4288523960
-0.13398011 0.18883517 1.6450001 4288457913
-0.1325525 0.18883517 1.6450001 4288457913
-0.13112488 0.18883517 1.6450001 4288523960
-0.12961844 0.18872039 1.6440001 4288589753
-0.12819169 0.18872039 1.6440001 4288654776
-0.12668785 0.18860559 1.6430001 4288457653
-0.12526198 0.18860559 1.6430001 4288392374
-0.12376072 0.18849079 1.6420001 4288458167
-0.12233571 0.18849079 1.6420001 4288392120
-0.1209107 0.18849079 1.6420001 4288392120
-0.11941293 0.18837601 1.641 4288523708
-0.11798879 0.18837601 1.641 4288523707
-0.11642258 0.18814641 1.6390001 4288392120
-0.11500017 0.18814641 1.6390001 4288194741
-0.11357778 0.18814641 1.6390001 4288063155
-0.11215537 0.18814641 1.6390001 4288128948
-0.11073297 0.18814641 1.6390001 4288260533
-0.10931056 0.18814641 1.6390001 4288326327
-0.10795398 0.18826121 1.6400001 4288326581
-0.10653071 0.18826121 1.6400001 4288326581
-0.10517152 0.18837601 1.641 4288392374
-0.10381061 0.18849079 1.6420001 4288194995
-0.1023856 0.18849079 1.6420001 4288326581
-0.1008991 0.18837601 1.641 4288260788
-0.099474959 0.18837601 1.641 4288129202
-0.098050818 0.18837601 1.641 4288063409
-0.096626677 0.18837601 1.641 4287997362
-0.095144525 0.18826121 1.6400001 4287997362
-0.093721256 0.18826121 1.6400001 4287931569
-0.092297986 0.18826121 1.6400001 4287931569
-0.090874709 0.18826121 1.6400001 4287931569
-0.089505978 0.18837601 1.641 4287865776
-0.088135511 0.18849079 1.6420001 4287734190
-0.086763315 0.18860559 1.6430001 4287602604
-0.085389376 0.18872039 1.6440001 4287536811
-0.083962634 0.18872039 1.6440001 4287668397
-0.082636297 0.18894997 1.646 4287602604
-0.08125715 0.18906477 1.6470001 4287405225
-0.079876274 0.18917955 1.6480001 4287405738
-0.078493662 0.18929435 1.649 4287537324
-0.077062577 0.18929435 1.649 4287405738
-0.075677358 0.18940915 1.6500001 4287339945
-0.074245408 0.18940915 1.6500001 4287340458
-0.072857589 0.18952394 1.651 4287406251
-0.071424767 0.18952394 1.651 4287339945
-0.069991946 0.18952394 1.651 4287142566
-0.068600655 0.18963873 1.6520001 4287010980
-0.067166969 0.18963873 1.6520001 4287142566
-0.065733284 0.18963873 1.6520001 4287274152
-0.064338513 0.18975353 1.6530001 4287339945
-0.062942013 0.18986833 1.654 4287274152
-0.061506592 0.18986833 1.654 4287208359
-0.060180128 0.19021271 1.6570001 4287208359
-0.058777552 0.1903275 1.6580001 4287274152
-0.057338659 0.1903275 1.6580001 4287274152
-0.056000911 0.19067188 1.6610001 4287208359
-0.054592259 0.19078667 1.6620001 4286945187
-0.051800862 0.19113106 1.6650001 4286813601
-0.050386138 0.19124585 1.6660001 4287010980
-0.048969679 0.19136064 1.6670001 4286813601
-0.047608498 0.19170502 1.6700001 4287010980
-0.046186831 0.19181982 1.6710001 4287142566
-0.043390095 0.19227898 1.6750001 4287274152
-0.04193645 0.19227898 1.6750001 4287208359
-0.04050697 0.19239378 1.6760001 4287142566
-0.03914566 0.19285294 1.6800001 4287208359
-0.037710104 0.19296774 1.6810001 4287010980
-0.036251251 0.19296774 1.6810001 4287142566
-0.034875188 0.19342691 1.6850001 4287274152
-0.033452522 0.1936565 1.687 4287339945
-0.032007419 0.19377129 1.6880001 4287339945
-0.03063296 0.19434527 1.6930001 4287339945
-0.029180916 0.19446005 1.6940001 4287471531
-0.027727138 0.19457485 1.6950001 4287537324
-0.026333585 0.19514883 1.7 4287603117
-0.024887487 0.19537841 1.702 4287603117
-0.023451673 0.19572279 1.705 4287667883
-0.022062197 0.19652635 1.7120001 4287667883
-0.020600477 0.19675593 1.7140001 4287995565
-0.019135285 0.19698551 1.7160001 4287995565
-0.21257085 0.19557302 1.6910001 4289509055
-0.21085365 0.19534171 1.6890001 4289575619
-0.20926388 0.19522606 1.6880001 4289444033
-0.20706032 0.19453213 1.682 4289181119
-0.2056006 0.19453213 1.682 4289115327
-0.20389815 0.19430082 1.6800001 4288852927
-0.20231965 0.19418515 1.6790001 4288852927
-0.20086254 0.19418515 1.6790001 4288786877
-0.19916789 0.19395386 1.677 4288786878
-0.19759461 0.19383819 1.6760001 4288721598
-0.1961401 0.19383819 1.6760001 4288721597
-0.19445325 0.19360688 1.674 4288655805
-0.19300048 0.19360688 1.674 4288524219
-0.19154769 0.19360688 1.674 4288458424
-0.18998136 0.19349122 1.6730001 4288458424
-0.18852945 0.19349122 1.6730001 4288392374
-0.18707754 0.19349122 1.6730001 4288261045
-0.18551467 0.19337559 1.6720001 4288261045
-0.18395354 0.19325992 1.6710001 4288326581
-0.18239415 0.19314426 1.6700001 4288326838
-0.18072814 0.19291295 1.6680001 4288392631
-0.17917308 0.19279729 1.6670001 4288655803
-0.17729993 0.19233468 1.6630001 4288853182
-0.17585669 0.19233468 1.6630001 4288984511
-0.17430858 0.19221902 1.6620001 4288984511
-0.17265821 0.19198772 1.6600001 4288984511
-0.17111441 0.19187206 1.659 4288852925
-0.16967465 0.19187206 1.659 4288721339
-0.1681335 0.1917564 1.6580001 4288655546
-0.1666946 0.1917564 1.6580001 4288720569
-0.1652557 0.1917564 1.6580001 4288720570
-0.16381681 0.1917564 1.6580001 4288721339
-0.16227998 0.19164075 1.6570001 4288655546
-0.16084196 0.19164075 1.6570001 4288523960
-0.15940394 0.19164075 1.6570001 4288458167
-0.15787056 0.19152509 1.6560001 4288392375
-0.1564334 0.19152509 1.6560001 4288392631
-0.15480906 0.19129379 1.654 4288523960
