# .PCD v0.7 - Point Cloud Data file format
VERSION 0.7
FIELDS x y z rgba
SIZE 4 4 4 4
TYPE F F F U
COUNT 1 1 1 1
WIDTH 1100
HEIGHT 1
VIEWPOINT 0 0 0 1 0 0 0
POINTS 1100
DATA ascii
-0.13084579 0.093453847 1.258 4279639848
-0.12927592 0.09389957 1.2640001 4279574053
-0.12828037 0.09397386 1.2650001 4279442467
-0.12728308 0.09404815 1.266 4279442465
-0.1264834 0.094271012 1.2690001 4279376672
-0.12548092 0.094345301 1.2700001 4279442462
-0.12437875 0.094345301 1.2700001 4279376669
-0.12337364 0.094419584 1.271 4279376926
-0.1223668 0.094493873 1.2720001 4279245340
-0.12126289 0.094493873 1.2720001 4279245086
-0.12015899 0.094493873 1.2720001 4279376672
-0.11905508 0.094493873 1.2720001 4279376672
-0.11795118 0.094493873 1.2720001 4279442465
-0.11675543 0.094419584 1.271 4279508258
-0.11565239 0.094419584 1.271 4279508258
-0.11454935 0.094419584 1.271 4279508258
-0.11335705 0.094345301 1.2700001 4279574051
-0.11225489 0.094345301 1.2700001 4279574053
-0.11115272 0.094345301 1.2700001 4279574053
-0.11005055 0.094345301 1.2700001 4279639846
-0.10894838 0.094345301 1.2700001 4279705639
-0.10784622 0.094345301 1.2700001 4279770921
-0.10674404 0.094345301 1.2700001 4279705128
-0.10572506 0.094419584 1.271 4279639335
-0.10462202 0.094419584 1.271 4279573799
-0.10351899 0.094419584 1.271 4279508262
-0.10233537 0.094345301 1.2700001 4279442469
-0.1012332 0.094345301 1.2700001 4279442469
-0.10005219 0.094271012 1.2690001 4279508262
-0.098950885 0.094271012 1.2690001 4279508007
-0.097772487 0.094196722 1.268 4279508007
-0.096672051 0.094196722 1.268 4279508007
-0.095571615 0.094196722 1.268 4279508007
-0.094471186 0.094196722 1.268 4279442214
-0.093444385 0.094271012 1.2690001 4279508007
-0.092343085 0.094271012 1.2690001 4279508007
-0.091313682 0.094345301 1.2700001 4279442214
-0.090211518 0.094345301 1.2700001 4279310629
-0.089039184 0.094271012 1.2690001 4279376422
-0.087937884 0.094271012 1.2690001 4279442215
-0.086836584 0.094271012 1.2690001 4279508008
-0.085735284 0.094271012 1.2690001 4279508265
-0.084633976 0.094271012 1.2690001 4279705643
-0.083532676 0.094271012 1.2690001 4279705901
-0.082366422 0.094196722 1.268 4279771694
-0.081265993 0.094196722 1.268 4279574572
-0.080228776 0.094271012 1.2690001 4279706158
-0.07918983 0.094345301 1.2700001 4279772210
-0.078087665 0.094345301 1.2700001 4279903796
-0.077046119 0.094419584 1.271 4280035641
-0.075883329 0.094345301 1.2700001 4280101434
-0.074781157 0.094345301 1.2700001 4280101435
-0.073678993 0.094345301 1.2700001 4280167228
-0.072576821 0.094345301 1.2700001 4280101951
-0.071474656 0.094345301 1.2700001 4280167744
-0.070372485 0.094345301 1.2700001 4280299331
-0.06927032 0.094345301 1.2700001 4280430917
-0.068168148 0.094345301 1.2700001 4280496712
-0.067065977 0.094345301 1.2700001 4280496712
-0.065963812 0.094345301 1.2700001 4280430920
-0.064810567 0.094271012 1.2690001 4280430920
-0.063709266 0.094271012 1.2690001 4280430920
-0.062607966 0.094271012 1.2690001 4280496713
-0.061458204 0.094196722 1.268 4280430920
-0.060357772 0.094196722 1.268 4280299334
-0.059257336 0.094196722 1.268 4280167494
-0.058111038 0.094122432 1.2670001 4279970115
-0.056966472 0.09404815 1.266 4279706943
-0.05582365 0.09397386 1.2650001 4279706943
-0.054725818 0.09397386 1.2650001 4280166980
-0.05362799 0.09397386 1.2650001 4280495945
-0.052530162 0.09397386 1.2650001 4280693324
-0.05143233 0.09397386 1.2650001 4280561738
-0.050294712 0.09389957 1.2640001 4280495945
-0.049197752 0.09389957 1.2640001 4280430152
-0.048100792 0.09389957 1.2640001 4280364873
-0.046966646 0.093825288 1.263 4280628045
-0.045834228 0.093750998 1.2620001 4280693838
-0.044739004 0.093750998 1.2620001 4280759630
-0.04364378 0.093750998 1.2620001 4280825678
-0.042514838 0.093676709 1.261 4280825678
-0.041453328 0.093750998 1.2620001 4280825678
-0.0403581 0.093750998 1.2620001 4280825678
-0.039325099 0.09389957 1.2640001 4280825677
-0.038288627 0.09404815 1.266 4280694091
-0.037219305 0.094122432 1.2670001 4280759883
-0.23946717 0.10122632 1.3470001 4286811275
-0.23776743 0.10100088 1.3440001 4286679689
-0.23554479 0.10054998 1.3380001 4286745228
-0.23420843 0.10047483 1.337 4287008657
-0.23287381 0.10039968 1.3360001 4286350984
-0.23102061 0.10009908 1.332 4284048229
-0.22969207 0.10002393 1.3310001 4281021497
-0.22853696 0.10002393 1.3310001 4280758325
-0.22686933 0.099798486 1.3280001 4281087290
-0.22554687 0.099723332 1.327 4281284669
-0.22321154 0.099197291 1.3200001 4281679427
-0.2217295 0.09904699 1.3180001 4281547843
-0.22008359 0.098821543 1.3150001 4280889915
-0.21727742 0.098070048 1.3050001 4280889405
-0.2151511 0.097619154 1.299 4282994527
-0.21270569 0.097017959 1.291 4287007900
-0.21142139 0.096942805 1.2900001 4290034893
-0.21013884 0.096867658 1.289 4290956765
-0.20885803 0.096792512 1.2880001 4290496728
-0.20741765 0.096642211 1.286 4288194233
-0.2063016 0.096642211 1.286 4284115329
-0.20534509 0.096717358 1.2870001 4281286492
-0.20422818 0.096717358 1.2870001 4280891740
-0.20311126 0.096717358 1.2870001 4281483365
-0.2021513 0.096792512 1.2880001 4282008938
-0.20072134 0.096642211 1.286 4281811556
-0.19960529 0.096642211 1.286 4281416793
-0.19833489 0.096567057 1.2850001 4281417044
-0.1972197 0.096567057 1.2850001 4283588463
-0.19610451 0.096567057 1.2850001 4287207582
-0.19483757 0.096491903 1.284 4288918450
-0.19357239 0.096416757 1.2830001 4288457896
-0.19245894 0.096416757 1.2830001 4287339158
-0.19104721 0.096266456 1.281 4286680716
-0.18978722 0.096191309 1.2800001 4286680206
-0.18867637 0.096191309 1.2800001 4287074969
-0.18610018 0.095439821 1.2700001 4286811545
-0.18456101 0.095214367 1.2670001 4285166465
-0.17754264 0.093260482 1.2410001 4280758853
-0.17618124 0.093110189 1.2390001 4281482832
-0.17496465 0.093035035 1.238 4282930279
-0.17332841 0.092734434 1.2340001 4283193456
-0.17211789 0.092659287 1.233 4281878113
-0.17090912 0.092584133 1.2320001 4280957017
-0.16970205 0.092508987 1.2310001 4281022811
-0.16863374 0.092508987 1.2310001 4281023068
-0.16756542 0.092508987 1.2310001 4281023322
-0.1664971 0.092508987 1.2310001 4281154651
-0.16542877 0.092508987 1.2310001 4280957271
-0.16436045 0.092508987 1.2310001 4280628565
-0.16342479 0.092584133 1.2320001 4280562773
-0.1623556 0.092584133 1.2320001 4280628821
-0.16141732 0.092659287 1.233 4280563283
-0.1604773 0.092734434 1.2340001 4280628818
-0.15940638 0.092734434 1.2340001 4280628817
-0.15846376 0.09280958 1.235 4280562769
-0.15751942 0.092884734 1.2360001 4280562512
-0.15644675 0.092884734 1.2360001 4280562254
-0.15537408 0.092884734 1.2360001 4280496460
-0.15430142 0.092884734 1.2360001 4280299080
-0.15335274 0.092959881 1.2370001 4280101701
-0.1522792 0.092959881 1.2370001 4280035907
-0.15132792 0.093035035 1.238 4279970114
-0.15025352 0.093035035 1.238 4279904576
-0.14929962 0.093110189 1.2390001 4279838782
-0.14834398 0.093185335 1.24 4279838780
-0.14726785 0.093185335 1.24 4279772986
-0.14630961 0.093260482 1.2410001 4279838264
-0.14523262 0.093260482 1.2410001 4279838263
-0.14415562 0.093260482 1.2410001 4279772469
-0.1431939 0.093335636 1.2420001 4279772469
-0.14211604 0.093335636 1.2420001 4279772469
-0.14115173 0.093410783 1.243 4279772469
-0.14018568 0.093485929 1.2440001 4279838262
-0.1392179 0.093561083 1.245 4279838262
-0.13835934 0.093711384 1.2470001 4279903796
-0.13749729 0.093861677 1.2490001 4279903796
-0.13652258 0.093936831 1.25 4279771954
-0.13478288 0.094237424 1.2540001 4279574315
-0.13390782 0.094387725 1.256 4279574314
-0.13292354 0.094462872 1.2570001 4279574312
-0.13225217 0.094763473 1.261 4279508520
-0.13136584 0.094913773 1.263 4279574054
-0.13037288 0.09498892 1.2640001 4279574054
-0.12968503 0.095289521 1.268 4279508003
-0.128686 0.095364667 1.2690001 4279376673
-0.1275847 0.095364667 1.2690001 4279442208
-0.12668274 0.095514968 1.271 4279442208
-0.12567851 0.095590115 1.2720001 4279507999
-0.12457461 0.095590115 1.2720001 4279442206
-0.1234707 0.095590115 1.2720001 4279442462
-0.12246301 0.095665269 1.273 4279376670
-0.12126289 0.095590115 1.2720001 4279376416
-0.12015899 0.095590115 1.2720001 4279376416
-0.1189615 0.095514968 1.271 4279376672
-0.11785846 0.095514968 1.271 4279508258
-0.11675543 0.095514968 1.271 4279508258
-0.1155614 0.095439821 1.2700001 4279442465
-0.11445923 0.095439821 1.2700001 4279508259
-0.11335705 0.095439821 1.2700001 4279574052
-0.11225489 0.095439821 1.2700001 4279574053
-0.11115272 0.095439821 1.2700001 4279574053
-0.11005055 0.095439821 1.2700001 4279639846
-0.10894838 0.095439821 1.2700001 4279639847
-0.10784622 0.095439821 1.2700001 4279639335
-0.10665999 0.095364667 1.2690001 4279639335
-0.10555869 0.095364667 1.2690001 4279639335
-0.10445739 0.095364667 1.2690001 4279573542
-0.10335609 0.095364667 1.2690001 4279508005
-0.10217422 0.095289521 1.268 4279442212
-0.10099407 0.095214367 1.2670001 4279376676
-0.099815659 0.09513922 1.266 4279442469
-0.098716959 0.09513922 1.266 4279573800
-0.097541161 0.095064074 1.2650001 4279508007
-0.096443333 0.095064074 1.2650001 4279573800
-0.095345505 0.095064074 1.2650001 4279573800
-0.094322175 0.09513922 1.266 4279508007
-0.093223475 0.09513922 1.266 4279442214
-0.092197552 0.095214367 1.2670001 4279442215
-0.091097988 0.095214367 1.2670001 4279376422
-0.089998417 0.095214367 1.2670001 4279376423
-0.088898852 0.095214367 1.2670001 4279442216
-0.087799288 0.095214367 1.2670001 4279574058
-0.086699724 0.095214367 1.2670001 4279705644
-0.085532598 0.09513922 1.266 4279771694
-0.084433898 0.09513922 1.266 4279771695
-0.08326938 0.095064074 1.2650001 4279837746
-0.082171552 0.095064074 1.2650001 4279837746
-0.081073724 0.095064074 1.2650001 4279640623
-0.080039114 0.09513922 1.266 4279706417
-0.079002768 0.095214367 1.2670001 4279772468
-0.077841714 0.09513922 1.266 4279903798
-0.07680364 0.095214367 1.2670001 4280035642
-0.075704075 0.095214367 1.2670001 4280101436
-0.074604511 0.095214367 1.2670001 4280101694
-0.073504947 0.095214367 1.2670001 4280167487
-0.072405383 0.095214367 1.2670001 4280233537
-0.071249537 0.09513922 1.266 4280233538
-0.070150837 0.09513922 1.266 4280496712
-0.069106683 0.095214367 1.2670001 4280562505
-0.067953445 0.09513922 1.266 4280496713
-0.066854745 0.09513922 1.266 4280430920
-0.065756053 0.09513922 1.266 4280496458
-0.064606287 0.095064074 1.2650001 4280430665
-0.063508458 0.095064074 1.2650001 4280430921
-0.062410627 0.095064074 1.2650001 4280628044
-0.061312798 0.095064074 1.2650001 4280430921
-0.060167365 0.09498892 1.2640001 4280101956
-0.059023671 0.094913773 1.263 4279970115
-0.057881717 0.094838619 1.2620001 4279838529
-0.056786485 0.094838619 1.2620001 4279772736
-0.055691261 0.094838619 1.2620001 4279970116
-0.054596037 0.094838619 1.2620001 4280496202
-0.053500809 0.094838619 1.2620001 4280693581
-0.052405585 0.094838619 1.2620001 4280759374
-0.051310357 0.094838619 1.2620001 4280693581
-0.050215133 0.094838619 1.2620001 4280496202
-0.049080987 0.094763473 1.261 4280298823
-0.047986627 0.094763473 1.261 4280364873
-0.04689227 0.094763473 1.261 4280693838
-0.045761593 0.094688319 1.2600001 4280825424
-0.044668101 0.094688319 1.2600001 4280891217
-0.043574613 0.094688319 1.2600001 4280957009
-0.042447407 0.094613172 1.2590001 4280891472
-0.041354787 0.094613172 1.2590001 4280825678
-0.040294141 0.094688319 1.2600001 4280825678
-0.039262876 0.094838619 1.2620001 4280825678
-0.038197897 0.094913773 1.263 4280759885
-0.037101801 0.094913773 1.263 4280825676
-0.036205262 0.095439821 1.2700001 4280957262
-0.035186015 0.095665269 1.273 4280694090
-0.03413479 0.095815562 1.2750001 4279772731
-0.23982272 0.10253923 1.3490001 4286087552
-0.23829818 0.1023872 1.3470001 4285758587
-0.23589686 0.10185513 1.34 4285626747
-0.2343836 0.1017031 1.3380001 4285955969
-0.23304813 0.10162709 1.337 4285956226
-0.23119405 0.10132305 1.3330001 4283916643
-0.22986463 0.10124703 1.332 4281416255
-0.22870865 0.10124703 1.332 4280889911
-0.22704017 0.101019 1.3290001 4281482048
-0.22571683 0.10094299 1.3280001 4281876806
-0.22338064 0.10041091 1.3210001 4281942599
-0.2217295 0.10018288 1.3180001 4281745219
-0.22025095 0.10003085 1.3160001 4281218617
-0.21744391 0.099270739 1.3060001 4280758066
-0.21531673 0.098814674 1.3000001 4282205512
-0.21270569 0.098130576 1.291 4286745486
-0.21142139 0.098054558 1.2900001 4291416792
-0.21013884 0.097978547 1.289 4292930546
-0.20885803 0.097902536 1.2880001 4292931062
-0.20757894 0.097826526 1.2870001 4292207602
-0.2063016 0.097750515 1.286 4288852422
-0.20518555 0.097750515 1.286 4283523964
-0.2040695 0.097750515 1.286 4281155678
-0.20295344 0.097750515 1.286 4281484134
-0.20199433 0.097826526 1.2870001 4282009454
-0.20072134 0.097750515 1.286 4282074993
-0.19960529 0.097750515 1.286 4281680236
-0.19848923 0.097750515 1.286 4281219938
-0.1972197 0.097674504 1.2850001 4281219932
-0.19610451 0.097674504 1.2850001 4283654264
-0.19483757 0.097598493 1.284 4287207077
-0.19372326 0.097598493 1.284 4288720563
-0.19245894 0.097522482 1.2830001 4288260007
-0.19104721 0.097370453 1.281 4287535771
-0.18993549 0.097370453 1.281 4287140500
-0.18867637 0.09729445 1.2800001 4287206293
-0.18610018 0.096534342 1.2700001 4287140245
-0.18456101 0.096306294 1.2670001 4286153098
-0.17739958 0.094253995 1.24 4283521896
-0.17618124 0.094177984 1.2390001 4286417299
-0.17482331 0.094025962 1.2370001 4288785848
-0.17318796 0.093721919 1.233 4288325303
-0.17211789 0.093721919 1.233 4284377988
-0.17090912 0.0936459 1.2320001 4281351516
-0.16970205 0.093569897 1.2310001 4280891224
-0.16863374 0.093569897 1.2310001 4280891481
-0.16756542 0.093569897 1.2310001 4280825686
-0.1664971 0.093569897 1.2310001 4280891480
-0.16542877 0.093569897 1.2310001 4280891480
-0.16436045 0.093569897 1.2310001 4280694359
-0.16342479 0.0936459 1.2320001 4280628567
-0.1623556 0.0936459 1.2320001 4280629336
-0.16154823 0.09379793 1.2340001 4280695126
-0.1604773 0.09379793 1.2340001 4280760662
-0.15940638 0.09379793 1.2340001 4280694612
-0.15859208 0.093949951 1.2360001 4280628562
-0.15739197 0.09387394 1.235 4280562512
-0.15644675 0.093949951 1.2360001 4280430668
-0.15549979 0.094025962 1.2370001 4280299081
-0.15442626 0.094025962 1.2370001 4280233287
-0.15347672 0.094101973 1.238 4280101701
-0.15240231 0.094101973 1.238 4280036162
-0.15145014 0.094177984 1.2390001 4279970369
-0.15037489 0.094177984 1.2390001 4279970367
-0.14942011 0.094253995 1.24 4279970367
-0.14834398 0.094253995 1.24 4279838779
-0.14738663 0.094330005 1.2410001 4279772986
-0.14642751 0.094406024 1.2420001 4279904056
-0.14534964 0.094406024 1.2420001 4279838263
-0.14427178 0.094406024 1.2420001 4279772469
-0.14330919 0.094482027 1.243 4279706676
-0.14223045 0.094482027 1.243 4279706676
-0.14115173 0.094482027 1.243 4279706676
-0.14029837 0.094634056 1.245 4279838005
-0.13932972 0.094710059 1.2460001 4279838005
-0.13749729 0.094938099 1.2490001 4279706417
-0.13652258 0.09501411 1.25 4279771696
-0.13499784 0.095470183 1.256 4279639851
-0.13401443 0.095546186 1.2570001 4279574312
-0.1330293 0.095622197 1.258 4279639592
-0.13246194 0.096002258 1.263 4279574054
-0.13146985 0.096078262 1.2640001 4279573796
-0.13047604 0.09615428 1.2650001 4279508003
-0.12978731 0.096458323 1.2690001 4279441952
-0.12878741 0.096534342 1.2700001 4279441952
-0.12768525 0.096534342 1.2700001 4279507744
-0.12678242 0.096686356 1.2720001 4279508001
-0.12567851 0.096686356 1.2720001 4279573792
-0.12457461 0.096686356 1.2720001 4279507999
-0.12356778 0.096762374 1.273 4279507999
-0.12246301 0.096762374 1.273 4279507999
-0.12126289 0.096686356 1.2720001 4279507745
-0.12006453 0.096610345 1.271 4279507745
-0.1189615 0.096610345 1.271 4279508003
-0.11785846 0.096610345 1.271 4279639588
-0.11675543 0.096610345 1.271 4279574052
-0.1155614 0.096534342 1.2700001 4279508259
-0.11445923 0.096534342 1.2700001 4279508260
-0.11335705 0.096534342 1.2700001 4279574053
-0.11225489 0.096534342 1.2700001 4279574053
-0.11115272 0.096534342 1.2700001 4279574053
-0.11005055 0.096534342 1.2700001 4279574055
-0.10894838 0.096534342 1.2700001 4279574055
-0.10784622 0.096534342 1.2700001 4279573542
-0.10665999 0.096458323 1.2690001 4279573542
-0.10555869 0.096458323 1.2690001 4279573542
-0.10445739 0.096458323 1.2690001 4279573542
-0.10327465 0.096382312 1.268 4279573542
-0.10217422 0.096382312 1.268 4279507749
-0.10091436 0.096230291 1.266 4279442470
-0.099815659 0.096230291 1.266 4279508006
-0.098638989 0.09615428 1.2650001 4279573800
-0.097541161 0.09615428 1.2650001 4279442214
-0.096443333 0.09615428 1.2650001 4279508008
-0.095345505 0.09615428 1.2650001 4279573801
-0.094322175 0.096230291 1.266 4279442216
-0.093223475 0.096230291 1.266 4279442216
-0.092124783 0.096230291 1.266 4279508010
-0.091097988 0.096306294 1.2670001 4279508010
-0.089998417 0.096306294 1.2670001 4279508010
-0.088898852 0.096306294 1.2670001 4279639596
-0.08772999 0.096230291 1.266 4279771440
-0.086631291 0.096230291 1.266 4279903026
-0.085532598 0.096230291 1.266 4279969332
-0.084367208 0.09615428 1.2650001 4279969332
-0.08326938 0.09615428 1.2650001 4279969590
-0.08210659 0.096078262 1.2640001 4279903797
-0.081073724 0.09615428 1.2650001 4279838005
-0.07991267 0.096078262 1.2640001 4279838262
-0.078878067 0.09615428 1.2650001 4279838263
-0.077841714 0.096230291 1.266 4279904056
-0.076743022 0.096230291 1.266 4279970108
-0.075704075 0.096306294 1.2670001 4280101694
-0.074545629 0.096230291 1.266 4280101952
-0.073446929 0.096230291 1.266 4280167745
-0.07234823 0.096230291 1.266 4280299333
-0.071249537 0.096230291 1.266 4280365126
-0.070150837 0.096230291 1.266 4280496713
-0.069052137 0.096230291 1.266 4280496713
-0.067899771 0.09615428 1.2650001 4280430664
-0.066801943 0.09615428 1.2650001 4280430665
-0.065704115 0.09615428 1.2650001 4280430666
-0.064606287 0.09615428 1.2650001 4280430666
-0.063458249 0.096078262 1.2640001 4280628045
-0.062361289 0.096078262 1.2640001 4280693838
-0.061264329 0.096078262 1.2640001 4280364873
-0.060119763 0.096002258 1.263 4279970115
-0.058976941 0.095926248 1.2620001 4279838529
-0.057881717 0.095926248 1.2620001 4279838529
-0.056741491 0.095850229 1.261 4279970116
-0.055647131 0.095850229 1.261 4280299081
-0.054552775 0.095850229 1.261 4280628045
-0.053458419 0.095850229 1.261 4280693838
-0.052364059 0.095850229 1.261 4280759631
-0.051269703 0.095850229 1.261 4280693838
-0.050175343 0.095850229 1.261 4280364873
-0.049080987 0.095850229 1.261 4280299080
-0.047986627 0.095850229 1.261 4280496459
-0.04689227 0.095850229 1.261 4280759631
-0.045761593 0.095774218 1.2600001 4280891217
-0.044668101 0.095774218 1.2600001 4280891217
-0.043540031 0.095698215 1.2590001 4280891217
-0.042447407 0.095698215 1.2590001 4280891217
-0.041354787 0.095698215 1.2590001 4280759885
-0.040294141 0.095774218 1.2600001 4280759885
-0.039231766 0.095850229 1.261 4280891471
-0.038167652 0.095926248 1.2620001 4280891471
-0.037101801 0.096002258 1.263 4280891469
-0.036205262 0.096534342 1.2700001 4280694090
-0.035158377 0.096686356 1.2720001 4280167746
-0.03413479 0.096914388 1.2750001 4279312437
-0.236425 0.10324059 1.3430001 4284113508
-0.23508431 0.10316372 1.342 4284047715
-0.23357102 0.10300997 1.34 4283850337
-0.23171437 0.10270248 1.3360001 4282797649
-0.23038234 0.1026256 1.335 4281876547
-0.22905205 0.10254873 1.3340001 4281876547
-0.22738186 0.10231812 1.3310001 4282271305
-0.22588681 0.10216437 1.3290001 4282468684
-0.22354972 0.10162625 1.322 4282337098
-0.22189774 0.10139564 1.319 4281810755
-0.22041832 0.10124189 1.317 4281349694
-0.2176104 0.10047316 1.307 4280889141
-0.21548235 0.10001191 1.3010001 4280560175
-0.21287043 0.099320062 1.2920001 4283587165
-0.21158528 0.099243186 1.291 4289969344
-0.21030186 0.099166311 1.2900001 4293259767
-0.20885803 0.099012569 1.2880001 4293325821
-0.20741765 0.098858826 1.286 4292865532
-0.20614119 0.098781951 1.2850001 4291023593
-0.205026 0.098781951 1.2850001 4286155430
-0.20391081 0.098781951 1.2850001 4281616232
-0.20279562 0.098781951 1.2850001 4281286756
-0.20168045 0.098781951 1.2850001 4281812333
-0.20056526 0.098781951 1.2850001 4281943664
-0.19945008 0.098781951 1.2850001 4281878125
-0.19833489 0.098781951 1.2850001 4281614947
-0.1972197 0.098781951 1.2850001 4281286231
-0.19610451 0.098781951 1.2850001 4281483092
-0.19483757 0.098705076 1.284 4283983219
-0.19372326 0.098705076 1.284 4287667876
-0.19260894 0.098705076 1.284 4289181110
-0.19119635 0.098551333 1.2820001 4288785837
-0.19008377 0.098551333 1.2820001 4287864221
-0.18882377 0.098474458 1.281 4287008913
-0.18595363 0.097551979 1.2690001 4286548106
-0.18441533 0.097321361 1.266 4285890182
-0.18071024 0.095937647 1.248 4285297792
-0.17919537 0.095707029 1.245 4285429123
-0.17725651 0.095245786 1.2390001 4288192685
-0.17603905 0.095168911 1.238 4290758866
-0.17468199 0.095015168 1.2360001 4291614432
-0.17318796 0.09478455 1.233 4291154145
-0.17211789 0.09478455 1.233 4287601331
-0.17077038 0.0946308 1.2310001 4282535274
-0.16970205 0.0946308 1.2310001 4280561744
-0.16863374 0.0946308 1.2310001 4280628308
-0.16756542 0.0946308 1.2310001 4280825687
-0.1664971 0.0946308 1.2310001 4280957018
-0.16542877 0.0946308 1.2310001 4280957018
-0.16449398 0.094707675 1.2320001 4280759896
-0.16342479 0.094707675 1.2320001 4280760151
-0.16248737 0.09478455 1.233 4280760664
-0.16154823 0.094861418 1.2340001 4280761174
-0.16060735 0.094938293 1.235 4280891988
-0.15940638 0.094861418 1.2340001 4280760402
-0.15859208 0.095015168 1.2360001 4280562766
-0.15751942 0.095015168 1.2360001 4280431180
-0.15657333 0.095092043 1.2370001 4280299080
-0.15562551 0.095168911 1.238 4280167494
-0.1545511 0.095168911 1.238 4280036164
-0.15360068 0.095245786 1.2390001 4280036164
-0.15252541 0.095245786 1.2390001 4279970369
-0.15145014 0.095245786 1.2390001 4279904575
-0.15049624 0.095322661 1.24 4279838781
-0.14954062 0.095399529 1.2410001 4279970367
-0.14846362 0.095399529 1.2410001 4279839035
-0.14738663 0.095399529 1.2410001 4279839035
-0.14642751 0.095476404 1.2420001 4279969849
-0.14534964 0.095476404 1.2420001 4279904056
-0.14438793 0.095553279 1.243 4279772469
-0.14330919 0.095553279 1.243 4279706676
-0.14234489 0.095630147 1.2440001 4279641139
-0.14126529 0.095630147 1.2440001 4279706675
-0.14041105 0.095783897 1.2460001 4279903798
-0.13932972 0.095783897 1.2460001 4279838005
-0.13760738 0.096091397 1.25 4279574830
-0.13663179 0.096168265 1.251 4279705644
-0.13576281 0.096322015 1.253 4279705644
-0.13510533 0.0966295 1.2570001 4279705386
-0.13422766 0.096783251 1.2590001 4279705641
-0.13324079 0.096860118 1.2600001 4279770920
-0.1326717 0.097244486 1.2650001 4279573540
-0.13167787 0.097321361 1.266 4279441952
-0.13068233 0.097398229 1.2670001 4279376159
-0.12988959 0.097628854 1.2700001 4279376158
-0.12888882 0.097705729 1.271 4279376158
-0.12778579 0.097705729 1.271 4279442206
-0.12678242 0.097782597 1.2720001 4279507999
-0.12577732 0.097859472 1.273 4279573792
-0.12467255 0.097859472 1.273 4279507999
-0.12356778 0.097859472 1.273 4279573793
-0.1223668 0.097782597 1.2720001 4279573536
-0.12126289 0.097782597 1.2720001 4279573538
-0.12006453 0.097705729 1.271 4279573538
-0.1189615 0.097705729 1.271 4279639589
-0.11785846 0.097705729 1.271 4279705382
-0.11675543 0.097705729 1.271 4279639846
-0.1155614 0.097628854 1.2700001 4279574053
-0.11445923 0.097628854 1.2700001 4279574053
-0.11335705 0.097628854 1.2700001 4279574053
-0.11225489 0.097628854 1.2700001 4279508262
-0.11115272 0.097628854 1.2700001 4279508262
-0.11005055 0.097628854 1.2700001 4279508262
-0.10894838 0.097628854 1.2700001 4279574055
-0.10776129 0.097551979 1.2690001 4279573542
-0.10665999 0.097551979 1.2690001 4279507749
-0.10555869 0.097551979 1.2690001 4279573542
-0.10437508 0.097475111 1.268 4279639335
-0.10327465 0.097475111 1.268 4279639335
-0.10209364 0.097398229 1.2670001 4279573542
-0.10091436 0.097321361 1.266 4279508007
-0.099736817 0.097244486 1.2650001 4279573800
-0.098638989 0.097244486 1.2650001 4279573801
-0.097464055 0.097167611 1.2640001 4279442471
-0.096367091 0.097167611 1.2640001 4279508265
-0.095270127 0.097167611 1.2640001 4279508266
-0.094247676 0.097244486 1.2650001 4279442730
-0.093223475 0.097321361 1.266 4279574059
-0.092124783 0.097321361 1.266 4279639854
-0.091097988 0.097398229 1.2670001 4279639854
-0.089998417 0.097398229 1.2670001 4279639854
-0.088898852 0.097398229 1.2670001 4279771697
-0.08772999 0.097321361 1.266 4279903284
-0.086631291 0.097321361 1.266 4280034871
-0.085465044 0.097244486 1.2650001 4280101177
-0.084300518 0.097167611 1.2640001 4280166714
-0.083203554 0.097167611 1.2640001 4280101177
-0.082041636 0.097090743 1.263 4279969848
-0.080945536 0.097090743 1.263 4279970107
-0.079849444 0.097090743 1.263 4279970108
-0.078815706 0.097167611 1.2640001 4279970108
-0.077780239 0.097244486 1.2650001 4279970108
-0.076682404 0.097244486 1.2650001 4280036159
-0.075644322 0.097321361 1.266 4280167489
-0.074545629 0.097321361 1.266 4280233283
-0.073446929 0.097321361 1.266 4280299076
-0.072291091 0.097244486 1.2650001 4280365127
-0.071193263 0.097244486 1.2650001 4280365127
-0.070095435 0.097244486 1.2650001 4280365128
-0.068997599 0.097244486 1.2650001 4280430921
-0.067899771 0.097244486 1.2650001 4280496459
-0.066749133 0.097167611 1.2640001 4280496459
-0.065652169 0.097167611 1.2640001 4280496460
-0.064555213 0.097167611 1.2640001 4280693838
-0.063458249 0.097167611 1.2640001 4280759631
-0.062311951 0.097090743 1.263 4280628045
-0.061215855 0.097090743 1.263 4280233287
-0.060072165 0.097013868 1.2620001 4279904322
-0.058930207 0.096936993 1.261 4279772737
-0.057835847 0.096936993 1.261 4279970116
-0.056696489 0.096860118 1.2600001 4280233288
-0.055603001 0.096860118 1.2600001 4280562252
-0.054552775 0.096936993 1.261 4280628045
-0.053458419 0.096936993 1.261 4280693838
-0.052364059 0.096936993 1.261 4280628045
-0.051269703 0.096936993 1.261 4280496459
-0.050175343 0.096936993 1.261 4280364873
-0.049080987 0.096936993 1.261 4280364873
-0.047986627 0.096936993 1.261 4280628045
-0.04689227 0.096936993 1.261 4280759631
-0.045761593 0.096860118 1.2600001 4280825424
-0.044668101 0.096860118 1.2600001 4280825424
-0.043540031 0.096783251 1.2590001 4280759631
-0.042447407 0.096783251 1.2590001 4280825423
-0.041354787 0.096783251 1.2590001 4280825422
-0.040262163 0.096783251 1.2590001 4280891215
-0.039231766 0.096936993 1.261 4280957264
-0.038167652 0.097013868 1.2620001 4281023057
-0.037101801 0.097090743 1.263 4280957262
-0.036176756 0.097551979 1.2690001 4280496711
-0.035158377 0.097782597 1.2720001 4279904574
-0.03413479 0.098013215 1.2750001 4279312437
-0.23660104 0.10447575 1.3440001 4283258199
-0.23508431 0.10432029 1.342 4282995027
-0.23374532 0.10424255 1.3410001 4282468684
-0.23171437 0.10385387 1.3360001 4282337098
-0.23055492 0.10385387 1.3360001 4282337098
-0.22922376 0.10377614 1.335 4282468684
-0.22738186 0.10346521 1.3310001 4282731856
-0.22588681 0.10330974 1.3290001 4282534477
-0.22354972 0.10276559 1.322 4282139719
-0.22189774 0.10253239 1.319 4281613119
-0.22041832 0.10237692 1.317 4281086263
-0.2176104 0.10159956 1.307 4280362542
-0.21548235 0.10113315 1.3010001 4280099116
-0.2130352 0.10051128 1.2930001 4280559923
-0.21158528 0.1003558 1.291 4284836979
-0.21030186 0.10027806 1.2900001 4291351255
-0.20853372 0.09996713 1.286 4293062643
-0.20725638 0.099889398 1.2850001 4293063157
-0.20614119 0.099889398 1.2850001 4292142316
-0.205026 0.099889398 1.2850001 4288721857
-0.20375212 0.099811658 1.284 4283524474
-0.20279562 0.099889398 1.2850001 4281155420
-0.20168045 0.099889398 1.2850001 4281417826
-0.20056526 0.099889398 1.2850001 4281746537
-0.19945008 0.099889398 1.2850001 4281812332
-0.19833489 0.099889398 1.2850001 4281877867
-0.1972197 0.099889398 1.2850001 4281548900
-0.19610451 0.099889398 1.2850001 4281351262
-0.19483757 0.099811658 1.284 4281679967
-0.19372326 0.099811658 1.284 4284574851
-0.19260894 0.099811658 1.284 4287996079
-0.19119635 0.099656194 1.2820001 4289180090
-0.19008377 0.099656194 1.2820001 4288456107
-0.18764456 0.098956577 1.273 4286942609
-0.18610018 0.098723374 1.2700001 4285823872
-0.18441533 0.098412432 1.266 4285692288
-0.18056545 0.096935473 1.2470001 4285560703
-0.17919537 0.096780002 1.245 4286087303
-0.17725651 0.096313588 1.2390001 4288916912
-0.17603905 0.096235849 1.238 4291153873
-0.17482331 0.096158117 1.2370001 4291746269
-0.17318796 0.095847182 1.233 4291417053
-0.17211789 0.095847182 1.233 4289509576
-0.17090912 0.095769443 1.2320001 4284970119
-0.16983993 0.095769443 1.2320001 4281483350
-0.16877073 0.095769443 1.2320001 4280365130
-0.16770154 0.095769443 1.2320001 4280694098
-0.16663235 0.095769443 1.2320001 4280957272
-0.16556317 0.095769443 1.2320001 4281023066
-0.16462749 0.095847182 1.233 4280759894
-0.16342479 0.095769443 1.2320001 4280759894
-0.16248737 0.095847182 1.233 4280891735
-0.16154823 0.095924914 1.2340001 4280891989
-0.16060735 0.096002646 1.235 4280826195
-0.15966474 0.096080385 1.2360001 4280694864
-0.15872037 0.096158117 1.2370001 4280496973
-0.1577743 0.096235849 1.238 4280233801
-0.1566999 0.096235849 1.238 4280167494
-0.15575121 0.096313588 1.2390001 4280035908
-0.15467595 0.096313588 1.2390001 4279904576
-0.15372464 0.09639132 1.24 4279838783
-0.15264851 0.09639132 1.24 4279838781
-0.15157238 0.09639132 1.24 4279772988
-0.15049624 0.09639132 1.24 4279772986
-0.14954062 0.096469052 1.2410001 4279904572
-0.14846362 0.096469052 1.2410001 4279839033
-0.14750539 0.096546791 1.2420001 4279839033
-0.14654541 0.096624523 1.243 4279970105
-0.14546667 0.096624523 1.243 4279904055
-0.1445041 0.096702263 1.2440001 4279772468
-0.14353979 0.096780002 1.245 4279706676
-0.14257373 0.096857734 1.2460001 4279772466
-0.1414924 0.096857734 1.2460001 4279838260
-0.14074913 0.097090937 1.2490001 4279969588
-0.139777 0.097168677 1.25 4279903795
-0.1386922 0.097168677 1.25 4279771694
-0.13804772 0.097479612 1.2540001 4279574315
-0.13706866 0.097557344 1.2550001 4279639849
-0.13619621 0.097712815 1.2570001 4279705386
-0.13553524 0.098023757 1.261 4279770920
-0.13454752 0.098101497 1.2620001 4279705128
-0.13366377 0.098256961 1.2640001 4279639333
-0.13298634 0.098567903 1.268 4279441953
-0.1318859 0.098567903 1.268 4279310365
-0.13088861 0.098645635 1.2690001 4279376158
-0.12999186 0.098801106 1.271 4279376413
-0.12888882 0.098801106 1.271 4279376413
-0.12788633 0.098878838 1.2720001 4279442206
-0.12678242 0.098878838 1.2720001 4279442206
-0.12567851 0.098878838 1.2720001 4279507999
-0.12457461 0.098878838 1.2720001 4279573792
-0.1234707 0.098878838 1.2720001 4279573538
-0.1223668 0.098878838 1.2720001 4279507745
-0.12126289 0.098878838 1.2720001 4279508002
-0.12006453 0.098801106 1.271 4279573539
-0.1188679 0.098723374 1.2700001 4279639846
-0.11776573 0.098723374 1.2700001 4279705639
-0.11657169 0.098645635 1.2690001 4279639846
-0.11547039 0.098645635 1.2690001 4279639846
-0.11436909 0.098645635 1.2690001 4279639846
-0.11326779 0.098645635 1.2690001 4279574053
-0.11216649 0.098645635 1.2690001 4279508262
-0.11097768 0.098567903 1.268 4279508262
-0.10987724 0.098567903 1.268 4279508262
-0.10877681 0.098567903 1.268 4279573799
-0.10767638 0.098567903 1.268 4279573542
-0.10649189 0.098490164 1.2670001 4279507749
-0.10530914 0.098412432 1.266 4279507749
-0.10412814 0.0983347 1.2650001 4279573542
-0.10294886 0.098256961 1.2640001 4279573543
-0.1018519 0.098256961 1.2640001 4279573543
-0.10067523 0.098179229 1.263 4279508007
-0.099579126 0.098179229 1.263 4279573800
-0.098405063 0.098101497 1.2620001 4279573802
-0.097309835 0.098101497 1.2620001 4279508009
-0.096214615 0.098101497 1.2620001 4279508523
-0.095119387 0.098101497 1.2620001 4279508523
-0.094098665 0.098179229 1.263 4279574062
-0.093076207 0.098256961 1.2640001 4279705648
-0.091979243 0.098256961 1.2640001 4279771441
-0.090954185 0.0983347 1.2650001 4279771442
-0.089856356 0.0983347 1.2650001 4279771444
-0.088758528 0.0983347 1.2650001 4279903030
-0.087591402 0.098256961 1.2640001 4279903543
-0.086494438 0.098256961 1.2640001 4280232508
-0.085397474 0.098256961 1.2640001 4280232765
-0.084100433 0.098023757 1.261 4280298559
-0.083006077 0.098023757 1.261 4280167230
-0.081846759 0.097946018 1.2600001 4280167230
-0.080753267 0.097946018 1.2600001 4280101953
-0.079723008 0.098023757 1.261 4280101953
-0.078691006 0.098101497 1.2620001 4280036161
-0.077595778 0.098101497 1.2620001 4280101954
-0.07650055 0.098101497 1.2620001 4280233541
-0.075465068 0.098179229 1.263 4280299334
-0.074368976 0.098179229 1.263 4280364872
-0.073272884 0.098179229 1.263 4280365128
-0.072119646 0.098101497 1.2620001 4280365128
-0.071024425 0.098101497 1.2620001 4280365128
-0.069929197 0.098101497 1.2620001 4280496459
-0.06883397 0.098101497 1.2620001 4280562252
-0.067685068 0.098023757 1.261 4280628045
-0.066537902 0.097946018 1.2600001 4280693839
-0.06544441 0.097946018 1.2600001 4280825425
-0.064299852 0.097868286 1.2590001 4280891218
-0.063207231 0.097868286 1.2590001 4280628046
-0.062114608 0.097868286 1.2590001 4280299081
-0.060973518 0.097790547 1.258 4280035908
-0.059881762 0.097790547 1.258 4279904322
-0.058743272 0.097712815 1.2570001 4279838530
-0.057652388 0.097712815 1.2570001 4280101702
-0.0565615 0.097712815 1.2570001 4280430667
-0.055470612 0.097712815 1.2570001 4280628046
-0.054379728 0.097712815 1.2570001 4280628045
-0.053331237 0.097790547 1.258 4280562252
-0.052239481 0.097790547 1.258 4280430666
-0.051188383 0.097868286 1.2590001 4280364873
-0.050095763 0.097868286 1.2590001 4280299080
-0.049042061 0.097946018 1.2600001 4280364873
-0.047948573 0.097946018 1.2600001 4280628045
-0.046855081 0.097946018 1.2600001 4280759631
-0.045761593 0.097946018 1.2600001 4280759631
-0.044668101 0.097946018 1.2600001 4280693838
-0.043574613 0.097946018 1.2600001 4280693838
-0.042447407 0.097868286 1.2590001 4280825424
-0.041354787 0.097868286 1.2590001 4280957010
-0.040294141 0.097946018 1.2600001 4281022803
-0.039262876 0.098101497 1.2620001 4281023058
-0.038197897 0.098179229 1.263 4281023057
-0.037131179 0.098256961 1.2640001 4280891470
-0.036233775 0.098801106 1.271 4280562247
-0.035213657 0.099034309 1.274 4280101440
-0.03416156 0.099189781 1.276 4279641145
-0.23525949 0.10555545 1.3430001 4283192407
-0.23391965 0.10547686 1.342 4282995028
-0.2318878 0.10508388 1.337 4283192407
-0.23055492 0.10500527 1.3360001 4283323993
-0.22922376 0.10492668 1.335 4283323993
-0.22738186 0.10461229 1.3310001 4283389786
-0.22605677 0.10453369 1.33 4282995028
-0.22354972 0.10390493 1.322 4282205512
-0.22206597 0.10374773 1.3200001 4281415740
-0.22041832 0.10351194 1.317 4280888884
-0.21777691 0.10280457 1.3080001 4280559663
-0.215648 0.10233299 1.302 4280296236
-0.2130352 0.10162562 1.2930001 4280230443
-0.21174918 0.10154702 1.2920001 4281744452
-0.21013884 0.10131123 1.289 4287205784
-0.20837156 0.10099684 1.2850001 4292141028
-0.20725638 0.10099684 1.2850001 4292931060
-0.20614119 0.10099684 1.2850001 4292536820
-0.20486644 0.10091824 1.284 4291221479
-0.20375212 0.10091824 1.284 4287734456
-0.20263781 0.10091824 1.284 4283326075
-0.20152348 0.10091824 1.284 4281285983
-0.20040917 0.10091824 1.284 4281483107
-0.19929485 0.10091824 1.284 4281878122
-0.19818053 0.10091824 1.284 4281878377
-0.19706622 0.10091824 1.284 4281812583
-0.19595189 0.10091824 1.284 4281549154
-0.19483757 0.10091824 1.284 4281154138
-0.19372326 0.10091824 1.284 4281614426
-0.19245894 0.10083964 1.2830001 4284443516
-0.19119635 0.10076106 1.2820001 4287930025
-0.18993549 0.10068245 1.281 4288719535
-0.18764456 0.10005368 1.273 4287206038
-0.18595363 0.099739291 1.2690001 4285495163
-0.18441533 0.099503502 1.266 4285363322
-0.18042064 0.097931564 1.2460001 4285758080
-0.1789075 0.097695775 1.243 4286218630
-0.17725651 0.097381391 1.2390001 4287534744
-0.17603905 0.097302787 1.238 4289706172
-0.17482331 0.097224198 1.2370001 4291087828
-0.17332841 0.096988402 1.2340001 4291416797
-0.17211789 0.096909814 1.233 4290562006
-0.17104784 0.096909814 1.233 4287733167
-0.16983993 0.09683121 1.2320001 4283259246
-0.16877073 0.09683121 1.2320001 4280825169
-0.16770154 0.09683121 1.2320001 4280562001
-0.16663235 0.09683121 1.2320001 4280956760
-0.16542877 0.096752614 1.2310001 4281088347
-0.16449398 0.09683121 1.2320001 4280891225
-0.16355743 0.096909814 1.233 4280891223
-0.16248737 0.096909814 1.233 4280891736
-0.16167915 0.097066998 1.235 4280891733
-0.1607374 0.097145602 1.2360001 4280826194
-0.15966474 0.097145602 1.2360001 4280629071
-0.1588487 0.097302787 1.238 4280431179
-0.1577743 0.097302787 1.238 4280168007
-0.15682647 0.097381391 1.2390001 4280101701
-0.15575121 0.097381391 1.2390001 4279970369
-0.15467595 0.097381391 1.2390001 4279772990
-0.15360068 0.097381391 1.2390001 4279707197
-0.15264851 0.097459987 1.24 4279707195
-0.15157238 0.097459987 1.24 4279772986
-0.15049624 0.097459987 1.24 4279838778
-0.14942011 0.097459987 1.24 4279839033
-0.14846362 0.097538583 1.2410001 4279772983
-0.14738663 0.097538583 1.2410001 4279772982
-0.14642751 0.097617179 1.2420001 4279838518
-0.14546667 0.097695775 1.243 4279838261
-0.1445041 0.097774372 1.2440001 4279772210
-0.14365508 0.097931564 1.2460001 4279772210
-0.14257373 0.097931564 1.2460001 4279838003
-0.14160596 0.098010167 1.2470001 4279969588
-0.14086182 0.098245956 1.25 4280034866
-0.139777 0.098245956 1.25 4279969072
-0.13880314 0.098324552 1.251 4279771692
-0.1381578 0.098638937 1.2550001 4279705642
-0.13717788 0.098717533 1.256 4279705640
-0.13619621 0.098796129 1.2570001 4279705640
-0.13564274 0.099189118 1.2620001 4279639333
-0.13465412 0.099267714 1.263 4279573540
-0.13366377 0.099346302 1.2640001 4279573537
-0.13298634 0.099660695 1.268 4279441695
-0.1318859 0.099660695 1.268 4279376413
-0.13088861 0.099739291 1.2690001 4279507999
-0.12999186 0.099896483 1.271 4279573792
-0.12888882 0.099896483 1.271 4279573792
-0.12778579 0.099896483 1.271 4279508256
-0.12668274 0.099896483 1.271 4279508255
-0.12557971 0.099896483 1.271 4279442206
-0.12447668 0.099896483 1.271 4279574049
-0.12337364 0.099896483 1.271 4279639331
-0.12227061 0.099896483 1.271 4279573795
-0.12116757 0.099896483 1.271 4279574053
-0.11997008 0.099817894 1.2700001 4279508260
-0.1188679 0.099817894 1.2700001 4279639846
-0.11767299 0.099739291 1.2690001 4279639846
-0.11657169 0.099739291 1.2690001 4279574053
-0.11547039 0.099739291 1.2690001 4279639846
-0.11436909 0.099739291 1.2690001 4279639846
-0.11317854 0.099660695 1.268 4279639846
-0.11207811 0.099660695 1.268 4279574055
-0.11097768 0.099660695 1.268 4279508262
-0.10979059 0.099582098 1.2670001 4279508262
-0.10869102 0.099582098 1.2670001 4279508262
-0.10759146 0.099582098 1.2670001 4279442213
-0.10640784 0.099503502 1.266 4279376420
-0.10530914 0.099503502 1.266 4279441956
-0.10404582 0.099346302 1.2640001 4279442213
-0.10294886 0.099346302 1.2640001 4279441958
-0.10177132 0.099267714 1.263 4279441958
-0.10059552 0.099189118 1.2620001 4279442215
-0.099500291 0.099189118 1.2620001 4279508008
-0.098327085 0.099110514 1.261 4279508009
-0.097232729 0.099110514 1.261 4279508010
-0.096138373 0.099110514 1.261 4279508268
-0.095119387 0.099189118 1.2620001 4279574061
-0.094098665 0.099267714 1.263 4279705649
-0.093002565 0.099267714 1.263 4279771442
-0.091906473 0.099267714 1.263 4279771699
-0.090882286 0.099346302 1.2640001 4279837493
-0.089785323 0.099346302 1.2640001 4279903800
-0.088688359 0.099346302 1.2640001 4279903544
-0.087591402 0.099346302 1.2640001 4279969338
-0.086426005 0.099267714 1.263 4280298559
-0.085262358 0.099189118 1.2620001 4280364353
-0.084033743 0.099031918 1.2600001 4280430402
-0.082940251 0.099031918 1.2600001 4280364611
-0.081846759 0.099031918 1.2600001 4280430661
-0.080753267 0.099031918 1.2600001 4280233541
-0.079659782 0.099031918 1.2600001 4280233541
-0.078628644 0.099110514 1.261 4280233541
-0.077534288 0.099110514 1.261 4280299334
-0.07650055 0.099189118 1.2620001 4280430665
-0.075405329 0.099189118 1.2620001 4280430921
-0.074310102 0.099189118 1.2620001 4280430921
-0.073214874 0.099189118 1.2620001 4280430665
-0.0720625 0.099110514 1.261 4280364873
-0.070968144 0.099110514 1.261 4280430666
-0.069873787 0.099110514 1.261 4280628045
-0.068724878 0.099031918 1.2600001 4280759631
-0.06757772 0.098953329 1.2590001 4280825425
-0.066485099 0.098953329 1.2590001 4281220183
-0.065392472 0.098953329 1.2590001 4281154647
-0.064248778 0.098874725 1.258 4280694096
-0.063157022 0.098874725 1.258 4280233544
-0.06206527 0.098874725 1.258 4280036165
-0.060925044 0.098796129 1.2570001 4279970115
-0.05983416 0.098796129 1.2570001 4279970115
-0.058696546 0.098717533 1.256 4280035908
-0.057606526 0.098717533 1.256 4280233288
-0.056516506 0.098717533 1.256 4280496460
-0.055426486 0.098717533 1.256 4280628046
-0.054336466 0.098717533 1.256 4280628045
-0.05324645 0.098717533 1.256 4280364873
-0.052239481 0.098874725 1.258 4280364873
-0.051147729 0.098874725 1.258 4280364873
-0.050055973 0.098874725 1.258 4280364873
-0.049003139 0.098953329 1.2590001 4280364873
-0.047910519 0.098953329 1.2590001 4280628045
-0.046817895 0.098953329 1.2590001 4280825424
-0.045761593 0.099031918 1.2600001 4280693838
-0.044632651 0.098953329 1.2590001 4280693838
-0.043540031 0.098953329 1.2590001 4280693838
-0.042481121 0.099031918 1.2600001 4280891217
-0.041387632 0.099031918 1.2600001 4281088596
-0.040294141 0.099031918 1.2600001 4281088596
-0.03929399 0.099267714 1.263 4281022803
-0.038228139 0.099346302 1.2640001 4280957264
-0.037160553 0.099424906 1.2650001 4280759885
-0.036262281 0.099975079 1.2720001 4280562504
-0.035213657 0.10013228 1.274 4280364355
-0.034188334 0.10036807 1.2770001 4279903804
-0.23223467 0.10639505 1.3390001 4284245095
-0.23090006 0.10631559 1.3380001 4284113509
-0.22956717 0.10623614 1.337 4284113509
-0.22772351 0.1059183 1.3330001 4284179302
-0.22639671 0.10583884 1.332 4284047716
-0.22405703 0.10528263 1.325 4283521372
-0.22257067 0.10512371 1.3230001 4282534221
-0.22092041 0.10488534 1.3200001 4281942086
-0.21336472 0.10289887 1.2950001 4280822834
-0.21191306 0.10273996 1.2930001 4280625969
-0.21046489 0.10258104 1.291 4283389532
-0.20853372 0.10218374 1.286 4289245622
-0.20725638 0.10210429 1.2850001 4292798957
-0.20614119 0.10210429 1.2850001 4292799471
-0.20486644 0.10202482 1.284 4292142571
-0.20359345 0.10194537 1.2830001 4289774539
-0.20247999 0.10194537 1.2830001 4284708229
-0.20136654 0.10194537 1.2830001 4281417560
-0.20025308 0.10194537 1.2830001 4281483361
-0.19913964 0.10194537 1.2830001 4281878124
-0.1980262 0.10194537 1.2830001 4281878124
-0.19691274 0.10194537 1.2830001 4281812329
-0.19579929 0.10194537 1.2830001 4281746279
-0.19468583 0.10194537 1.2830001 4281285727
-0.19357239 0.10194537 1.2830001 4280824660
-0.19245894 0.10194537 1.2830001 4281087571
-0.19119635 0.10186591 1.2820001 4284179833
-0.18993549 0.10178645 1.281 4287206305
-0.18882377 0.10178645 1.281 4287403169
-0.18639325 0.10107132 1.2720001 4286021514
-0.18485233 0.10083295 1.2690001 4285231740
-0.17739958 0.098528646 1.24 4286482057
-0.17618124 0.098449193 1.2390001 4287403671
-0.17510597 0.098449193 1.2390001 4289574840
-0.17360933 0.098210819 1.2360001 4290627785
-0.17253667 0.098210819 1.2360001 4290496460
-0.1713253 0.098131351 1.235 4288720309
-0.16997778 0.097972445 1.233 4285496711
-0.16890772 0.097972445 1.233 4282273118
-0.16770154 0.097892977 1.2320001 4280891470
-0.1667676 0.097972445 1.233 4281022805
-0.16569754 0.097972445 1.233 4281022552
-0.16476101 0.098051898 1.2340001 4281022807
-0.16369008 0.098051898 1.2340001 4281022805
-0.16275094 0.098131351 1.235 4280891731
-0.16194096 0.098290272 1.2370001 4280760144
-0.16086744 0.098290272 1.2370001 4280628557
-0.15992309 0.098369732 1.238 4280496971
-0.15910532 0.098528646 1.24 4280364873
-0.15802918 0.098528646 1.24 4280167494
-0.15695304 0.098528646 1.24 4280036162
-0.1558769 0.098528646 1.24 4279904576
-0.15480077 0.098528646 1.24 4279772989
-0.15372464 0.098528646 1.24 4279707195
-0.15264851 0.098528646 1.24 4279707193
-0.15157238 0.098528646 1.24 4279707449
-0.15049624 0.098528646 1.24 4279773240
-0.14954062 0.098608106 1.2410001 4279773240
-0.14846362 0.098608106 1.2410001 4279772469
-0.14738663 0.098608106 1.2410001 4279772468
-0.14654541 0.098767027 1.243 4279772467
-0.1455837 0.09884648 1.2440001 4279706930
-0.14462025 0.098925941 1.245 4279772209
-0.14388566 0.099164322 1.248 4279772209
-0.14291701 0.099243775 1.2490001 4279968818
-0.14194663 0.099323235 1.25 4280034866
-0.14131257 0.09964107 1.2540001 4279969072
-0.14033611 0.099720523 1.2550001 4279837485
-0.13935792 0.099799991 1.256 4279705898
-0.13870823 0.10011782 1.2600001 4279705641
-0.13772397 0.10019728 1.261 4279705382
-0.1366296 0.10019728 1.261 4279574052
-0.13585769 0.10043565 1.2640001 4279508001
-0.13486736 0.10051511 1.2650001 4279441951
-0.13366377 0.10043565 1.2640001 4279638815
-0.13288146 0.10067403 1.2670001 4279638814
-0.1318859 0.10075349 1.268 4279573792
-0.13078547 0.10075349 1.268 4279639585
-0.12968503 0.10075349 1.268 4279639585
-0.12858459 0.10075349 1.268 4279639585
-0.12748417 0.10075349 1.268 4279574305
-0.1264834 0.10083295 1.2690001 4279508512
-0.1253821 0.10083295 1.2690001 4279376926
-0.1242808 0.10083295 1.2690001 4279508512
-0.1231795 0.10083295 1.2690001 4279508258
-0.1220782 0.10083295 1.2690001 4279639844
-0.1209769 0.10083295 1.2690001 4279639846
-0.11978114 0.10075349 1.268 4279574053
-0.11858711 0.10067403 1.2670001 4279639846
-0.11748755 0.10067403 1.2670001 4279574053
-0.11629611 0.10059457 1.266 4279574053
-0.11537941 0.10075349 1.268 4279574053
-0.11427897 0.10075349 1.268 4279574053
-0.11308929 0.10067403 1.2670001 4279574053
-0.11198971 0.10067403 1.2670001 4279574055
-0.11089015 0.10067403 1.2670001 4279639847
-0.10970393 0.10059457 1.266 4279574055
-0.10860524 0.10059457 1.266 4279508262
-0.10750654 0.10059457 1.266 4279376421
-0.10632379 0.10051511 1.2650001 4279310628
-0.10514278 0.10043565 1.2640001 4279376421
-0.1039635 0.1003562 1.263 4279442214
-0.10286741 0.1003562 1.263 4279442214
-0.10169074 0.10027674 1.2620001 4279376422
-0.10051581 0.10019728 1.261 4279442216
-0.099421442 0.10019728 1.261 4279573802
-0.098327085 0.10019728 1.261 4279639596
-0.097155616 0.10011782 1.2600001 4279639596
-0.096138373 0.10019728 1.261 4279574061
-0.095044017 0.10019728 1.261 4279639854
-0.094024159 0.10027674 1.2620001 4279771442
-0.092928939 0.10027674 1.2620001 4279771699
-0.091833711 0.10027674 1.2620001 4279771957
-0.090810381 0.1003562 1.263 4279903800
-0.089785323 0.10043565 1.2640001 4280101437
-0.088688359 0.10043565 1.2640001 4279969852
-0.087452807 0.10027674 1.2620001 4280101183
-0.086357579 0.10027674 1.2620001 4280364355
-0.085127227 0.10011782 1.2600001 4280561991
-0.084033743 0.10011782 1.2600001 4280627784
-0.082940251 0.10011782 1.2600001 4280562506
-0.081781805 0.10003836 1.2590001 4280628299
-0.080689184 0.10003836 1.2590001 4280496459
-0.079596564 0.10003836 1.2590001 4280430666
-0.07856629 0.10011782 1.2600001 4280430666
-0.077472799 0.10011782 1.2600001 4280496459
-0.076439932 0.10019728 1.261 4280562252
-0.075345576 0.10019728 1.261 4280496459
-0.074251212 0.10019728 1.261 4280430666
-0.073156856 0.10019728 1.261 4280496459
-0.072005354 0.10011782 1.2600001 4280496459
-0.070911862 0.10011782 1.2600001 4280628045
-0.06981837 0.10011782 1.2600001 4280825424
-0.06867034 0.10003836 1.2590001 4280957010
-0.067524038 0.099958904 1.258 4281154390
-0.06643229 0.099958904 1.258 4281285976
-0.065288588 0.099879444 1.2570001 4280891731
-0.064197704 0.099879444 1.2570001 4280233801
-0.06310682 0.099879444 1.2570001 4279904835
-0.062015932 0.099879444 1.2570001 4279904835
-0.060876582 0.099799991 1.256 4279904322
-0.059786562 0.099799991 1.256 4280035908
-0.058649808 0.099720523 1.2550001 4280233287
-0.05756066 0.099720523 1.2550001 4280430666
-0.056471508 0.099720523 1.2550001 4280562253
-0.055382356 0.099720523 1.2550001 4280628046
-0.054293208 0.099720523 1.2550001 4280562252
-0.053204056 0.099720523 1.2550001 4280364873
-0.052197956 0.099879444 1.2570001 4280299080
-0.051107068 0.099879444 1.2570001 4280364873
-0.05001618 0.099879444 1.2570001 4280364873
-0.049003139 0.10003836 1.2590001 4280364873
-0.047910519 0.10003836 1.2590001 4280562252
-0.046780709 0.099958904 1.258 4280759631
