# .PCD v0.7 - Point Cloud Data file format
VERSION 0.7
FIELDS x y z rgba
SIZE 4 4 4 4
TYPE F F F U
COUNT 1 1 1 1
WIDTH 1094
HEIGHT 1
VIEWPOINT 0 0 0 1 0 0 0
POINTS 1094
DATA ascii
0.013519161 0.017093999 1.3970001 4280431180
0.014752638 0.017118471 1.399 4280825427
0.016069476 0.017228598 1.4080001 4280957010
0.017315967 0.017253069 1.4100001 4281088848
0.018565932 0.017277543 1.4120001 4280694341
0.019903468 0.017375432 1.4200001 4279641135
0.021165583 0.017399903 1.4220001 4279246630
0.022415416 0.017412141 1.4230001 4279114529
0.023716846 0.017461084 1.427 4278982943
0.024955267 0.017461084 1.427 4279640106
0.026193688 0.017461084 1.427 4279574315
0.027451333 0.017473321 1.4280001 4279705901
0.028710712 0.017485557 1.429 4279837487
0.029971829 0.017497795 1.4300001 4279838001
0.031321988 0.017558975 1.4350001 4279969587
0.032612741 0.017583447 1.437 4280232761
0.033930529 0.017620156 1.4400001 4280693312
0.036682919 0.017742518 1.45 4280890950
0.038019802 0.017779227 1.4530001 4280628295
0.03936189 0.017815936 1.4560001 4280628295
-0.16480213 0.017171536 1.3110001 4280694352
-0.16366439 0.017171536 1.3110001 4280628558
-0.16252662 0.017171536 1.3110001 4280431436
-0.16138887 0.017171536 1.3110001 4280365386
-0.16012888 0.017158439 1.3100001 4280430923
-0.15887064 0.017145339 1.309 4280562510
-0.15725262 0.017092949 1.3050001 4280628047
-0.15612009 0.017092949 1.3050001 4280759634
-0.15463124 0.017053654 1.302 4280957013
-0.1533834 0.017040556 1.3010001 4281022804
-0.15213731 0.017027458 1.3000001 4281022804
-0.15077677 0.017001262 1.2980001 4281022804
-0.14965031 0.017001262 1.2980001 4281088596
-0.14852384 0.017001262 1.2980001 4281154647
-0.14728382 0.016988164 1.2970001 4281285977
-0.14615822 0.016988164 1.2970001 4281286490
-0.14503261 0.016988164 1.2970001 4281352282
-0.14379607 0.016975066 1.296 4281352283
-0.14267133 0.016975066 1.296 4281286234
-0.14143738 0.016961968 1.2950001 4281154905
-0.14020517 0.016948869 1.294 4281089369
-0.13908218 0.016948869 1.294 4281154906
-0.13785255 0.016935771 1.2930001 4281023577
-0.13673042 0.016935771 1.2930001 4280760406
-0.1356083 0.016935771 1.2930001 4280760406
-0.13438216 0.016922675 1.2920001 4280891992
-0.13326089 0.016922675 1.2920001 4281155164
-0.13213964 0.016922675 1.2920001 4281286750
-0.13101837 0.016922675 1.2920001 4281220957
-0.12979658 0.016909575 1.291 4281023578
-0.1285765 0.016896477 1.2900001 4280891992
-0.12745698 0.016896477 1.2900001 4280825685
-0.12633745 0.016896477 1.2900001 4280694098
-0.12521793 0.016896477 1.2900001 4280694098
-0.12409841 0.016896477 1.2900001 4280628560
-0.12307422 0.016909575 1.291 4280431181
-0.12195382 0.016909575 1.291 4280233802
-0.12102062 0.016935771 1.2930001 4280168008
-0.11999123 0.016948869 1.294 4280299594
-0.11886823 0.016948869 1.294 4280562508
-0.11783622 0.016961968 1.2950001 4280957265
-0.11662223 0.016948869 1.294 4281154644
-0.11549924 0.016948869 1.294 4280957264
-0.11428785 0.016935771 1.2930001 4280233540
-0.11316572 0.016935771 1.2930001 4279904319
-0.11195694 0.016922675 1.2920001 4279575610
-0.11074989 0.016909575 1.291 4279378230
-0.10954458 0.016896477 1.2900001 4279246643
-0.10842505 0.016896477 1.2900001 4279378228
-0.10722234 0.016883381 1.289 4279312178
-0.10610369 0.016883381 1.289 4279049006
-0.10506648 0.016896477 1.2900001 4279180333
-0.10402753 0.016909575 1.291 4279575091
-0.10290714 0.016909575 1.291 4279904055
-0.10178675 0.016909575 1.291 4279904055
-0.1008223 0.016935771 1.2930001 4279904055
-0.099777281 0.016948869 1.294 4280035641
-0.098730519 0.016961968 1.2950001 4280167225
-0.097757407 0.016988164 1.2970001 4280232761
-0.096706301 0.017001262 1.2980001 4279969332
-0.095653474 0.01701436 1.299 4279508781
-0.094671674 0.017040556 1.3010001 4279245350
-0.093614504 0.017053654 1.302 4279179556
-0.092555597 0.017066753 1.3030001 4278982176
-0.091565117 0.017092949 1.3050001 4278850590
-0.090432577 0.017092949 1.3050001 4278916385
-0.089368463 0.017106047 1.3060001 4279047969
-0.08823505 0.017106047 1.3060001 4279114019
-0.087101638 0.017106047 1.3060001 4279179811
-0.085968234 0.017106047 1.3060001 4279245860
-0.08476986 0.017092949 1.3050001 4279377704
-0.08363732 0.017092949 1.3050001 4279509036
-0.082504772 0.017092949 1.3050001 4279443245
-0.081372231 0.017092949 1.3050001 4279574831
-0.080239683 0.017092949 1.3050001 4279574831
-0.079107143 0.017092949 1.3050001 4279509036
-0.077974603 0.017092949 1.3050001 4279574831
-0.076842055 0.017092949 1.3050001 4279640882
-0.075709514 0.017092949 1.3050001 4279508785
-0.07463412 0.017106047 1.3060001 4279442992
-0.073556989 0.017119145 1.307 4279311406
-0.072422713 0.017119145 1.307 4279442992
-0.071397521 0.017145339 1.309 4279442992
-0.070261501 0.017145339 1.309 4279180078
-0.069178298 0.017158439 1.3100001 4279180335
-0.06814529 0.017184634 1.312 4279377201
-0.067057751 0.017197732 1.3130001 4279311921
-0.065968461 0.01721083 1.314 4279311921
-0.064926788 0.017237026 1.3160001 4279180592
-0.063784696 0.017237026 1.3160001 4279246385
-0.062690206 0.017250124 1.317 4279443507
-0.061640717 0.017276321 1.319 4279509816
-0.060496025 0.017276321 1.319 4279575609
-0.05939633 0.017289419 1.3200001 4279707197
-0.058339026 0.017315615 1.322 4280036162
-0.057234991 0.017328713 1.3230001 4280036161
-0.056129217 0.017341811 1.3240001 4280233539
-0.055104766 0.017381106 1.327 4280430918
-0.054034442 0.017407302 1.3290001 4280562504
-0.052920863 0.0174204 1.33 4280496970
-0.041645683 0.018036008 1.3770001 4280959328
-0.04050941 0.018062204 1.3790001 4281025122
-0.039312646 0.018062204 1.3790001 4281090917
-0.038226444 0.018114595 1.383 4281156710
-0.037052978 0.018127695 1.3840001 4281025124
-0.035851877 0.018127695 1.3840001 4280893795
-0.034700848 0.018153889 1.386 4280959588
-0.033522177 0.018166989 1.3870001 4281025383
-0.032318469 0.018166989 1.3870001 4281025383
-0.031137194 0.018180085 1.388 4280959590
-0.02993262 0.018180085 1.388 4280959590
-0.028728046 0.018180085 1.388 4280959590
-0.027523471 0.018180085 1.388 4280959590
-0.026318897 0.018180085 1.388 4280959590
-0.025114322 0.018180085 1.388 4280959590
-0.023892522 0.018166989 1.3870001 4280893797
-0.022705173 0.018180085 1.388 4280696418
-0.02151609 0.018193185 1.3890001 4280630112
-0.020310648 0.018193185 1.3890001 4280695905
-0.01909145 0.018180085 1.388 4280827491
-0.017886875 0.018180085 1.388 4280893284
-0.01669432 0.018193185 1.3890001 4280959077
-0.015488877 0.018193185 1.3890001 4281090663
-0.014283434 0.018193185 1.3890001 4281156456
-0.013068576 0.018180085 1.388 4281222249
-0.011864002 0.018180085 1.388 4281156456
-0.010659426 0.018180085 1.388 4281024870
-0.0094480403 0.018166989 1.3870001 4280959077
-0.0082443329 0.018166989 1.3870001 4280959077
-0.0070406268 0.018166989 1.3870001 4280959331
-0.0058327117 0.018153889 1.386 4281222503
-0.0046332134 0.018166989 1.3870001 4281419882
-0.0034295064 0.018166989 1.3870001 4281354089
-0.0022241948 0.018153889 1.386 4281419112
-0.0010206191 0.018140791 1.3850001 4281484905
0.00018122114 0.018127695 1.3840001 4281616489
0.0013823244 0.018127695 1.3840001 4281748075
0.0025834276 0.018127695 1.3840001 4281813870
0.0037872654 0.018140791 1.3850001 4281813868
0.0049892366 0.018140791 1.3850001 4281747818
0.0061956779 0.018153889 1.386 4281616231
0.0074091926 0.018180085 1.388 4281287264
0.0086199725 0.018193185 1.3890001 4280826713
0.0098324893 0.018206282 1.3900001 4280759893
0.012289158 0.018271772 1.3950001 4280430669
0.013519161 0.018297968 1.3970001 4280562253
0.014763182 0.018337263 1.4000001 4280957011
0.016069476 0.018442048 1.4080001 4281023057
0.017328249 0.01848134 1.411 4280956744
0.018579081 0.018507537 1.4130001 4280035891
0.019917484 0.018612321 1.4210001 4279246115
0.021165583 0.01862542 1.4220001 4279180574
0.022431169 0.018651616 1.424 4279048990
0.023716846 0.018690908 1.427 4279048736
0.024955267 0.018690908 1.427 4279508519
0.026193688 0.018690908 1.427 4279640106
0.027451333 0.018704008 1.4280001 4279837487
0.028710712 0.018717105 1.429 4279903280
0.029950868 0.018717105 1.429 4279903796
0.031321988 0.018795695 1.4350001 4280101175
0.032612741 0.01882189 1.437 4280561472
0.033930529 0.018861184 1.4400001 4280956231
0.036682919 0.018992163 1.45 4280759365
0.038019802 0.019031459 1.4530001 4280562502
0.03936189 0.019070754 1.4560001 4280562502
-0.17779225 0.018468909 1.3230001 4286352278
-0.1767776 0.018482868 1.3240001 4285431179
-0.17562857 0.018482868 1.3240001 4283720821
-0.17434776 0.018468909 1.3230001 4281418068
-0.17319959 0.018468909 1.3230001 4280759885
-0.1714012 0.018399108 1.3180001 4281088851
-0.1701282 0.018385148 1.317 4281220695
-0.16847199 0.018329309 1.3130001 4281154903
-0.16720507 0.018315349 1.312 4281023316
-0.16593988 0.01830139 1.3110001 4280826195
-0.16455071 0.018273469 1.309 4280760403
-0.16328986 0.01825951 1.3080001 4280694609
-0.16203074 0.01824555 1.307 4280629072
-0.16065025 0.018217631 1.3050001 4280628816
-0.15939547 0.01820367 1.304 4280694609
-0.15789969 0.01816179 1.3010001 4280825940
-0.15665013 0.018147832 1.3000001 4280957270
-0.15552191 0.018147832 1.3000001 4281088856
-0.15403742 0.018105952 1.2970001 4281220442
-0.15291183 0.018105952 1.2970001 4281220440
-0.15178622 0.018105952 1.2970001 4281154646
-0.15054446 0.018091992 1.296 4281023317
-0.14941974 0.018091992 1.296 4280957268
-0.148295 0.018091992 1.296 4280957269
-0.1470567 0.018078031 1.2950001 4281088856
-0.14593284 0.018078031 1.2950001 4281220441
-0.14480898 0.018078031 1.2950001 4281286234
-0.14357416 0.01806407 1.294 4281286491
-0.14245117 0.01806407 1.294 4281220442
-0.14121895 0.018050112 1.2930001 4281089113
-0.14009681 0.018050112 1.2930001 4281023577
-0.13897468 0.018050112 1.2930001 4281089370
-0.13774595 0.018036153 1.2920001 4280957785
-0.13673042 0.018050112 1.2930001 4280694613
-0.1356083 0.018050112 1.2930001 4280628820
-0.13448617 0.018050112 1.2930001 4280826199
-0.13336404 0.018050112 1.2930001 4280957785
-0.13234419 0.01806407 1.294 4280957784
-0.13111977 0.018050112 1.2930001 4280891990
-0.13009819 0.01806407 1.294 4280760148
-0.1289752 0.01806407 1.294 4280694099
-0.1276546 0.018036153 1.2920001 4280628305
-0.12663126 0.018050112 1.2930001 4280562512
-0.12560621 0.01806407 1.294 4280562511
-0.12448321 0.01806407 1.294 4280496975
-0.12345555 0.018078031 1.2950001 4280430924
-0.12242615 0.018091992 1.296 4280233801
-0.12130142 0.018091992 1.296 4280168008
-0.12036214 0.018119911 1.2980001 4280168008
-0.11923566 0.018119911 1.2980001 4280101957
-0.11820021 0.018133869 1.299 4280299079
-0.11707287 0.018133869 1.299 4280693836
-0.11585626 0.018119911 1.2980001 4281023057
-0.11464141 0.018105952 1.2970001 4280759885
-0.11342829 0.018091992 1.296 4280365126
-0.11230356 0.018091992 1.296 4279838782
-0.11100725 0.01806407 1.294 4279575609
-0.10979933 0.018050112 1.2930001 4279510072
-0.10859315 0.018036153 1.2920001 4279576121
-0.10747189 0.018036153 1.2920001 4279772986
-0.10635063 0.018036153 1.2920001 4279707193
-0.10522937 0.018036153 1.2920001 4280035899
-0.10418869 0.018050112 1.2930001 4280364607
-0.10306656 0.018050112 1.2930001 4280627778
-0.10194443 0.018050112 1.2930001 4280364606
-0.10097825 0.018078031 1.2950001 4280035641
-0.099931493 0.018091992 1.296 4279838262
-0.098883003 0.018105952 1.2970001 4279640882
-0.097983517 0.018147832 1.3000001 4279443503
-0.096929818 0.01816179 1.3010001 4279114280
-0.095874384 0.018175751 1.302 4278785315
-0.094889976 0.01820367 1.304 4278719007
-0.093830206 0.018217631 1.3050001 4278850592
-0.092768699 0.018231589 1.3060001 4278982176
-0.091775611 0.01825951 1.3080001 4278982176
-0.090709768 0.018273469 1.309 4279047970
-0.089573748 0.018273469 1.309 4279179556
-0.088505298 0.01828743 1.3100001 4279245348
-0.087435104 0.01830139 1.3110001 4279311141
-0.086231537 0.01828743 1.3100001 4279442983
-0.085094653 0.01828743 1.3100001 4279640362
-0.083957769 0.01828743 1.3100001 4279574829
-0.082820885 0.01828743 1.3100001 4279574831
-0.081684001 0.01828743 1.3100001 4279706417
-0.080608606 0.01830139 1.3110001 4279838003
-0.07941024 0.01828743 1.3100001 4279772210
-0.078273356 0.01828743 1.3100001 4279838003
-0.077136472 0.01828743 1.3100001 4280035384
-0.075941578 0.018273469 1.309 4280101177
-0.074862711 0.01828743 1.3100001 4280100922
-0.073782101 0.01830139 1.3110001 4279969336
-0.072644353 0.01830139 1.3110001 4280100152
-0.07156115 0.018315349 1.312 4280165945
-0.07042253 0.018315349 1.312 4279903545
-0.06928391 0.018315349 1.312 4279837752
-0.068301111 0.01835723 1.3150001 4279771959
-0.067210965 0.018371189 1.3160001 4279508787
-0.066068873 0.018371189 1.3160001 4279246128
-0.065074794 0.018413069 1.319 4279114542
-0.063930102 0.018413069 1.319 4279048749
-0.062833011 0.018427029 1.3200001 4279311921
-0.061734181 0.018440988 1.3210001 4279378230
-0.060633618 0.018454947 1.322 4279312437
-0.059486322 0.018454947 1.322 4279378232
-0.058383156 0.018468909 1.3230001 4279509818
-0.057278249 0.018482868 1.3240001 4279706427
-0.056129217 0.018482868 1.3240001 4279903806
-0.055063237 0.018510787 1.3260001 4280036162
-0.05395313 0.018524747 1.327 4280167748
-0.052801494 0.018524747 1.327 4280299080
-0.051805545 0.018580588 1.3310001 4280430666
-0.050688494 0.018594546 1.332 4280628558
-0.049569704 0.018608507 1.3330001 4280760144
-0.048521817 0.018650386 1.3360001 4280694611
-0.047362369 0.018650386 1.3360001 4280826197
-0.046237506 0.018664345 1.337 4280826713
-0.038005322 0.019194821 1.3750001 4280762209
-0.0368388 0.019208781 1.376 4280828002
-0.035696451 0.019236701 1.378 4280762209
-0.034600697 0.019292541 1.3820001 4280828002
-0.033401333 0.019292541 1.3820001 4280959590
-0.032225266 0.0193065 1.383 4281156969
-0.031092331 0.019348379 1.386 4280959590
-0.029911056 0.01936234 1.3870001 4280893797
-0.028707348 0.01936234 1.3870001 4280893797
-0.027523471 0.019376298 1.388 4280828004
-0.026318897 0.019376298 1.388 4280762211
-0.025096228 0.01936234 1.3870001 4280696418
-0.023892522 0.01936234 1.3870001 4280696418
-0.022688815 0.01936234 1.3870001 4280564832
-0.021485107 0.01936234 1.3870001 4280630112
-0.020281401 0.01936234 1.3870001 4280695905
-0.019077694 0.01936234 1.3870001 4280761698
-0.017861102 0.019348379 1.386 4280827491
-0.016658263 0.019348379 1.386 4280959077
-0.015455424 0.019348379 1.386 4281024870
-0.014262867 0.01936234 1.3870001 4281156456
-0.013049745 0.019348379 1.386 4281222249
-0.011846907 0.019348379 1.386 4281156456
-0.010644067 0.019348379 1.386 4281090663
-0.0094412286 0.019348379 1.386 4281090663
-0.0082324464 0.019334421 1.3850001 4281156456
-0.0070304745 0.019334421 1.3850001 4281090917
-0.0058285035 0.019334421 1.3850001 4281222503
-0.0046265321 0.019334421 1.3850001 4281288296
-0.0034245611 0.019334421 1.3850001 4281222503
-0.0022193806 0.0193065 1.383 4281222501
-0.0010191452 0.0193065 1.383 4281288294
0.00018095926 0.019292541 1.3820001 4281550696
0.0013813257 0.0193065 1.383 4281748075
0.002581561 0.0193065 1.383 4281879661
0.0037845308 0.01932046 1.3840001 4281879661
0.0049892366 0.019334421 1.3850001 4281682024
0.0061912076 0.019334421 1.3850001 4281418852
0.0074091926 0.019376298 1.388 4281155164
0.0086199725 0.019390261 1.3890001 4280957785
0.0098395636 0.019418178 1.391 4280562514
0.012306776 0.019501939 1.3970001 4280562255
0.013548193 0.019543817 1.4000001 4280628046
0.014784272 0.019571738 1.4020001 4280956496
0.016103715 0.019697376 1.411 4280890953
0.017365092 0.019739255 1.414 4280430142
0.018631676 0.019781137 1.4170001 4279311910
0.019945517 0.019864894 1.4230001 4279114781
0.021195352 0.019878855 1.424 4278983194
0.022446921 0.019892816 1.4250001 4279114013
0.023716846 0.019920733 1.427 4279245601
0.024937779 0.019906774 1.4260001 4279245348
0.026175331 0.019906774 1.4260001 4279640106
0.027432108 0.019920733 1.427 4279969073
0.028690619 0.019934695 1.4280001 4279969073
0.029950868 0.019948654 1.429 4279903796
0.031321988 0.020032413 1.4350001 4280166968
0.032635439 0.020074293 1.4380001 4280627266
0.033930529 0.020102212 1.4400001 4280890438
0.036708221 0.020255772 1.4510001 4280759367
0.038045969 0.02029765 1.4540001 4280561988
0.039415956 0.02035349 1.4580001 4280430402
-0.1783994 0.019549815 1.319 4289905352
-0.1773891 0.019564638 1.3200001 4287471271
-0.17637706 0.019579459 1.3210001 4286286745
-0.17523062 0.019579459 1.3210001 4283918201
-0.1740842 0.019579459 1.3210001 4281483607
-0.17280686 0.019564638 1.3200001 4281220694
-0.17127116 0.019520171 1.317 4281483866
-0.16974066 0.019475708 1.314 4281483867
-0.16821538 0.019431243 1.3110001 4281418073
-0.16707763 0.019431243 1.3110001 4281154903
-0.1658133 0.019416422 1.3100001 4280957782
-0.16442502 0.019386778 1.3080001 4280760917
-0.16328986 0.019386778 1.3080001 4280760660
-0.16203074 0.019371957 1.307 4280826195
-0.16065025 0.019342313 1.3050001 4280826195
-0.15939547 0.01932749 1.304 4280826195
-0.15789969 0.019283025 1.3010001 4280891732
-0.15665013 0.019268204 1.3000001 4280957527
-0.15552191 0.019268204 1.3000001 4281088856
-0.15415618 0.01923856 1.2980001 4281154649
-0.15291183 0.019223738 1.2970001 4281089111
-0.15178622 0.019223738 1.2970001 4280957524
-0.15054446 0.019208917 1.296 4280891731
-0.14941974 0.019208917 1.296 4280825938
-0.148295 0.019208917 1.296 4280760147
-0.14717028 0.019208917 1.296 4280825684
-0.14593284 0.019194096 1.2950001 4280891477
-0.14480898 0.019194096 1.2950001 4280957270
-0.14357416 0.019179273 1.294 4281088856
-0.14245117 0.019179273 1.294 4281088856
-0.14132817 0.019179273 1.294 4281023577
-0.14009681 0.019164452 1.2930001 4281023578
-0.13897468 0.019164452 1.2930001 4281023578
-0.13785255 0.019164452 1.2930001 4280891992
-0.13683617 0.019179273 1.294 4280628819
-0.13571317 0.019179273 1.294 4280628819
-0.13459018 0.019179273 1.294 4280760404
-0.13346718 0.019179273 1.294 4280694611
-0.13234419 0.019179273 1.294 4280562768
-0.13132259 0.019194096 1.2950001 4280496974
-0.13009819 0.019179273 1.294 4280431181
-0.1289752 0.019179273 1.294 4280431181
-0.1278522 0.019179273 1.294 4280496460
-0.12682714 0.019194096 1.2950001 4280496460
-0.12570328 0.019194096 1.2950001 4280496460
-0.12457941 0.019194096 1.2950001 4280364874
-0.12364621 0.019223738 1.2970001 4280233542
-0.12261508 0.01923856 1.2980001 4280233542
-0.12148861 0.01923856 1.2980001 4280233541
-0.1205476 0.019268204 1.3000001 4280101955
-0.1194194 0.019268204 1.3000001 4279904574
-0.11829119 0.019268204 1.3000001 4279904574
-0.11716299 0.019268204 1.3000001 4280101952
-0.11603478 0.019268204 1.3000001 4280628296
-0.11472979 0.01923856 1.2980001 4280825675
-0.11360332 0.01923856 1.2980001 4280628296
-0.11239021 0.019223738 1.2970001 4280233537
-0.11109303 0.019194096 1.2950001 4279970365
-0.10996917 0.019194096 1.2950001 4280036416
-0.10876126 0.019179273 1.294 4280102466
-0.10755508 0.019164452 1.2930001 4280430916
-0.10643294 0.019164452 1.2930001 4280759881
-0.10539227 0.019179273 1.294 4280760135
-0.10434984 0.019194096 1.2950001 4281154893
-0.10322598 0.019194096 1.2950001 4281351502
-0.10210212 0.019194096 1.2950001 4280956744
-0.1011342 0.019223738 1.2970001 4280627778
-0.10008571 0.01923856 1.2980001 4280167227
-0.099035479 0.019253381 1.299 4279706676
-0.098134264 0.019297848 1.302 4279311918
-0.09707883 0.019312669 1.3030001 4279048488
-0.095948018 0.019312669 1.3030001 4278785315
-0.095035516 0.019357134 1.3060001 4278916642
-0.093974009 0.019371957 1.307 4279179557
-0.092910759 0.019386778 1.3080001 4279376678
-0.091915943 0.019416422 1.3100001 4279508007
-0.090848356 0.019431243 1.3110001 4279442729
-0.089710608 0.019431243 1.3110001 4279442729
-0.088640422 0.019446064 1.312 4279508520
-0.087501802 0.019446064 1.312 4279574313
-0.086363181 0.019446064 1.312 4279705899
-0.085224561 0.019446064 1.312 4279837485
-0.084085949 0.019446064 1.312 4279903282
-0.082947329 0.019446064 1.312 4280034612
-0.08187107 0.019460887 1.3130001 4280166198
-0.080731578 0.019460887 1.3130001 4280363577
-0.079592094 0.019460887 1.3130001 4280495420
-0.078452609 0.019460887 1.3130001 4280627006
-0.077254236 0.019446064 1.312 4280758337
-0.076115623 0.019446064 1.312 4280890179
-0.074977003 0.019446064 1.312 4280955717
-0.073894665 0.019460887 1.3130001 4281021509
-0.07275518 0.019460887 1.3130001 4280889668
-0.071670234 0.019475708 1.314 4280823875
-0.070529878 0.019475708 1.314 4280824645
-0.069389522 0.019475708 1.314 4280890439
-0.068353057 0.01950535 1.3160001 4281087049
-0.067262031 0.019520171 1.317 4280890440
-0.066169284 0.019534994 1.3180001 4280693061
-0.065124132 0.019564638 1.3200001 4280298816
-0.064027034 0.019579459 1.3210001 4280101181
-0.062880605 0.019579459 1.3210001 4280167230
-0.061780915 0.01959428 1.322 4280101437
-0.060679484 0.019609103 1.3230001 4279904316
-0.05953132 0.019609103 1.3230001 4279838011
-0.058427282 0.019623924 1.3240001 4279640632
-0.057278249 0.019623924 1.3240001 4279640886
-0.056129217 0.019623924 1.3240001 4279575094
-0.055063237 0.019653568 1.3260001 4279575350
-0.05395313 0.019668389 1.327 4279706936
-0.052801494 0.019668389 1.327 4279838523
-0.051766623 0.019712856 1.33 4279970366
-0.050650436 0.019727677 1.3310001 4280168003
-0.049532518 0.019742498 1.332 4280365126
-0.048485499 0.019786961 1.335 4280496971
-0.047326919 0.019786961 1.335 4280563277
-0.046202924 0.019801784 1.3360001 4280694610
-0.037950039 0.020350186 1.373 4280893536
-0.036785256 0.020365009 1.3740001 4280893536
-0.035618737 0.02037983 1.3750001 4280762209
-0.03455063 0.020453939 1.3800001 4280696416
-0.033377163 0.02046876 1.381 4280762211
-0.032201964 0.020483583 1.3820001 4280828004
-0.031069895 0.020528048 1.3850001 4280762211
-0.029889492 0.020542869 1.386 4280762211
-0.028707348 0.020557692 1.3870001 4280828004
-0.027523471 0.020572513 1.388 4280762211
-0.026299935 0.020557692 1.3870001 4280696418
-0.025096228 0.020557692 1.3870001 4280630625
-0.023892522 0.020557692 1.3870001 4280696418
-0.022688815 0.020557692 1.3870001 4280696418
-0.021485107 0.020557692 1.3870001 4280630625
-0.020266781 0.020542869 1.386 4280630625
-0.01906394 0.020542869 1.386 4280630625
-0.017861102 0.020542869 1.386 4280696418
-0.016658263 0.020542869 1.386 4280828004
-0.015455424 0.020542869 1.386 4281025383
-0.014252585 0.020542869 1.386 4281091176
-0.013049745 0.020542869 1.386 4281091176
-0.011846907 0.020542869 1.386 4281156456
-0.010644067 0.020542869 1.386 4281156456
-0.0094344169 0.020528048 1.3850001 4281090663
-0.0082324464 0.020528048 1.3850001 4281090663
-0.0070304745 0.020528048 1.3850001 4281222503
-0.0058285035 0.020528048 1.3850001 4281288296
-0.0046231919 0.020513227 1.3840001 4281222503
-0.0034220887 0.020513227 1.3840001 4281156710
-0.0022193806 0.020498404 1.383 4281222501
-0.0010191452 0.020498404 1.383 4281156708
0.00018095926 0.020483583 1.3820001 4281353317
0.0013813257 0.020498404 1.383 4281616489
0.002581561 0.020498404 1.383 4281748075
0.0037845308 0.020513227 1.3840001 4281813868
0.0049892366 0.020528048 1.3850001 4281682024
0.0061912076 0.020528048 1.3850001 4281287264
0.0074145305 0.020587334 1.3890001 4281023578
0.0086261788 0.020602155 1.3900001 4280826197
0.0098395636 0.020616977 1.391 4280430926
0.012324396 0.020735551 1.399 4280628046
0.01355787 0.020765195 1.401 4280825424
0.014794818 0.020794839 1.4030001 4280890699
0.01612654 0.020943055 1.4130001 4280496194
0.017377373 0.020972699 1.4150001 4279772212
0.018644825 0.021017164 1.4180001 4279180325
0.019959534 0.021106094 1.424 4279179806
0.021195352 0.021106094 1.424 4279114011
0.022446921 0.021120917 1.4250001 4279179554
0.023700224 0.021135738 1.4260001 4279179555
0.024937779 0.021135738 1.4260001 4279311143
0.026175331 0.021135738 1.4260001 4279574315
0.027432108 0.021150557 1.427 4279903280
0.028690619 0.02116538 1.4280001 4279969073
0.029929908 0.02116538 1.4280001 4279969587
0.031321988 0.021269133 1.4350001 4280298552
0.032635439 0.021313598 1.4380001 4280627521
0.033954095 0.021358063 1.4410001 4280759107
0.036733519 0.021521101 1.452 4280561985
0.038045969 0.021550745 1.4540001 4280364607
0.039388925 0.02159521 1.457 4280298816
-0.1781289 0.020655196 1.317 4288458162
-0.17712033 0.02067088 1.3180001 4287603113
-0.1759765 0.02067088 1.3180001 4286352796
-0.17483267 0.02067088 1.3180001 4283721081
-0.17368884 0.02067088 1.3180001 4281747295
-0.17215228 0.020623829 1.3150001 4281549916
-0.17088102 0.020608146 1.314 4281549915
-0.16961148 0.020592462 1.3130001 4281484122
-0.16808707 0.020545412 1.3100001 4281352537
-0.16695018 0.020545412 1.3100001 4281155161
-0.1658133 0.020545412 1.3100001 4280958040
-0.16442502 0.020514045 1.3080001 4280695382
-0.16316502 0.020498361 1.307 4280694868
-0.16203074 0.020498361 1.307 4280760403
-0.16065025 0.020466994 1.3050001 4280760404
-0.15939547 0.020451309 1.304 4280826196
-0.15789969 0.020404259 1.3010001 4280891990
-0.15677062 0.020404259 1.3010001 4280891991
-0.15552191 0.020388577 1.3000001 4280891734
-0.15415618 0.02035721 1.2980001 4280957270
-0.15291183 0.020341527 1.2970001 4280957269
-0.15178622 0.020341527 1.2970001 4280891731
-0.15066062 0.020341527 1.2970001 4280825938
-0.14953502 0.020341527 1.2970001 4280760145
-0.148295 0.020325841 1.296 4280759890
-0.14717028 0.020325841 1.296 4280694098
-0.14604554 0.020325841 1.296 4280628305
-0.1449208 0.020325841 1.296 4280628305
-0.1436851 0.02031016 1.2950001 4280694098
-0.14245117 0.020294474 1.294 4280891477
-0.14132817 0.020294474 1.294 4280957527
-0.14020517 0.020294474 1.294 4281023321
-0.13908218 0.020294474 1.294 4281023320
-0.13795918 0.020294474 1.294 4280825941
-0.13683617 0.020294474 1.294 4280628562
-0.13581805 0.02031016 1.2950001 4280628561
-0.13469419 0.02031016 1.2950001 4280562767
-0.13357033 0.02031016 1.2950001 4280365644
-0.13244647 0.02031016 1.2950001 4280234058
-0.13132259 0.02031016 1.2950001 4280299594
-0.13019873 0.02031016 1.2950001 4280365130
-0.12907487 0.02031016 1.2950001 4280364873
-0.127951 0.02031016 1.2950001 4280364873
-0.12692508 0.020325841 1.296 4280299080
-0.12589741 0.020341527 1.2970001 4280233287
-0.12477181 0.020341527 1.2970001 4280101701
-0.12383688 0.020372892 1.299 4280035906
-0.12270955 0.020372892 1.299 4280036162
-0.1216758 0.020388577 1.3000001 4280101953
-0.12073306 0.020419944 1.302 4279970367
-0.11960312 0.020419944 1.302 4279838781
-0.11847318 0.020419944 1.302 4279772988
-0.11734324 0.020419944 1.302 4279772986
-0.11612403 0.020404259 1.3010001 4279970365
-0.11490658 0.020388577 1.3000001 4280365123
-0.11369085 0.020372892 1.299 4280628295
-0.11256351 0.020372892 1.299 4280496709
-0.11126461 0.020341527 1.2970001 4280430916
-0.11005409 0.020325841 1.296 4280628296
-0.1088453 0.02031016 1.2950001 4280759883
-0.10772144 0.02031016 1.2950001 4281023054
-0.10659757 0.02031016 1.2950001 4281220432
-0.10547371 0.02031016 1.2950001 4281220687
-0.10443043 0.020325841 1.296 4281615444
-0.10330569 0.020325841 1.296 4281747030
-0.10225981 0.020341527 1.2970001 4281483858
-0.10129015 0.020372892 1.299 4281285965
-0.10023993 0.020388577 1.3000001 4281154122
-0.099187963 0.020404259 1.3010001 4280956743
-0.098285004 0.020451309 1.304 4280759362
-0.097153328 0.020451309 1.304 4280430140
-0.096095294 0.020466994 1.3050001 4280035381
-0.095181055 0.020514045 1.3080001 4280035123
-0.094117805 0.020529728 1.309 4280232245
-0.093052827 0.020545412 1.3100001 4280165938
-0.092056274 0.020576779 1.312 4280165937
-0.090917654 0.020576779 1.312 4280100658
-0.089779034 0.020576779 1.312 4280100657
-0.088775538 0.020608146 1.314 4280100657
-0.087635182 0.020608146 1.314 4280166450
-0.086494833 0.020608146 1.314 4280232243
-0.085419439 0.020623829 1.3150001 4280363829
-0.084278218 0.020623829 1.3150001 4280560954
-0.083136991 0.020623829 1.3150001 4280758590
-0.08199577 0.020623829 1.3150001 4280889920
-0.08085455 0.020623829 1.3150001 4280889921
-0.07971333 0.020623829 1.3150001 4281153093
-0.078572109 0.020623829 1.3150001 4281284679
-0.077372 0.020608146 1.314 4281284679
-0.076231644 0.020608146 1.314 4281350472
-0.075091295 0.020608146 1.314 4281284681
-0.073950939 0.020608146 1.314 4281416267
-0.072866 0.020623829 1.3150001 4281415754
-0.07172478 0.020623829 1.3150001 4281284169
-0.07058356 0.020623829 1.3150001 4281218890
-0.069495142 0.020639513 1.3160001 4281284683
-0.068456933 0.02067088 1.3180001 4281415755
-0.067364179 0.020686563 1.319 4281481806
-0.066269696 0.020702248 1.3200001 4281350476
-0.065222807 0.020733614 1.322 4281087817
-0.064075507 0.020733614 1.322 4281218890
-0.062975816 0.020749297 1.3230001 4281219660
-0.061874378 0.02076498 1.3240001 4281219660
-0.060725346 0.02076498 1.3240001 4280957001
-0.059576314 0.02076498 1.3240001 4280627781
-0.058471411 0.020780666 1.325 4280298817
-0.057321511 0.020780666 1.325 4280167230
-0.056171611 0.020780666 1.325 4279969851
-0.055063237 0.020796347 1.3260001 4279706679
-0.05395313 0.020812031 1.327 4279575093
-0.05284128 0.020827716 1.3280001 4279574839
-0.051766623 0.020859083 1.33 4279575095
-0.050650436 0.020874767 1.3310001 4279641402
-0.049495328 0.020874767 1.3310001 4279904574
-0.048412859 0.020906134 1.3330001 4280102214
-0.047291469 0.020921815 1.3340001 4280233800
-0.046168342 0.020937499 1.335 4280299851
-0.037867121 0.021486422 1.3700001 4280959328
-0.036731709 0.021517791 1.3720001 4280827742
-0.035566926 0.021533472 1.373 4280696157
-0.034500554 0.02161189 1.378 4280761950
-0.033328824 0.021627575 1.3790001 4280696416
-0.032178663 0.02165894 1.381 4280564830
-0.031047463 0.021705993 1.3840001 4280630625
-0.029867925 0.021721676 1.3850001 4280630625
-0.028686652 0.021737359 1.386 4280762211
-0.027503641 0.021753043 1.3870001 4280762211
-0.026299935 0.021753043 1.3870001 4280762211
-0.025096228 0.021753043 1.3870001 4280762211
-0.023875296 0.021737359 1.386 4280828004
-0.022688815 0.021753043 1.3870001 4280893797
-0.021469619 0.021737359 1.386 4280696418
-0.020266781 0.021737359 1.386 4280696418
-0.01906394 0.021737359 1.386 4280696418
-0.017848214 0.021721676 1.3850001 4280762211
-0.016646244 0.021721676 1.3850001 4280893797
-0.015444272 0.021721676 1.3850001 4281025383
-0.014242302 0.021721676 1.3850001 4281091176
-0.01304033 0.021721676 1.3850001 4281091176
-0.01183836 0.021721676 1.3850001 4281091176
-0.010636388 0.021721676 1.3850001 4281222762
-0.0094344169 0.021721676 1.3850001 4281156456
-0.0082324464 0.021721676 1.3850001 4281090663
-0.0070203221 0.021690309 1.383 4281156710
-0.0058200867 0.021690309 1.383 4281222503
-0.0046198512 0.021690309 1.383 4281222503
-0.003419616 0.021690309 1.383 4281354089
-0.0022193806 0.021690309 1.383 4281222501
-0.0010191452 0.021690309 1.383 4281156708
0.00018095926 0.021674626 1.3820001 4281156708
0.0013813257 0.021690309 1.383 4281288294
0.002581561 0.021690309 1.383 4281550951
0.0037872654 0.021721676 1.3850001 4281748330
0.0049892366 0.021721676 1.3850001 4281616231
0.0061956779 0.021737359 1.386 4281221471
0.0074145305 0.02178441 1.3890001 4280957783
0.0086323852 0.021815777 1.391 4280563023
0.009846637 0.02183146 1.3920001 4280496460
0.012333205 0.021956928 1.4000001 4280758862
0.013567548 0.021988297 1.4020001 4281022287
0.014815907 0.022035347 1.4050001 4280759367
0.016137954 0.022176497 1.414 4280101432
0.017389653 0.022207865 1.416 4279377450
0.018657975 0.022254914 1.419 4279246117
0.019959534 0.022333333 1.424 4279048220
0.021210235 0.022349017 1.4250001 4279179806
0.022446921 0.022349017 1.4250001 4279245601
0.023700224 0.0223647 1.4260001 4279311140
0.02492029 0.022349017 1.4250001 4279442729
0.026156975 0.022349017 1.4250001 4279640108
0.027412884 0.0223647 1.4260001 4279771694
0.028670529 0.022380384 1.427 4279969073
0.029929908 0.022396067 1.4280001 4280166966
0.031321988 0.022505853 1.4350001 4280561724
0.032635439 0.022552902 1.4380001 4280693571
0.033930529 0.022584269 1.4400001 4280561985
0.036708221 0.022756789 1.4510001 4280364606
0.038072132 0.022819521 1.455 4280233023
0.039415956 0.022866573 1.4580001 4280167230
-0.1778584 0.02175713 1.3150001 4284510589
-0.17685156 0.021773675 1.3160001 4284839558
-0.17570946 0.021773675 1.3160001 4283983997
-0.17456737 0.021773675 1.3160001 4282404971
-0.17316173 0.021740584 1.314 4281747043
-0.17189045 0.02172404 1.3130001 4281549919
-0.17062092 0.021707492 1.312 4281418588
-0.16935313 0.021690948 1.3110001 4281352538
-0.16783045 0.021641312 1.3080001 4281286746
-0.1666953 0.021641312 1.3080001 4281220955
-0.16556016 0.021641312 1.3080001 4280957785
-0.16429929 0.021624768 1.307 4280629077
-0.16316502 0.021624768 1.307 4280563283
-0.16190676 0.02160822 1.3060001 4280563025
-0.16065025 0.021591676 1.3050001 4280694611
-0.15939547 0.021575131 1.304 4280760404
-0.15802106 0.021542041 1.302 4280891990
-0.15677062 0.021525495 1.3010001 4280891990
-0.15552191 0.021508949 1.3000001 4280825941
-0.15415618 0.021475859 1.2980001 4280825684
-0.15314762 0.021492403 1.299 4280891476
-0.15190324 0.021475859 1.2980001 4280825938
-0.15077677 0.021475859 1.2980001 4280760145
-0.14965031 0.021475859 1.2980001 4280628559
-0.14852384 0.021475859 1.2980001 4280562767
-0.14728382 0.021459313 1.2970001 4280496974
-0.14615822 0.021459313 1.2970001 4280365388
-0.14503261 0.021459313 1.2970001 4280233802
-0.14379607 0.021442767 1.296 4280365132
-0.14267133 0.021442767 1.296 4280562767
-0.14154661 0.021442767 1.296 4280759890
-0.14042187 0.021442767 1.296 4280825684
-0.13929714 0.021442767 1.296 4280891477
-0.1381724 0.021442767 1.296 4280694098
-0.13725916 0.021475859 1.2980001 4280562511
-0.13613269 0.021475859 1.2980001 4280496717
-0.13500622 0.021475859 1.2980001 4280365131
-0.13387975 0.021475859 1.2980001 4280233544
-0.13275328 0.021475859 1.2980001 4280233287
-0.13162681 0.021475859 1.2980001 4280299080
-0.13070144 0.021508949 1.3000001 4280299079
-0.12957323 0.021508949 1.3000001 4280233542
-0.12844503 0.021508949 1.3000001 4280167748
-0.12741475 0.021525495 1.3010001 4280036161
-0.12638275 0.021542041 1.302 4279904575
-0.12525281 0.021542041 1.302 4279904575
-0.12431353 0.021575131 1.304 4279904573
-0.12318186 0.021575131 1.304 4279772988
-0.12214379 0.021591676 1.3050001 4279838778
-0.12110397 0.02160822 1.3060001 4279773242
-0.11997056 0.02160822 1.3060001 4279838521
-0.11883715 0.02160822 1.3060001 4279772728
-0.11770374 0.02160822 1.3060001 4279641142
-0.11657032 0.02160822 1.3060001 4279706678
-0.11543692 0.02160822 1.3060001 4279970106
-0.11421598 0.021591676 1.3050001 4280364608
-0.11299678 0.021575131 1.304 4280561987
-0.11169354 0.021542041 1.302 4280693573
-0.1105636 0.021542041 1.302 4280825674
-0.10943366 0.021542041 1.302 4281220432
-0.10822053 0.021525495 1.3010001 4281417811
-0.10717378 0.021542041 1.302 4281549397
-0.10604384 0.021542041 1.302 4281680981
-0.10507505 0.021575131 1.304 4281878616
-0.10402309 0.021591676 1.3050001 4281747030
-0.10289055 0.021591676 1.3050001 4281549651
-0.095835969 0.021790219 1.317 4280758331
-0.094764911 0.021806765 1.3180001 4280758075
-0.093692124 0.021823311 1.319 4280561208
-0.092547432 0.021823311 1.319 4280495415
-0.091472037 0.021839857 1.3200001 4280495414
-0.090326473 0.021839857 1.3200001 4280495414
-0.089316033 0.021872947 1.322 4280561207
-0.088168733 0.021872947 1.322 4280627000
-0.08702144 0.021872947 1.322 4280627001
-0.085939102 0.021889493 1.3230001 4280627001
-0.084790938 0.021889493 1.3230001 4280758588
-0.083642773 0.021889493 1.3230001 4280890175
-0.082494609 0.021889493 1.3230001 4280889921
-0.081346445 0.021889493 1.3230001 4280889921
-0.080258891 0.021906037 1.3240001 4281021507
-0.079050116 0.021889493 1.3230001 4281153093
-0.077901952 0.021889493 1.3230001 4281284166
-0.07669577 0.021872947 1.322 4281349959
-0.07554847 0.021872947 1.322 4281349959
-0.074401177 0.021872947 1.322 4281284423
-0.073198467 0.021856401 1.3210001 4281218374
-0.072106585 0.021872947 1.322 4281086789
-0.070959285 0.021872947 1.322 4281152840
-0.069811992 0.021872947 1.322 4281218633
-0.068768568 0.021906037 1.3240001 4281284169
-0.067670614 0.021922583 1.325 4281349962
-0.066520713 0.021922583 1.325 4281284681
-0.065469481 0.021955673 1.327 4281153095
-0.064366318 0.021972219 1.3280001 4281153095
-0.063213818 0.021972219 1.3280001 4281218888
-0.06206131 0.021972219 1.3280001 4281088072
-0.060908806 0.021972219 1.3280001 4281088072
-0.059756305 0.021972219 1.3280001 4281022024
-0.058603801 0.021972219 1.3280001 4280824645
-0.057451297 0.021972219 1.3280001 4280693571
-0.056298792 0.021972219 1.3280001 4280561986
-0.055187814 0.021988764 1.3290001 4280298814
-0.054034442 0.021988764 1.3290001 4280101435
-0.052881069 0.021988764 1.3290001 4279904056
-0.051727697 0.021988764 1.3290001 4279575091
-0.050574329 0.021988764 1.3290001 4279443506
-0.049420957 0.021988764 1.3290001 4279509299
-0.048376542 0.0220384 1.332 4279707196
-0.047291469 0.02207149 1.3340001 4279838782
-0.046168342 0.022088036 1.335 4279970627
-0.045178335 0.022170762 1.34 4280102213
-0.044081114 0.022203853 1.342 4280168521
-0.042948443 0.022220399 1.3430001 4280234570
-0.041876256 0.022270035 1.3460001 4280431694
-0.040708128 0.022270035 1.3460001 4280760403
-0.039569378 0.022286581 1.3470001 4280892760
-0.038685467 0.022452034 1.3570001 4281090139
-0.037507799 0.022452034 1.3570001 4281090398
-0.036330126 0.022452034 1.3570001 4280958812
-0.030935297 0.022816032 1.3790001 4280696418
-0.0297601 0.022832576 1.3800001 4280630625
-0.028583165 0.022849122 1.381 4280696418
-0.027444154 0.02289876 1.3840001 4280762211
-0.02624305 0.02289876 1.3840001 4280762211
-0.025041947 0.02289876 1.3840001 4280828004
-0.023840845 0.02289876 1.3840001 4280828004
-0.02263974 0.02289876 1.3840001 4280762211
-0.021438638 0.02289876 1.3840001 4280762211
-0.020222912 0.022882212 1.383 4280828004
-0.019022675 0.022882212 1.383 4280893797
-0.017822441 0.022882212 1.383 4280828004
-0.016622204 0.022882212 1.383 4280893797
-0.01542197 0.022882212 1.383 4280959590
-0.014221734 0.022882212 1.383 4281025383
-0.013021499 0.022882212 1.383 4281091176
-0.011821263 0.022882212 1.383 4281091176
-0.010621028 0.022882212 1.383 4281222762
-0.0094071701 0.022849122 1.381 4281353835
-0.0082086697 0.022849122 1.381 4281222249
-0.007015246 0.022865668 1.3820001 4281090917
-0.0058158785 0.022865668 1.3820001 4281090917
-0.0046131704 0.022849122 1.381 4281419112
-0.0034171434 0.022865668 1.3820001 4281616491
-0.002216171 0.022849122 1.381 4281354087
-0.0010176714 0.022849122 1.381 4281354087
0.00018095926 0.022865668 1.3820001 4281354087
0.0013813257 0.022882212 1.383 4281354087
0.002581561 0.022882212 1.383 4281485158
0.0037872654 0.022915304 1.3850001 4281616744
0.0049928389 0.022931848 1.386 4281484643
0.0062001478 0.022948395 1.3870001 4281024346
0.0086385906 0.023031121 1.3920001 4280496972
0.0098607847 0.023064213 1.3940001 4280562252
0.011086449 0.023097303 1.396 4280693838
0.012368442 0.023229664 1.404 4280758862
0.013615935 0.023279302 1.4070001 4280627529
0.014868633 0.023328938 1.4100001 4280167227
0.016183604 0.023461301 1.4180001 4279640876
0.017438777 0.023494391 1.4200001 4279114784
0.01868427 0.023510937 1.4210001 4279048988
0.01997355 0.023577118 1.4250001 4279114266
0.021195352 0.023560572 1.424 4279114266
0.022431169 0.023560572 1.424 4279311390
0.023666985 0.023560572 1.424 4279574564
0.024885315 0.023544027 1.4230001 4279640106
0.026120264 0.023544027 1.4230001 4279903280
0.027393661 0.023577118 1.4250001 4279968819
0.028650437 0.023593662 1.4260001 4280100405
0.02990895 0.023610208 1.427 4280298554
0.031300161 0.023726026 1.434 4280561726
0.032612741 0.023775661 1.437 4280627521
0.033954095 0.023841843 1.4410001 4280430142
0.036733519 0.024023842 1.452 4280298816
0.038098302 0.024090024 1.4560001 4280167230
-0.19157024 0.023029687 1.3230001 4294048767
-0.19056599 0.023047093 1.3240001 4293851389
-0.18941696 0.023047093 1.3240001 4292009707
-0.18812574 0.023029687 1.3230001 4288785851
-0.18697758 0.023029687 1.3230001 4285957265
-0.18540803 0.022977466 1.3200001 4284575613
-0.18412286 0.022960057 1.319 4282667361
-0.18283945 0.022942651 1.3180001 4281220173
-0.18128206 0.02289043 1.3150001 4280562757
-0.18014084 0.02289043 1.3150001 4280694087
-0.1788635 0.022873022 1.314 4281088848
-0.17745262 0.022838207 1.312 4281615194
-0.17604524 0.022803394 1.3100001 4281812832
-0.17490835 0.022803394 1.3100001 4281680993
-0.17377147 0.022803394 1.3100001 4281549667
-0.17263459 0.022803394 1.3100001 4281549668
-0.1713668 0.022785986 1.309 4281352544
-0.17023079 0.022785986 1.309 4281220956
-0.16909477 0.022785986 1.309 4281220954
-0.16783045 0.022768579 1.3080001 4281220954
-0.1666953 0.022768579 1.3080001 4281220956
-0.16556016 0.022768579 1.3080001 4281089371
-0.16429929 0.022751173 1.307 4280826199
-0.16316502 0.022751173 1.307 4280628819
-0.16190676 0.022733765 1.3060001 4280628818
-0.16052714 0.02269895 1.304 4280694611
-0.15939547 0.02269895 1.304 4280694611
-0.15802106 0.022664137 1.302 4280694611
-0.15677062 0.022646729 1.3010001 4280628818
-0.15552191 0.022629322 1.3000001 4280694354
-0.15427496 0.022611914 1.299 4280759891
-0.15314762 0.022611914 1.299 4280760146
-0.15202029 0.022611914 1.299 4280760145
-0.15089294 0.022611914 1.299 4280628558
-0.14965031 0.022594508 1.2980001 4280431179
-0.14852384 0.022594508 1.2980001 4280365387
-0.14728382 0.022577101 1.2970001 4280365387
-0.14615822 0.022577101 1.2970001 4280233801
-0.14503261 0.022577101 1.2970001 4280102215
-0.14379607 0.022559693 1.296 4280168008
-0.14267133 0.022559693 1.296 4280299594
-0.14154661 0.022559693 1.296 4280365388
-0.14053021 0.022577101 1.2970001 4280496717
-0.13940462 0.022577101 1.2970001 4280562510
-0.13827902 0.022577101 1.2970001 4280496717
-0.13725916 0.022594508 1.2980001 4280365387
-0.13613269 0.022594508 1.2980001 4280233801
-0.13500622 0.022594508 1.2980001 4280233287
-0.13398291 0.022611914 1.299 4280167494
-0.13295785 0.022629322 1.3000001 4280167749
-0.13182963 0.022629322 1.3000001 4280167749
-0.13080198 0.022646729 1.3010001 4280167491
-0.1296729 0.022646729 1.3010001 4280167234
-0.12854382 0.022646729 1.3010001 4279970111
-0.12751269 0.022664137 1.302 4279838781
-0.12647982 0.022681544 1.3030001 4279772987
-0.12534901 0.022681544 1.3030001 4279838780
-0.12440888 0.022716358 1.3050001 4279772986
-0.12327633 0.022716358 1.3050001 4279575607
-0.12223738 0.022733765 1.3060001 4279706935
-0.12119669 0.022751173 1.307 4279772727
-0.12006242 0.022751173 1.307 4279772470
-0.11892813 0.022751173 1.307 4279706677
-0.11779386 0.022751173 1.307 4279640884
-0.11665958 0.022751173 1.307 4279706677
-0.1155253 0.022751173 1.307 4279772471
-0.11430351 0.022733765 1.3060001 4279904057
-0.11317009 0.022733765 1.3060001 4280167229
-0.1118651 0.02269895 1.304 4280430402
-0.11073343 0.02269895 1.304 4280759881
-0.10960176 0.02269895 1.304 4281286225
-0.10847008 0.02269895 1.304 4281549397
-0.10742072 0.022716358 1.3050001 4281549397
-0.10628818 0.022716358 1.3050001 4281812824
-0.1053168 0.022751173 1.307 4281747030
-0.10426223 0.022768579 1.3080001 4281352272
-0.10312708 0.022768579 1.3080001 4281089100
-0.096127041 0.022994872 1.3210001 4280758331
-0.094908714 0.022977466 1.3200001 4280692281
-0.093834184 0.022994872 1.3210001 4280561208
-0.092757925 0.023012279 1.322 4280495414
-0.091679923 0.023029687 1.3230001 4280495414
-0.090531759 0.023029687 1.3230001 4280627000
-0.089451149 0.023047093 1.3240001 4280692793
-0.088302121 0.023047093 1.3240001 4280692793
-0.087153085 0.023047093 1.3240001 4280627001
-0.086069018 0.023064502 1.325 4280627001
-0.084919117 0.023064502 1.325 4280824380
-0.083769217 0.023064502 1.325 4280692795
-0.082619317 0.023064502 1.325 4280692540
-0.081530906 0.023081908 1.3260001 4280627003
-0.080380134 0.023081908 1.3260001 4280692029
-0.07922937 0.023081908 1.3260001 4280757822
-0.078019716 0.023064502 1.325 4280955199
-0.076869816 0.023064502 1.325 4281086785
-0.075662762 0.023047093 1.3240001 4281086787
-0.074513733 0.023047093 1.3240001 4281020994
-0.073309295 0.023029687 1.3230001 4281020739
-0.072215669 0.023047093 1.3240001 4281086276
-0.071066633 0.023047093 1.3240001 4281020996
-0.069917604 0.023047093 1.3240001 4281020996
-0.068872459 0.023081908 1.3260001 4281086276
-0.067721687 0.023081908 1.3260001 4281020996
-0.066621117 0.023099314 1.327 4280823617
-0.065568164 0.023134129 1.3290001 4280758337
-0.064414792 0.023134129 1.3290001 4280955203
-0.063309014 0.023151537 1.33 4280889923
-0.062154774 0.023151537 1.33 4280824130
-0.061000533 0.023151537 1.33 4280759107
-0.059846297 0.023151537 1.33 4280759107
-0.058647931 0.023134129 1.3290001 4280693314
-0.057494558 0.023134129 1.3290001 4280693571
-0.056341186 0.023134129 1.3290001 4280825157
-0.05522934 0.023151537 1.33 4280825157
-0.054034442 0.023134129 1.3290001 4280693571
-0.052881069 0.023134129 1.3290001 4280496193
-0.051766623 0.023151537 1.33 4280101435
-0.050612383 0.023151537 1.33 4279509298
-0.049458146 0.023151537 1.33 4279246126
-0.048376542 0.02318635 1.332 4279311924
-0.047291469 0.023221165 1.3340001 4279509302
-0.046168342 0.023238571 1.335 4279641404
-0.045178335 0.023325609 1.34 4279904576
-0.044048268 0.023343017 1.3410001 4279970628
-0.042916462 0.023360424 1.342 4279970628
-0.041845139 0.023412645 1.345 4280036679
-0.040677883 0.023412645 1.345 4280365644
-0.039540004 0.023430053 1.3460001 4280563795
-0.038628452 0.023586717 1.355 4280892760
-0.037452515 0.023586717 1.355 4281155932
-0.036276579 0.023586717 1.355 4281155932
-0.032062158 0.023952268 1.376 4280761950
-0.030912865 0.023987081 1.378 4280630366
-0.029738532 0.024004489 1.3790001 4280564573
-0.027404493 0.02405671 1.3820001 4280696418
-0.026205126 0.02405671 1.3820001 4280828004
-0.025023853 0.024074117 1.383 4280893797
-0.023823617 0.024074117 1.383 4280893797
-0.022623383 0.024074117 1.383 4280828004
-0.021423146 0.024074117 1.383 4280828004
-0.020222912 0.024074117 1.383 4280959590
-0.019008921 0.02405671 1.3820001 4281025383
-0.017809553 0.02405671 1.3820001 4280959590
-0.016610185 0.02405671 1.3820001 4280828004
-0.015410818 0.02405671 1.3820001 4280893797
-0.014211452 0.02405671 1.3820001 4281025383
-0.013012084 0.02405671 1.3820001 4281156969
-0.011804169 0.024039302 1.381 4281025383
-0.01060567 0.024039302 1.381 4281091176
-0.0094071701 0.024039302 1.381 4281353835
-0.0082086697 0.024039302 1.381 4281288042
-0.0070101698 0.024039302 1.381 4281090917
-0.0058116703 0.024039302 1.381 4281156710
-0.0046131704 0.024039302 1.381 4281419112
-0.0034146707 0.024039302 1.381 4281484905
-0.002216171 0.024039302 1.381 4281485673
-0.0010176714 0.024039302 1.381 4281551466
0.00018095926 0.02405671 1.3820001 4281617259
0.0013813257 0.024074117 1.383 4281551466
0.002581561 0.024074117 1.383 4281550951
0.0037899998 0.024126338 1.386 4281550951
0.0049964413 0.024143746 1.3870001 4281484129
0.0062001478 0.024143746 1.3870001 4280957783
0.008644796 0.024248188 1.393 4280496972
0.0098678591 0.024283003 1.3950001 4280693838
0.01109439 0.024317818 1.3970001 4280825424
0.012386061 0.024474481 1.406 4280759117
0.013625612 0.024509296 1.4080001 4280166976
0.014879179 0.024561517 1.411 4279443245
0.016195018 0.024700776 1.419 4279114532
0.017438777 0.024718184 1.4200001 4279048988
0.01869742 0.024752997 1.4220001 4278983194
0.019959534 0.024787812 1.424 4279179804
0.021195352 0.024787812 1.424 4279180059
0.022431169 0.024787812 1.424 4279443231
0.023650367 0.024770405 1.4230001 4279574562
0.024885315 0.024770405 1.4230001 4279837484
0.02610191 0.024752997 1.4220001 4279969073
0.027374437 0.024787812 1.424 4280100659
0.028630348 0.02480522 1.4250001 4280166452
0.029867033 0.02480522 1.4250001 4280298552
0.031300161 0.024961883 1.434 4280627517
0.032612741 0.025014104 1.437 4280561726
0.033930529 0.025066325 1.4400001 4280298554
0.036758818 0.02529262 1.4530001 4280101435
-0.19242705 0.024133343 1.3210001 4293391100
-0.19142543 0.024151612 1.322 4293062389
-0.19027813 0.024151612 1.322 4291746530
-0.18913083 0.024151612 1.322 4288259508
-0.18784134 0.024133343 1.3210001 4283917427
-0.18655358 0.024115076 1.3200001 4281746772
-0.18512711 0.024078537 1.3180001 4281680724
-0.18384369 0.024060268 1.317 4281417553
-0.18256199 0.024041999 1.3160001 4281220430
-0.18114421 0.02400546 1.314 4281023308
-0.17986685 0.023987193 1.3130001 4281023310
-0.17872736 0.023987193 1.3130001 4281154643
-0.17718212 0.023932386 1.3100001 4281154646
