# .PCD v0.7 - Point Cloud Data file format
VERSION 0.7
FIELDS x y z rgba
SIZE 4 4 4 4
TYPE F F F U
COUNT 1 1 1 1
WIDTH 1102
HEIGHT 1
VIEWPOINT 0 0 0 1 0 0 0
POINTS 1102
DATA ascii
-0.11077781 -0.15145466 1.6610001 4280035114
-0.17149681 -0.12672034 1.4030001 4279510069
-0.17003649 -0.12653969 1.401 4279312960
-0.16857964 -0.12635906 1.399 4279181642
-0.16700661 -0.12608808 1.396 4280103008
-0.16591386 -0.12617841 1.3970001 4281879935
-0.16458358 -0.12608808 1.396 4282998673
-0.16348909 -0.12617841 1.3970001 4283261845
-0.16239287 -0.12626873 1.3980001 4282209929
-0.16129491 -0.12635906 1.399 4279907435
-0.1601952 -0.12644938 1.4000001 4278657886
-0.15909378 -0.12653969 1.401 4279710321
-0.15776522 -0.12644938 1.4000001 4280828805
-0.15643843 -0.12635906 1.399 4280697478
-0.15489145 -0.12608808 1.396 4280236929
-0.15312949 -0.12563649 1.391 4279973759
-0.1518131 -0.12554616 1.3900001 4279907968
-0.15049843 -0.12545584 1.3890001 4279842434
-0.14897054 -0.12518488 1.386 4279842435
-0.14776771 -0.12518488 1.386 4279710850
-0.14656486 -0.12518488 1.386 4279513471
-0.14525715 -0.12509456 1.3850001 4279579776
-0.14405517 -0.12509456 1.3850001 4280895890
-0.1428532 -0.12509456 1.3850001 4282540971
-0.14165124 -0.12509456 1.3850001 4281685661
-0.14044927 -0.12509456 1.3850001 4279975043
-0.1392473 -0.12509456 1.3850001 4279580285
-0.13814498 -0.12518488 1.386 4279580030
-0.13704096 -0.12527519 1.3870001 4279711616
-0.13603312 -0.12545584 1.3890001 4279777408
-0.13492475 -0.12554616 1.3900001 4279712128
-0.13381463 -0.12563649 1.391 4279777923
-0.1329888 -0.12599777 1.3950001 4279646852
-0.13196707 -0.12617841 1.3970001 4279712132
-0.13094188 -0.12635906 1.399 4279777923
-0.12906481 -0.12690099 1.4050001 4279975042
-0.12811846 -0.12717195 1.4080001 4280500612
-0.12707677 -0.1273526 1.4100001 4281223043
-0.12656717 -0.12807517 1.4180001 4280760171
-0.12560172 -0.12834612 1.4210001 4282996346
-0.12463108 -0.12861708 1.424 4292798201
-0.12400184 -0.12924933 1.4310001 4294377215
-0.12284573 -0.12933965 1.432 4293850364
-0.12177281 -0.1295203 1.434 4293192950
-0.12078047 -0.12979126 1.437 4293193205
-0.11755911 -0.14948124 1.6550001 4280166701
-0.11605266 -0.14939091 1.654 4280232494
-0.11454792 -0.14930059 1.6530001 4280166701
-0.11331866 -0.14957155 1.6560001 4280166701
-0.11201663 -0.1497522 1.6580001 4280100907
-0.11077781 -0.15002316 1.6610001 4280035113
-0.17149681 -0.1255112 1.4030001 4279510584
-0.17003649 -0.12533228 1.401 4279444802
-0.16870013 -0.12524283 1.4000001 4279379020
-0.16712624 -0.12497445 1.3970001 4280497767
-0.16591386 -0.12497445 1.3970001 4282340486
-0.16458358 -0.12488499 1.396 4283196309
-0.16360612 -0.12506391 1.3980001 4283196824
-0.16250902 -0.12515336 1.399 4282341774
-0.1614102 -0.12524283 1.4000001 4280104814
-0.16030964 -0.12533228 1.401 4278657629
-0.15920733 -0.12542173 1.4020001 4279578733
-0.1579906 -0.12542173 1.4020001 4280697474
-0.15643843 -0.12515336 1.399 4280763527
-0.15511335 -0.12506391 1.3980001 4280368770
-0.15323958 -0.12452715 1.3920001 4280039552
-0.15192232 -0.1244377 1.391 4279907967
-0.15049843 -0.12425877 1.3890001 4279842433
-0.14907803 -0.12407985 1.3870001 4279776641
-0.14787433 -0.12407985 1.3870001 4279645314
-0.14656486 -0.12399039 1.386 4279513728
-0.14536202 -0.12399039 1.386 4279513984
-0.14415918 -0.12399039 1.386 4280172169
-0.14295635 -0.12399039 1.386 4281027733
-0.14165124 -0.12390094 1.3850001 4280501645
-0.14055067 -0.12399039 1.386 4279711873
-0.13934782 -0.12399039 1.386 4279383164
-0.13824467 -0.12407985 1.3870001 4279580032
-0.13704096 -0.12407985 1.3870001 4279777411
-0.13613106 -0.12434822 1.3900001 4279711873
-0.13502182 -0.1244377 1.391 4279646336
-0.13391083 -0.12452715 1.3920001 4279580546
-0.13308413 -0.12488499 1.396 4279514754
-0.13084829 -0.12506391 1.3980001 4279580545
-0.12982048 -0.12524283 1.4000001 4279646337
-0.12924853 -0.12586904 1.4070001 4279909250
-0.12820944 -0.12604795 1.409 4280435332
-0.1271669 -0.12622687 1.411 4281091971
-0.12665643 -0.12694255 1.419 4280892013
-0.12569012 -0.12721093 1.4220001 4283062395
-0.12463108 -0.12738983 1.424 4292798459
-0.12417515 -0.12819497 1.4330001 4294311679
-0.12301731 -0.12828444 1.434 4294377215
-0.12194265 -0.12846334 1.4360001 4293916923
-0.12094858 -0.12873173 1.439 4293654010
-0.11748808 -0.14796545 1.654 4280232238
-0.11591232 -0.14778653 1.6520001 4280100908
-0.11440934 -0.14769708 1.651 4280100908
-0.11311337 -0.14787599 1.6530001 4280166699
-0.1118815 -0.14814436 1.6560001 4280100907
-0.11071112 -0.1485022 1.6600001 4280100906
-0.17149681 -0.12430207 1.4030001 4279509558
-0.17015785 -0.12421346 1.4020001 4279444031
-0.16882063 -0.12412486 1.401 4279509835
-0.16712624 -0.12377048 1.3970001 4280760167
-0.16591386 -0.12377048 1.3970001 4282669450
-0.16470148 -0.12377048 1.3970001 4283459737
-0.16372316 -0.12394767 1.399 4283394204
-0.16262518 -0.12403627 1.4000001 4282539154
-0.1615255 -0.12412486 1.401 4280104815
-0.16053848 -0.12430207 1.4030001 4278723164
-0.15932089 -0.12430207 1.4030001 4279381096
-0.1581033 -0.12430207 1.4030001 4280631165
-0.15655024 -0.12403627 1.4000001 4280894855
-0.15500239 -0.12377048 1.3970001 4280434564
-0.15323958 -0.12332749 1.3920001 4280039553
-0.15192232 -0.1232389 1.391 4279907968
-0.15060678 -0.12315029 1.3900001 4279842435
-0.14907803 -0.1228845 1.3870001 4279710850
-0.14787433 -0.1228845 1.3870001 4279579523
-0.14667062 -0.1228845 1.3870001 4279513987
-0.14546691 -0.1228845 1.3870001 4279580035
-0.14415918 -0.1227959 1.386 4279777414
-0.14295635 -0.1227959 1.386 4279909512
-0.14175351 -0.1227959 1.386 4279777925
-0.14055067 -0.1227959 1.386 4279514753
-0.13934782 -0.1227959 1.386 4279382911
-0.13824467 -0.1228845 1.3870001 4279514755
-0.13713977 -0.12297311 1.388 4279646084
-0.13613106 -0.12315029 1.3900001 4279514752
-0.13502182 -0.1232389 1.391 4279514751
-0.13391083 -0.12332749 1.3920001 4279514753
-0.13196707 -0.12377048 1.3970001 4279513982
-0.13094188 -0.12394767 1.399 4279580031
-0.12991323 -0.12412486 1.401 4279646336
-0.12924853 -0.12465645 1.4070001 4279778177
-0.12820944 -0.12483365 1.409 4280435844
-0.1271669 -0.12501083 1.411 4281026689
-0.12674569 -0.12580821 1.4200001 4281155442
-0.12577851 -0.126074 1.4230001 4283062396
-0.12471861 -0.12625121 1.4250001 4291943664
-0.1242618 -0.12704858 1.434 4294311935
-0.12310309 -0.12713717 1.4350001 4294311935
-0.12211248 -0.12740296 1.4380001 4294246399
-0.12103262 -0.12758017 1.4400001 4293917950
-0.11777309 -0.14512242 1.6380001 4280166188
-0.11656465 -0.14538822 1.641 4280166188
-0.115351 -0.14565401 1.6440001 4280035113
-0.11311337 -0.14645138 1.6530001 4280166699
-0.11181395 -0.14662859 1.6550001 4280166699
-0.11057773 -0.14689438 1.6580001 4280100906
-0.17161906 -0.12318066 1.404 4279313206
-0.17015785 -0.12300518 1.4020001 4279378753
-0.16870013 -0.12282972 1.4000001 4279378505
-0.16736551 -0.12274197 1.399 4280497250
-0.16615139 -0.12274197 1.399 4282537863
-0.16493727 -0.12274197 1.399 4283591067
-0.16395721 -0.12291745 1.401 4283459739
-0.1628575 -0.12300518 1.4020001 4282275725
-0.16175607 -0.12309293 1.4030001 4280038509
-0.16076733 -0.12326839 1.4050001 4278657115
-0.15954801 -0.12326839 1.4050001 4279117923
-0.15844136 -0.12335613 1.406 4280434554
-0.15699753 -0.12318066 1.404 4280829061
-0.15555716 -0.12300518 1.4020001 4280434563
-0.15356985 -0.12239104 1.3950001 4280105601
-0.15224996 -0.12230331 1.3940001 4279974016
-0.15082347 -0.12212783 1.3920001 4279908226
-0.14929299 -0.12186462 1.3890001 4279776898
-0.14808755 -0.12186462 1.3890001 4279645827
-0.1468821 -0.12186462 1.3890001 4279580291
-0.14557178 -0.12177689 1.388 4279580291
-0.14436722 -0.12177689 1.388 4279514754
-0.14316264 -0.12177689 1.388 4279646083
-0.14185579 -0.12168915 1.3870001 4279514497
-0.14075349 -0.12177689 1.388 4279448961
-0.13954891 -0.12177689 1.388 4279382912
-0.13834433 -0.12177689 1.388 4279448706
-0.13723856 -0.12186462 1.3890001 4279514498
-0.13511889 -0.12212783 1.3920001 4279514496
-0.13410324 -0.12230331 1.3940001 4279514498
-0.13206154 -0.12265424 1.3980001 4279579519
-0.13112909 -0.12291745 1.401 4279580031
-0.13000594 -0.12300518 1.4020001 4279711873
-0.12943225 -0.12361934 1.409 4279778434
-0.12839143 -0.1237948 1.411 4280435589
-0.12743728 -0.12405801 1.414 4281092484
-0.1269242 -0.1247599 1.4220001 4281419386
-0.1258669 -0.12493536 1.424 4282931328
-0.12489365 -0.12519856 1.427 4287535794
-0.12434845 -0.12590045 1.4350001 4289509568
-0.12327467 -0.12607592 1.437 4289904581
-0.1221974 -0.1262514 1.439 4290825936
-0.11777309 -0.14371076 1.6380001 4280035115
-0.11656465 -0.14397396 1.641 4279969065
-0.115351 -0.14423718 1.6440001 4279969320
-0.11304495 -0.14493906 1.6520001 4280100906
-0.11174638 -0.14511453 1.654 4280100906
-0.11051103 -0.14537773 1.6570001 4280035113
-0.17186353 -0.1221444 1.406 4279444279
-0.1704006 -0.12197065 1.404 4279575362
-0.16894113 -0.1217969 1.4020001 4279575113
-0.16736551 -0.12153628 1.399 4280825443
-0.16615139 -0.12153628 1.399 4282931593
-0.16493727 -0.12153628 1.399 4283853724
-0.16395721 -0.12171003 1.401 4283656603
-0.1628575 -0.1217969 1.4020001 4282340746
-0.16175607 -0.12188378 1.4030001 4280037737
-0.16076733 -0.12205752 1.4050001 4278722136
-0.15966156 -0.1221444 1.406 4279051361
-0.15844136 -0.1221444 1.406 4280367992
-0.15699753 -0.12197065 1.404 4280763010
-0.15555716 -0.1217969 1.4020001 4280434561
-0.15356985 -0.12118879 1.3950001 4280171392
-0.15224996 -0.12110192 1.3940001 4280039807
-0.15093184 -0.12101503 1.393 4279908737
-0.14940047 -0.12075441 1.3900001 4279777409
-0.14808755 -0.12066755 1.3890001 4279711874
-0.1468821 -0.12066755 1.3890001 4279580545
-0.14557178 -0.12058067 1.388 4279514497
-0.14436722 -0.12058067 1.388 4279514753
-0.14316264 -0.12058067 1.388 4279515010
-0.14195806 -0.12058067 1.388 4279515010
-0.14075349 -0.12058067 1.388 4279514498
-0.13954891 -0.12058067 1.388 4279448705
-0.13844401 -0.12066755 1.3890001 4279382912
-0.13723856 -0.12066755 1.3890001 4279382912
-0.13613106 -0.12075441 1.3900001 4279448960
-0.13511889 -0.12092817 1.3920001 4279514753
-0.13410324 -0.12110192 1.3940001 4279448706
-0.132156 -0.12153628 1.399 4279710849
-0.13112909 -0.12171003 1.401 4279514238
-0.13000594 -0.1217969 1.4020001 4279646337
-0.12952411 -0.1224919 1.4100001 4279844484
-0.12848243 -0.12266564 1.4120001 4280304260
-0.12743728 -0.12283938 1.414 4280829828
-0.1269242 -0.12353438 1.4220001 4281485695
-0.12595528 -0.123795 1.4250001 4282537344
-0.12489365 -0.12396874 1.427 4283326073
-0.12434845 -0.12466373 1.4350001 4281615443
-0.12318888 -0.12475061 1.4360001 4281483850
-0.12211248 -0.12492435 1.4380001 4281813066
-0.17186353 -0.12093268 1.406 4279575608
-0.1704006 -0.12076065 1.404 4279575361
-0.16906163 -0.12067464 1.4030001 4279575370
-0.16736551 -0.12033059 1.399 4280891493
-0.16615139 -0.12033059 1.399 4283062922
-0.16493727 -0.12033059 1.399 4284115610
-0.16395721 -0.12050261 1.401 4284050332
-0.1628575 -0.12058862 1.4020001 4282603145
-0.16175607 -0.12067464 1.4030001 4279971686
-0.16088176 -0.12093268 1.406 4278656087
-0.15966156 -0.12093268 1.406 4278985312
-0.15855406 -0.12101869 1.4070001 4280301432
-0.15710935 -0.12084666 1.4050001 4280762756
-0.15566811 -0.12067464 1.4030001 4280565893
-0.15367992 -0.12007255 1.396 4280237443
-0.15235919 -0.11998654 1.3950001 4279974272
-0.15093184 -0.11981452 1.393 4279777153
-0.14940047 -0.11955648 1.3900001 4279711617
-0.14819416 -0.11955648 1.3900001 4279646083
-0.1468821 -0.11947047 1.3890001 4279646083
-0.14567666 -0.11947047 1.3890001 4279514755
-0.14436722 -0.11938446 1.388 4279449220
-0.14316264 -0.11938446 1.388 4279580806
-0.14195806 -0.11938446 1.388 4279581062
-0.14075349 -0.11938446 1.388 4279580292
-0.13954891 -0.11938446 1.388 4279514499
-0.13844401 -0.11947047 1.3890001 4279382913
-0.13733737 -0.11955648 1.3900001 4279448707
-0.13613106 -0.11955648 1.3900001 4279580033
-0.13521595 -0.11981452 1.393 4279514497
-0.13410324 -0.11990053 1.3940001 4279382913
-0.13206154 -0.12024458 1.3980001 4279711363
-0.13103548 -0.1204166 1.4000001 4279580032
-0.13000594 -0.12058862 1.4020001 4279711875
-0.12943225 -0.12119071 1.409 4279909765
-0.12839143 -0.12136273 1.411 4280172677
-0.12734716 -0.12153476 1.4130001 4280698244
-0.12683493 -0.12222284 1.4210001 4281354883
-0.1258669 -0.12248088 1.424 4282274690
-0.12489365 -0.12273891 1.427 4281747817
-0.1242618 -0.12334101 1.434 4278852914
-0.12310309 -0.12342702 1.4350001 4278391840
-0.12194265 -0.12351302 1.4360001 4278326297
-0.17198576 -0.1198061 1.4070001 4279641144
-0.17052196 -0.11963579 1.4050001 4279575874
-0.16906163 -0.1194655 1.4030001 4279444297
-0.16760477 -0.11929519 1.401 4280562528
-0.16638893 -0.11929519 1.401 4282667393
-0.16517307 -0.11929519 1.401 4284048789
-0.16407423 -0.11938034 1.4020001 4284180375
-0.16308984 -0.11955065 1.404 4282470273
-0.16198666 -0.11963579 1.4050001 4279970658
-0.16111061 -0.11989124 1.4080001 4278721366
-0.16011579 -0.12006155 1.4100001 4278984799
-0.15889212 -0.12006155 1.4100001 4280301177
-0.15755664 -0.1199764 1.409 4280828550
-0.15611194 -0.1198061 1.4070001 4280631944
-0.15401018 -0.11912489 1.399 4280303237
-0.15257762 -0.1189546 1.3970001 4280040066
-0.15125689 -0.11886944 1.396 4279777153
-0.14961544 -0.11852884 1.3920001 4279645824
-0.14840738 -0.11852884 1.3920001 4279646082
-0.14709359 -0.1184437 1.391 4279646083
-0.14578155 -0.11835854 1.3900001 4279449475
-0.14457524 -0.11835854 1.3900001 4279449476
-0.14336893 -0.11835854 1.3900001 4279580806
-0.14216262 -0.11835854 1.3900001 4279646343
-0.14095631 -0.11835854 1.3900001 4279646086
-0.13974999 -0.11835854 1.3900001 4279514500
-0.13854368 -0.11835854 1.3900001 4279580292
-0.13743618 -0.1184437 1.391 4279580292
-0.13622899 -0.1184437 1.391 4279514240
-0.13521595 -0.11861399 1.393 4279514496
-0.13410324 -0.11869915 1.3940001 4279382912
-0.1329888 -0.11878429 1.3950001 4279449217
-0.132156 -0.11912489 1.399 4279711619
-0.13112909 -0.11929519 1.401 4279777410
-0.13009867 -0.1194655 1.4030001 4279777670
-0.12943225 -0.1199764 1.409 4279843717
-0.12848243 -0.12023185 1.4120001 4280041094
-0.12743728 -0.12040214 1.414 4280501125
-0.1269242 -0.12108335 1.4220001 4281420679
-0.12595528 -0.1213388 1.4250001 4282340998
-0.12498117 -0.12159425 1.4280001 4281814128
-0.17198576 -0.11859351 1.4070001 4279509558
-0.17064333 -0.11850923 1.406 4279443775
-0.16930263 -0.11842493 1.4050001 4279312198
-0.1677244 -0.11817206 1.4020001 4280496222
-0.16650768 -0.11817206 1.4020001 4282732928
-0.16529095 -0.11817206 1.4020001 4284246167
-0.16430829 -0.11834064 1.404 4284312217
-0.163206 -0.11842493 1.4050001 4282470785
-0.16210195 -0.11850923 1.406 4279905375
-0.16133946 -0.11884637 1.4100001 4278656083
-0.16022936 -0.11893066 1.411 4278853211
-0.1591175 -0.11901496 1.4120001 4280432248
-0.15766846 -0.11884637 1.4100001 4281025416
-0.15622288 -0.11867779 1.4080001 4280763017
-0.15401018 -0.1179192 1.399 4280434311
-0.15268685 -0.11783492 1.3980001 4280039811
-0.15136524 -0.11775063 1.3970001 4279842690
-0.14972292 -0.11741347 1.393 4279711618
-0.14840738 -0.11732919 1.3920001 4279711618
-0.14719935 -0.11732919 1.3920001 4279711874
-0.14578155 -0.1171606 1.3900001 4279580547
-0.14457524 -0.1171606 1.3900001 4279580547
-0.14336893 -0.1171606 1.3900001 4279515012
-0.14216262 -0.1171606 1.3900001 4279580805
-0.14095631 -0.1171606 1.3900001 4279580549
-0.13974999 -0.1171606 1.3900001 4279514756
-0.13854368 -0.1171606 1.3900001 4279580291
-0.13743618 -0.1172449 1.391 4279580291
-0.13622899 -0.1172449 1.391 4279514496
-0.13531302 -0.11749776 1.3940001 4279514752
-0.13419946 -0.11758205 1.3950001 4279448705
-0.13308413 -0.11766633 1.396 4279448961
-0.13225046 -0.1180035 1.4000001 4279645825
-0.13122267 -0.11817206 1.4020001 4279777410
-0.13019142 -0.11834064 1.404 4279908742
-0.12961598 -0.11893066 1.411 4279974533
-0.12857343 -0.11909924 1.4130001 4280172422
-0.1275274 -0.11926782 1.4150001 4280501124
-0.12701346 -0.11994212 1.4230001 4281224072
-0.12604368 -0.12019498 1.4260001 4282341770
-0.12506868 -0.12044784 1.429 4282077558
-0.17198576 -0.11738092 1.4070001 4279114288
-0.17064333 -0.1172975 1.406 4278916918
-0.16930263 -0.11721406 1.4050001 4278982720
-0.16796368 -0.11713064 1.404 4280890464
-0.16662644 -0.11704722 1.4030001 4283653771
-0.16540885 -0.11704722 1.4030001 4285101729
-0.16442531 -0.11721406 1.4050001 4285036195
-0.16343832 -0.11738092 1.4070001 4282997384
-0.16233255 -0.11746434 1.4080001 4279905886
-0.16156831 -0.11779806 1.4120001 4278524749
-0.16045646 -0.11788148 1.4130001 4278656085
-0.15934289 -0.1179649 1.414 4280169329
-0.15789209 -0.11779806 1.4120001 4281025414
-0.1564448 -0.1176312 1.4100001 4280828554
-0.15412027 -0.11679694 1.4000001 4280434055
-0.15279606 -0.1167135 1.399 4280040069
-0.15136524 -0.11654666 1.3970001 4279908742
-0.14972292 -0.11621295 1.393 4279777413
-0.14851402 -0.11621295 1.393 4279711875
-0.14719935 -0.11612953 1.3920001 4279646338
-0.14588642 -0.1160461 1.391 4279646083
-0.14467925 -0.1160461 1.391 4279580291
-0.14336893 -0.11596267 1.3900001 4279449475
-0.14216262 -0.11596267 1.3900001 4279449475
-0.14095631 -0.11596267 1.3900001 4279515011
-0.13974999 -0.11596267 1.3900001 4279514754
-0.13864335 -0.1160461 1.391 4279580034
-0.13743618 -0.1160461 1.391 4279645827
-0.13632692 -0.11612953 1.3920001 4279514497
-0.13531302 -0.11629638 1.3940001 4279580290
-0.13419946 -0.1163798 1.3950001 4279580291
-0.13308413 -0.11646323 1.396 4279580291
-0.13234493 -0.11688036 1.401 4279645825
-0.13131626 -0.11704722 1.4030001 4279645825
-0.13019142 -0.11713064 1.404 4279842949
-0.12961598 -0.11771462 1.411 4280040326
-0.12866442 -0.1179649 1.414 4280304008
-0.12761754 -0.11813176 1.416 4280764039
-0.12710272 -0.11879916 1.424 4281026950
-0.12613207 -0.11904944 1.427 4282276234
-0.12515622 -0.11929972 1.4300001 4282340474
-0.17210799 -0.11625089 1.4080001 4279244591
-0.1707647 -0.11616834 1.4070001 4279112758
-0.17050762 -0.11682885 1.4150001 4279047486
-0.16832258 -0.11616834 1.4070001 4280890467
-0.1671015 -0.11616834 1.4070001 4283851409
-0.16576254 -0.11608578 1.406 4285233832
-0.1647764 -0.11625089 1.4080001 4284970918
-0.16390295 -0.11649859 1.411 4282405764
-0.16290902 -0.11666372 1.4130001 4279511388
-0.16225486 -0.11707655 1.4180001 4278326602
-0.16113782 -0.11715911 1.419 4278326863
-0.16001903 -0.11724167 1.4200001 4279511912
-0.15845121 -0.11699398 1.4170001 4280565119
-0.1568886 -0.11674628 1.414 4280763529
-0.15533121 -0.11649859 1.411 4280369031
-0.15290527 -0.11559039 1.4000001 4280040326
-0.15158194 -0.11550781 1.399 4279909255
-0.1499379 -0.11517756 1.3950001 4279777670
-0.14862062 -0.115095 1.3940001 4279646339
-0.1473051 -0.11501242 1.393 4279580546
-0.1459913 -0.11492986 1.3920001 4279580291
-0.14467925 -0.1148473 1.391 4279580291
-0.14336893 -0.11476473 1.3900001 4279514755
-0.14216262 -0.11476473 1.3900001 4279514755
-0.14105771 -0.1148473 1.391 4279514754
-0.13985053 -0.1148473 1.391 4279448705
-0.13874301 -0.11492986 1.3920001 4279580034
-0.13763379 -0.11501242 1.393 4279645827
-0.13642487 -0.11501242 1.393 4279514498
-0.13550717 -0.11526012 1.396 4279514498
-0.13439184 -0.11534269 1.3970001 4279580291
-0.13327479 -0.11542525 1.3980001 4279580291
-0.13243939 -0.11575551 1.4020001 4279645825
-0.13140987 -0.11592064 1.404 4279711618
-0.13037686 -0.11608578 1.406 4279908998
-0.12970783 -0.11658116 1.4120001 4280040583
-0.12866442 -0.11674628 1.414 4280304008
-0.12761754 -0.11691141 1.416 4280895625
-0.12719198 -0.11765449 1.4250001 4281224329
-0.12613207 -0.11781961 1.427 4281947013
-0.12506868 -0.11798475 1.429 4282340732
-0.17197837 -0.11577277 1.4170001 4283979900
-0.17014612 -0.11536426 1.4120001 4280954202
-0.16856183 -0.11511915 1.409 4280626785
-0.16722026 -0.11503744 1.4080001 4283127947
-0.16599834 -0.11503744 1.4080001 4284641956
-0.16501047 -0.11520085 1.4100001 4284115872
-0.16401911 -0.11536426 1.4120001 4281221496
-0.16302431 -0.11552766 1.414 4278852950
-0.1623693 -0.11593618 1.419 4278392143
-0.16125137 -0.11601788 1.4200001 4278852952
-0.16013171 -0.11609957 1.4210001 4279841132
-0.15845121 -0.11577277 1.4170001 4280499582
-0.1568886 -0.11552766 1.414 4280697735
-0.15533121 -0.11528255 1.411 4280434824
-0.15290527 -0.11438383 1.4000001 4280040582
-0.1514736 -0.11422042 1.3980001 4279843463
-0.1498304 -0.11389361 1.3940001 4279712134
-0.14851402 -0.1138119 1.393 4279711877
-0.14719935 -0.1137302 1.3920001 4279580291
-0.14578155 -0.11356679 1.3900001 4279514498
-0.14457524 -0.11356679 1.3900001 4279580291
-0.14336893 -0.11356679 1.3900001 4279515012
-0.14216262 -0.11356679 1.3900001 4279515012
-0.14105771 -0.1136485 1.391 4279580290
-0.13985053 -0.1136485 1.391 4279514496
-0.13874301 -0.1137302 1.3920001 4279645827
-0.13763379 -0.1138119 1.393 4279645827
-0.1365228 -0.11389361 1.3940001 4279514498
-0.13560423 -0.11413872 1.3970001 4279514498
-0.13448805 -0.11422042 1.3980001 4279514500
-0.13337013 -0.11430212 1.399 4279580292
-0.13253386 -0.11462894 1.4030001 4279711619
-0.13140987 -0.11471064 1.404 4279842949
-0.13037686 -0.11487405 1.406 4279974537
-0.12970783 -0.11536426 1.4120001 4280040585
-0.12866442 -0.11552766 1.414 4280369545
-0.12761754 -0.11569107 1.416 4280895626
-0.12710272 -0.11634468 1.424 4281290122
-0.12613207 -0.11658979 1.427 4282012549
-0.12506868 -0.11675321 1.429 4282538112
-0.17185701 -0.11447073 1.416 4291480550
-0.17038713 -0.11430904 1.414 4284376205
-0.16892073 -0.11414737 1.4120001 4280693349
-0.16757657 -0.11406652 1.411 4282536838
-0.16635203 -0.11406652 1.411 4284116640
-0.16536155 -0.1142282 1.4130001 4283525019
-0.1643676 -0.11438989 1.4150001 4280695922
-0.16348547 -0.11463241 1.4180001 4278787411
-0.16271256 -0.11495578 1.4220001 4279971427
-0.16159204 -0.11503661 1.4230001 4284313763
-0.16046979 -0.11511745 1.424 4285235380
-0.15856303 -0.11463241 1.4180001 4282012816
-0.1568886 -0.11430904 1.414 4280500609
-0.15533121 -0.11406652 1.411 4280369030
-0.1530145 -0.11325811 1.401 4280040582
-0.15158194 -0.11309642 1.399 4279843463
-0.14972292 -0.11261138 1.393 4279712135
-0.14851402 -0.11261138 1.393 4279711878
-0.14719935 -0.11253054 1.3920001 4279514498
-0.14588642 -0.1124497 1.391 4279448705
-0.14467925 -0.1124497 1.391 4279514498
-0.14347206 -0.1124497 1.391 4279515268
-0.14226489 -0.1124497 1.391 4279581061
-0.14115912 -0.11253054 1.3920001 4279580803
-0.13995107 -0.11253054 1.3920001 4279515009
-0.1388427 -0.11261138 1.393 4279646084
-0.13773258 -0.11269222 1.3940001 4279646084
-0.13662075 -0.11277307 1.3950001 4279514498
-0.1357013 -0.11301558 1.3980001 4279514498
-0.13458425 -0.11309642 1.399 4279580293
-0.13346545 -0.11317728 1.4000001 4279580293
-0.13253386 -0.1134198 1.4030001 4279711620
-0.13150346 -0.11358147 1.4050001 4279777413
-0.13046959 -0.11374316 1.4070001 4279908744
-0.12979969 -0.1142282 1.4130001 4279974792
-0.12875541 -0.11438989 1.4150001 4280369289
-0.12770765 -0.11455156 1.4170001 4280698248
-0.12719198 -0.11519829 1.4250001 4281224074
-0.12622046 -0.11544082 1.4280001 4282012551
-0.12524374 -0.11568334 1.4310001 4282669441
-0.16904037 -0.11301044 1.4130001 4281089393
-0.16769533 -0.11293046 1.4120001 4282472333
-0.16646992 -0.11293046 1.4120001 4284183464
-0.16547857 -0.11309042 1.414 4283855014
-0.16448377 -0.11325038 1.416 4281091451
-0.16348547 -0.11341035 1.4180001 4279642718
-0.16294143 -0.11389021 1.424 4283984026
-0.1617056 -0.11389021 1.424 4290760170
-0.16058247 -0.11397019 1.4250001 4291879415
-0.1583394 -0.11325038 1.416 4284380583
-0.15677765 -0.11301044 1.4130001 4280434559
-0.15533121 -0.11285048 1.411 4280302980
-0.15312371 -0.11213067 1.4020001 4280106119
-0.15169029 -0.11197072 1.4000001 4280040585
-0.1498304 -0.11149084 1.3940001 4279843464
-0.14851402 -0.11141086 1.393 4279711879
-0.1473051 -0.11141086 1.393 4279580292
-0.1459913 -0.11133088 1.3920001 4279383426
-0.14478324 -0.11133088 1.3920001 4279449219
-0.14347206 -0.1112509 1.391 4279449732
-0.14236715 -0.11133088 1.3920001 4279515781
-0.14115912 -0.11133088 1.3920001 4279515779
-0.13995107 -0.11133088 1.3920001 4279515523
-0.13894236 -0.11149084 1.3940001 4279580804
-0.1378314 -0.11157082 1.3950001 4279515011
-0.13662075 -0.11157082 1.3950001 4279580291
-0.1357013 -0.11181076 1.3980001 4279580291
-0.13458425 -0.11189074 1.399 4279711879
-0.13346545 -0.11197072 1.4000001 4279646086
-0.13262834 -0.11229063 1.404 4279711620
-0.13159706 -0.11245058 1.406 4279777413
-0.13046959 -0.11253057 1.4070001 4279842952
-0.12989156 -0.11309042 1.414 4279908999
-0.12884641 -0.11325038 1.416 4280172168
-0.12779777 -0.11341035 1.4180001 4280632200
-0.12728123 -0.11405017 1.4260001 4281223818
-0.12630884 -0.1142901 1.429 4282406796
-0.12533125 -0.11453004 1.432 4282800514
-0.16915999 -0.11187179 1.414 4280431723
-0.16781409 -0.11179268 1.4130001 4282012041
-0.16658783 -0.11179268 1.4130001 4283920295
-0.16559561 -0.11195092 1.4150001 4283985831
-0.16459993 -0.11210915 1.4170001 4281418875
-0.16360077 -0.11226739 1.419 4280232541
-0.16305584 -0.1127421 1.4250001 4286810552
-0.16181916 -0.1127421 1.4250001 4292929270
-0.16069515 -0.11282121 1.4260001 4294114815
-0.15822756 -0.11195092 1.4150001 4285761459
-0.1566667 -0.11171357 1.4120001 4280434301
-0.15522113 -0.11155533 1.4100001 4280236930
-0.1530145 -0.11084328 1.401 4280171912
-0.15158194 -0.11068504 1.399 4280172170
-0.1499379 -0.11036857 1.3950001 4279909257
-0.14862062 -0.11028945 1.3940001 4279711879
-0.14741084 -0.11028945 1.3940001 4279646086
-0.1459913 -0.11013122 1.3920001 4279580293
-0.14478324 -0.11013122 1.3920001 4279515013
-0.14357521 -0.11013122 1.3920001 4279515268
-0.14236715 -0.11013122 1.3920001 4279449988
-0.14115912 -0.11013122 1.3920001 4279449986
-0.14005162 -0.11021034 1.393 4279449986
-0.13894236 -0.11028945 1.3940001 4279449475
-0.1378314 -0.11036857 1.3950001 4279383682
-0.13662075 -0.11036857 1.3950001 4279580291
-0.1357013 -0.11060593 1.3980001 4279711877
-0.13458425 -0.11068504 1.399 4279777672
-0.13346545 -0.11076415 1.4000001 4279711879
-0.1327228 -0.11115975 1.4050001 4279711620
-0.13159706 -0.11123886 1.406 4279777413
-0.13056232 -0.1113971 1.4080001 4279908745
-0.12989156 -0.11187179 1.414 4280040584
-0.12884641 -0.11203004 1.416 4280105862
-0.12779777 -0.11218827 1.4180001 4280566151
-0.12737049 -0.11290032 1.427 4281223563
-0.12639724 -0.11313767 1.4300001 4282274955
-0.12541878 -0.11337502 1.4330001 4282800001
-0.16927962 -0.11073144 1.4150001 4279379808
-0.16805162 -0.11073144 1.4150001 4280104560
-0.16670571 -0.11065318 1.414 4281551749
-0.16582966 -0.11088794 1.4170001 4281682049
-0.16483225 -0.11104446 1.419 4280101729
-0.16394664 -0.11127923 1.4220001 4279770446
-0.16328469 -0.1116705 1.427 4287072435
-0.16215983 -0.11174875 1.4280001 4293388790
-0.16092055 -0.11174875 1.4280001 4294180351
-0.15923397 -0.11143573 1.424 4286090168
-0.15755433 -0.11112271 1.4200001 4280697473
-0.15588164 -0.11080969 1.416 4280237187
-0.15345137 -0.10994888 1.4050001 4280172168
-0.15179865 -0.10963586 1.401 4280040842
-0.15004537 -0.10924459 1.396 4279843465
-0.14883386 -0.10924459 1.396 4279777672
-0.14751659 -0.10916632 1.3950001 4279777672
-0.14620106 -0.10908807 1.3940001 4279711879
-0.14499128 -0.10908807 1.3940001 4279646343
-0.1437815 -0.10908807 1.3940001 4279581061
-0.14246944 -0.10900982 1.393 4279515268
-0.14136194 -0.10908807 1.3940001 4279515266
-0.14015214 -0.10908807 1.3940001 4279449729
-0.13904205 -0.10916632 1.3950001 4279449476
-0.1378314 -0.10916632 1.3950001 4279383682
-0.13671868 -0.10924459 1.396 4279646084
-0.1357013 -0.10940109 1.3980001 4279712131
-0.13458425 -0.10947935 1.399 4279777670
-0.13346545 -0.1095576 1.4000001 4279711877
-0.1327228 -0.10994888 1.4050001 4279711620
-0.13169067 -0.1101054 1.4070001 4279777413
-0.13056232 -0.11018364 1.4080001 4279908747
-0.12998341 -0.11073144 1.4150001 4280040330
-0.12893739 -0.11088794 1.4170001 4280302984
-0.12797803 -0.11112271 1.4200001 4280697737
-0.12745975 -0.11174875 1.4280001 4281157513
-0.12657401 -0.11206178 1.432 4282011527
-0.12559381 -0.11229654 1.4350001 4283260552
-0.17258522 -0.11005371 1.4220001 4293324543
-0.17111014 -0.10989892 1.4200001 4284641689
-0.16915999 -0.10943455 1.414 4278984795
-0.16793285 -0.10943455 1.414 4278853471
-0.16658783 -0.10935716 1.4130001 4279708522
-0.16582966 -0.10966673 1.4170001 4279773028
-0.16483225 -0.10982153 1.419 4278981709
-0.16383134 -0.10997631 1.4210001 4279440452
-0.16328469 -0.11044068 1.427 4287137712
-0.16215983 -0.11051808 1.4280001 4293454326
-0.16092055 -0.11051808 1.4280001 4294048255
-0.15912214 -0.1101311 1.4230001 4286879428
-0.15755433 -0.10989892 1.4200001 4280960388
-0.15588164 -0.10958935 1.416 4280368772
-0.15323293 -0.10858323 1.4030001 4280172167
-0.15179865 -0.10842844 1.401 4279909256
-0.15004537 -0.10804147 1.396 4279909257
-0.14883386 -0.10804147 1.396 4279777672
-0.14751659 -0.10796408 1.3950001 4279777672
-0.14620106 -0.10788669 1.3940001 4279777671
-0.14499128 -0.10788669 1.3940001 4279711878
-0.1437815 -0.10788669 1.3940001 4279580804
-0.14257172 -0.10788669 1.3940001 4279515268
-0.14136194 -0.10788669 1.3940001 4279515268
-0.14015214 -0.10788669 1.3940001 4279449475
-0.13904205 -0.10796408 1.3950001 4279514755
-0.1378314 -0.10796408 1.3950001 4279514498
-0.13671868 -0.10804147 1.396 4279449218
-0.1357013 -0.10819626 1.3980001 4279581061
-0.13458425 -0.10827366 1.399 4279646855
-0.13346545 -0.10835104 1.4000001 4279581317
-0.1327228 -0.10873802 1.4050001 4279777670
-0.13159706 -0.10881541 1.406 4279777925
-0.13056232 -0.1089702 1.4080001 4280039817
-0.12998341 -0.10951195 1.4150001 4280171402
-0.12893739 -0.10966673 1.4170001 4280368780
-0.1278879 -0.10982153 1.419 4280829069
-0.12754899 -0.11059546 1.429 4281420173
-0.12657401 -0.11082764 1.432 4281550721
-0.12559381 -0.11105982 1.4350001 4283720076
-0.17270657 -0.10890472 1.4230001 4293390591
-0.17111014 -0.10867513 1.4200001 4284838811
-0.16904037 -0.10813941 1.4130001 4279050076
-0.16781409 -0.10813941 1.4130001 4279181925
-0.16658783 -0.10813941 1.4130001 4279773548
-0.16571264 -0.108369 1.416 4279969127
-0.16483225 -0.1085986 1.419 4279112013
-0.16383134 -0.10875166 1.4210001 4279308352
-0.16328469 -0.10921085 1.427 4287664053
-0.16204627 -0.10921085 1.427 4293454326
-0.16092055 -0.10928739 1.4280001 4294048255
-0.15912214 -0.10890472 1.4230001 4287800014
-0.15744337 -0.1085986 1.419 4281156996
-0.15577155 -0.10829247 1.4150001 4279842427
-0.15312371 -0.10729756 1.4020001 4280106373
-0.15179865 -0.10722102 1.401 4279975048
-0.15004537 -0.10683837 1.396 4279909256
-0.14883386 -0.10683837 1.396 4279974538
-0.14751659 -0.10676184 1.3950001 4279711621
-0.14620106 -0.1066853 1.3940001 4279711621
-0.14499128 -0.1066853 1.3940001 4279712132
-0.1437815 -0.1066853 1.3940001 4279581061
-0.14257172 -0.1066853 1.3940001 4279515268
-0.14136194 -0.1066853 1.3940001 4279449988
-0.14015214 -0.1066853 1.3940001 4279449988
-0.13904205 -0.10676184 1.3950001 4279580291
-0.1378314 -0.10676184 1.3950001 4279448705
-0.13671868 -0.10683837 1.396 4279449473
-0.1357013 -0.10699143 1.3980001 4279646852
-0.13458425 -0.10706796 1.399 4279647113
-0.13346545 -0.10714449 1.4000001 4279449734
-0.13262834 -0.10745062 1.404 4279711877
-0.13159706 -0.10760368 1.406 4279909255
-0.13056232 -0.10775674 1.4080001 4280171401
-0.12998341 -0.10829247 1.4150001 4280105607
-0.12893739 -0.10844553 1.4170001 4280106376
-0.12797803 -0.10867513 1.4200001 4280697996
-0.12754899 -0.10936391 1.429 4281157515
-0.12657401 -0.10959351 1.432 4281024634
-0.12559381 -0.10982311 1.4350001 4282733183
-0.17294931 -0.10782969 1.4250001 4293653503
-0.17014612 -0.10684597 1.4120001 4285035933
-0.1688011 -0.10677031 1.411 4279313504
-0.16757657 -0.10677031 1.411 4279510889
-0.16635203 -0.10677031 1.411 4279839598
-0.16559561 -0.10707299 1.4150001 4280166761
-0.16471608 -0.1073 1.4180001 4279309904
-0.16371606 -0.10745133 1.4200001 4279374401
-0.16317026 -0.10790536 1.4260001 4287861431
-0.16204627 -0.10798103 1.427 4293651960
-0.16092055 -0.1080567 1.4280001 4294114303
-0.15923397 -0.10775401 1.424 4288326099
-0.15733242 -0.1073 1.4180001 4281419907
-0.15566146 -0.10699731 1.414 4279644791
-0.15323293 -0.10616495 1.4030001 4280172166
-0.15179865 -0.10601361 1.401 4280040840
-0.15015285 -0.10571092 1.3970001 4279974790
-0.14883386 -0.10563526 1.396 4279974538
-0.14762233 -0.10563526 1.396 4279777414
-0.14630595 -0.10555959 1.3950001 4279645827
-0.14509529 -0.10555959 1.3950001 4279646338
-0.14388464 -0.10555959 1.3950001 4279515268
-0.142674 -0.10555959 1.3950001 4279449475
-0.14146334 -0.10555959 1.3950001 4279384195
-0.14025269 -0.10555959 1.3950001 4279449988
-0.13904205 -0.10555959 1.3950001 4279515268
-0.1379302 -0.10563526 1.396 4279449219
-0.13681661 -0.10571092 1.3970001 4279515266
-0.1357013 -0.1057866 1.3980001 4279712645
-0.13458425 -0.10586227 1.399 4279647113
-0.13346545 -0.10593794 1.4000001 4279383941
-0.13262834 -0.10624062 1.404 4279646084
-0.13159706 -0.10639196 1.406 4279843463
-0.13056232 -0.1065433 1.4080001 4279974790
-0.12998341 -0.10707299 1.4150001 4279974790
-0.12902838 -0.1073 1.4180001 4280106118
-0.12797803 -0.10745133 1.4200001 4280500360
-0.12754899 -0.10813236 1.429 4280960138
-0.1266624 -0.10843505 1.4330001 4280892794
-0.12568134 -0.10866205 1.4360001 4281812599
-0.17197837 -0.10600312 1.4170001 4293719295
-0.17026664 -0.10570389 1.4130001 4285232798
-0.16868147 -0.10547946 1.4100001 4279444063
-0.1674578 -0.10547946 1.4100001 4279444838
-0.16623414 -0.10547946 1.4100001 4279839597
-0.16559561 -0.10585351 1.4150001 4280101224
-0.16459993 -0.10600312 1.4170001 4279310160
-0.16371606 -0.10622754 1.4200001 4279440193
-0.16328469 -0.1067512 1.427 4288058809
-0.16204627 -0.1067512 1.427 4293783545
-0.16092055 -0.10682601 1.4280001 4294180095
-0.15901032 -0.10637716 1.4220001 4288786647
-0.15744337 -0.10615274 1.419 4281222525
-0.15577155 -0.10585351 1.4150001 4279512946
-0.15323293 -0.10495581 1.4030001 4280303238
-0.15190698 -0.104881 1.4020001 4280172169
-0.15015285 -0.10450695 1.3970001 4280106376
-0.14894046 -0.10450695 1.3970001 4279974536
-0.14762233 -0.10443215 1.396 4279777413
-0.14630595 -0.10435734 1.3950001 4279646338
-0.14509529 -0.10435734 1.3950001 4279580545
-0.14388464 -0.10435734 1.3950001 4279449475
-0.142674 -0.10435734 1.3950001 4279515268
-0.14146334 -0.10435734 1.3950001 4279515781
-0.14025269 -0.10435734 1.3950001 4279449988
-0.13914171 -0.10443215 1.396 4279515268
-0.13802899 -0.10450695 1.3970001 4279581061
-0.13681661 -0.10450695 1.3970001 4279581059
-0.13579836 -0.10465658 1.399 4279712645
-0.13468044 -0.10473138 1.4000001 4279646856
-0.13346545 -0.10473138 1.4000001 4279515270
-0.1327228 -0.10510542 1.4050001 4279580293
-0.13159706 -0.10518023 1.406 4279711876
-0.13056232 -0.10532984 1.4080001 4279908997
-0.13007528 -0.10592832 1.416 4280106374
-0.12902838 -0.10607793 1.4180001 4280172422
-0.12797803 -0.10622754 1.4200001 4280237956
-0.12763827 -0.10697563 1.4300001 4280763272
-0.1266624 -0.10720005 1.4330001 4280630136
-0.12568134 -0.10742448 1.4360001 4282009979
-0.17197837 -0.10478191 1.4170001 4293455871
-0.17026664 -0.10448613 1.4130001 4284640150
-0.16868147 -0.10426429 1.4100001 4279311963
-0.1674578 -0.10426429 1.4100001 4279510375
-0.16623414 -0.10426429 1.4100001 4279905390
-0.16559561 -0.10463402 1.4150001 4280167017
-0.16459993 -0.10478191 1.4170001 4279310160
-0.16371606 -0.10500375 1.4200001 4279374655
-0.16328469 -0.10552138 1.427 4288848323
-0.16215983 -0.10559533 1.4280001 4293783802
-0.16080785 -0.10552138 1.427 4294245887
-0.15901032 -0.10515165 1.4220001 4289379038
-0.15744337 -0.10492981 1.419 4281222779
-0.15577155 -0.10463402 1.4150001 4279578737
-0.15323293 -0.10374667 1.4030001 4280237188
-0.15190698 -0.10367272 1.4020001 4280172169
-0.15026034 -0.10337693 1.3980001 4280172169
-0.14894046 -0.10330299 1.3970001 4280106378
-0.14772809 -0.10330299 1.3970001 4279974792
-0.14641082 -0.10322905 1.396 4279711877
-0.1451993 -0.10322905 1.396 4279580291
-0.14398779 -0.10322905 1.396 4279449476
-0.14277627 -0.10322905 1.396 4279646855
-0.14156476 -0.10322905 1.396 4279647367
-0.14035323 -0.10322905 1.396 4279581574
-0.13924138 -0.10330299 1.3970001 4279581061
-0.13802899 -0.10330299 1.3970001 4279581061
-0.13681661 -0.10330299 1.3970001 4279712645
-0.13579836 -0.10345088 1.399 4279646852
-0.13468044 -0.10352483 1.4000001 4279646856
-0.13356079 -0.10359877 1.401 4279581063
-0.1327228 -0.10389456 1.4050001 4279646086
-0.13169067 -0.10404246 1.4070001 4279646084
-0.13065505 -0.10419034 1.409 4279908995
-0.13007528 -0.10470797 1.416 4280172422
-0.12902838 -0.10485586 1.4180001 4280106886
-0.12806815 -0.1050777 1.4210001 4280567178
-0.12763827 -0.10574321 1.4300001 4280895115
-0.1266624 -0.10596506 1.4330001 4280761980
-0.12568134 -0.1061869 1.4360001 4281681270
-0.17209974 -0.10363379 1.4180001 4293191935
-0.16942313 -0.10275678 1.406 4283652745
-0.16820294 -0.10275678 1.406 4279179606
-0.16686398 -0.10268369 1.4050001 4279641447
-0.16576254 -0.10275678 1.406 4279904876
-0.16536155 -0.10326837 1.4130001 4280101224
-0.16448377 -0.10348763 1.416 4279310416
-0.16360077 -0.10370688 1.419 4279505983
-0.16305584 -0.10414539 1.4250001 4289374409
-0.16193271 -0.10421847 1.4260001 4293981180
-0.16092055 -0.10436464 1.4280001 4294180351
-0.15912214 -0.10399921 1.4230001 4289971175
-0.15744337 -0.10370688 1.419 4281419901
-0.15577155 -0.10341454 1.4150001 4279512944
-0.15334216 -0.10261061 1.404 4280369031
-0.15190698 -0.10246444 1.4020001 4280237706
-0.15036781 -0.10224519 1.399 4280040584
-0.14904709 -0.1021721 1.3980001 4280040585
-0.14772809 -0.10209902 1.3970001 4280040585
-0.1465157 -0.10209902 1.3970001 4279777670
-0.1451993 -0.10202593 1.396 4279711877
-0.14398779 -0.10202593 1.396 4279515270
-0.14287853 -0.10209902 1.3970001 4279515270
-0.14166616 -0.10209902 1.3970001 4279515781
-0.14045377 -0.10209902 1.3970001 4279581574
-0.13934106 -0.1021721 1.3980001 4279581061
-0.1381278 -0.1021721 1.3980001 4279515268
-0.13691455 -0.1021721 1.3980001 4279646854
-0.13589543 -0.10231827 1.4000001 4279646854
-0.13477665 -0.10239135 1.401 4279581061
-0.13365611 -0.10246444 1.4020001 4279581061
-0.13281725 -0.10275678 1.406 4279777159
-0.13169067 -0.10282987 1.4070001 4279843206
-0.13065505 -0.10297603 1.409 4279908995
-0.13007528 -0.10348763 1.416 4280041093
-0.12902838 -0.10363379 1.4180001 4280304265
-0.12806815 -0.10385305 1.4210001 4280435849
-0.12763827 -0.10451081 1.4300001 4280829322
-0.1266624 -0.10473006 1.4330001 4280696444
-0.12568134 -0.10494932 1.4360001 4281417587
-0.17210799 -0.1016895 1.4080001 4293785085
-0.1707647 -0.10161728 1.4070001 4292797437
-0.16918214 -0.10140061 1.404 4283389318
-0.16784404 -0.10132838 1.4030001 4278981971
-0.16674522 -0.10140061 1.404 4279706726
-0.16552676 -0.10140061 1.404 4279839082
-0.16547857 -0.10212283 1.414 4279970151
-0.16459993 -0.1023395 1.4170001 4279048013
-0.16360077 -0.10248395 1.419 4279703617
-0.16305584 -0.10291728 1.4250001 4289966801
-0.16193271 -0.1029895 1.4260001 4294178558
-0.16080785 -0.10306173 1.427 4294180351
-0.15901032 -0.10270061 1.4220001 4290234346
-0.15744337 -0.10248395 1.419 4281683327
-0.15577155 -0.10219505 1.4150001 4279513201
-0.15323293 -0.10132838 1.4030001 4280237704
-0.15190698 -0.10125616 1.4020001 4280172170
-0.15026034 -0.10096727 1.3980001 4280106123
-0.14894046 -0.10089505 1.3970001 4279974792
-0.14772809 -0.10089505 1.3970001 4279908999
-0.14641082 -0.10082283 1.396 4279777670
-0.1451993 -0.10082283 1.396 4279711877
-0.14398779 -0.10082283 1.396 4279515270
-0.14277627 -0.10082283 1.396 4279515270
-0.14166616 -0.10089505 1.3970001 4279449988
-0.14045377 -0.10089505 1.3970001 4279449988
-0.13934106 -0.10096727 1.3980001 4279515270
-0.1381278 -0.10096727 1.3980001 4279515270
-0.13701248 -0.1010395 1.399 4279646856
-0.13599251 -0.10118394 1.401 4279646854
-0.13477665 -0.10118394 1.401 4279515268
-0.13365611 -0.10125616 1.4020001 4279515267
-0.13281725 -0.10154505 1.406 4279777159
-0.13169067 -0.10161728 1.4070001 4279843206
-0.13065505 -0.10176172 1.409 4279843202
-0.13007528 -0.10226728 1.416 4279909507
-0.12902838 -0.10241172 1.4180001 4280106886
-0.12797803 -0.10255617 1.4200001 4280238215
-0.12763827 -0.1032784 1.4300001 4280631943
-0.1266624 -0.10349506 1.4330001 4280761981
-0.12568134 -0.10371173 1.4360001 4281154418
-0.17198576 -0.10040469 1.4070001 4293916670
-0.17052196 -0.10026197 1.4050001 4292402681
-0.16918214 -0.1001906 1.404 4283126147
-0.1677244 -0.10004789 1.4020001 4278850642
-0.16650768 -0.10004789 1.4020001 4279575397
-0.16529095 -0.10004789 1.4020001 4279773546
-0.16559561 -0.10097557 1.4150001 4279839078
-0.16471608 -0.10118966 1.4180001 4278850889
-0.16360077 -0.10126102 1.419 4279967558
-0.16294143 -0.10161782 1.424 4290888412
-0.16181916 -0.10168918 1.4250001 4294310399
-0.16069515 -0.10176054 1.4260001 4294115071
-0.15901032 -0.1014751 1.4220001 4290431981
-0.15733242 -0.10118966 1.4180001 4281815426
-0.15577155 -0.10097557 1.4150001 4279447664
-0.15323293 -0.10011924 1.4030001 4280106375
-0.15179865 -0.099976525 1.401 4280106377
-0.15015285 -0.099691078 1.3970001 4280040331
-0.14894046 -0.099691078 1.3970001 4280040585
-0.14772809 -0.099691078 1.3970001 4279974792
-0.14641082 -0.099619716 1.396 4279711879
-0.1451993 -0.099619716 1.396 4279646086
-0.14398779 -0.099619716 1.396 4279515016
-0.14277627 -0.099619716 1.396 4279646856
-0.14156476 -0.099619716 1.396 4279515527
-0.14045377 -0.099691078 1.3970001 4279449988
-0.13934106 -0.09976244 1.3980001 4279580293
-0.1381278 -0.09976244 1.3980001 4279711879
-0.13701248 -0.099833801 1.399 4279712395
-0.13599251 -0.099976525 1.401 4279646856
-0.13477665 -0.099976525 1.401 4279515268
-0.13365611 -0.10004789 1.4020001 4279515266
-0.13281725 -0.10033333 1.406 4279777413
-0.13169067 -0.10040469 1.4070001 4279711618
-0.13056232 -0.10047604 1.4080001 4279777667
-0.12998341 -0.10097557 1.4150001 4279909508
-0.12902838 -0.10118966 1.4180001 4279975301
-0.1278879 -0.10126102 1.419 4280238215
-0.12763827 -0.10204598 1.4300001 4280697736
-0.1266624 -0.10226007 1.4330001 4281090946
-0.12568134 -0.10247415 1.4360001 4281154417
-0.17198576 -0.099192098 1.4070001 4293720063
-0.17052196 -0.099051103 1.4050001 4291548400
-0.16882063 -0.098769106 1.401 4282271609
-0.16724588 -0.098557606 1.3980001 4278850641
-0.16603263 -0.098557606 1.3980001 4279510118
-0.16481937 -0.098557606 1.3980001 4279839851
-0.16442531 -0.099051103 1.4050001 4279970148
-0.16367063 -0.099333093 1.409 4279047496
-0.16302431 -0.099685587 1.414 4280822864
-0.16271256 -0.10024959 1.4220001 4291415519
-0.1617056 -0.10039058 1.424 4294310911
-0.16069515 -0.10053158 1.4260001 4293984255
-0.15912214 -0.10032008 1.4230001 4290564850
-0.15744337 -0.10003809 1.419 4281487230
-0.15577155 -0.099756092 1.4150001 4279316847
-0.15334216 -0.098980606 1.404 4280106629
-0.15190698 -0.098839603 1.4020001 4280106376
-0.15026034 -0.098557606 1.3980001 4280106378
-0.14894046 -0.098487109 1.3970001 4280106123
-0.14772809 -0.098487109 1.3970001 4279908745
-0.14641082 -0.098416612 1.396 4279777670
-0.1451993 -0.098416612 1.396 4279711877
-0.14398779 -0.098416612 1.396 4279646088
-0.14277627 -0.098416612 1.396 4279646088
-0.14156476 -0.098416612 1.396 4279646856
-0.14045377 -0.098487109 1.3970001 4279646855
-0.13934106 -0.098557606 1.3980001 4279449477
-0.13822661 -0.098628111 1.399 4279515527
-0.13711041 -0.098698601 1.4000001 4279647115
-0.13608956 -0.098839603 1.4020001 4279516042
-0.13496904 -0.098910101 1.4030001 4279646856
-0.13375145 -0.098910101 1.4030001 4279712647
-0.13281725 -0.0991216 1.406 4279646854
-0.13169067 -0.099192098 1.4070001 4279581059
-0.13056232 -0.099262595 1.4080001 4279581059
-0.12989156 -0.099685587 1.414 4279712645
-0.12893739 -0.099897087 1.4170001 4279909507
-0.1278879 -0.10003809 1.419 4280172422
-0.12745975 -0.10067258 1.4280001 4280697738
-0.12657401 -0.10095457 1.432 4281091204
-0.12568134 -0.10123657 1.4360001 4281089397
-0.17198576 -0.097979508 1.4070001 4293917695
-0.1704006 -0.097770602 1.404 4290759139
-0.16894113 -0.097631328 1.4020001 4281876594
-0.16724588 -0.097352773 1.3980001 4278784592
-0.16603263 -0.097352773 1.3980001 4279575398
-0.16481937 -0.097352773 1.3980001 4279839337
-0.16454235 -0.097909875 1.406 4280035427
-0.16367063 -0.098118782 1.409 4278981446
-0.16290902 -0.098397337 1.4130001 4281677657
-0.16282699 -0.099093705 1.4230001 4291941857
-0.16181916 -0.099232979 1.4250001 4294376959
-0.16069515 -0.099302612 1.4260001 4293918719
-0.15912214 -0.099093705 1.4230001 4290696949
-0.15744337 -0.098815158 1.419 4281553279
-0.15588164 -0.098606244 1.416 4279514224
-0.15345137 -0.097840242 1.4050001 4280238214
-0.15201533 -0.097700961 1.4030001 4280106375
-0.15036781 -0.097422414 1.399 4279974792
-0.14904709 -0.097352773 1.3980001 4280040585
-0.14772809 -0.09728314 1.3970001 4279843207
-0.14641082 -0.097213507 1.396 4279711877
-0.1451993 -0.097213507 1.396 4279646084
-0.14398779 -0.097213507 1.396 4279646086
-0.14277627 -0.097213507 1.396 4279646086
-0.14166616 -0.09728314 1.3970001 4279581063
-0.14045377 -0.09728314 1.3970001 4279515270
-0.13944073 -0.097422414 1.399 4279449477
-0.13832541 -0.097492047 1.4000001 4279581063
-0.13701248 -0.097422414 1.399 4279647367
-0.13608956 -0.097631328 1.4020001 4279581574
-0.13487284 -0.097631328 1.4020001 4279646854
-0.13375145 -0.097700961 1.4030001 4279646854
-0.13291173 -0.097979508 1.4070001 4279712131
-0.13178425 -0.098049141 1.4080001 4279646338
-0.13065505 -0.098118782 1.409 4279712129
-0.12998341 -0.098536611 1.4150001 4279777922
-0.12893739 -0.098675877 1.4170001 4279975300
-0.1278879 -0.098815158 1.419 4280172165
-0.12754899 -0.099511527 1.429 4280566151
-0.1266624 -0.099790081 1.4330001 4281288326
-0.12576887 -0.10006862 1.437 4281352055
-0.17198576 -0.096766926 1.4070001 4293720575
-0.1704006 -0.096560597 1.404 4289575637
-0.16894113 -0.096423045 1.4020001 4281416300
-0.16712624 -0.096079163 1.3970001 4278784593
-0.16603263 -0.096147947 1.3980001 4279509604
-0.16481937 -0.096147947 1.3980001 4279838568
-0.16442531 -0.096629374 1.4050001 4280034659
-0.16367063 -0.096904472 1.409 4279178310
-0.16290902 -0.097179577 1.4130001 4282203489
-0.16282699 -0.097867325 1.4230001 4292467688
-0.16181916 -0.098004885 1.4250001 4294377215
-0.16092055 -0.098211206 1.4280001 4293918719
-0.15923397 -0.097936101 1.424 4290696691
-0.15755433 -0.097660996 1.4200001 4281355899
-0.15599172 -0.097454675 1.4170001 4279448429
-0.15345137 -0.096629374 1.4050001 4280369798
-0.15212369 -0.096560597 1.404 4280040582
-0.15036781 -0.096216723 1.399 4280040583
-0.14915369 -0.096216723 1.399 4279974792
-0.14783384 -0.096147947 1.3980001 4279843206
-0.1465157 -0.096079163 1.3970001 4279646338
-0.14530331 -0.096079163 1.3970001 4279646338
-0.14398779 -0.096010394 1.396 4279580293
-0.14287853 -0.096079163 1.3970001 4279646086
-0.14166616 -0.096079163 1.3970001 4279515270
-0.14055431 -0.096147947 1.3980001 4279449477
-0.13934106 -0.096147947 1.3980001 4279515270
-0.13822661 -0.096216723 1.399 4279646856
-0.13711041 -0.096285492 1.4000001 4279646856
-0.13608956 -0.096423045 1.4020001 4279581063
-0.13496904 -0.096491821 1.4030001 4279515270
-0.13384679 -0.096560597 1.404 4279515270
-0.13291173 -0.096766926 1.4070001 4279646086
-0.13178425 -0.096835695 1.4080001 4279580293
-0.13074778 -0.096973248 1.4100001 4279645575
-0.12998341 -0.097317122 1.4150001 4279777159
-0.12893739 -0.097454675 1.4170001 4279843464
-0.12797803 -0.097660996 1.4200001 4280237961
-0.12763827 -0.098348759 1.4300001 4280697479
-0.12683918 -0.098692633 1.4350001 4281156482
-0.12594391 -0.098967738 1.439 4281220469
-0.17198576 -0.095554337 1.4070001 4293523967
-0.1704006 -0.095350593 1.404 4288588999
-0.16882063 -0.09514685 1.401 4280561762
-0.16712624 -0.094875194 1.3970001 4278587985
-0.16591386 -0.094875194 1.3970001 4279509605
-0.16470148 -0.094875194 1.3970001 4279772775
-0.16430829 -0.095350593 1.404 4279903331
-0.16367063 -0.095690161 1.409 4279112263
-0.16290902 -0.095961817 1.4130001 4282861419
-0.16294143 -0.096708864 1.424 4292533481
-0.16181916 -0.096776783 1.4250001 4294376447
-0.16080785 -0.096912608 1.427 4294049791
-0.15934579 -0.096776783 1.4250001 4290959606
-0.15777624 -0.09657304 1.4220001 4281092214
