# .PCD v0.7 - Point Cloud Data file format
VERSION 0.7
FIELDS x y z rgba
SIZE 4 4 4 4
TYPE F F F U
COUNT 1 1 1 1
WIDTH 1080
HEIGHT 1
VIEWPOINT 0 0 0 1 0 0 0
POINTS 1080
DATA ascii
-0.14277627 -0.0370581 1.396 4279118441
-0.14146334 -0.037031554 1.3950001 4279118180
-0.14015214 -0.037005007 1.3940001 4279183714
-0.13894236 -0.037005007 1.3940001 4279314786
-0.13763379 -0.036978461 1.393 4279446114
-0.13632692 -0.036951914 1.3920001 4279446369
-0.13492475 -0.036898825 1.3900001 4279380573
-0.13371845 -0.036898825 1.3900001 4279380570
-0.13241678 -0.036872279 1.3890001 4279446360
-0.13121136 -0.036872279 1.3890001 4279512152
-0.13000591 -0.036872279 1.3890001 4279512411
-0.12880047 -0.036872279 1.3890001 4279577951
-0.12759502 -0.036872279 1.3890001 4279577952
-0.12638958 -0.036872279 1.3890001 4279577953
-0.12527427 -0.036898825 1.3900001 4279512417
-0.12415721 -0.036925372 1.391 4279578211
-0.12295003 -0.036925372 1.391 4279578471
-0.1219179 -0.036978461 1.393 4279578731
-0.12079564 -0.037005007 1.3940001 4279644529
-0.11958586 -0.037005007 1.3940001 4279775864
-0.11863083 -0.037084647 1.3970001 4279842170
-0.11758655 -0.037137736 1.399 4279842683
-0.11645561 -0.037164286 1.4000001 4279908223
-0.11556989 -0.037270468 1.404 4279973763
-0.11443287 -0.037297014 1.4050001 4280039558
-0.1133747 -0.037350107 1.4070001 4280105607
-0.1125522 -0.037482832 1.4120001 4280171397
-0.11156332 -0.037562471 1.4150001 4280302978
-0.11049126 -0.037615564 1.4170001 4281223562
-0.10987838 -0.037827931 1.4250001 4282933403
-0.10887042 -0.037907567 1.4280001 4284182179
-0.10793261 -0.038013753 1.432 4284444316
-0.15856303 -0.03642004 1.4180001 4282078088
-0.15699956 -0.03634299 1.4150001 4280828803
-0.15489087 -0.036137518 1.4070001 4280303239
-0.15345137 -0.03608615 1.4050001 4279842949
-0.15212369 -0.036060464 1.404 4279776645
-0.15058279 -0.035983413 1.401 4279710852
-0.14926031 -0.035957728 1.4000001 4279644800
-0.14804532 -0.035957728 1.4000001 4279513468
-0.14662059 -0.03590636 1.3980001 4279448187
-0.14540733 -0.03590636 1.3980001 4279513722
-0.14419408 -0.03590636 1.3980001 4279513209
-0.14287853 -0.035880677 1.3970001 4279447413
-0.14156476 -0.035854992 1.396 4279316080
-0.14015214 -0.035803623 1.3940001 4279315565
-0.1388427 -0.035777938 1.393 4279380843
-0.13753498 -0.035752255 1.3920001 4279446377
-0.13613106 -0.035700887 1.3900001 4279446375
-0.13482767 -0.035675202 1.3890001 4279380836
-0.13362223 -0.035675202 1.3890001 4279380832
-0.13232146 -0.035649519 1.388 4279446878
-0.1311169 -0.035649519 1.388 4279578207
-0.12981872 -0.035623837 1.3870001 4279709539
-0.12870774 -0.035649519 1.388 4279775079
-0.12750317 -0.035649519 1.388 4279775337
-0.12629859 -0.035649519 1.388 4279841386
-0.12518413 -0.035675202 1.3890001 4279841388
-0.12406796 -0.035700887 1.3900001 4279841647
-0.12286165 -0.035700887 1.3900001 4279776113
-0.12183037 -0.035752255 1.3920001 4279776117
-0.12070899 -0.035777938 1.393 4279776123
-0.11958586 -0.035803623 1.3940001 4279776128
-0.11863083 -0.035880677 1.3970001 4279776386
-0.1175025 -0.03590636 1.3980001 4279710849
-0.11637243 -0.035932042 1.399 4279710850
-0.11548756 -0.036034778 1.4030001 4279842180
-0.11435143 -0.036060464 1.404 4279842693
-0.11329412 -0.036111832 1.406 4279908740
-0.1125522 -0.036265936 1.4120001 4279974274
-0.11148448 -0.036317304 1.414 4280302721
-0.11041329 -0.036368672 1.416 4281683343
-0.10995549 -0.036625512 1.4260001 4283459233
-0.10894665 -0.036702566 1.429 4284379558
-0.10793261 -0.036779616 1.432 4284510621
-0.15878667 -0.03524762 1.4200001 4281223036
-0.15722147 -0.035173152 1.4170001 4280763265
-0.15489087 -0.034924928 1.4070001 4280171907
-0.15356058 -0.034900106 1.406 4279777155
-0.15212369 -0.034850463 1.404 4279776644
-0.15058279 -0.034775995 1.401 4279645058
-0.14926031 -0.034751173 1.4000001 4279579519
-0.14804532 -0.034751173 1.4000001 4279448445
-0.14672546 -0.034726348 1.399 4279316859
-0.14540733 -0.03470153 1.3980001 4279382396
-0.14419408 -0.03470153 1.3980001 4279513213
-0.14287853 -0.034676708 1.3970001 4279513213
-0.14156476 -0.034651883 1.396 4279513467
-0.14005162 -0.034577414 1.393 4279512952
-0.13874301 -0.034552593 1.3920001 4279512437
-0.13753498 -0.034552593 1.3920001 4279512690
-0.13603312 -0.034478128 1.3890001 4279578480
-0.13482767 -0.034478128 1.3890001 4279644014
-0.13352604 -0.034453306 1.388 4279710060
-0.13222614 -0.034428485 1.3870001 4279841386
-0.13102242 -0.034428485 1.3870001 4279907178
-0.12981872 -0.034428485 1.3870001 4280038508
-0.12861502 -0.034428485 1.3870001 4280038766
-0.12750317 -0.034453306 1.388 4279973230
-0.12629859 -0.034453306 1.388 4279907695
-0.12518413 -0.034478128 1.3890001 4279907697
-0.12406796 -0.03450295 1.3900001 4279907699
-0.12286165 -0.03450295 1.3900001 4279776373
-0.12183037 -0.034552593 1.3920001 4279710583
-0.12070899 -0.034577414 1.393 4279644795
-0.11958586 -0.03460224 1.3940001 4279644798
-0.11863083 -0.034676708 1.3970001 4279645056
-0.1175025 -0.03470153 1.3980001 4279579775
-0.11637243 -0.034726348 1.399 4279580029
-0.11548756 -0.034825638 1.4030001 4279711614
-0.11435143 -0.034850463 1.404 4279843199
-0.11329412 -0.034900106 1.406 4279908990
-0.1125522 -0.03504904 1.4120001 4279974013
-0.11148448 -0.035098683 1.414 4280499840
-0.11041329 -0.035148326 1.416 4282144146
-0.10995549 -0.03539655 1.4260001 4283722659
-0.10894665 -0.035471018 1.429 4284445608
-0.10793261 -0.035545483 1.432 4284708261
-0.15901032 -0.034071747 1.4220001 4280894584
-0.15733242 -0.033975907 1.4180001 4280763777
-0.15500095 -0.0337363 1.4080001 4280171906
-0.15356058 -0.033688378 1.406 4279842947
-0.15212369 -0.033640459 1.404 4279842436
-0.15058279 -0.03356858 1.401 4279645313
-0.14936693 -0.03356858 1.401 4279513983
-0.14804532 -0.033544619 1.4000001 4279382653
-0.14672546 -0.033520658 1.399 4279251324
-0.14551133 -0.033520658 1.399 4279316863
-0.14419408 -0.033496697 1.3980001 4279447938
-0.14287853 -0.033472735 1.3970001 4279447683
-0.14146334 -0.033424813 1.3950001 4279447425
-0.14005162 -0.033376891 1.393 4279447167
-0.13874301 -0.033352934 1.3920001 4279512701
-0.13743618 -0.033328973 1.391 4279578745
-0.13603312 -0.033281051 1.3890001 4279644534
-0.13473061 -0.033257093 1.388 4279710325
-0.13352604 -0.033257093 1.388 4279841908
-0.13222614 -0.033233132 1.3870001 4279907698
-0.13102242 -0.033233132 1.3870001 4279973232
-0.12981872 -0.033233132 1.3870001 4280039025
-0.12861502 -0.033233132 1.3870001 4280104818
-0.12741131 -0.033233132 1.3870001 4280039282
-0.12629859 -0.033257093 1.388 4280039539
-0.12518413 -0.033281051 1.3890001 4280039542
-0.12406796 -0.033305015 1.3900001 4279973495
-0.12286165 -0.033305015 1.3900001 4279842425
-0.12183037 -0.033352934 1.3920001 4279776635
-0.12070899 -0.033376891 1.393 4279645053
-0.11958586 -0.033400856 1.3940001 4279645055
-0.11863083 -0.033472735 1.3970001 4279645312
-0.1175025 -0.033496697 1.3980001 4279580286
-0.11637243 -0.033520658 1.399 4279711869
-0.11548756 -0.033616498 1.4030001 4279777916
-0.11435143 -0.033640459 1.404 4279974525
-0.11329412 -0.033688378 1.406 4280105855
-0.11247248 -0.033808183 1.411 4280171134
-0.11148448 -0.033880062 1.414 4280894598
-0.11041329 -0.033927981 1.416 4282539161
-0.10987838 -0.034143627 1.4250001 4283920551
-0.10894665 -0.034239467 1.429 4284446122
-0.10800798 -0.034335312 1.4330001 4284642727
-0.1583394 -0.032707639 1.416 4280894587
-0.1566667 -0.032615244 1.4120001 4280895109
-0.15500095 -0.03252285 1.4080001 4280369029
-0.1536698 -0.032499753 1.4070001 4280040325
-0.15223204 -0.032453556 1.4050001 4279908230
-0.15079774 -0.032407355 1.4030001 4279645315
-0.14947353 -0.032384258 1.4020001 4279382911
-0.14825681 -0.032384258 1.4020001 4279317118
-0.14683034 -0.032338064 1.4000001 4279317118
-0.14561534 -0.032338064 1.4000001 4279448448
-0.14429721 -0.032314964 1.399 4279513986
-0.14277627 -0.032245666 1.396 4279448194
-0.14146334 -0.032222569 1.3950001 4279382145
-0.13995107 -0.032153271 1.3920001 4279381888
-0.13864335 -0.032130174 1.391 4279513216
-0.13743618 -0.032130174 1.391 4279579261
-0.13593519 -0.03206088 1.388 4279645049
-0.13463356 -0.03203778 1.3870001 4279710840
-0.13333364 -0.032014679 1.386 4279776375
-0.13203546 -0.031991582 1.3850001 4279842165
-0.13083349 -0.031991582 1.3850001 4279907955
-0.12963152 -0.031991582 1.3850001 4279907954
-0.12852228 -0.032014679 1.386 4280039539
-0.12731944 -0.032014679 1.386 4280171124
-0.12620761 -0.03203778 1.3870001 4280236661
-0.12518413 -0.032083977 1.3890001 4280236920
-0.1239787 -0.032083977 1.3890001 4280171130
-0.12286165 -0.032107078 1.3900001 4280171131
-0.12183037 -0.032153271 1.3920001 4280039804
-0.12070899 -0.032176372 1.393 4279908476
-0.11950008 -0.032176372 1.393 4279842941
-0.11854592 -0.032245666 1.396 4279777149
-0.11741845 -0.032268766 1.3970001 4279712124
-0.11628925 -0.032291863 1.3980001 4279908988
-0.11540525 -0.032384258 1.4020001 4279908987
-0.11426997 -0.032407355 1.4030001 4280040573
-0.11313296 -0.032430455 1.404 4280040317
-0.11239277 -0.032569051 1.4100001 4280105597
-0.11140563 -0.032638345 1.4130001 4281157769
-0.11033531 -0.032684542 1.4150001 4282867869
-0.10980127 -0.032892428 1.424 4283920552
-0.10879418 -0.032961726 1.427 4284249001
-0.10778187 -0.03303102 1.4300001 4284380070
-0.15856303 -0.03153177 1.4180001 4280894078
-0.15699956 -0.031465057 1.4150001 4280960392
-0.15500095 -0.0313094 1.4080001 4280434568
-0.1536698 -0.031287163 1.4070001 4280105863
-0.15223204 -0.031242691 1.4050001 4279908230
-0.15079774 -0.031198215 1.4030001 4279645573
-0.14958015 -0.031198215 1.4030001 4279514243
-0.14825681 -0.031175978 1.4020001 4279382657
-0.14693521 -0.031153744 1.401 4279448449
-0.14551133 -0.031109268 1.399 4279448449
-0.14429721 -0.031109268 1.399 4279513984
-0.14287853 -0.031064797 1.3970001 4279448448
-0.14146334 -0.031020323 1.3950001 4279448448
-0.13995107 -0.030953612 1.3920001 4279448193
-0.13864335 -0.030931376 1.391 4279448194
-0.13733737 -0.03090914 1.3900001 4279513726
-0.13583726 -0.030842429 1.3870001 4279579515
-0.13463356 -0.030842429 1.3870001 4279645049
-0.13333364 -0.030820191 1.386 4279645304
-0.13194014 -0.030775718 1.3840001 4279842423
-0.13073903 -0.030775718 1.3840001 4279908470
-0.12953794 -0.030775718 1.3840001 4280039797
-0.12842955 -0.030797955 1.3850001 4280171382
-0.12731944 -0.030820191 1.386 4280237174
-0.1261166 -0.030820191 1.386 4280302967
-0.12509401 -0.030864665 1.388 4280368761
-0.1239787 -0.030886902 1.3890001 4280434299
-0.12277325 -0.030886902 1.3890001 4280369021
-0.12183037 -0.030953612 1.3920001 4280303230
-0.12062233 -0.030953612 1.3920001 4280171902
-0.11950008 -0.030975847 1.393 4280106109
-0.11854592 -0.031042557 1.396 4280040319
-0.11741845 -0.031064797 1.3970001 4280040318
-0.11532294 -0.031153744 1.401 4279908730
-0.11418853 -0.031175978 1.4020001 4279843450
-0.11313296 -0.031220455 1.404 4279908986
-0.11239277 -0.031353876 1.4100001 4280237181
-0.11132679 -0.031398349 1.4120001 4281420684
-0.11025734 -0.031442821 1.414 4282933404
-0.10972416 -0.031642955 1.4230001 4283657379
-0.10871793 -0.03170966 1.4260001 4283920292
-0.10770649 -0.031776372 1.429 4284051361
-0.15867485 -0.030331073 1.419 4280827517
-0.15711051 -0.03026695 1.416 4280894344
-0.15500095 -0.030095952 1.4080001 4280368776
-0.1536698 -0.030074576 1.4070001 4280040070
-0.15223204 -0.030031826 1.4050001 4279908229
-0.15079774 -0.029989075 1.4030001 4279776901
-0.14958015 -0.029989075 1.4030001 4279645571
-0.14836256 -0.029989075 1.4030001 4279448193
-0.14683034 -0.029924953 1.4000001 4279382659
-0.14561534 -0.029924953 1.4000001 4279382658
-0.14429721 -0.029903576 1.399 4279382656
-0.14287853 -0.029860828 1.3970001 4279316863
-0.14146334 -0.029818077 1.3950001 4279382655
-0.13995107 -0.029753951 1.3920001 4279448192
-0.13864335 -0.029732578 1.391 4279513728
-0.13733737 -0.029711204 1.3900001 4279579518
-0.13583726 -0.029647078 1.3870001 4279579514
-0.13453647 -0.029625701 1.386 4279579513
-0.13323744 -0.029604327 1.3850001 4279711353
-0.13194014 -0.029582953 1.3840001 4279908729
-0.13073903 -0.029582953 1.3840001 4280105849
-0.12953794 -0.029582953 1.3840001 4280302969
-0.12842955 -0.029604327 1.3850001 4280368761
-0.12731944 -0.029625701 1.386 4280368760
-0.1261166 -0.029625701 1.386 4280368760
-0.12509401 -0.029668452 1.388 4280434554
-0.1239787 -0.029689826 1.3890001 4280500348
-0.12277325 -0.029689826 1.3890001 4280500607
-0.12174286 -0.029732578 1.391 4280500608
-0.12062233 -0.029753951 1.3920001 4280435071
-0.11950008 -0.029775325 1.393 4280303742
-0.11846101 -0.029818077 1.3950001 4280303742
-0.1173344 -0.02983945 1.396 4280303485
-0.11524062 -0.029924953 1.4000001 4280040567
-0.11418853 -0.029967701 1.4020001 4279909238
-0.11305238 -0.029989075 1.4030001 4280040567
-0.11231306 -0.030117325 1.409 4280434557
-0.11124794 -0.030160075 1.411 4281684367
-0.11017936 -0.030202826 1.4130001 4282999454
-0.10964706 -0.030395199 1.4220001 4283460002
-0.10871793 -0.030480698 1.4260001 4283788452
-0.10770649 -0.030544823 1.429 4283722144
-0.15878667 -0.02912866 1.4200001 4280630400
-0.15722147 -0.02906712 1.4170001 4280762505
-0.15511103 -0.028903013 1.409 4280433799
-0.15377901 -0.028882502 1.4080001 4280105350
-0.15244874 -0.028861988 1.4070001 4279908486
-0.15101272 -0.028820962 1.4050001 4279777156
-0.14968677 -0.028800448 1.404 4279514241
-0.14836256 -0.028779933 1.4030001 4279316864
-0.14704008 -0.028759422 1.4020001 4279381890
-0.14571936 -0.028738908 1.401 4279382146
-0.1445035 -0.028738908 1.401 4279316608
-0.14298083 -0.02867737 1.3980001 4279251071
-0.14156476 -0.028636342 1.396 4279251582
-0.14005162 -0.028574802 1.393 4279382654
-0.13874301 -0.028554291 1.3920001 4279513725
-0.13743618 -0.028533777 1.391 4279579773
-0.13593519 -0.028472239 1.388 4279580027
-0.13463356 -0.028451726 1.3870001 4279777148
-0.13333364 -0.028431211 1.386 4279974525
-0.13194014 -0.028390186 1.3840001 4280171645
-0.13083349 -0.028410699 1.3850001 4280303228
-0.12953794 -0.028390186 1.3840001 4280434812
-0.12852228 -0.028431211 1.386 4280500604
-0.12731944 -0.028431211 1.386 4280500346
-0.12620761 -0.028451726 1.3870001 4280500346
-0.12518413 -0.028492751 1.3890001 4280434810
-0.12406796 -0.028513266 1.3900001 4280500860
-0.12286165 -0.028513266 1.3900001 4280566398
-0.1219179 -0.028574802 1.393 4280632191
-0.12070899 -0.028574802 1.393 4280566655
-0.11958586 -0.028595317 1.3940001 4280500862
-0.11854592 -0.028636342 1.396 4280500863
-0.1173344 -0.028636342 1.396 4280500863
-0.11524062 -0.028718397 1.4000001 4280369276
-0.11410709 -0.028738908 1.401 4280303482
-0.11223335 -0.028882502 1.4080001 4280631934
-0.1111691 -0.028923528 1.4100001 4281882001
-0.11010139 -0.028964553 1.4120001 4283131297
-0.10956995 -0.029149171 1.4210001 4283525796
-0.10856546 -0.029210711 1.424 4283656867
-0.10748038 -0.029251736 1.4260001 4283393180
-0.15878667 -0.027904866 1.4200001 4280695939
-0.15722147 -0.027845912 1.4170001 4280631178
-0.15511103 -0.027688703 1.409 4280171399
-0.15377901 -0.027669052 1.4080001 4280039815
-0.15234038 -0.027629748 1.406 4279908487
-0.15090524 -0.027590446 1.404 4279645572
-0.14968677 -0.027590446 1.404 4279382657
-0.14846832 -0.027590446 1.404 4279316865
-0.14704008 -0.027551142 1.4020001 4279316610
-0.14582336 -0.027551142 1.4020001 4279250817
-0.1445035 -0.027531492 1.401 4279251073
-0.14298083 -0.027472537 1.3980001 4279251071
-0.14166616 -0.027452886 1.3970001 4279316860
-0.14015214 -0.027393932 1.3940001 4279316859
-0.1388427 -0.027374281 1.393 4279448187
-0.13753498 -0.02735463 1.3920001 4279580028
-0.13593519 -0.027276024 1.388 4279843455
-0.13473061 -0.027276024 1.388 4280106369
-0.13342984 -0.027256373 1.3870001 4280237696
-0.13203546 -0.027217072 1.3850001 4280303231
-0.13083349 -0.027217072 1.3850001 4280369278
-0.12963152 -0.027217072 1.3850001 4280500605
-0.12852228 -0.027236722 1.386 4280500860
-0.12741131 -0.027256373 1.3870001 4280500602
-0.12629859 -0.027276024 1.388 4280435066
-0.12527427 -0.027315328 1.3900001 4280435066
-0.12406796 -0.027315328 1.3900001 4280500859
-0.12295003 -0.027334979 1.391 4280632189
-0.1219179 -0.027374281 1.393 4280632446
-0.12079564 -0.027393932 1.3940001 4280632446
-0.11958586 -0.027393932 1.3940001 4280632189
-0.11854592 -0.027433235 1.396 4280566397
-0.11741845 -0.027452886 1.3970001 4280566653
-0.11524062 -0.027511841 1.4000001 4280632190
-0.11410709 -0.027531492 1.401 4280566653
-0.11305238 -0.027570795 1.4030001 4280435066
-0.11223335 -0.027669052 1.4080001 4280632447
-0.1111691 -0.027708353 1.4100001 4282079380
-0.11002341 -0.027728004 1.411 4283197346
-0.10949284 -0.027904866 1.4200001 4283525541
-0.10841298 -0.02794417 1.4220001 4283525283
-0.10740501 -0.028003123 1.4250001 4283196061
-0.15867485 -0.026662286 1.419 4280630403
-0.15722147 -0.026624706 1.4170001 4280565642
-0.15511103 -0.02647439 1.409 4280040071
-0.1536698 -0.026436811 1.4070001 4279842951
-0.15234038 -0.026418023 1.406 4279842695
-0.15101272 -0.026399232 1.4050001 4279645573
-0.14979339 -0.026399232 1.4050001 4279448194
-0.14846832 -0.026380444 1.404 4279382402
-0.14714496 -0.026361654 1.4030001 4279251073
-0.14582336 -0.026342863 1.4020001 4279316610
-0.1445035 -0.026324075 1.401 4279382401
-0.1430831 -0.026286496 1.399 4279316862
-0.14166616 -0.026248917 1.3970001 4279185530
-0.14015214 -0.026192548 1.3940001 4279251065
-0.1388427 -0.026173759 1.393 4279513978
-0.13753498 -0.026154969 1.3920001 4279842942
-0.13603312 -0.0260986 1.3890001 4280237699
-0.13473061 -0.026079811 1.388 4280369283
-0.13342984 -0.026061021 1.3870001 4280303488
-0.1321308 -0.026042232 1.386 4280303488
-0.13092795 -0.026042232 1.386 4280435327
-0.12972511 -0.026042232 1.386 4280500861
-0.12861502 -0.026061021 1.3870001 4280500860
-0.12750317 -0.026079811 1.388 4280500859
-0.12629859 -0.026079811 1.388 4280435066
-0.12527427 -0.02611739 1.3900001 4280435066
-0.12415721 -0.02613618 1.391 4280500859
-0.12303842 -0.026154969 1.3920001 4280632445
-0.12200543 -0.026192548 1.3940001 4280632445
-0.12079564 -0.026192548 1.3940001 4280566652
-0.11967166 -0.026211338 1.3950001 4280566652
-0.11854592 -0.026230128 1.396 4280566652
-0.11741845 -0.026248917 1.3970001 4280632445
-0.11628925 -0.026267705 1.3980001 4280698239
-0.11524062 -0.026305284 1.4000001 4280697983
-0.11418853 -0.026342863 1.4020001 4280632446
-0.11297181 -0.026342863 1.4020001 4280500859
-0.11215363 -0.026436811 1.4070001 4280763775
-0.11109026 -0.02647439 1.409 4282210965
-0.11002341 -0.026511969 1.411 4283197345
-0.10933863 -0.026643496 1.4180001 4283328418
-0.1082605 -0.026681075 1.4200001 4283393956
-0.10725427 -0.026737442 1.4230001 4283196320
-0.10646634 -0.026850181 1.429 4282209425
-0.10537346 -0.02688776 1.4310001 4281748614
-0.1042771 -0.026925338 1.4330001 4282405511
-0.15856303 -0.025421428 1.4180001 4280434051
-0.15677765 -0.02533179 1.4130001 4280369034
-0.15500095 -0.025242152 1.4080001 4279974536
-0.15377901 -0.025242152 1.4080001 4279777159
-0.15244874 -0.025224222 1.4070001 4279777416
-0.15112019 -0.025206296 1.406 4279645830
-0.14989999 -0.025206296 1.406 4279514500
-0.14867979 -0.025206296 1.406 4279448451
-0.14724985 -0.025170442 1.404 4279382145
-0.14592737 -0.025152512 1.4030001 4279382144
-0.14460663 -0.025134584 1.4020001 4279448191
-0.14318536 -0.02509873 1.4000001 4279382653
-0.14186896 -0.025080804 1.399 4279251323
-0.14035323 -0.02502702 1.396 4279382650
-0.13904205 -0.025009092 1.3950001 4279776893
-0.13773258 -0.024991162 1.3940001 4280171649
-0.13622899 -0.024937382 1.391 4280369283
-0.13492475 -0.024919452 1.3900001 4280369281
-0.13362223 -0.024901524 1.3890001 4280303487
-0.13232146 -0.024883598 1.388 4280434815
-0.1311169 -0.024883598 1.388 4280566399
-0.12991232 -0.024883598 1.388 4280566653
-0.12880047 -0.024901524 1.3890001 4280566653
-0.12759502 -0.024901524 1.3890001 4280500859
-0.12648058 -0.024919452 1.3900001 4280435066
-0.12545452 -0.024955308 1.3920001 4280435066
-0.12424646 -0.024955308 1.3920001 4280500859
-0.12312682 -0.024973236 1.393 4280566652
-0.12209295 -0.025009092 1.3950001 4280566652
-0.1208823 -0.025009092 1.3950001 4280566652
-0.11975744 -0.02502702 1.396 4280566652
-0.11863083 -0.025044946 1.3970001 4280566652
-0.11741845 -0.025044946 1.3970001 4280566652
-0.11628925 -0.025062874 1.3980001 4280763519
-0.11524062 -0.02509873 1.4000001 4280829313
-0.11410709 -0.025116658 1.401 4280829568
-0.11297181 -0.025134584 1.4020001 4280698238
-0.11215363 -0.025224222 1.4070001 4280830081
-0.11109026 -0.02526008 1.409 4282145684
-0.11002341 -0.025295934 1.411 4283000480
-0.10933863 -0.025421428 1.4180001 4283197346
-0.1082605 -0.025457282 1.4200001 4283328419
-0.1071789 -0.025493139 1.4220001 4283196577
-0.10654084 -0.025636559 1.4300001 4282209937
-0.10544709 -0.025672415 1.432 4281617796
-0.10434987 -0.025708271 1.434 4282274182
-0.15845121 -0.024182294 1.4170001 4280631945
-0.1566667 -0.024096964 1.4120001 4280303754
-0.15500095 -0.024028702 1.4080001 4279909257
-0.15377901 -0.024028702 1.4080001 4279711881
-0.15244874 -0.024011634 1.4070001 4279646089
-0.15112019 -0.023994571 1.406 4279580551
-0.14989999 -0.023994571 1.406 4279514758
-0.14867979 -0.023994571 1.406 4279514243
-0.14724985 -0.023960438 1.404 4279382657
-0.14592737 -0.023943372 1.4030001 4279447936
-0.14460663 -0.023926305 1.4020001 4279513470
-0.14318536 -0.023892174 1.4000001 4279448188
-0.14186896 -0.02387511 1.399 4279382907
-0.14035323 -0.023823911 1.396 4279645565
-0.13904205 -0.023806846 1.3950001 4280040065
-0.13773258 -0.023789778 1.3940001 4280369028
-0.13622899 -0.023738582 1.391 4280369282
-0.13502182 -0.023738582 1.391 4280303487
-0.13371845 -0.023721516 1.3900001 4280369279
-0.13232146 -0.023687385 1.388 4280500863
-0.1311169 -0.023687385 1.388 4280566399
-0.12991232 -0.023687385 1.388 4280566653
-0.12880047 -0.023704449 1.3890001 4280566652
-0.12759502 -0.023704449 1.3890001 4280500859
-0.12648058 -0.023721516 1.3900001 4280435066
-0.12545452 -0.023755647 1.3920001 4280369273
-0.12433574 -0.023772713 1.393 4280435066
-0.12312682 -0.023772713 1.393 4280566652
-0.12209295 -0.023806846 1.3950001 4280566652
-0.1208823 -0.023806846 1.3950001 4280632445
-0.11967166 -0.023806846 1.3950001 4280632445
-0.11863083 -0.023840977 1.3970001 4280632444
-0.11741845 -0.023840977 1.3970001 4280566650
-0.11628925 -0.023858042 1.3980001 4280697983
-0.11524062 -0.023892174 1.4000001 4280895106
-0.11418853 -0.023926305 1.4020001 4280895361
-0.11305238 -0.023943372 1.4030001 4280829824
-0.11215363 -0.024011634 1.4070001 4280961410
-0.11109026 -0.024045767 1.409 4281882769
-0.11002341 -0.024079898 1.411 4282803357
-0.10926152 -0.024182294 1.4170001 4283263137
-0.10818426 -0.024216427 1.419 4283460004
-0.1071789 -0.024267623 1.4220001 4283328418
-0.10654084 -0.02440415 1.4300001 4282670743
-0.10544709 -0.024438282 1.432 4281947017
-0.10442264 -0.024489477 1.4350001 4282208646
-0.15845121 -0.022961086 1.4170001 4280632972
-0.15677765 -0.022896271 1.4130001 4280172939
-0.15511103 -0.022831455 1.409 4279843978
-0.15377901 -0.022815252 1.4080001 4279712138
-0.15255709 -0.022815252 1.4080001 4279646089
-0.15112019 -0.022782844 1.406 4279646088
-0.14989999 -0.022782844 1.406 4279646087
-0.14867979 -0.022782844 1.406 4279514500
-0.14724985 -0.022750435 1.404 4279382659
-0.14592737 -0.02273423 1.4030001 4279513731
-0.14470978 -0.02273423 1.4030001 4279579265
-0.14318536 -0.022685619 1.4000001 4279513724
-0.14197038 -0.022685619 1.4000001 4279514234
-0.14045377 -0.022637006 1.3970001 4279908478
-0.13924138 -0.022637006 1.3970001 4280237187
-0.1379302 -0.022620803 1.396 4280369027
-0.1365228 -0.022588395 1.3940001 4280434816
-0.13521595 -0.022572191 1.393 4280434816
-0.13400705 -0.022572191 1.393 4280566145
-0.13260746 -0.022539783 1.391 4280566144
-0.13140029 -0.022539783 1.391 4280631935
-0.1301931 -0.022539783 1.391 4280632191
-0.12898593 -0.022539783 1.391 4280632190
-0.1278706 -0.022555986 1.3920001 4280500603
-0.12666255 -0.022555986 1.3920001 4280369273
-0.12563477 -0.022588395 1.3940001 4280303737
-0.12451425 -0.0226046 1.3950001 4280303737
-0.1233036 -0.0226046 1.3950001 4280369530
-0.12218047 -0.022620803 1.396 4280435324
-0.1210556 -0.022637006 1.3970001 4280501117
-0.11984321 -0.022637006 1.3970001 4280632447
-0.11871576 -0.022653211 1.3980001 4280698238
-0.11758655 -0.022669416 1.399 4280632445
-0.11637243 -0.022669416 1.399 4280763518
-0.11540525 -0.022718027 1.4020001 4280829568
-0.11426997 -0.02273423 1.4030001 4280830082
-0.11313296 -0.022750435 1.404 4280764545
-0.11223335 -0.022815252 1.4080001 4280765058
-0.1111691 -0.022847658 1.4100001 4281554316
-0.11002341 -0.022863863 1.411 4282672283
-0.10926152 -0.022961086 1.4170001 4283132576
-0.10818426 -0.022993496 1.419 4283263651
-0.10710353 -0.023025904 1.4210001 4283329444
-0.10654084 -0.02317174 1.4300001 4283066526
-0.10544709 -0.023204148 1.432 4282539408
-0.10442264 -0.023252759 1.4350001 4282801295
-0.15845121 -0.02173988 1.4170001 4280436107
-0.15677765 -0.021678513 1.4130001 4280107403
-0.15511103 -0.021617144 1.409 4279843981
-0.15388824 -0.021617144 1.409 4279712139
-0.15255709 -0.021601802 1.4080001 4279646089
-0.15122768 -0.021586459 1.4070001 4279580295
-0.14989999 -0.021571117 1.406 4279580293
-0.14867979 -0.021571117 1.406 4279580037
-0.14724985 -0.021540433 1.404 4279513988
-0.14603139 -0.021540433 1.404 4279513731
-0.14470978 -0.021525091 1.4030001 4279579264
-0.14318536 -0.021479063 1.4000001 4279447930
-0.14197038 -0.021479063 1.4000001 4279645561
-0.14045377 -0.021433037 1.3970001 4280105855
-0.13924138 -0.021433037 1.3970001 4280368771
-0.1379302 -0.021417696 1.396 4280434562
-0.1365228 -0.021387009 1.3940001 4280500609
-0.13531302 -0.021387009 1.3940001 4280566144
-0.13400705 -0.021371668 1.393 4280565888
-0.13270278 -0.021356326 1.3920001 4280565886
-0.13149475 -0.021356326 1.3920001 4280631678
-0.13028669 -0.021356326 1.3920001 4280632191
-0.12907866 -0.021356326 1.3920001 4280566398
-0.12796247 -0.021371668 1.393 4280434812
-0.12675355 -0.021371668 1.393 4280303226
-0.12563477 -0.021387009 1.3940001 4280106104
-0.12451425 -0.021402353 1.3950001 4279974774
-0.1233036 -0.021402353 1.3950001 4279974775
-0.12226798 -0.021433037 1.3970001 4280106361
-0.1210556 -0.021433037 1.3970001 4280237947
-0.11984321 -0.021433037 1.3970001 4280435325
-0.11880067 -0.021463722 1.399 4280632702
-0.11758655 -0.021463722 1.399 4280698238
-0.11645561 -0.021479063 1.4000001 4280763775
-0.11548756 -0.021525091 1.4030001 4280763776
-0.11435143 -0.021540433 1.404 4280895618
-0.11321354 -0.021555774 1.4050001 4280896131
-0.11231306 -0.021617144 1.409 4280896643
-0.1111691 -0.021632485 1.4100001 4281422986
-0.11002341 -0.021647828 1.411 4282540696
-0.10926152 -0.02173988 1.4170001 4283198113
-0.10818426 -0.021770565 1.419 4283263906
-0.10710353 -0.02180125 1.4210001 4283396004
-0.10654084 -0.021939328 1.4300001 4283527332
-0.10544709 -0.021970015 1.432 4283526815
-0.10442264 -0.022016039 1.4350001 4284117410
-0.15845121 -0.020518674 1.4170001 4280370829
-0.1568886 -0.020475235 1.414 4280107661
-0.15522113 -0.020417312 1.4100001 4279909775
-0.15388824 -0.020402832 1.409 4279778188
-0.15255709 -0.020388352 1.4080001 4279580808
-0.15122768 -0.02037387 1.4070001 4279514758
-0.15000662 -0.02037387 1.4070001 4279514501
-0.14867979 -0.020359391 1.406 4279580036
-0.14724985 -0.020330431 1.404 4279579780
-0.14603139 -0.020330431 1.404 4279579521
-0.14470978 -0.020315949 1.4030001 4279513725
-0.14328764 -0.020286988 1.401 4279513721
-0.14197038 -0.020272508 1.4000001 4279842427
-0.14055431 -0.020243548 1.3980001 4280302976
-0.13924138 -0.020229068 1.3970001 4280500355
-0.13802899 -0.020229068 1.3970001 4280500354
-0.13662075 -0.020200107 1.3950001 4280566146
-0.13531302 -0.020185625 1.3940001 4280566145
-0.13410324 -0.020185625 1.3940001 4280565887
-0.13279814 -0.020171147 1.393 4280566142
-0.13158922 -0.020171147 1.393 4280631934
-0.1303803 -0.020171147 1.393 4280566142
-0.12917139 -0.020171147 1.393 4280369021
-0.12796247 -0.020171147 1.393 4280237436
-0.12675355 -0.020171147 1.393 4280040315
-0.1257249 -0.020200107 1.3950001 4279842936
-0.1246035 -0.020214587 1.396 4279711350
-0.12339199 -0.020214587 1.396 4279777143
-0.12235552 -0.020243548 1.3980001 4279843192
-0.12114227 -0.020243548 1.3980001 4279974777
-0.11992902 -0.020243548 1.3980001 4280172155
-0.11880067 -0.020258028 1.399 4280370045
-0.1176706 -0.020272508 1.4000001 4280501631
-0.1165388 -0.020286988 1.401 4280632449
-0.11548756 -0.020315949 1.4030001 4280697985
-0.11435143 -0.020330431 1.404 4280829826
-0.11329412 -0.020359391 1.406 4280895874
-0.11231306 -0.020402832 1.409 4280895874
-0.11124794 -0.020431792 1.411 4281159046
-0.11010139 -0.020446273 1.4120001 4282211219
-0.10926152 -0.020518674 1.4170001 4283197600
-0.10818426 -0.020547636 1.419 4283461284
-0.10710353 -0.020576596 1.4210001 4283658918
-0.10646634 -0.02069244 1.429 4283856039
-0.10544709 -0.02073588 1.432 4283987109
-0.10442264 -0.020779321 1.4350001 4284578216
-0.15845121 -0.019297468 1.4170001 4280436880
-0.1568886 -0.019256612 1.414 4280107919
-0.15522113 -0.019202137 1.4100001 4279844238
-0.15399747 -0.019202137 1.4100001 4279712395
-0.15266544 -0.019188521 1.409 4279581064
-0.15122768 -0.019161282 1.4070001 4279580551
-0.15000662 -0.019161282 1.4070001 4279580294
-0.14867979 -0.019147664 1.406 4279580036
-0.14724985 -0.019120429 1.404 4279645570
-0.14592737 -0.019106809 1.4030001 4279579775
-0.14460663 -0.019093189 1.4020001 4279513723
-0.14318536 -0.019065952 1.4000001 4279579515
-0.14186896 -0.019052336 1.399 4279974013
-0.14055431 -0.019038716 1.3980001 4280368769
-0.13924138 -0.019025097 1.3970001 4280566147
-0.13802899 -0.019025097 1.3970001 4280566145
-0.13662075 -0.018997861 1.3950001 4280631681
-0.1354101 -0.018997861 1.3950001 4280697473
-0.13419946 -0.018997861 1.3950001 4280763264
-0.13289346 -0.018984241 1.3940001 4280763265
-0.13168368 -0.018984241 1.3940001 4280697472
-0.1303803 -0.018970624 1.393 4280434558
-0.12926412 -0.018984241 1.3940001 4280105850
-0.12805434 -0.018984241 1.3940001 4279974266
-0.12684456 -0.018984241 1.3940001 4279842939
-0.12581502 -0.019011479 1.396 4279777145
-0.12469276 -0.019025097 1.3970001 4279711353
-0.12348037 -0.019025097 1.3970001 4279711865
-0.12244304 -0.019052336 1.399 4279777657
-0.12122891 -0.019052336 1.399 4279843192
-0.12001479 -0.019052336 1.399 4279974520
-0.11888558 -0.019065952 1.4000001 4280106875
-0.11775465 -0.019079572 1.401 4280304253
-0.11662198 -0.019093189 1.4020001 4280566913
-0.1156522 -0.019134045 1.4050001 4280632450
-0.11443287 -0.019134045 1.4050001 4280698498
-0.11329412 -0.019147664 1.406 4280698496
-0.11239277 -0.019202137 1.4100001 4280698495
-0.11124794 -0.019215757 1.411 4280764288
-0.11010139 -0.019229375 1.4120001 4281750669
-0.10926152 -0.019297468 1.4170001 4283066271
-0.10818426 -0.019324705 1.419 4283527078
-0.10702815 -0.019338323 1.4200001 4283658917
-0.10639184 -0.019447273 1.4280001 4283856293
-0.10537346 -0.019488128 1.4310001 4283987363
-0.1042771 -0.019515363 1.4330001 4284381093
-0.15845121 -0.018076262 1.4170001 4280436881
-0.1568886 -0.018037992 1.414 4279976335
-0.15522113 -0.017986964 1.4100001 4279712908
-0.15399747 -0.017986964 1.4100001 4279646859
-0.15266544 -0.017974209 1.409 4279646857
-0.15122768 -0.017948695 1.4070001 4279646344
-0.15000662 -0.017948695 1.4070001 4279580294
-0.14867979 -0.017935939 1.406 4279514499
-0.14724985 -0.017910425 1.404 4279514240
-0.14592737 -0.017897667 1.4030001 4279513982
-0.14460663 -0.01788491 1.4020001 4279579515
-0.14318536 -0.017859397 1.4000001 4279710844
-0.14186896 -0.017846642 1.399 4280039551
-0.14055431 -0.017833885 1.3980001 4280369025
-0.13924138 -0.017821128 1.3970001 4280566401
-0.13802899 -0.017821128 1.3970001 4280631936
-0.13662075 -0.017795615 1.3950001 4280697471
-0.1354101 -0.017795615 1.3950001 4280697728
-0.13419946 -0.017795615 1.3950001 4280763265
-0.13279814 -0.0177701 1.393 4280763523
-0.13158922 -0.0177701 1.393 4280697474
-0.1303803 -0.0177701 1.393 4280302974
-0.12926412 -0.017782856 1.3940001 4279908217
-0.12805434 -0.017782856 1.3940001 4279711352
-0.12684456 -0.017782856 1.3940001 4279711353
-0.12581502 -0.017808372 1.396 4279645817
-0.12469276 -0.017821128 1.3970001 4279580281
-0.12348037 -0.017821128 1.3970001 4279646073
-0.12244304 -0.017846642 1.399 4279711866
-0.12122891 -0.017846642 1.399 4279777402
-0.12001479 -0.017846642 1.399 4279842937
-0.11888558 -0.017859397 1.4000001 4280040315
-0.11775465 -0.017872155 1.401 4280237950
-0.11662198 -0.01788491 1.4020001 4280566913
-0.1156522 -0.01792318 1.4050001 4280698499
-0.11443287 -0.01792318 1.4050001 4280764291
-0.11329412 -0.017935939 1.406 4280698497
-0.11239277 -0.017986964 1.4100001 4280698496
-0.11124794 -0.017999722 1.411 4280698495
-0.11010139 -0.018012477 1.4120001 4281224583
-0.10926152 -0.018076262 1.4170001 4282671770
-0.10810802 -0.018089019 1.4180001 4283527591
-0.10702815 -0.018114531 1.4200001 4283659431
-0.10639184 -0.018216586 1.4280001 4283790756
-0.10529982 -0.018242098 1.4300001 4284053155
-0.10420433 -0.018267613 1.432 4284250020
-0.15845121 -0.016855055 1.4170001 4280239761
-0.1568886 -0.016819371 1.414 4279910542
-0.15522113 -0.016771792 1.4100001 4279712908
-0.15399747 -0.016771792 1.4100001 4279647115
-0.15266544 -0.016759897 1.409 4279646857
-0.15122768 -0.016736105 1.4070001 4279580807
-0.14989999 -0.016724212 1.406 4279580294
-0.14867979 -0.016724212 1.406 4279448706
-0.14724985 -0.016700422 1.404 4279448447
-0.14592737 -0.016688528 1.4030001 4279513725
-0.14460663 -0.016676631 1.4020001 4279645053
-0.14318536 -0.016652843 1.4000001 4279776638
-0.14186896 -0.016640948 1.399 4280039807
-0.14045377 -0.016617157 1.3970001 4280369025
-0.13924138 -0.016617157 1.3970001 4280566401
-0.1379302 -0.016605264 1.396 4280566399
-0.13662075 -0.016593367 1.3950001 4280631933
-0.13531302 -0.016581472 1.3940001 4280631935
-0.13400705 -0.016569579 1.393 4280697473
-0.13279814 -0.016569579 1.393 4280763011
-0.13158922 -0.016569579 1.393 4280631683
-0.1303803 -0.016569579 1.393 4280302719
-0.12926412 -0.016581472 1.3940001 4279908218
-0.12805434 -0.016581472 1.3940001 4279711096
-0.12684456 -0.016581472 1.3940001 4279711353
-0.12581502 -0.016605264 1.396 4279580024
-0.12469276 -0.016617157 1.3970001 4279514488
-0.12348037 -0.016617157 1.3970001 4279514489
-0.12244304 -0.016640948 1.399 4279646075
-0.12122891 -0.016640948 1.399 4279777148
-0.12001479 -0.016640948 1.399 4279842940
-0.11888558 -0.016652843 1.4000001 4280105854
-0.11775465 -0.016664738 1.401 4280369025
-0.11662198 -0.016676631 1.4020001 4280566402
-0.11556989 -0.016700422 1.404 4280698244
-0.11443287 -0.016712317 1.4050001 4280764037
-0.11329412 -0.016724212 1.406 4280764292
-0.11239277 -0.016771792 1.4100001 4280764292
-0.11124794 -0.016783686 1.411 4280764290
-0.11010139 -0.016795579 1.4120001 4280764290
-0.10918441 -0.016843161 1.416 4281619598
-0.10810802 -0.01686695 1.4180001 4282869922
-0.10702815 -0.01689074 1.4200001 4283528361
-0.10631733 -0.016974006 1.427 4283725221
-0.10522618 -0.016997794 1.429 4283790240
-0.10420433 -0.01703348 1.432 4283987107
-0.16374239 -0.015788311 1.4310001 4281290378
-0.16204627 -0.015744179 1.427 4281027727
-0.16046979 -0.01571108 1.424 4280765331
-0.15845121 -0.015633848 1.4170001 4280239761
-0.1568886 -0.01560075 1.414 4279844750
-0.15533121 -0.015567651 1.411 4279712908
-0.15410668 -0.015567651 1.411 4279712651
-0.1527738 -0.015556618 1.4100001 4279646601
-0.15133516 -0.015534552 1.4080001 4279515015
-0.15011322 -0.015534552 1.4080001 4279514501
-0.14878555 -0.015523518 1.4070001 4279448450
-0.14724985 -0.01549042 1.404 4279448192
-0.14603139 -0.01549042 1.404 4279513728
-0.14470978 -0.015479386 1.4030001 4279710849
-0.14328764 -0.015457321 1.401 4279842432
-0.14197038 -0.015446287 1.4000001 4280105600
-0.14055431 -0.015424221 1.3980001 4280434563
-0.13934106 -0.015424221 1.3980001 4280631939
-0.13802899 -0.015413187 1.3970001 4280631937
-0.13662075 -0.015391122 1.3950001 4280631936
-0.13531302 -0.015380088 1.3940001 4280697472
-0.13410324 -0.015380088 1.3940001 4280697473
-0.13289346 -0.015380088 1.3940001 4280763267
-0.13168368 -0.015380088 1.3940001 4280631683
-0.1303803 -0.015369056 1.393 4280302719
-0.12926412 -0.015380088 1.3940001 4279908218
-0.1281462 -0.015391122 1.3950001 4279711096
-0.12693556 -0.015391122 1.3950001 4279711353
-0.12590514 -0.015413187 1.3970001 4279645818
-0.12469276 -0.015413187 1.3970001 4279514489
-0.12356877 -0.015424221 1.3980001 4279514490
-0.12244304 -0.015435255 1.399 4279646076
-0.12122891 -0.015435255 1.399 4279777149
-0.12001479 -0.015435255 1.399 4279908476
-0.11897051 -0.015457321 1.401 4280105855
-0.11775465 -0.015457321 1.401 4280434818
-0.11662198 -0.015468352 1.4020001 4280566660
-0.11556989 -0.01549042 1.404 4280698245
-0.11443287 -0.015501452 1.4050001 4280698245
-0.11329412 -0.015512486 1.406 4280698500
-0.11231306 -0.015545585 1.409 4280829572
-0.1111691 -0.015556618 1.4100001 4280763779
-0.11002341 -0.015567651 1.411 4280632451
-0.10910731 -0.015611783 1.4150001 4280764037
-0.10803178 -0.015633848 1.4170001 4281554320
-0.10695278 -0.015655916 1.419 4282804640
-0.10624283 -0.015733147 1.4260001 4283528100
-0.10515255 -0.015755212 1.4280001 4283593633
-0.10413156 -0.015788311 1.4310001 4283856293
-0.10368058 -0.015909676 1.442 4284382125
-0.10264224 -0.015942775 1.4450001 4284578735
-0.10166886 -0.015986906 1.4490001 4283788447
-0.16362797 -0.014544868 1.4300001 4281224587
-0.16204627 -0.014514356 1.427 4281028241
-0.16046979 -0.014483842 1.424 4280765844
-0.15845121 -0.014412642 1.4170001 4280305553
-0.15699956 -0.0143923 1.4150001 4279910541
-0.15544128 -0.014361786 1.4120001 4279712908
-0.15410668 -0.014351616 1.411 4279712652
-0.1527738 -0.014341444 1.4100001 4279646602
-0.15144263 -0.014331274 1.409 4279514759
-0.15011322 -0.014321102 1.4080001 4279448709
-0.1488913 -0.014321102 1.4080001 4279448451
-0.14735472 -0.014290588 1.4050001 4279382401
-0.14603139 -0.014280417 1.404 4279513730
-0.14470978 -0.014270245 1.4030001 4279710852
-0.14328764 -0.014249903 1.401 4279842433
-0.14207178 -0.014249903 1.401 4280105600
-0.14065485 -0.014229561 1.399 4280434563
-0.13924138 -0.014209217 1.3970001 4280566148
-0.13802899 -0.014209217 1.3970001 4280631683
-0.13662075 -0.014188875 1.3950001 4280697475
-0.1354101 -0.014188875 1.3950001 4280697474
-0.13419946 -0.014188875 1.3950001 4280697473
-0.13289346 -0.014178704 1.3940001 4280697474
-0.13168368 -0.014178704 1.3940001 4280631680
-0.1304739 -0.014178704 1.3940001 4280237180
-0.12926412 -0.014178704 1.3940001 4279908216
-0.1281462 -0.014188875 1.3950001 4279711352
-0.12693556 -0.014188875 1.3950001 4279711354
-0.12590514 -0.014209217 1.3970001 4279580027
-0.12469276 -0.014209217 1.3970001 4279580284
-0.12356877 -0.014219389 1.3980001 4279646076
-0.12244304 -0.014229561 1.399 4279711869
-0.12122891 -0.014229561 1.399 4279777404
-0.12001479 -0.014229561 1.399 4279908732
-0.11897051 -0.014249903 1.401 4280040574
-0.11775465 -0.014249903 1.401 4280304258
-0.11662198 -0.014260073 1.4020001 4280566919
-0.11556989 -0.014280417 1.404 4280567176
-0.11443287 -0.014290588 1.4050001 4280697989
-0.11329412 -0.01430076 1.406 4280697987
-0.11231306 -0.014331274 1.409 4280763780
-0.1111691 -0.014341444 1.4100001 4280697731
-0.11002341 -0.014351616 1.411 4280500355
-0.10910731 -0.0143923 1.4150001 4280303232
-0.10803178 -0.014412642 1.4170001 4280501120
-0.10695278 -0.014432985 1.419 4281488523
-0.10624283 -0.014504184 1.4260001 4282541721
-0.10515255 -0.014524526 1.4280001 4283133598
-0.10405879 -0.014544868 1.4300001 4283659430
-0.10368058 -0.014666924 1.442 4283922346
-0.10264224 -0.014697438 1.4450001 4283658661
-0.10159869 -0.01472795 1.4480001 4283064981
-0.16362797 -0.013312459 1.4300001 4281355918
-0.16204627 -0.01328453 1.427 4281159572
-0.16035709 -0.013247292 1.4230001 4280700051
-0.15845121 -0.013191436 1.4170001 4280370832
-0.15699956 -0.013172817 1.4150001 4280041614
-0.15544128 -0.013144889 1.4120001 4279909772
-0.15410668 -0.01313558 1.411 4279843723
-0.15288214 -0.01313558 1.411 4279646602
-0.15144263 -0.01311696 1.409 4279449223
-0.15021984 -0.01311696 1.409 4279383430
-0.1488913 -0.013107652 1.4080001 4279448452
-0.1474596 -0.013089033 1.406 4279513732
-0.1461354 -0.013079723 1.4050001 4279579268
-0.14481293 -0.013070414 1.404 4279645058
-0.14338991 -0.013051796 1.4020001 4279776896
-0.14217319 -0.013051796 1.4020001 4280040065
-0.14055431 -0.013014558 1.3980001 4280434564
-0.13934106 -0.013014558 1.3980001 4280631684
-0.13802899 -0.013005248 1.3970001 4280697476
-0.13671868 -0.012995939 1.396 4280697475
-0.1354101 -0.012986629 1.3950001 4280697473
-0.13419946 -0.012986629 1.3950001 4280631680
-0.13289346 -0.01297732 1.3940001 4280500351
-0.13168368 -0.01297732 1.3940001 4280434558
-0.1304739 -0.01297732 1.3940001 4280237437
-0.12935685 -0.012986629 1.3950001 4279974265
-0.1281462 -0.012986629 1.3950001 4279777144
-0.12702654 -0.012995939 1.396 4279711352
-0.12590514 -0.013005248 1.3970001 4279645560
-0.12478203 -0.013014558 1.3980001 4279645817
-0.12356877 -0.013014558 1.3980001 4279711610
-0.12244304 -0.013023867 1.399 4279777147
-0.12122891 -0.013023867 1.399 4279777146
-0.12001479 -0.013023867 1.399 4279842938
-0.11897051 -0.013042485 1.401 4280171646
-0.11775465 -0.013042485 1.401 4280500867
-0.11662198 -0.013051796 1.4020001 4280763783
-0.11556989 -0.013070414 1.404 4280763782
-0.11443287 -0.013079723 1.4050001 4280763523
-0.11329412 -0.013089033 1.406 4280829059
-0.11231306 -0.01311696 1.409 4280829061
-0.1111691 -0.01312627 1.4100001 4280697476
-0.11002341 -0.01313558 1.411 4280696964
-0.10910731 -0.013172817 1.4150001 4280565377
-0.10803178 -0.013191436 1.4170001 4280565886
-0.10695278 -0.013210054 1.419 4280829566
-0.10624283 -0.013275221 1.4260001 4281421959
-0.10515255 -0.013293839 1.4280001 4282210961
-0.10413156 -0.013321768 1.4310001 4282867353
-0.10360868 -0.013414862 1.4410001 4283195547
-0.10264224 -0.0134521 1.4450001 4282867096
-0.10159869 -0.013480028 1.4480001 4282735251
-0.16339912 -0.012063153 1.4280001 4281553042
-0.16181916 -0.012037811 1.4250001 4281225110
-0.16024441 -0.012012468 1.4220001 4280633745
-0.1583394 -0.011961782 1.416 4280370576
-0.15699956 -0.011953335 1.4150001 4280238735
-0.15555139 -0.011936439 1.4130001 4280106637
-0.15421589 -0.011927992 1.4120001 4279975052
-0.15299049 -0.011927992 1.4120001 4279712138
-0.15165761 -0.011919545 1.411 4279515272
-0.15032646 -0.011911096 1.4100001 4279449479
-0.14910279 -0.011911096 1.4100001 4279448710
-0.14766936 -0.011894202 1.4080001 4279579526
-0.14634342 -0.011885754 1.4070001 4279644804
-0.1450192 -0.011877307 1.406 4279579264
-0.14359447 -0.011860412 1.404 4279645566
-0.14217319 -0.011843516 1.4020001 4279843200
-0.14075539 -0.01182662 1.4000001 4280303491
-0.13944073 -0.011818173 1.399 4280631941
-0.1381278 -0.011809726 1.3980001 4280763269
-0.13671868 -0.01179283 1.396 4280763012
-0.13550717 -0.01179283 1.396 4280631937
-0.13429564 -0.01179283 1.396 4280566143
-0.1329888 -0.011784383 1.3950001 4280500607
-0.13168368 -0.011775935 1.3940001 4280500607
-0.1304739 -0.011775935 1.3940001 4280434815
-0.12935685 -0.011784383 1.3950001 4280105851
-0.1281462 -0.011784383 1.3950001 4279842936
-0.12702654 -0.01179283 1.396 4279711351
-0.12590514 -0.011801278 1.3970001 4279645558
-0.12469276 -0.011801278 1.3970001 4279711351
-0.12356877 -0.011809726 1.3980001 4279711352
-0.12244304 -0.011818173 1.399 4279777144
-0.12122891 -0.011818173 1.399 4279842937
-0.12001479 -0.011818173 1.399 4279974523
-0.11897051 -0.011835068 1.401 4280172159
-0.1178387 -0.011843516 1.4020001 4280435587
-0.11670516 -0.011851964 1.4030001 4280567429
-0.1156522 -0.011868859 1.4050001 4280567428
-0.11451431 -0.011877307 1.406 4280632706
-0.11329412 -0.011877307 1.406 4280698243
-0.11231306 -0.011902649 1.409 4280763525
-0.11109026 -0.011902649 1.409 4280763012
-0.10994543 -0.011911096 1.4100001 4280762242
-0.10903019 -0.011944887 1.414 4280696447
-0.10795554 -0.011961782 1.416 4280762237
-0.10680203 -0.01197023 1.4170001 4280894333
-0.10609382 -0.012029364 1.424 4281092225
-0.10507891 -0.012054706 1.427 4281552518
-0.10398602 -0.012071601 1.429 4281946763
-0.10317728 -0.012122286 1.4350001 4282406288
-0.10207397 -0.012139182 1.437 4282472082
-0.10096721 -0.012156077 1.439 4282735253
-0.16339912 -0.010832466 1.4280001 4281618837
-0.16181916 -0.01080971 1.4250001 4281290903
-0.16024441 -0.010786952 1.4220001 4280699539
-0.1583394 -0.010741438 1.416 4280436370
-0.15699956 -0.010733852 1.4150001 4280304272
-0.15555139 -0.01071868 1.4130001 4280172431
-0.15421589 -0.010711095 1.4120001 4279975053
-0.15299049 -0.010711095 1.4120001 4279712395
-0.15165761 -0.01070351 1.411 4279515273
-0.15043306 -0.01070351 1.411 4279449479
-0.14910279 -0.010695923 1.4100001 4279448967
-0.14766936 -0.010680752 1.4080001 4279579526
-0.14634342 -0.010673166 1.4070001 4279513731
-0.14491607 -0.010657994 1.4050001 4279513728
-0.14349219 -0.010642823 1.4030001 4279514237
-0.14227459 -0.010642823 1.4030001 4279646078
-0.14075539 -0.010620065 1.4000001 4280106113
-0.13944073 -0.010612479 1.399 4280566149
-0.1381278 -0.010604895 1.3980001 4280763270
-0.13671868 -0.010589723 1.396 4280697732
-0.13550717 -0.010589723 1.396 4280632194
-0.13429564 -0.010589723 1.396 4280566401
-0.13289346 -0.010574551 1.3940001 4280500864
-0.13168368 -0.010574551 1.3940001 4280566657
-0.1304739 -0.010574551 1.3940001 4280500864
-0.12926412 -0.010574551 1.3940001 4280237692
-0.1281462 -0.010582137 1.3950001 4280040314
-0.12693556 -0.010582137 1.3950001 4279908729
-0.12590514 -0.010597309 1.3970001 4279842936
-0.12469276 -0.010597309 1.3970001 4279842936
-0.12348037 -0.010597309 1.3970001 4279842936
-0.12244304 -0.010612479 1.399 4279842937
-0.12122891 -0.010612479 1.399 4279974523
-0.12001479 -0.010612479 1.399 4280171901
-0.11897051 -0.010627651 1.401 4280369280
-0.1178387 -0.010635237 1.4020001 4280500865
-0.11670516 -0.010642823 1.4030001 4280566401
-0.1156522 -0.010657994 1.4050001 4280632193
-0.11451431 -0.010665581 1.406 4280763266
-0.11329412 -0.010665581 1.406 4280829059
-0.11231306 -0.010688337 1.409 4280763523
-0.11109026 -0.010688337 1.409 4280631681
-0.10994543 -0.010695923 1.4100001 4280565116
-0.10903019 -0.010726266 1.414 4280695931
-0.1078793 -0.010733852 1.4150001 4280958588
-0.10680203 -0.010749023 1.4170001 4281353088
-0.10609382 -0.010802125 1.424 4281615746
-0.10500527 -0.010817296 1.4260001 4281681538
-0.10391326 -0.010832466 1.4280001 4281944966
-0.10317728 -0.010885567 1.4350001 4282273674
-0.10200294 -0.010893153 1.4360001 4282536590
-0.10096721 -0.010915911 1.439 4282930579
-0.16328469 -0.0095950561 1.427 4281487510
-0.1617056 -0.0095748855 1.424 4281290904
-0.16013171 -0.009554713 1.4210001 4280896406
-0.1583394 -0.0095210932 1.416 4280502163
-0.1568886 -0.0095076449 1.414 4280238736
-0.15555139 -0.0095009217 1.4130001 4280172432
-0.15421589 -0.0094941976 1.4120001 4279909517
-0.15299049 -0.0094941976 1.4120001 4279712395
-0.15165761 -0.0094874743 1.411 4279581065
-0.15043306 -0.0094874743 1.411 4279383943
-0.14920853 -0.0094874743 1.411 4279383430
-0.14756449 -0.0094605777 1.4070001 4279448452
-0.14634342 -0.0094605777 1.4070001 4279448195
-0.1450192 -0.0094538545 1.406 4279448448
-0.14349219 -0.0094336821 1.4030001 4279448702
-0.14227459 -0.0094336821 1.4030001 4279514749
-0.14075539 -0.0094135096 1.4000001 4279908736
-0.13944073 -0.0094067864 1.399 4280369028
-0.1381278 -0.0094000623 1.3980001 4280566662
-0.13671868 -0.009386614 1.396 4280566660
-0.13550717 -0.009386614 1.396 4280566659
-0.13429564 -0.009386614 1.396 4280500866
-0.13289346 -0.0093731666 1.3940001 4280435328
-0.13168368 -0.0093731666 1.3940001 4280501120
-0.1304739 -0.0093731666 1.3940001 4280501120
-0.12926412 -0.0093731666 1.3940001 4280369534
-0.1281462 -0.0093798907 1.3950001 4280237949
-0.12693556 -0.0093798907 1.3950001 4280172156
-0.12581502 -0.009386614 1.396 4280106363
-0.12469276 -0.009393339 1.3970001 4280040570
-0.12348037 -0.009393339 1.3970001 4280040570
-0.12235552 -0.0094000623 1.3980001 4280106106
-0.12122891 -0.0094067864 1.399 4280237692
-0.12001479 -0.0094067864 1.399 4280369535
-0.11897051 -0.0094202338 1.401 4280500864
