# .PCD v0.7 - Point Cloud Data file format
VERSION 0.7
FIELDS x y z rgba
SIZE 4 4 4 4
TYPE F F F U
COUNT 1 1 1 1
WIDTH 938
HEIGHT 1
VIEWPOINT 0 0 0 1 0 0 0
POINTS 938
DATA ascii
0.19552165 -0.19355695 1.2780001 4287193791
0.19963928 -0.19416277 1.2820001 4286008511
0.20393719 -0.19492005 1.2870001 4283645070
0.18962286 -0.18768275 1.2620001 4287591368
0.19368577 -0.18827763 1.266 4286205378
0.19761483 -0.18872379 1.2690001 4285743808
0.20219415 -0.18976481 1.276 4286272966
0.17122157 -0.17941432 1.2290001 4287464375
0.18543431 -0.18350188 1.2570001 4284436091
0.18797004 -0.18262598 1.251 4286867136
0.19169691 -0.18291795 1.253 4286207430
0.19621332 -0.18393983 1.2600001 4286337997
0.19902496 -0.18335591 1.256 4284297894
0.20245951 -0.18335591 1.256 4286470842
0.15682998 -0.1869406 1.3050001 4286869187
0.16450015 -0.17605363 1.2290001 4286671805
0.16622186 -0.17433463 1.217 4286802640
0.16968907 -0.17447788 1.2180001 4285157302
0.17387202 -0.17533737 1.2240001 4290356704
0.18243138 -0.18049435 1.2600001 4294965247
0.18454918 -0.17920512 1.251 4286671017
0.18721877 -0.17848887 1.2460001 4286799817
0.19184989 -0.17963485 1.2540001 4285549252
0.19527897 -0.17963485 1.2540001 4283705774
0.1988665 -0.1797781 1.2550001 4278190080
0.20068638 -0.17834561 1.245 4286469314
0.20507441 -0.17920512 1.251 4286406054
0.1446458 -0.17718938 1.261 4284435851
0.14762424 -0.17662732 1.2570001 4287982551
0.15190275 -0.17761093 1.2640001 4284427686
0.15953813 -0.18238844 1.2980001 4285086883
0.16035275 -0.17184982 1.223 4286541490
0.16276011 -0.17086622 1.2160001 4284630958
0.16676819 -0.1715688 1.2210001 4283380644
0.17052498 -0.17199033 1.2240001 4278190080
0.17486639 -0.17297393 1.2310001 4284697997
0.18069394 -0.17536271 1.248 4294965247
0.18381156 -0.17508167 1.2460001 4285551023
0.18781979 -0.17564373 1.25 4286339535
0.19154391 -0.17592476 1.2520001 4284167349
0.19997573 -0.1773299 1.2620001 4278190080
0.20358786 -0.17747042 1.263 4284233630
0.20917262 -0.1792971 1.276 4286736286
0.11938083 -0.17718568 1.286 4287330990
0.14175743 -0.17443007 1.266 4285094028
0.14453109 -0.1736034 1.2600001 4286207674
0.14762424 -0.17319004 1.2570001 4285217212
0.15154223 -0.17374116 1.261 4284953268
0.15597372 -0.17484342 1.2690001 4285742770
0.15713683 -0.1686433 1.2240001 4286276002
0.15982829 -0.16795439 1.2190001 4286868422
0.16329551 -0.16809218 1.22 4283182752
0.17163953 -0.16974553 1.2320001 4278190080
0.17685512 -0.17153668 1.245 4278190080
0.18127309 -0.17250115 1.2520001 4294963711
0.18440166 -0.17222558 1.25 4284036527
0.18766953 -0.1720878 1.2490001 4284496828
0.2015603 -0.17525676 1.2720001 4278190080
0.20826249 -0.17801237 1.2920001 4278190080
0.21146761 -0.1777368 1.2900001 4286079648
0.2151618 -0.17787458 1.291 4278190080
0.11226031 -0.17353407 1.2850001 4294964223
0.11496329 -0.17231865 1.276 4288900572
0.11854535 -0.17245369 1.2770001 4288372697
0.12251515 -0.17312893 1.2820001 4288308436
0.13851403 -0.17123827 1.268 4286144173
0.14153349 -0.17069809 1.2640001 4287454166
0.1448752 -0.17056304 1.263 4285677252
0.14762424 -0.16975276 1.2570001 4284624567
0.15130188 -0.17002286 1.2590001 4285809088
0.15413007 -0.16934763 1.2540001 4278190080
0.1546693 -0.16624157 1.2310001 4278190080
0.15598141 -0.16408084 1.215 4289233390
0.15982829 -0.16462103 1.2190001 4284036778
0.16356321 -0.16502617 1.222 4282327191
0.17784949 -0.16907755 1.2520001 4278190080
0.18228661 -0.17002286 1.2590001 4278190080
0.18440166 -0.16880745 1.25 4278190080
0.18781979 -0.16880745 1.25 4283510446
0.20971322 -0.17569479 1.3010001 4278190080
0.21228725 -0.17488451 1.2950001 4278190080
0.21216187 -0.1719135 1.273 4283452004
0.10967737 -0.17147563 1.296 4278190080
0.11164878 -0.16909403 1.2780001 4289235155
0.11523358 -0.16922635 1.279 4288965347
0.11863819 -0.16909403 1.2780001 4288766944
0.12136836 -0.16803554 1.2700001 4288702174
0.12670889 -0.17054947 1.289 4286867898
0.13872059 -0.18166363 1.373 4283323751
0.13707907 -0.17478342 1.3210001 4278190080
0.13568568 -0.16856478 1.274 4278190080
0.13884175 -0.16816784 1.271 4289235933
0.14220533 -0.16803554 1.2700001 4286333642
0.1447605 -0.16697705 1.2620001 4285347777
0.14774169 -0.1664478 1.258 4284426675
0.15106152 -0.16631548 1.2570001 4285545658
0.15265514 -0.16433083 1.2420001 4278190080
0.1532872 -0.16141997 1.22 4287784915
0.15675168 -0.16155228 1.2210001 4284890549
0.16048387 -0.16194922 1.2240001 4283444390
0.18469669 -0.16565394 1.2520001 4278190080
0.20987444 -0.17226951 1.302 4278190080
0.21048404 -0.1698879 1.284 4286737329
0.21232852 -0.16856478 1.274 4283649896
0.10806945 -0.16546975 1.2770001 4287919044
0.11182351 -0.16585848 1.2800001 4288834277
0.11550386 -0.16611764 1.2820001 4288637160
0.11826687 -0.16508102 1.274 4287978203
0.12108167 -0.16417398 1.2670001 4288175581
0.12464459 -0.16430356 1.268 4288311240
0.13296162 -0.17052326 1.3160001 4283452004
0.13272077 -0.1657289 1.279 4278190080
0.13451414 -0.16365567 1.263 4285814699
0.13884175 -0.16469228 1.271 4287125203
0.14175743 -0.16404441 1.266 4285150651
0.14430167 -0.1630078 1.258 4284294572
0.14703703 -0.16223033 1.2520001 4283900833
0.15010011 -0.1618416 1.2490001 4283309209
0.1510573 -0.15925007 1.2290001 4286797263
0.1535385 -0.15834303 1.222 4285614270
0.15700844 -0.1584726 1.223 4282917783
0.16087721 -0.1589909 1.2270001 4278190080
0.18454918 -0.16210075 1.251 4278190080
0.18812031 -0.16223033 1.2520001 4278190080
0.20939085 -0.16832045 1.299 4278190080
0.21113977 -0.16689509 1.2880001 4284102304
0.21399514 -0.16637678 1.284 4284831885
0.22360457 -0.17104156 1.3200001 4282731866
0.10564209 -0.16362675 1.2900001 4278190080
0.10832333 -0.16235831 1.2800001 4289625812
0.11191086 -0.16248515 1.281 4288570591
0.11550386 -0.16261201 1.2820001 4288044765
0.11854535 -0.16197778 1.2770001 4287517398
0.12050828 -0.1599483 1.261 4288240602
0.12395649 -0.1599483 1.261 4288638665
0.12982954 -0.16299252 1.2850001 4286011787
0.13095669 -0.16007514 1.2620001 4283516016
0.13408814 -0.15969463 1.2590001 4287456710
0.13753088 -0.15969463 1.2590001 4288046812
0.14074968 -0.15944093 1.2570001 4288111583
0.14384285 -0.1590604 1.2540001 4288835560
0.14621495 -0.15791883 1.245 4288637159
0.14829746 -0.15652356 1.2340001 4288572649
0.15081148 -0.15563565 1.2270001 4286468300
0.15429236 -0.15576251 1.228 4283904167
0.20922965 -0.16464147 1.2980001 4278190080
0.21294299 -0.16476832 1.299 4282852757
0.21616177 -0.16451463 1.2970001 4286871469
0.22055542 -0.16514884 1.302 4282664792
0.23960762 -0.17656466 1.3920001 4282732377
0.10531452 -0.15960279 1.286 4278190080
0.10849258 -0.15910636 1.2820001 4286994108
0.11182351 -0.15885814 1.2800001 4287256528
0.11523358 -0.15873402 1.279 4287385553
0.11854535 -0.15848581 1.2770001 4287253966
0.1209861 -0.15712063 1.266 4287584212
0.12346499 -0.15587956 1.256 4278190080
0.1267985 -0.15575545 1.2550001 4286732211
0.12940015 -0.15476258 1.2470001 4287193537
0.13238408 -0.15426615 1.243 4288836833
0.13545536 -0.15389381 1.24 4288704482
0.13895811 -0.15401793 1.2410001 4288112605
0.14200753 -0.1536456 1.238 4286862029
0.14445332 -0.15265274 1.23 4286139333
0.14709571 -0.1519081 1.2240001 4285942469
0.15068857 -0.15215631 1.2260001 4284430511
0.15429236 -0.15240453 1.228 4282984603
0.15803547 -0.15277685 1.2310001 4281933196
0.20858487 -0.16059566 1.294 4284364464
0.21245119 -0.16084386 1.296 4281798791
0.21632843 -0.16109209 1.2980001 4286935229
0.21920024 -0.16059566 1.294 4281942360
0.22738625 -0.16394655 1.3210001 4282468955
0.10547831 -0.15632895 1.2880001 4278190080
0.10857721 -0.15572208 1.2830001 4285285042
0.11173614 -0.15523659 1.279 4287519959
0.11469299 -0.15450835 1.273 4288243169
0.11733855 -0.15341599 1.2640001 4288045276
0.12031715 -0.15280913 1.2590001 4288504547
0.12228539 -0.15098852 1.2440001 4288110808
0.12497987 -0.15013891 1.2370001 4288112086
0.12742853 -0.14904654 1.228 4287586255
0.1301475 -0.14831831 1.222 4286337217
0.13294289 -0.14771144 1.217 4287059660
0.13638274 -0.14783283 1.2180001 4285940416
0.1400575 -0.14819694 1.2210001 4285809080
0.14339633 -0.14819694 1.2210001 4285151670
0.14745624 -0.14892517 1.2270001 4283180191
0.15118021 -0.1492893 1.23 4283116191
0.15492059 -0.14965342 1.233 4281998989
0.20425412 -0.15645033 1.289 4278190080
0.20842367 -0.15693583 1.2930001 4285285056
0.21212333 -0.1570572 1.294 4285810368
0.21482846 -0.15645033 1.289 4283906711
0.21632048 -0.15499385 1.2770001 4283124078
0.10490505 -0.15197644 1.281 4278190080
0.10773093 -0.15102732 1.273 4285218988
0.11094988 -0.15067141 1.2700001 4287914456
0.11352174 -0.14948502 1.2600001 4288637160
0.11631741 -0.14865454 1.253 4278190080
0.11869252 -0.14734952 1.2420001 4278190080
0.12120409 -0.14628176 1.233 4286860749
0.12356539 -0.14509538 1.223 4286861518
0.12607954 -0.14414626 1.215 4285875134
0.12833694 -0.14295988 1.205 4285612473
0.13152279 -0.14284123 1.2040001 4286665677
0.13526301 -0.14331579 1.2080001 4287323861
0.13959868 -0.14438355 1.217 4287126743
0.14410099 -0.14556992 1.2270001 4283574951
0.14781676 -0.14592585 1.23 4282589336
0.15142603 -0.14616312 1.2320001 4278190080
0.15504622 -0.14640041 1.2340001 4278190080
0.20330337 -0.15221371 1.2830001 4278190080
0.20745651 -0.15268826 1.2870001 4278190080
0.21130368 -0.15292555 1.289 4278190080
0.21349517 -0.15197644 1.281 4286206393
0.2156429 -0.15102732 1.273 4284831626
0.22428788 -0.15458649 1.3030001 4282600539
0.1044137 -0.14777809 1.2750001 4294963199
0.10722317 -0.14685087 1.2670001 4289101024
0.11033835 -0.14638725 1.263 4289164273
0.11325145 -0.14569181 1.2570001 4286532302
0.11548193 -0.14418505 1.2440001 4286597066
0.1173546 -0.14233059 1.228 4287386582
0.12012278 -0.14163516 1.222 4286465993
0.12295918 -0.14105564 1.217 4285414585
0.125872 -0.14059202 1.2130001 4285217463
0.12908246 -0.14047612 1.212 4283047829
0.13261516 -0.14070792 1.2140001 4284758961
0.13660669 -0.14140336 1.22 4285614270
0.14120457 -0.14267831 1.2310001 4278190080
0.14515796 -0.14325783 1.2360001 4278190080
0.21130368 -0.14940076 1.289 4283771301
0.21382849 -0.14870533 1.2830001 4286206395
0.21699807 -0.14847353 1.281 4287527097
0.22686987 -0.15276198 1.3180001 4282862173
0.099198446 -0.14689451 1.2980001 4287986870
0.10061056 -0.14383891 1.271 4286800309
0.10384044 -0.14349942 1.268 4285811633
0.10688466 -0.14293356 1.263 4285612738
0.11007626 -0.14259405 1.2600001 4285479875
0.11289106 -0.14180186 1.253 4285084858
0.11548193 -0.14078332 1.2440001 4287386841
0.11773687 -0.13942529 1.2320001 4286860499
0.12002448 -0.13818043 1.2210001 4278190080
0.12225194 -0.13693555 1.21 4285415096
0.12597577 -0.13738823 1.2140001 4285350332
0.12993449 -0.13806726 1.22 4282983063
0.13381678 -0.1386331 1.225 4283246748
0.20681174 -0.14519696 1.2830001 4278190080
0.21064799 -0.14542329 1.2850001 4278190080
0.2151618 -0.14610231 1.291 4285746109
0.21784505 -0.14553647 1.286 4288838863
0.064538851 -0.14522251 1.3150001 4278190080
0.067202091 -0.14323467 1.2970001 4278190080
0.070421457 -0.14257206 1.291 4287983069
0.073436171 -0.14157815 1.2820001 4287455957
0.076401658 -0.14058423 1.273 4287258581
0.079380676 -0.13970076 1.2650001 4285941957
0.082774349 -0.13959031 1.2640001 4285086907
0.086571872 -0.14014249 1.2690001 4284232879
0.090112917 -0.14025292 1.2700001 4284231600
0.093512051 -0.14014249 1.2690001 4278190080
0.096982144 -0.14014249 1.2690001 4278190080
0.10029393 -0.13992162 1.2670001 4278190080
0.10367665 -0.13981117 1.266 4278190080
0.10680003 -0.13936944 1.2620001 4283243171
0.10998891 -0.13903813 1.2590001 4285545666
0.11244059 -0.13782334 1.248 4287848421
0.11585325 -0.13782334 1.248 4287321820
0.11811914 -0.13649812 1.2360001 4285282746
0.11992618 -0.13473116 1.22 4278190080
0.12255505 -0.13395812 1.2130001 4285021367
0.12649462 -0.13462071 1.2190001 4284496302
0.13099954 -0.13583551 1.23 4282129547
0.19567466 -0.14124684 1.279 4287190992
0.21097583 -0.14213032 1.2870001 4283310496
0.2151618 -0.14257206 1.291 4285943486
0.21852264 -0.14246163 1.2900001 4287197113
0.22532068 -0.1445599 1.309 4294965503
0.064293459 -0.14108813 1.3100001 4278190080
0.066787578 -0.13882641 1.289 4278190080
0.069494143 -0.13721089 1.274 4278190080
0.07263422 -0.1365647 1.268 4285482686
0.076101579 -0.1365647 1.268 4285547199
0.079506181 -0.136457 1.2670001 4278190080
0.082970805 -0.136457 1.2670001 4278190080
0.08643543 -0.136457 1.2670001 4278190080
0.10384044 -0.1365647 1.268 4278190080
0.10680003 -0.13591848 1.2620001 4285019833
0.10955209 -0.13505688 1.2540001 4285085628
0.11271087 -0.13473378 1.251 4285809353
0.11585325 -0.13441068 1.248 4284230317
0.1182147 -0.13322596 1.2370001 4283770534
0.12022109 -0.13171814 1.223 4283640229
0.12295918 -0.13107195 1.217 4283377823
0.12763609 -0.13247207 1.23 4283575711
0.13153204 -0.13301057 1.235 4282655889
0.18962286 -0.13591848 1.2620001 4278190080
0.19429775 -0.1367801 1.2700001 4278190080
0.19917209 -0.1377494 1.279 4286664648
0.20330337 -0.1381802 1.2830001 4286730702
0.20697293 -0.1382879 1.284 4282718099
0.21064799 -0.13839561 1.2850001 4283113371
0.21499513 -0.13893412 1.2900001 4285417144
0.21733686 -0.1381802 1.2830001 4286078380
0.21998458 -0.1376417 1.2780001 4294965757
0.06561859 -0.14034002 1.337 4278190080
0.067461155 -0.13666619 1.302 4278190080
0.069712333 -0.13414699 1.2780001 4278190080
0.0726915 -0.1332023 1.2690001 4283444124
0.10416801 -0.13351721 1.2720001 4284627124
0.10713854 -0.13288739 1.266 4284363954
0.11016362 -0.13236256 1.261 4284165296
0.11307126 -0.13173278 1.2550001 4284296882
0.11603891 -0.13120794 1.25 4283770795
0.11859696 -0.13026324 1.2410001 4283245473
0.12100748 -0.12921357 1.2310001 4283377569
0.12467676 -0.12952848 1.2340001 4282589586
0.12825869 -0.12973841 1.2360001 4282525071
0.13206455 -0.13015828 1.24 4282525582
0.19337979 -0.13267747 1.2640001 4278190080
0.19823775 -0.13362217 1.273 4286532805
0.20314491 -0.13456687 1.2820001 4286533062
0.20761772 -0.13519666 1.2880001 4287915228
0.21146761 -0.1354066 1.2900001 4283968167
0.21549511 -0.13572149 1.2930001 4284759985
0.21784505 -0.13498673 1.286 4285748653
0.22291082 -0.13593142 1.2950001 4294965503
0.064931482 -0.13525273 1.3230001 4278190080
0.067564785 -0.13331032 1.304 4284894106
0.069985077 -0.13116345 1.2830001 4290090722
0.072920628 -0.13014114 1.273 4293379583
0.076341644 -0.1300389 1.2720001 4287194317
0.10100635 -0.13044783 1.276 4282390413
0.10400423 -0.12983444 1.2700001 4285284539
0.10696929 -0.12922105 1.2640001 4284889015
0.10998891 -0.1287099 1.2590001 4284494261
0.11298116 -0.12819873 1.2540001 4284033710
0.11585325 -0.12758535 1.248 4283836842
0.11869252 -0.12697195 1.2420001 4283509158
0.12189218 -0.12676749 1.24 4282983322
0.12508091 -0.12656303 1.238 4282129292
0.12846623 -0.12656303 1.238 4282065031
0.13195807 -0.12666526 1.2390001 4282197129
0.19246185 -0.12860766 1.258 4278190080
0.1968362 -0.12922105 1.2640001 4278190080
0.20171878 -0.13014114 1.273 4278190080
0.20713413 -0.13136792 1.2850001 4278190080
0.21179546 -0.13208354 1.2920001 4287784412
0.21666177 -0.13290139 1.3000001 4284298921
0.22123301 -0.13351479 1.3060001 4284301460
0.22256656 -0.13218577 1.2930001 4294965759
0.060294151 -0.12944603 1.3010001 4278190080
0.063017406 -0.12775457 1.284 4278190080
0.06626945 -0.12725709 1.279 4285879235
0.069712333 -0.12715758 1.2780001 4285747131
0.0726915 -0.12626211 1.2690001 4287852247
0.075801492 -0.12566513 1.263 4278190080
0.078753166 -0.12486915 1.2550001 4286470345
0.097364269 -0.1267596 1.274 4278190080
0.10037308 -0.12616262 1.268 4278190080
0.10334909 -0.12556563 1.2620001 4278190080
0.10654616 -0.12526715 1.2590001 4285283259
0.10990154 -0.12516764 1.258 4284887988
0.11298116 -0.12476966 1.2540001 4284098985
0.11603891 -0.12437166 1.25 4283638432
0.11897922 -0.12387418 1.245 4283376542
0.12218709 -0.12367519 1.243 4282127756
0.12528297 -0.12337669 1.24 4282194828
0.12846623 -0.1231777 1.238 4281932938
0.13174504 -0.1230782 1.2370001 4278190080
0.20665056 -0.12755558 1.2820001 4286730441
0.21195939 -0.12865005 1.2930001 4288046041
0.21699509 -0.12954552 1.302 4287521489
0.22157182 -0.13014251 1.3080001 4284759964
0.2232551 -0.12904803 1.2970001 4294964479
0.059830703 -0.1249208 1.291 4278190080
0.062526613 -0.12327583 1.274 4278190080
0.065647684 -0.1225985 1.2670001 4285485240
0.068948664 -0.12230821 1.2640001 4285680825
0.071832262 -0.12134058 1.2540001 4287589588
0.074060999 -0.11940533 1.2340001 4278190080
0.076933369 -0.11863123 1.2260001 4278190080
0.10179312 -0.12027619 1.243 4278190080
0.10536136 -0.12046971 1.245 4278190080
0.10902791 -0.12076001 1.248 4278190080
0.11217029 -0.12046971 1.245 4278190080
0.11548193 -0.12037295 1.2440001 4278190080
0.11859696 -0.12008266 1.2410001 4278190080
0.12189218 -0.11998589 1.24 4284956342
0.12497987 -0.11969561 1.2370001 4278190080
0.20045111 -0.12240498 1.2650001 4278190080
0.20536099 -0.12327583 1.274 4278190080
0.2108119 -0.124437 1.286 4278190080
0.21666177 -0.12579167 1.3000001 4287783891
0.21970844 -0.12550138 1.2970001 4287785172
0.22291082 -0.12530786 1.2950001 4286208687
0.23169801 -0.12821074 1.325 4286868887
0.060850281 -0.12345918 1.3130001 4278190080
0.063017406 -0.12073235 1.284 4278190080
0.065854944 -0.11950999 1.271 4278190080
0.068948664 -0.11885179 1.2640001 4285023148
0.071717702 -0.11772345 1.2520001 4286405312
0.074301064 -0.11640705 1.238 4285221040
0.076807864 -0.11509065 1.2240001 4278190080
0.11831027 -0.11640705 1.238 4278190080
0.2096644 -0.12026221 1.279 4286664388
0.21482846 -0.1212025 1.289 4287585744
0.22055542 -0.12242486 1.302 4288112597
0.22291082 -0.12176666 1.2950001 4288507867
0.23257233 -0.12505765 1.33 4285547198
0.23922846 -0.12665613 1.3470001 4284496813
0.24940391 -0.13004115 1.383 4287196609
0.063998982 -0.11904711 1.304 4278190080
0.066321261 -0.11685607 1.2800001 4278190080
0.069275953 -0.11594313 1.2700001 4278190080
0.072405085 -0.11539537 1.2640001 4284892073
0.075141303 -0.11429985 1.2520001 4286865861
0.077372625 -0.11256526 1.233 4278190080
0.20310427 -0.1150302 1.2600001 4278190080
0.2073694 -0.11548667 1.2650001 4287256785
0.21266186 -0.11649089 1.276 4287586001
0.21462652 -0.11566925 1.2670001 4287980759
0.22342722 -0.11849936 1.2980001 4288572896
0.23834294 -0.12443346 1.363 4285875386
0.24313569 -0.12498122 1.3690001 4278190080
0.24543653 -0.12425087 1.3610001 4286338757
0.25080582 -0.12507251 1.3700001 4285487011
0.067409344 -0.11521564 1.3010001 4278190080
0.069985077 -0.11362157 1.2830001 4278190080
0.073035195 -0.1129131 1.2750001 4278190080
0.075981542 -0.11211606 1.266 4286471103
0.078376651 -0.11061055 1.2490001 4285023148
0.20197593 -0.11096479 1.253 4278190080
0.20589405 -0.11123048 1.256 4286730184
0.20816195 -0.11061055 1.2490001 4287322321
0.21428771 -0.11202751 1.2650001 4287914968
0.22084524 -0.11362157 1.2830001 4288046554
0.24473409 -0.12203471 1.378 4278190080
0.24796124 -0.12176903 1.3750001 4286140098
0.2517212 -0.12176903 1.3750001 4287458252
0.25603855 -0.12203471 1.378 4290357710
0.071294226 -0.112173 1.307 4278190080
0.073722586 -0.1104565 1.2870001 4278190080
0.076701745 -0.10968407 1.2780001 4278190080
0.079192422 -0.10831088 1.2620001 4278190080
0.081530109 -0.10685185 1.245 4284760234
0.084184155 -0.10590778 1.2340001 4284167850
0.20116995 -0.10710934 1.248 4278190080
0.20491049 -0.10728098 1.25 4278190080
0.20882861 -0.10753845 1.253 4278190080
0.21174677 -0.10728098 1.25 4287519697
0.21998458 -0.10968407 1.2780001 4288375260
0.2459773 -0.11886732 1.3850001 4284954281
0.24922357 -0.11860985 1.3820001 4284823980
0.2528196 -0.11852402 1.381 4286997437
0.25529534 -0.11792325 1.3740001 4289304509
0.077305719 -0.12397069 1.4920001 4278190080
0.07578475 -0.10992844 1.3230001 4278190080
0.077662013 -0.10751882 1.294 4278190080
0.080196448 -0.10618936 1.2780001 4278190080
0.082512401 -0.10469375 1.2600001 4284432292
0.085139237 -0.10369667 1.248 4278190080
0.20949526 -0.10444447 1.2570001 4278190080
0.21445711 -0.10519228 1.266 4278190080
0.22153376 -0.10693718 1.2870001 4278190080
0.22924989 -0.10893136 1.3110001 4288441051
0.24562208 -0.11491385 1.383 4286138809
0.25120726 -0.11574475 1.393 4286403012
0.25391802 -0.11524621 1.3870001 4286867647
0.25622436 -0.11458149 1.3790001 4294966527
0.26508579 -0.11682492 1.406 4294966783
0.079794526 -0.11193559 1.393 4278190080
0.078622289 -0.10526605 1.3100001 4278190080
0.080635712 -0.10325716 1.2850001 4284629921
0.083363719 -0.1022929 1.273 4285023661
0.085821442 -0.10108755 1.258 4284825770
0.088764772 -0.10052507 1.251 4283970211
0.22015673 -0.10277502 1.279 4278190080
0.22820069 -0.10486427 1.3050001 4288506844
0.2459773 -0.11129273 1.3850001 4287717839
0.2528303 -0.11265878 1.4020001 4278190080
0.25593179 -0.11233736 1.3980001 4286867635
0.25826821 -0.11169451 1.3900001 4294965503
0.067189112 -0.1062635 1.3690001 4286473657
0.075211927 -0.10191671 1.3130001 4278190080
0.077662013 -0.10044191 1.294 4282261632
0.08069846 -0.099820942 1.286 4281405560
0.083625667 -0.099122345 1.2770001 4283444627
0.08643543 -0.098346129 1.2670001 4287786454
0.089119546 -0.0974923 1.256 4284233379
0.21912393 -0.098811865 1.273 4278190080
0.22924989 -0.10176147 1.3110001 4287981011
0.254814 -0.10967883 1.4130001 4286733002
0.25867784 -0.10967883 1.4130001 4290883292
0.26179847 -0.10936835 1.409 4294966527
0.059658419 -0.10244507 1.368 4286472388
0.061962549 -0.10012358 1.337 4283839910
0.065422274 -0.099824034 1.3330001 4283247775
0.06870468 -0.099299826 1.3260001 4283116957
0.071676068 -0.098401181 1.314 4283313055
0.074352689 -0.097203001 1.2980001 4282459532
0.077241898 -0.096379235 1.2870001 4282393222
0.080259204 -0.095780142 1.279 4281142640
0.08342921 -0.095405713 1.274 4288379102
0.086298987 -0.094731741 1.2650001 4286404802
0.089190498 -0.094132632 1.2570001 4286075583
0.092111953 -0.093608432 1.25 4285153456
0.21843539 -0.095031284 1.2690001 4278190080
0.2271515 -0.097277887 1.299 4288112850
0.24224767 -0.10214552 1.3640001 4288968670
0.2549943 -0.10588986 1.414 4286799557
0.25904396 -0.10596474 1.4150001 4294966015
0.26588619 -0.10716294 1.4310001 4294966782
0.054854847 -0.096828297 1.342 4278190080
0.057870414 -0.095746018 1.327 4284366254
0.061452761 -0.095673859 1.3260001 4283641506
0.064931482 -0.095457412 1.3230001 4278190080
0.068393797 -0.095240958 1.3200001 4283050396
0.071676068 -0.094808035 1.314 4282130826
0.074753664 -0.094158664 1.3050001 4281933700
0.077662013 -0.093364999 1.294 4281406841
0.080447458 -0.092499174 1.2820001 4278190080
0.083232753 -0.091705494 1.271 4288379104
0.086162545 -0.091128275 1.263 4286272703
0.089545272 -0.091056116 1.2620001 4286470084
0.092848845 -0.090911821 1.2600001 4286075072
0.21791899 -0.091344729 1.266 4278190080
0.22260496 -0.091849796 1.273 4287850705
0.23247962 -0.094447277 1.309 4288312537
0.2519286 -0.10079668 1.3970001 4286735296
0.25867784 -0.10195111 1.4130001 4294966015
0.057914022 -0.092186742 1.3280001 4278190080
0.064980559 -0.091909073 1.3240001 4281998731
0.068497427 -0.091770232 1.322 4282393996
0.071948804 -0.091561981 1.319 4282657934
0.075269215 -0.091214895 1.314 4282393990
0.078202173 -0.0904513 1.3030001 4278190080
0.080572963 -0.089132361 1.284 4287195344
0.083036296 -0.088021681 1.268 4278190080
0.086298987 -0.087813422 1.2650001 4286141117
0.089758143 -0.087813422 1.2650001 4286535623
0.093069918 -0.087674588 1.263 4285614521
0.096294329 -0.087466329 1.2600001 4284628139
0.099660657 -0.08739692 1.2590001 4283773343
0.10595376 -0.086910993 1.2520001 4282457483
0.1088532 -0.086494491 1.2460001 4282194825
0.1118099 -0.086147398 1.2410001 4282392204
0.11529627 -0.086216815 1.2420001 4282852755
0.21809115 -0.087952256 1.2670001 4278190080
0.22452848 -0.089132361 1.284 4278190080
0.22928281 -0.089618281 1.291 4288181711
0.23966581 -0.092256166 1.3290001 4294965759
0.2553826 -0.096837729 1.3950001 4294966527
0.066689685 -0.095957153 1.439 4278190080
0.065471351 -0.08895541 1.3340001 4278190080
0.068963751 -0.088755362 1.3310001 4283644318
0.072330639 -0.088421941 1.3260001 4283643036
0.07567019 -0.088088527 1.3210001 4283642776
0.078442238 -0.087154962 1.307 4278190080
0.080761217 -0.085821301 1.2870001 4278190080
0.083167262 -0.084687687 1.2700001 4287260111
0.086571872 -0.084620997 1.2690001 4286141119
0.089971013 -0.084554322 1.268 4285614523
0.093217298 -0.084354267 1.2650001 4286075587
0.096447185 -0.084154218 1.2620001 4284431273
0.099818975 -0.084087536 1.261 4283181206
0.10326719 -0.084087536 1.261 4282654862
0.10629227 -0.083754115 1.256 4283115413
0.10929 -0.083420709 1.251 4283115927
0.11217029 -0.083020605 1.245 4282984343
0.22522795 -0.085887983 1.2880001 4278190080
0.23159161 -0.086954914 1.304 4288246225
0.2366001 -0.087488383 1.312 4294965503
0.25574872 -0.093156457 1.3970001 4294966526
0.068219773 -0.088888697 1.3900001 4278190080
0.069378257 -0.085627317 1.3390001 4278190080
0.071948804 -0.084348343 1.319 4278190080
0.075326495 -0.08409255 1.3150001 4282655113
0.078082137 -0.083197266 1.3010001 4278190080
0.080572963 -0.082110137 1.284 4278190080
0.08342921 -0.081470653 1.274 4287325393
0.086776532 -0.081342757 1.2720001 4286732488
0.090112917 -0.08121486 1.2700001 4284955824
0.093069918 -0.080767214 1.263 4286338247
0.096065059 -0.080383524 1.2570001 4284496555
0.099344023 -0.080255628 1.2550001 4283641503
0.10285773 -0.080319576 1.256 4282852241
0.10603838 -0.080127731 1.253 4283049620
0.10911528 -0.079871938 1.2490001 4282655376
0.11208019 -0.079552189 1.2440001 4282523790
0.11557476 -0.079616137 1.245 4278190080
0.22575256 -0.082557783 1.291 4278190080
0.23123643 -0.083261214 1.302 4288180432
0.2371411 -0.08409255 1.3150001 4294965247
0.068465173 -0.085393801 1.3950001 4278190080
0.069481887 -0.082088239 1.3410001 4278190080
0.072057903 -0.080863953 1.3210001 4278190080
0.074925512 -0.080068171 1.3080001 4282588807
0.077842064 -0.07939481 1.2970001 4285548979
0.080196448 -0.078231744 1.2780001 4278190080
0.083232753 -0.077803247 1.271 4286995660
0.08664009 -0.077742033 1.2700001 4286074304
0.089900054 -0.077558383 1.2670001 4284429480
0.093143605 -0.077374749 1.2640001 4284495273
0.096217915 -0.077068672 1.2590001 4285220278
0.099423185 -0.07688503 1.256 4283773089
0.10269394 -0.076762602 1.2540001 4283246999
0.10603838 -0.076701388 1.253 4283312792
0.10929 -0.07657896 1.251 4283576478
0.22557768 -0.078966312 1.2900001 4278190080
0.23176922 -0.079884522 1.3050001 4288902867
0.2360591 -0.080129385 1.309 4294304510
0.24842592 -0.083067663 1.3570001 4294966527
0.068023458 -0.081052847 1.386 4278190080
0.06958551 -0.078538217 1.3430001 4278190080
0.072112449 -0.077310145 1.322 4278190080
0.074868232 -0.076432951 1.307 4282521732
0.077541977 -0.075555757 1.2920001 4288114137
0.08069846 -0.075204879 1.286 4278190080
0.083887607 -0.074912481 1.281 4286271937
0.086571872 -0.074210726 1.2690001 4285087410
0.089758143 -0.073976807 1.2650001 4284495789
0.093143605 -0.073918328 1.2640001 4283772320
0.096294329 -0.073684402 1.2600001 4283707039
0.099581495 -0.073567443 1.258 4283904675
0.10285773 -0.073450483 1.256 4283707550
0.10620764 -0.073392011 1.2550001 4283247513
0.10963945 -0.073392011 1.2550001 4283379099
0.17685512 -0.072807208 1.245 4278190080
0.18025959 -0.072807208 1.245 4278190080
0.1839591 -0.072924167 1.2470001 4278190080
0.22592741 -0.075555757 1.2920001 4278190080
0.23336764 -0.076842308 1.314 4278190080
0.23732144 -0.076959267 1.3160001 4291144397
0.24531375 -0.078362778 1.34 4294966527
0.068023458 -0.077262811 1.386 4278190080
0.070000023 -0.075311735 1.3510001 4278190080
0.072548836 -0.074141085 1.33 4278190080
0.0749828 -0.072970435 1.309 4278190080
0.077181876 -0.071688294 1.286 4288376798
0.080133699 -0.071186587 1.2770001 4285942459
0.08369115 -0.07124234 1.2780001 4285548214
0.08704941 -0.071130849 1.276 4284890800
0.090041958 -0.070740633 1.2690001 4283904163
0.093069918 -0.070406161 1.263 4283246745
0.096447185 -0.070350409 1.2620001 4283904929
0.099898137 -0.070350409 1.2620001 4282325895
0.10334909 -0.070350409 1.2620001 4282984593
0.10688466 -0.070406161 1.263 4283248277
0.23443323 -0.073583633 1.3200001 4289753546
0.23804279 -0.073583633 1.3200001 4289432498
0.24860901 -0.075701952 1.358 4294966783
0.068563327 -0.074055903 1.3970001 4278190080
0.07056997 -0.072200529 1.3620001 4278190080
0.072930664 -0.070875265 1.337 4278190080
0.07504008 -0.069443978 1.3100001 4278190080
0.077181876 -0.068171717 1.286 4288640483
0.07981994 -0.067429572 1.2720001 4285350835
0.083363719 -0.067482576 1.273 4285087409
0.08664009 -0.067323551 1.2700001 4284364969
0.089758143 -0.067058496 1.2650001 4284036261
0.092922539 -0.066846453 1.261 4283246999
0.096217915 -0.066740431 1.2590001 4283575964
0.099898137 -0.066899464 1.2620001 4283313560
0.10334909 -0.066899464 1.2620001 4282392969
0.10688466 -0.066952474 1.263 4281998980
0.11051308 -0.067058496 1.2650001 4282065286
0.11397223 -0.067058496 1.2650001 4282262152
0.15034047 -0.066316344 1.251 4278190080
0.22750121 -0.06896688 1.3010001 4278190080
0.23514363 -0.070186123 1.3240001 4278190080
0.24002649 -0.070557199 1.3310001 4289694130
0.25062278 -0.072571605 1.3690001 4294966783
0.069250435 -0.07093966 1.411 4278190080
0.071191728 -0.069079444 1.3740001 4278190080
0.073203407 -0.067470603 1.342 4278190080
0.07504008 -0.065861769 1.3100001 4287786706
0.076821782 -0.064353481 1.2800001 4278190080
0.079945445 -0.064051829 1.274 4278190080
0.083298236 -0.063951276 1.2720001 4284627375
0.086571872 -0.063800447 1.2690001 4283443616
0.089758143 -0.063599341 1.2650001 4283114908
0.092848845 -0.063347958 1.2600001 4283246748
0.096294329 -0.063347958 1.2600001 4283838882
0.099739812 -0.063347958 1.2600001 4283247513
0.10334909 -0.063448511 1.2620001 4282788497
0.10688466 -0.063498788 1.263 4282130567
0.11042571 -0.063549064 1.2640001 4282065286
0.23496604 -0.066515356 1.3230001 4289946805
0.24219051 -0.067520879 1.3430001 4290089912
0.2478767 -0.068073913 1.3540001 4294966527
0.068955958 -0.066796012 1.4050001 4278190080
0.070725411 -0.064894348 1.365 4278190080
0.072821572 -0.063468099 1.335 4278190080
0.074639104 -0.061946765 1.3030001 4278190080
0.076581709 -0.060663145 1.276 4278190080
0.079631686 -0.06033035 1.2690001 4284166310
0.083101779 -0.06033035 1.2690001 4283969445
0.086298987 -0.060140185 1.2650001 4283443614
0.089616232 -0.060045101 1.263 4283048858
0.092848845 -0.059902474 1.2600001 4283115162
0.096217915 -0.059854936 1.2590001 4283049367
0.099581495 -0.05980739 1.258 4283379101
0.10302151 -0.05980739 1.258 4282919829
0.10663077 -0.059902474 1.2600001 4282261899
0.10998891 -0.059854936 1.2590001 4282262410
0.11352174 -0.059902474 1.2600001 4282065544
0.1168744 -0.059854936 1.2590001 4281999751
0.12041271 -0.059902474 1.2600001 4282065033
0.15094134 -0.059712309 1.256 4278190080
0.22802581 -0.06199431 1.304 4286993078
0.23478842 -0.062850058 1.322 4286521717
0.23876412 -0.062945142 1.3240001 4290419391
0.24696137 -0.064133689 1.3490001 4294900991
0.064928591 -0.0627748 1.401 4294966271
0.067041881 -0.061206553 1.3660001 4278190080
0.06958551 -0.060175985 1.3430001 4278190080
0.07222154 -0.059324648 1.3240001 4278190080
0.074352689 -0.058159668 1.2980001 4278190080
0.07628163 -0.056949873 1.271 4278190080
0.079443432 -0.056725841 1.266 4285087160
0.082708865 -0.056591418 1.263 4284298161
0.11678156 -0.056367379 1.258 4281999499
0.12022158 -0.056367379 1.258 4282065292
0.22239444 -0.057890821 1.2920001 4285612722
0.22890015 -0.058652543 1.309 4289349029
0.23496604 -0.059279844 1.3230001 4288298381
0.23768212 -0.059055809 1.3180001 4294040049
0.2491582 -0.060982514 1.3610001 4294966783
0.06009452 -0.057976082 1.378 4294967039
0.062565029 -0.056798048 1.35 4278190080
0.06561859 -0.056251105 1.337 4278190080
0.06891194 -0.055956598 1.33 4278190080
0.071730614 -0.055325508 1.3150001 4278190080
0.073837146 -0.054231621 1.289 4278190080
0.076041557 -0.053306021 1.2670001 4278190080
0.079129674 -0.053053584 1.261 4285153205
0.082315944 -0.052885294 1.2570001 4285152953
0.085821442 -0.052927364 1.258 4284100784
0.11715289 -0.053095654 1.2620001 4278190080
0.1206994 -0.053137731 1.263 4282065035
0.12385818 -0.053011511 1.2600001 4282328207
0.1447605 -0.053095654 1.2620001 4278190080
0.14785913 -0.052969441 1.2590001 4278190080
0.21733686 -0.053979184 1.2830001 4278190080
0.22291082 -0.054484054 1.2950001 4286138549
0.22977449 -0.055283435 1.314 4289150880
0.23603164 -0.055914525 1.3290001 4288826016
0.23930512 -0.055830378 1.327 4294966527
0.25373495 -0.058312662 1.386 4294966783
0.05612199 -0.054011237 1.373 4278190080
0.058917053 -0.0531458 1.3510001 4278190080
0.062008895 -0.052634403 1.3380001 4278190080
0.065569513 -0.052555729 1.3360001 4293646330
0.068963751 -0.052359037 1.3310001 4282919303
0.071785167 -0.051768962 1.3160001 4282523525
0.073436171 -0.050431468 1.2820001 4278190080
0.075921521 -0.049762722 1.2650001 4278190080
0.079066917 -0.049566027 1.2600001 4285481918
0.21801445 -0.050628159 1.2870001 4278190080
0.22342722 -0.051060881 1.2980001 4285941428
0.23012421 -0.051768962 1.3160001 4287388349
0.23691966 -0.052477051 1.3340001 4287065518
0.24074782 -0.052516386 1.335 4294900991
0.055631481 -0.049817514 1.3610001 4278190080
0.058786225 -0.049341664 1.348 4278190080
0.062194273 -0.049122043 1.342 4282788754
0.065962143 -0.049195252 1.3440001 4282787216
0.069015563 -0.048756011 1.332 4282062721
0.071512423 -0.047987331 1.3110001 4285878715
0.073207043 -0.046779413 1.2780001 4278190080
0.075861506 -0.046266966 1.2640001 4284627629
0.07894142 -0.046047337 1.258 4284758195
0.081988513 -0.045827717 1.2520001 4284626356
0.085412122 -0.045827717 1.2520001 4278190080
0.19870493 -0.046706207 1.276 4278190080
0.21886145 -0.04729186 1.2920001 4278190080
0.22411576 -0.0476579 1.302 4285680565
0.23047395 -0.048243556 1.3180001 4286865600
0.23709725 -0.048865817 1.335 4291541734
0.24363318 -0.049451478 1.3510001 4294901503
0.056040235 -0.046434533 1.3710001 4278190080
0.059353147 -0.046095844 1.3610001 4282591118
0.062982135 -0.046028107 1.3590001 4283050645
0.066698328 -0.046028107 1.3590001 4282852492
0.069326445 -0.045316856 1.3380001 4282128769
0.070748746 -0.043928221 1.2970001 4287589335
0.07263422 -0.042946018 1.268 4278190080
0.07574147 -0.042742804 1.2620001 4284429996
0.081988513 -0.042404111 1.2520001 4283969194
0.21953905 -0.043894354 1.296 4278190080
0.22514854 -0.044300783 1.3080001 4285485489
0.23152314 -0.044842687 1.3240001 4287528110
0.23656444 -0.045113642 1.332 4294308087
0.24597755 -0.046197455 1.3640001 4294901503
0.060050908 -0.042872328 1.3770001 4281670016
0.063584603 -0.04271666 1.3720001 4282523527
0.066992804 -0.042498715 1.365 4282654601
0.069222815 -0.041595813 1.3360001 4286273215
0.069875978 -0.039883409 1.281 4278190080
0.072290517 -0.039291851 1.2620001 4278190080
0.075381368 -0.039105043 1.256 4284298410
0.078564912 -0.038980506 1.2520001 4283969447
0.081857547 -0.038918238 1.25 4278190080
0.13568568 -0.039665468 1.274 4278190080
0.13906021 -0.039634336 1.273 4278190080
0.21987782 -0.040412698 1.2980001 4278190080
0.22635347 -0.040941983 1.3150001 4278190080
0.23292208 -0.041471273 1.332 4292729080
0.24064927 -0.04218737 1.355 4294834943
0.066943727 -0.038737707 1.3640001 4285417393
0.068756498 -0.037686907 1.327 4278190080
0.069548696 -0.036210101 1.2750001 4278190080
0.07206139 -0.035727303 1.258 4278190080
0.075201318 -0.035585299 1.253 4284627629
0.081988513 -0.035556901 1.2520001 4283574948
0.12175063 -0.036181703 1.274 4278190080
0.13568568 -0.036181703 1.274 4278190080
0.22738625 -0.037516508 1.3210001 4278190080
0.23414613 -0.038027707 1.3390001 4293255414
0.24047166 -0.038453709 1.3540001 4294901759
0.066502012 -0.034776848 1.355 4278190080
0.067512974 -0.033442236 1.3030001 4278190080
0.069003209 -0.032466948 1.2650001 4278190080
0.071946822 -0.032235954 1.256 4285021617
0.075141303 -0.032133292 1.2520001 4284429480
0.12203732 -0.032774933 1.2770001 4278190080
0.13589869 -0.032749269 1.276 4278190080
0.13938792 -0.032749269 1.276 4284364969
0.1610772 -0.032903261 1.2820001 4278190080
0.22824693 -0.034032546 1.3260001 4278190080
0.23484561 -0.034468859 1.3430001 4278190080
0.066256613 -0.030956931 1.35 4278190080
0.066373073 -0.029374689 1.281 4278190080
0.068512283 -0.028801411 1.256 4278190080
0.071717702 -0.028709687 1.2520001 4285416375
0.13621821 -0.029328827 1.279 4278190080
0.16132849 -0.029443482 1.284 4278190080
0.236944 -0.031071588 1.355 4288715965
0.065667674 -0.027022986 1.3380001 4278190080
0.065803126 -0.025649618 1.2700001 4278190080
0.068348639 -0.025306277 1.253 4278190080
0.071488567 -0.025205296 1.248 4285680317
0.13653772 -0.025891978 1.2820001 4278190080
0.15769447 -0.025912175 1.2830001 4278190080
0.16120285 -0.025912175 1.2830001 4278190080
0.18182695 -0.025851585 1.2800001 4278190080
0.18576148 -0.025912175 1.2830001 4278190080
0.22343516 -0.026639249 1.319 4278190080
0.22979611 -0.026962394 1.335 4288318412
0.064342536 -0.022892736 1.3110001 4278190080
0.065647684 -0.022124406 1.2670001 4278190080
0.068348639 -0.021879937 1.253 4278190080
0.22462097 -0.023154667 1.3260001 4278190080
0.23186168 -0.023521369 1.3470001 4287591621
0.063213721 -0.018969061 1.2880001 4278190080
0.065077737 -0.01849778 1.256 4278190080
0.068184994 -0.018409414 1.25 4278190080
0.071431287 -0.018365232 1.2470001 4284826031
0.11694541 -0.019116335 1.2980001 4278190080
0.12012349 -0.019057427 1.294 4278190080
0.12347081 -0.019027971 1.2920001 4278190080
0.12710209 -0.019042699 1.2930001 4278190080
0.13738975 -0.018998515 1.2900001 4278190080
0.14069879 -0.018969061 1.2880001 4278190080
0.062428456 -0.015255123 1.2720001 4278190080
0.064974107 -0.015039249 1.2540001 4278190080
0.068184994 -0.014991277 1.25 4285878204
0.12720039 -0.01551897 1.294 4284299433
0.061684482 -0.012323079 1.3310001 4278190080
0.062232144 -0.011739792 1.268 4278190080
0.064818673 -0.011582398 1.251 4286734275
0.068130441 -0.011563881 1.2490001 4285286321
0.10744374 -0.012147168 1.312 4278190080
0.11077753 -0.012119393 1.309 4278190080
0.11400755 -0.012082358 1.3050001 4278190080
0.1173058 -0.012054583 1.302 4278190080
0.12068047 -0.012036065 1.3000001 4278190080
0.12404419 -0.012017548 1.2980001 4278190080
0.127397 -0.011999032 1.296 4278190080
0.13104196 -0.01200829 1.2970001 4284957106
0.1557484 -0.011999032 1.296 4278190080
0.19995837 -0.012100874 1.307 4278190080
0.2041553 -0.012137909 1.3110001 4278190080
0.20869099 -0.012193461 1.317 4278190080
0.21358187 -0.012267529 1.325 4278190080
0.061267383 -0.0086247306 1.322 4278190080
0.062035825 -0.0082463389 1.2640001 4278190080
0.10401437 -0.0085725384 1.314 4278190080
0.10744374 -0.0085594906 1.312 4278190080
0.11094678 -0.0085529666 1.3110001 4283906208
0.12798679 -0.0084942514 1.302 4284299687
0.060803939 -0.0049718139 1.312 4278190080
0.061741352 -0.0047671814 1.258 4278190080
0.064818673 -0.004740655 1.251 4285943737
0.10042123 -0.004979393 1.314 4278190080
0.10369775 -0.0049642352 1.3100001 4278190080
0.10727996 -0.0049642352 1.3100001 4283249045
0.11077753 -0.0049604452 1.309 4283841184
0.11418229 -0.0049528666 1.307 4284432551
0.1173959 -0.0049377088 1.3030001 4278190080
0.12086613 -0.0049339193 1.302 4278190080
0.12442646 -0.0049339193 1.302 4278190080
0.12818339 -0.0049414979 1.304 4278190080
0.13195127 -0.004949077 1.3060001 4284562605
0.13573007 -0.0049566561 1.3080001 4278190080
0.15015174 -0.0049604452 1.309 4278190080
0.15373121 -0.0049604452 1.309 4278190080
0.1571905 -0.0049566561 1.3080001 4278190080
0.16101307 -0.0049642352 1.3100001 4278190080
0.06098932 -0.0013883571 1.3160001 4278190080
0.062281221 -0.0013387731 1.2690001 4278190080
0.10042123 -0.0013862472 1.314 4278190080
0.10369775 -0.0013820273 1.3100001 4281802110
0.10736184 -0.0013830822 1.3110001 4281407863
0.11086217 -0.0013820273 1.3100001 4281539449
0.12838 -0.0013778073 1.3060001 4284629418
0.13195127 -0.0013778073 1.3060001 4284497834
0.15455331 -0.0013883571 1.3160001 4285548728
0.16187344 -0.0013894122 1.317 4285548982
0.063164644 0.0021615513 1.2870001 4278190080
0.065906756 0.0021363585 1.2720001 4284694184
0.088891372 0.0021884239 1.3030001 4278190080
0.093305893 0.0022085782 1.3150001 4278190080
0.096828081 0.0022068985 1.314 4278190080
0.10019196 0.0022018601 1.3110001 4278190080
0.10361858 0.002198501 1.309 4282592391
0.10719806 0.002198501 1.309 4282066816
0.11060828 0.002195142 1.307 4281869186
0.12838 0.0021934623 1.3060001 4278190080
0.13185023 0.0021917829 1.3050001 4283576729
0.064342536 0.0057868022 1.3110001 4278190080
0.085262813 0.0057470757 1.302 4278190080
0.10727996 0.0057823877 1.3100001 4281736830
0.067357533 0.0092931101 1.3000001 4284958896
0.081639737 0.0093002589 1.3010001 4278190080
