# .PCD v0.7 - Point Cloud Data file format
VERSION 0.7
FIELDS x y z rgba
SIZE 4 4 4 4
TYPE F F F U
COUNT 1 1 1 1
WIDTH 1101
HEIGHT 1
VIEWPOINT 0 0 0 1 0 0 0
POINTS 1101
DATA ascii
0.053944957 -0.090351142 1.164 4283510687
0.057226084 -0.09050639 1.166 4283313055
0.060362712 -0.090428762 1.1650001 4283313057
0.063602962 -0.09050639 1.166 4283312289
0.066905968 -0.090661623 1.1680001 4283706537
0.070279926 -0.090894498 1.171 4283508904
0.073607542 -0.091049731 1.1730001 4283706537
0.077011578 -0.091282591 1.176 4283574436
0.08043202 -0.091515467 1.179 4284166826
0.083726957 -0.091593079 1.1800001 4284297896
0.086879991 -0.091515467 1.179 4284956340
0.089874707 -0.091282591 1.176 4285220025
0.093011335 -0.091204979 1.1750001 4283575711
0.096224383 -0.091204979 1.1750001 4282721172
0.099522054 -0.091282591 1.176 4282261133
0.1028252 -0.091360219 1.177 4281735304
0.10604372 -0.091360219 1.177 4281801352
0.1091694 -0.091282591 1.176 4282524052
0.11228963 -0.091204979 1.1750001 4282918299
0.11530607 -0.091049731 1.1730001 4283640742
0.11841262 -0.090972111 1.1720001 4283443365
0.12151369 -0.090894498 1.171 4283574438
0.12471581 -0.090894498 1.171 4284099503
0.12802716 -0.090972111 1.1720001 4284428468
0.13145594 -0.091127358 1.174 4284493489
0.13478097 -0.091204979 1.1750001 4284559282
0.13787657 -0.091127358 1.174 4284756404
0.14072636 -0.090894498 1.171 4284887736
0.14417429 -0.091049731 1.1730001 4284558771
0.14763317 -0.091204979 1.1750001 4284887736
0.1516165 -0.091670699 1.1810001 4284755891
0.15497707 -0.091748327 1.182 4284821682
0.15901235 -0.092214055 1.1880001 4284821682
0.16280729 -0.092524543 1.192 4285150647
0.16676341 -0.092912637 1.197 4285808831
0.1703207 -0.093067884 1.199 4286532553
0.17432334 -0.093455993 1.2040001 4287190481
0.1785008 -0.093921714 1.21 4286993356
0.18346238 -0.094775558 1.2210001 4287586004
0.18924905 -0.096017495 1.2370001 4285349303
0.19590186 -0.09764754 1.258 4285417129
0.036553577 -0.091436721 1.2210001 4278190080
0.03884691 -0.089040339 1.189 4278190080
0.041708771 -0.088216588 1.1780001 4278190080
0.044739321 -0.087842152 1.1730001 4284760485
0.047783393 -0.087542608 1.169 4283379602
0.050892819 -0.087392829 1.1670001 4283510939
0.053944957 -0.087168172 1.164 4282852755
0.05707885 -0.087093286 1.1630001 4282852757
0.06020727 -0.087018393 1.1620001 4283246748
0.063439317 -0.087093286 1.1630001 4283049115
0.066676833 -0.087168172 1.164 4283180703
0.069919825 -0.087243058 1.1650001 4282983324
0.073293783 -0.087467715 1.1680001 4283180703
0.076618664 -0.087617494 1.1700001 4282917531
0.0800227 -0.087842152 1.1730001 4283180701
0.083301231 -0.087917037 1.174 4283180955
0.086585239 -0.087991923 1.1750001 4283640993
0.089721859 -0.087917037 1.174 4283838372
0.09285301 -0.087842152 1.1730001 4283904167
0.096060589 -0.087842152 1.1730001 4283312287
0.099183552 -0.087767266 1.1720001 4282720150
0.10247575 -0.087842152 1.1730001 4282193806
0.10577343 -0.087917037 1.174 4282456978
0.10907658 -0.087991923 1.1750001 4282588564
0.11219406 -0.087917037 1.174 4283378082
0.11520778 -0.087767266 1.1720001 4283246497
0.11831158 -0.08769238 1.171 4283509158
0.12151369 -0.08769238 1.171 4283574438
0.1246093 -0.087617494 1.1700001 4283508647
0.12759021 -0.087467715 1.1680001 4283442854
0.13112003 -0.08769238 1.171 4284231087
0.13443685 -0.087767266 1.1720001 4284954040
0.1376417 -0.087767266 1.1720001 4284559025
0.14084654 -0.087767266 1.1720001 4284756150
0.14429721 -0.087917037 1.174 4284295853
0.14775881 -0.088066816 1.176 4284690611
0.15135974 -0.088291474 1.179 4284821684
0.15471484 -0.088366359 1.1800001 4284953268
0.15834311 -0.088591017 1.1830001 4285611198
0.16198778 -0.088815682 1.1860001 4285874624
0.16606683 -0.089264996 1.192 4285348280
0.17017867 -0.089714319 1.1980001 4285545658
0.17446811 -0.090238534 1.205 4286598344
0.17879584 -0.090762734 1.212 4286664391
0.18391314 -0.091661379 1.2240001 4287256526
0.18970802 -0.092859559 1.24 4287323083
0.19636904 -0.094432183 1.261 4286599108
0.20362028 -0.096229471 1.2850001 4285415096
0.20794009 -0.096603908 1.2900001 4285481403
0.21261512 -0.097128108 1.2970001 4285087926
0.21866171 -0.098251402 1.312 4283575202
0.042204462 -0.086005464 1.192 4278190080
0.045158871 -0.085428245 1.184 4278190080
0.048151277 -0.084995337 1.1780001 4283773594
0.051154479 -0.084634572 1.1730001 4282919313
0.054037645 -0.084129505 1.166 4282853009
0.057127926 -0.083985202 1.164 4282984343
0.060310893 -0.083985202 1.164 4283050137
0.063493863 -0.083985202 1.164 4283049883
0.066619553 -0.083913051 1.1630001 4282983576
0.069919825 -0.084057353 1.1650001 4282917783
0.073356532 -0.084345967 1.169 4282457748
0.076749638 -0.084562421 1.1720001 4282326160
0.0800227 -0.084634572 1.1730001 4282655125
0.083301231 -0.084706724 1.174 4282851990
0.086585239 -0.084778875 1.1750001 4283180955
0.089874707 -0.084851034 1.176 4283246748
0.09309049 -0.084851034 1.176 4283509666
0.096142486 -0.084706724 1.174 4283509668
0.099352807 -0.084706724 1.174 4283443875
0.10247575 -0.084634572 1.1730001 4282983324
0.10586353 -0.084778875 1.1750001 4282588566
0.10935508 -0.084995337 1.1780001 4282654359
0.11238519 -0.084851034 1.176 4283114910
0.11550268 -0.084778875 1.1750001 4283049117
0.11851365 -0.084634572 1.1730001 4283049117
0.121825 -0.084706724 1.174 4282720153
0.12471581 -0.084490269 1.171 4282851228
0.12769945 -0.084345967 1.169 4282917021
0.13100806 -0.084418118 1.1700001 4283310496
0.13443685 -0.084562421 1.1720001 4284033706
0.13775913 -0.084634572 1.1730001 4284559536
0.14096671 -0.084634572 1.1730001 4284361644
0.14442012 -0.084778875 1.1750001 4284624818
0.14775881 -0.084851034 1.176 4285085369
0.15135974 -0.085067481 1.179 4285084854
0.15471484 -0.08513964 1.1800001 4285413819
0.15847695 -0.085428245 1.184 4285743038
0.1618512 -0.085500404 1.1850001 4286203846
0.1659275 -0.085933313 1.1910001 4286072515
0.17017867 -0.086438373 1.1980001 4285875136
0.17475769 -0.08708775 1.207 4286203586
0.17894337 -0.087520659 1.2130001 4286993102
0.18391314 -0.088314332 1.2240001 4286927561
0.190014 -0.08961308 1.2420001 4287914456
0.1973034 -0.09141688 1.2670001 4287256785
0.20346181 -0.09264347 1.284 4284493733
0.20729533 -0.09278778 1.286 4285480123
0.21064799 -0.092715628 1.2850001 4284888501
0.21466181 -0.092932075 1.2880001 4284823222
0.21953905 -0.093509294 1.296 4284363435
0.22618134 -0.094808035 1.314 4284825265
0.23519534 -0.097044758 1.345 4284828301
0.035418171 -0.090381883 1.302 4278190080
0.038589317 -0.089479446 1.289 4278190080
0.041460663 -0.08809109 1.2690001 4278190080
0.044045594 -0.086355649 1.2440001 4278190080
0.046531945 -0.084689625 1.22 4278190080
0.049050536 -0.083301276 1.2 4278190080
0.051328916 -0.081704661 1.177 4283773089
0.054176677 -0.081149325 1.169 4283181974
0.057177007 -0.080871649 1.1650001 4283181206
0.060362712 -0.080871649 1.1650001 4283049620
0.063493863 -0.080802232 1.164 4282984341
0.066562273 -0.080663398 1.1620001 4282786962
0.069799788 -0.080732815 1.1630001 4282458510
0.073168278 -0.080941066 1.166 4281998729
0.07648769 -0.0810799 1.1680001 4282196108
0.079886258 -0.081288159 1.171 4282196108
0.083159328 -0.081357576 1.1720001 4282458510
0.086511545 -0.08149641 1.174 4282786964
0.089721859 -0.08149641 1.174 4282983576
0.093011335 -0.081565827 1.1750001 4282851736
0.096224383 -0.081565827 1.1750001 4282851736
0.099352807 -0.08149641 1.174 4283312289
0.1023884 -0.081357576 1.1720001 4283312289
0.10559324 -0.081357576 1.1720001 4282785945
0.10907658 -0.081565827 1.1750001 4282720152
0.11228963 -0.081565827 1.1750001 4282720150
0.11550268 -0.081565827 1.1750001 4282786197
0.11851365 -0.081426993 1.1730001 4282851990
0.121825 -0.08149641 1.174 4282785943
0.12482232 -0.081357576 1.1720001 4282982554
0.12780868 -0.081218742 1.1700001 4282916506
0.13089609 -0.081149325 1.169 4283507875
0.13420743 -0.081218742 1.1700001 4283705254
0.13752425 -0.081288159 1.171 4284230571
0.14072636 -0.081288159 1.171 4284559536
0.14417429 -0.081426993 1.1730001 4284888501
0.14750752 -0.08149641 1.174 4285019574
0.15097459 -0.081635244 1.176 4285151158
0.15445261 -0.081774086 1.1780001 4284822193
0.15807541 -0.081982329 1.1810001 4285743550
0.16157803 -0.082121171 1.1830001 4286269894
0.16550955 -0.082468256 1.1880001 4285677755
0.16961046 -0.082884766 1.194 4285940927
0.17388897 -0.083370686 1.2010001 4286335683
0.17805824 -0.083787195 1.207 4286993613
0.18286134 -0.084481373 1.217 4287124940
0.18909606 -0.085800312 1.2360001 4287322318
0.19714767 -0.087882847 1.266 4288309216
0.20298643 -0.08892411 1.281 4284493479
0.20665056 -0.088993527 1.2820001 4285348537
0.20982833 -0.088854693 1.2800001 4284624814
0.21366183 -0.088993527 1.2820001 4284361644
0.21801445 -0.089340612 1.2870001 4284888501
0.22308297 -0.089965373 1.296 4284756915
0.2285504 -0.090728968 1.307 4285810883
0.23603164 -0.092256166 1.3290001 4284891824
0.028123638 -0.08628808 1.294 4278190080
0.031197194 -0.085021101 1.2750001 4278190080
0.034520477 -0.084620997 1.2690001 4278190080
0.037781008 -0.084154218 1.2620001 4278190080
0.041133944 -0.08395417 1.2590001 4278190080
0.044258036 -0.083354019 1.25 4278190080
0.047065917 -0.082287088 1.2340001 4278190080
0.049500164 -0.080753371 1.2110001 4278190080
0.052157506 -0.079753123 1.1960001 4283970207
0.055057228 -0.079219662 1.1880001 4283904925
0.05747148 -0.078086048 1.171 4283246997
0.060569961 -0.077952683 1.169 4282983827
0.06371206 -0.077885993 1.1680001 4282918032
0.0667914 -0.077752627 1.166 4282918802
0.069979839 -0.077752627 1.166 4282721423
0.073293783 -0.077885993 1.1680001 4282326922
0.076618664 -0.078019366 1.1700001 4282130313
0.079954483 -0.078152731 1.1720001 4281998727
0.083159328 -0.078152731 1.1720001 4282195338
0.086437859 -0.078219414 1.1730001 4282721172
0.08964543 -0.078219414 1.1730001 4282523793
0.09309049 -0.078419462 1.176 4282720404
0.096470065 -0.078552827 1.1780001 4282851736
0.099606685 -0.078486145 1.177 4282720152
0.10256312 -0.078286096 1.174 4283180703
0.10568333 -0.078219414 1.1730001 4282457750
0.10907658 -0.078352779 1.1750001 4282655127
0.11238519 -0.078419462 1.176 4282456978
0.11569928 -0.078486145 1.177 4282720404
0.11881676 -0.078419462 1.176 4282654611
0.12203254 -0.078419462 1.176 4282983576
0.12503532 -0.078286096 1.174 4282719893
0.1281364 -0.078219414 1.1730001 4282982811
0.13123201 -0.078152731 1.1720001 4283245471
0.13432214 -0.078086048 1.171 4283705508
0.1376417 -0.078152731 1.1720001 4284033706
0.14084654 -0.078152731 1.1720001 4284098985
0.14429721 -0.078286096 1.174 4284427950
0.14763317 -0.078352779 1.1750001 4284691122
0.15110298 -0.078486145 1.177 4284888499
0.15432149 -0.078486145 1.177 4284954292
0.15794155 -0.078686193 1.1800001 4285348792
0.16144145 -0.078819565 1.182 4285940929
0.1652309 -0.079086296 1.1860001 4285809341
0.1694684 -0.079553075 1.1930001 4285809339
0.17345461 -0.079886489 1.1980001 4286138304
0.17776319 -0.080353275 1.205 4286927820
0.18195981 -0.080753371 1.2110001 4287453905
0.18787214 -0.081886984 1.228 4287256525
0.19652477 -0.084154218 1.2620001 4288309214
0.20314491 -0.08548788 1.2820001 4285611701
0.20681174 -0.08555457 1.2830001 4285085620
0.20982833 -0.085354514 1.2800001 4284822193
0.21366183 -0.08548788 1.2820001 4284098985
0.21784505 -0.085754618 1.286 4284427950
0.22291082 -0.086354762 1.2950001 4284493740
0.22785096 -0.086888231 1.3030001 4286270403
0.23407803 -0.087888479 1.3180001 4286271683
0.24110849 -0.089155458 1.337 4285353378
0.028123638 -0.082749628 1.294 4278190080
0.031148259 -0.081406705 1.273 4283777416
0.034411665 -0.080895111 1.2650001 4282855299
0.037721135 -0.080575369 1.2600001 4282393990
0.041101273 -0.080447473 1.258 4282064771
0.04447047 -0.080319576 1.256 4284432292
0.04756175 -0.079744034 1.2470001 4287195594
0.050113298 -0.078401111 1.2260001 4278190080
0.052680828 -0.077250041 1.2080001 4278190080
0.055520669 -0.07661055 1.1980001 4283773339
0.058551215 -0.076290809 1.1930001 4283510169
0.061554424 -0.07597106 1.1880001 4283181204
0.064584829 -0.075715266 1.184 4282655628
0.066905968 -0.074692085 1.1680001 4282721421
0.070099875 -0.074692085 1.1680001 4282327176
0.073293783 -0.074692085 1.1680001 4282129797
0.07648769 -0.074692085 1.1680001 4282195590
0.079749815 -0.074756041 1.169 4282130313
0.082946457 -0.074756041 1.169 4282064522
0.086216792 -0.07481999 1.1700001 4282392719
0.089569017 -0.074947886 1.1720001 4282720401
0.093011335 -0.075139731 1.1750001 4282588816
0.096470065 -0.075331576 1.1780001 4282851990
0.099437438 -0.075139731 1.1750001 4282851736
0.10247575 -0.075011835 1.1730001 4282786713
0.10550314 -0.074883938 1.171 4282523541
0.10889091 -0.075011835 1.1730001 4282326160
0.11238519 -0.07520368 1.176 4282589332
0.11560097 -0.07520368 1.176 4282851990
0.11881676 -0.07520368 1.176 4282917783
0.12192877 -0.075139731 1.1750001 4282851990
0.12514183 -0.075139731 1.1750001 4282983322
0.12824564 -0.075075783 1.174 4282982811
0.13123201 -0.074947886 1.1720001 4283179933
0.13432214 -0.074883938 1.171 4283442850
0.13740681 -0.07481999 1.1700001 4283968167
0.14072636 -0.074883938 1.171 4284099753
0.14417429 -0.075011835 1.1730001 4284033706
0.14750752 -0.075075783 1.174 4284428464
0.15071784 -0.075075783 1.174 4284691122
0.15405926 -0.075139731 1.1750001 4284756913
0.15740615 -0.07520368 1.176 4285020085
0.16075853 -0.075267628 1.177 4285809088
0.164395 -0.075459473 1.1800001 4285743550
0.16847403 -0.075843163 1.1860001 4285677755
0.17258589 -0.07622686 1.192 4286138304
0.17673056 -0.07661055 1.1980001 4286269890
0.18090802 -0.076994248 1.2040001 4287651797
0.18664822 -0.078017421 1.22 4287453904
0.19450034 -0.079871938 1.2490001 4287979734
0.20219415 -0.08159855 1.276 4288572385
0.20632815 -0.081854343 1.2800001 4285282997
0.20917262 -0.08159855 1.276 4285020084
0.21332851 -0.081854343 1.2800001 4284493741
0.21767567 -0.082174093 1.2850001 4284362155
0.2227387 -0.082749628 1.294 4284296615
0.2271515 -0.083069369 1.299 4286270656
0.23301242 -0.083900705 1.312 4286733256
0.23876412 -0.084668085 1.3240001 4284300439
0.031808905 -0.079578459 1.3000001 4283643813
0.034982923 -0.078721456 1.286 4283050645
0.038319882 -0.078354172 1.2800001 4282657423
0.041689366 -0.078109317 1.276 4282657421
0.045036975 -0.077864461 1.2720001 4281932417
0.048095722 -0.0771911 1.261 4285353392
0.050767306 -0.076028034 1.2420001 4278190080
0.053247757 -0.074742533 1.2210001 4278190080
0.056076806 -0.07406918 1.21 4283905180
0.059042007 -0.073640682 1.2030001 4283773339
0.062020741 -0.073273391 1.197 4283312788
0.065075755 -0.073028535 1.1930001 4283246995
0.067994334 -0.072661251 1.187 4282983823
0.070940107 -0.072355181 1.182 4282524042
0.07367029 -0.071865469 1.174 4282458249
0.076880604 -0.071865469 1.174 4282458762
0.079954483 -0.071743041 1.1720001 4282261129
0.083230279 -0.071804255 1.1730001 4282392715
0.086364172 -0.071743041 1.1720001 4282261131
0.089798287 -0.071926683 1.1750001 4282589583
0.093248814 -0.072110325 1.1780001 4282392206
0.096633844 -0.072232753 1.1800001 4282260621
0.099522054 -0.071987897 1.176 4282589586
0.10256312 -0.071865469 1.174 4282720918
0.10568333 -0.071804255 1.1730001 4282786711
0.10889091 -0.071804255 1.1730001 4282260878
0.11228963 -0.071926683 1.1750001 4282458257
0.11550268 -0.071926683 1.1750001 4282326671
0.11891779 -0.072049111 1.177 4282721172
0.12192877 -0.071926683 1.1750001 4282655125
0.12503532 -0.071865469 1.174 4282983576
0.1281364 -0.071804255 1.1730001 4282851736
0.13134398 -0.071804255 1.1730001 4282982811
0.13443685 -0.071743041 1.1720001 4283772070
0.1376417 -0.071743041 1.1720001 4284100266
0.14096671 -0.071804255 1.1730001 4283968680
0.14454302 -0.071987897 1.176 4283968680
0.14775881 -0.071987897 1.176 4284033706
0.15110298 -0.072049111 1.177 4284296364
0.15419038 -0.071987897 1.176 4284362157
0.15740615 -0.071987897 1.176 4284493741
0.16062194 -0.071987897 1.176 4285216951
0.16397704 -0.072049111 1.177 4285743550
0.16818993 -0.072477609 1.184 4285743548
0.1724411 -0.072906107 1.1910001 4286072511
0.17717312 -0.073518254 1.2010001 4285677753
0.18150905 -0.073946752 1.2080001 4286006972
0.18664822 -0.074681319 1.22 4287454415
0.19387744 -0.076211676 1.245 4287783123
0.20203568 -0.078048103 1.2750001 4287980248
0.20697293 -0.078599028 1.284 4285151924
0.20982833 -0.078354172 1.2800001 4285546169
0.21366183 -0.0784766 1.2820001 4284625326
0.21801445 -0.07878267 1.2870001 4284493740
0.2232551 -0.07939481 1.2970001 4285151920
0.22820069 -0.079884522 1.3050001 4286271424
0.23390043 -0.080619097 1.317 4286733256
0.23930512 -0.081231236 1.327 4284762268
0.037431188 -0.080468051 1.376 4281538427
0.040205937 -0.078538217 1.3430001 4281670267
0.042832881 -0.076666869 1.3110001 4282459015
0.045709696 -0.075497277 1.291 4282130814
0.048324566 -0.074093767 1.2670001 4281274990
0.05080818 -0.072690248 1.243 4278190080
0.053334977 -0.071520656 1.223 4278190080
0.056308527 -0.071052819 1.215 4285154734
0.059238326 -0.070584983 1.207 4284431269
0.062279809 -0.070292585 1.202 4283641753
0.0652394 -0.069941707 1.1960001 4283312788
0.068166181 -0.069590829 1.1900001 4283246995
0.071060143 -0.069239952 1.184 4282918800
0.074046798 -0.069006033 1.1800001 4282721421
0.077273518 -0.069006033 1.1800001 4282655628
0.079886258 -0.068479717 1.171 4282392969
0.083301231 -0.068655156 1.174 4282261129
0.086437859 -0.068596669 1.1730001 4282392715
0.090027556 -0.068889074 1.1780001 4282326924
0.093248814 -0.068889074 1.1780001 4282392204
0.096470065 -0.068889074 1.1780001 4282392204
0.099352807 -0.068655156 1.174 4282457999
0.1023884 -0.068538196 1.1720001 4282524050
0.10568333 -0.068596669 1.1730001 4282655636
0.10889091 -0.068596669 1.1730001 4282129292
0.11190736 -0.068479717 1.171 4282392464
0.11520778 -0.068538196 1.1720001 4282260878
0.11851365 -0.068596669 1.1730001 4282458259
0.12161747 -0.068538196 1.1720001 4282589332
0.12482232 -0.068538196 1.1720001 4282786197
0.12802716 -0.068538196 1.1720001 4282720404
0.13112003 -0.068479717 1.171 4283443616
0.13420743 -0.068421237 1.1700001 4283903913
0.13752425 -0.068479717 1.171 4284035242
0.14096671 -0.068596669 1.1730001 4283772070
0.14454302 -0.068772115 1.176 4283508129
0.14775881 -0.068772115 1.176 4283376543
0.15110298 -0.068830587 1.177 4283704995
0.15432149 -0.068830587 1.177 4284033190
0.15754001 -0.068830587 1.177 4284295849
0.16048536 -0.068713628 1.1750001 4284690607
0.16383773 -0.068772115 1.176 4285677757
0.16776377 -0.069064505 1.1810001 4285546167
0.17200674 -0.06947387 1.1880001 4286204097
0.1764355 -0.069941707 1.1960001 4285743800
0.18105827 -0.070468023 1.205 4285743799
0.18618925 -0.071169779 1.217 4286993866
0.19263165 -0.072339371 1.2370001 4287652048
0.20140186 -0.074327677 1.271 4288243931
0.20697293 -0.07508792 1.284 4286072764
0.21064799 -0.075146399 1.2850001 4285283249
0.21416183 -0.075146399 1.2850001 4286072511
0.21852264 -0.075438797 1.2900001 4285546678
0.2232551 -0.075848155 1.2970001 4285941691
0.22837555 -0.076374471 1.3060001 4286271683
0.23425563 -0.077134706 1.319 4286668482
0.24146914 -0.078304298 1.3390001 4294965247
0.044662509 -0.076203659 1.3670001 4278190080
0.046311602 -0.07291469 1.3080001 4278190080
0.048286427 -0.070573397 1.266 4278190080
0.0506038 -0.06901253 1.238 4278190080
0.053247757 -0.068064861 1.2210001 4278190080
0.05626218 -0.067674644 1.2140001 4285615283
0.05933648 -0.067395918 1.2090001 4284628390
0.062383439 -0.067117192 1.2040001 4283246995
0.065348499 -0.06678272 1.1980001 4282589065
0.068280749 -0.066448249 1.192 4282391686
0.07136023 -0.066281021 1.189 4282655628
0.074486062 -0.06616953 1.187 4282787214
0.077666439 -0.066113777 1.1860001 4282589835
0.080704905 -0.065946542 1.1830001 4282327176
0.083939828 -0.065946542 1.1830001 4282458762
0.086732611 -0.06561207 1.177 4282261129
0.090180404 -0.065779313 1.1800001 4282327694
0.093644597 -0.065946542 1.1830001 4282195338
0.096715741 -0.065835051 1.1810001 4282326924
0.099691316 -0.065667823 1.1780001 4282524303
0.10265049 -0.06550058 1.1750001 4282590096
0.10595362 -0.065556332 1.176 4282590096
0.10907658 -0.06550058 1.1750001 4282195340
0.11228963 -0.06550058 1.1750001 4282195340
0.11560097 -0.065556332 1.176 4282392464
0.11881676 -0.065556332 1.176 4282260878
0.121825 -0.065444842 1.174 4282458000
0.12482232 -0.065333351 1.1720001 4282654611
0.1281364 -0.065389089 1.1730001 4282917783
0.13123201 -0.065333351 1.1720001 4283443873
0.13432214 -0.065277599 1.171 4283640995
0.13775913 -0.065389089 1.1730001 4283706275
0.14132723 -0.065556332 1.176 4283706275
0.14478885 -0.065667823 1.1780001 4283574689
0.1480101 -0.065667823 1.1780001 4283179163
0.1516165 -0.065835051 1.1810001 4283507616
0.15458372 -0.065723561 1.179 4283639202
0.15767387 -0.065667823 1.1780001 4283967397
0.16062194 -0.065556332 1.176 4284559533
0.16411637 -0.065667823 1.1780001 4284691119
0.16776377 -0.065835051 1.1810001 4285612473
0.17200674 -0.066225268 1.1880001 4285941438
0.17658302 -0.066726975 1.197 4286270401
0.18150905 -0.067340173 1.2080001 4286072764
0.18634225 -0.067897625 1.2180001 4286928073
0.19232021 -0.068845294 1.235 4287454669
0.20108493 -0.070740633 1.2690001 4288178392
0.20761772 -0.071799785 1.2880001 4287191243
0.21195939 -0.072078511 1.2930001 4285678006
0.21549511 -0.072078511 1.2930001 4286598855
0.22038601 -0.072524473 1.3010001 4286006972
0.22480428 -0.072803199 1.3060001 4285876668
0.23012421 -0.073360652 1.3160001 4285943488
0.23603164 -0.07408534 1.3290001 4285288615
0.045446638 -0.073737837 1.391 4278190080
0.046205387 -0.069178917 1.3050001 4278190080
0.047943156 -0.066634409 1.2570001 4278190080
0.050317675 -0.065256134 1.2310001 4278190080
0.053116929 -0.064566992 1.2180001 4278190080
0.056076806 -0.064142905 1.21 4285483697
0.059238326 -0.063983873 1.207 4283707801
0.062331621 -0.063771829 1.2030001 4283510937
0.065403044 -0.063559793 1.199 4283642523
0.068452589 -0.063347749 1.1950001 4283313558
0.071600296 -0.063241728 1.1930001 4282853520
0.074674316 -0.063082695 1.1900001 4282853007
0.077797413 -0.062976673 1.1880001 4282524554
0.080773123 -0.06276463 1.184 4282458761
0.084081739 -0.062817641 1.1850001 4282262153
0.087174758 -0.062711619 1.1830001 4282392969
0.090638943 -0.062870651 1.1860001 4282261899
0.093565449 -0.062658608 1.182 4282393485
0.096797638 -0.062658608 1.182 4282196106
0.099860571 -0.062552586 1.1800001 4282261901
0.1028252 -0.062393554 1.177 4282393487
0.10586353 -0.062287532 1.1750001 4282525073
0.10907658 -0.062287532 1.1750001 4281998731
0.11238519 -0.062340546 1.176 4282261903
0.11560097 -0.062340546 1.176 4282327441
0.11871573 -0.062287532 1.1750001 4282392464
0.12172123 -0.062181514 1.1730001 4282523793
0.12492881 -0.062181514 1.1730001 4282786195
0.12802716 -0.062128503 1.1720001 4283444127
0.13123201 -0.062128503 1.1720001 4283444127
0.13432214 -0.062075492 1.171 4283312541
0.13775913 -0.062181514 1.1730001 4283509407
0.14144742 -0.062393554 1.177 4283706786
0.14491177 -0.062499575 1.179 4283443614
0.14813575 -0.062499575 1.179 4283179931
0.15123135 -0.062446568 1.1780001 4283705505
0.15432149 -0.062393554 1.177 4283770787
0.15740615 -0.062340546 1.176 4284230568
0.16034877 -0.062234525 1.174 4284559787
0.16355909 -0.062234525 1.174 4284691373
0.16705351 -0.062340546 1.176 4284757164
0.1712828 -0.062711619 1.1830001 4285612473
0.17584543 -0.063188717 1.192 4286204608
0.18090802 -0.063824847 1.2040001 4286664901
0.18573028 -0.064354949 1.2140001 4286467522
0.1916973 -0.065256134 1.2310001 4286994118
0.20076802 -0.067164518 1.2670001 4287783634
0.2081013 -0.068436772 1.291 4288573150
0.21294299 -0.068860859 1.299 4286204602
0.21649511 -0.068860859 1.299 4286401981
0.2217412 -0.06939096 1.309 4286401727
0.22635347 -0.069709033 1.3150001 4285811384
0.23134828 -0.070133112 1.3230001 4285353390
0.23834045 -0.071140319 1.342 4294964991
0.047828734 -0.063046299 1.2540001 4278190080
0.050399423 -0.061990503 1.233 4278190080
0.053291366 -0.061437465 1.222 4286075323
0.05626218 -0.061035257 1.2140001 4286536387
0.059434637 -0.060884424 1.2110001 4283904925
0.062538877 -0.060683321 1.207 4283510167
0.065675788 -0.060532495 1.2040001 4283247765
0.068796284 -0.060381666 1.2010001 4282721934
0.071900383 -0.060230836 1.1980001 4282853520
0.074988067 -0.06008001 1.1950001 4282458762
0.078124836 -0.059979457 1.1930001 4282590348
0.081182443 -0.059828628 1.1900001 4282196360
0.084365562 -0.059778355 1.189 4282393739
0.087469511 -0.059677802 1.187 4282196360
0.090791799 -0.059728075 1.1880001 4282327692
0.094040401 -0.059728075 1.1880001 4282393485
0.097125202 -0.059627522 1.1860001 4282327692
0.10011445 -0.059476692 1.1830001 4282064520
0.10299993 -0.05927559 1.179 4282196108
0.10613382 -0.059225313 1.1780001 4282196108
0.10944791 -0.05927559 1.179 4282261901
0.11276745 -0.059325866 1.1800001 4282459282
0.11589588 -0.05927559 1.179 4282524305
0.11901883 -0.059225313 1.1780001 4282524305
0.12213631 -0.059175037 1.177 4282457997
0.12524833 -0.059124764 1.176 4282852241
0.1284641 -0.059124764 1.176 4283180952
0.13167989 -0.059124764 1.176 4283509918
0.13501038 -0.059175037 1.177 4283707297
0.1384638 -0.05927559 1.179 4283509405
0.14168778 -0.05927559 1.179 4283772577
0.1452805 -0.059426419 1.182 4283509407
0.14838704 -0.059376139 1.1810001 4283575200
0.1516165 -0.059376139 1.1810001 4283443101
0.15458372 -0.05927559 1.179 4283706275
0.15754001 -0.059175037 1.177 4283902884
0.16048536 -0.059074484 1.1750001 4283770785
0.16369842 -0.059074484 1.1750001 4284297129
0.16733761 -0.059225313 1.1780001 4284099234
0.17157239 -0.059577249 1.1850001 4285020336
0.17614046 -0.06002973 1.194 4286072765
0.18120855 -0.060633048 1.2060001 4286796487
0.18618925 -0.061186086 1.217 4286730694
0.19200875 -0.061990503 1.233 4286796739
0.20060955 -0.063649617 1.266 4287455180
0.20955203 -0.065359004 1.3000001 4289099492
0.21523796 -0.066012599 1.3130001 4286271422
0.2191617 -0.066113152 1.3150001 4286404288
0.22462097 -0.066666186 1.3260001 4286075834
0.22945184 -0.067018114 1.3330001 4285552038
0.23554507 -0.067721985 1.3470001 4294964991
0.24881892 -0.070436895 1.401 4294966527
0.045497257 -0.061091021 1.2850001 4278190080
0.047523607 -0.059236895 1.2460001 4278190080
0.050195046 -0.05838114 1.228 4278190080
0.053247757 -0.058048353 1.2210001 4285220017
0.05626218 -0.057715561 1.2140001 4285812411
0.059483714 -0.057620477 1.212 4284891822
0.062694319 -0.057525396 1.21 4283641753
0.065948524 -0.05747785 1.2090001 4283708316
0.069197267 -0.057430312 1.2080001 4283445657
0.07220047 -0.057192601 1.2030001 4283182485
0.075239077 -0.057002436 1.199 4282985106
0.07825581 -0.056812271 1.1950001 4282458762
0.08138711 -0.056717187 1.1930001 4282524555
0.084436513 -0.056574561 1.1900001 4282590348
0.087543204 -0.056479476 1.1880001 4282261383
0.090791799 -0.056479476 1.1880001 4282392715
0.094040401 -0.056479476 1.1880001 4282393739
0.097207099 -0.056431938 1.187 4282393485
0.10028371 -0.056336857 1.1850001 4282327692
0.10308729 -0.056099147 1.1800001 4282525073
0.10622392 -0.056051601 1.179 4282261901
0.10944791 -0.056051601 1.179 4282327694
0.1126719 -0.056051601 1.179 4282458512
0.11569928 -0.05595652 1.177 4282392719
0.11881676 -0.055908978 1.176 4282721169
0.12192877 -0.055861436 1.1750001 4282589837
0.12535483 -0.05595652 1.177 4282589067
0.12868258 -0.056004062 1.1780001 4282720655
0.13201582 -0.056051601 1.179 4282786448
0.1353545 -0.056099147 1.1800001 4283246745
0.13869867 -0.056146685 1.1810001 4283444124
0.14180794 -0.056099147 1.1800001 4283444124
0.14503467 -0.056099147 1.1800001 4283509918
0.14813575 -0.056051601 1.179 4282983574
0.15135974 -0.056051601 1.179 4282983574
0.15445261 -0.056004062 1.1780001 4283443614
0.15754001 -0.05595652 1.177 4283772068
0.16075853 -0.05595652 1.177 4283902884
0.16411637 -0.056004062 1.1780001 4284297129
0.16790584 -0.056194227 1.182 4284296613
0.17200674 -0.056479476 1.1880001 4285151922
0.17628799 -0.056812271 1.1950001 4285941436
0.18090802 -0.057240147 1.2040001 4286401729
0.18573028 -0.057715561 1.2140001 4286928073
0.19138584 -0.058428686 1.2290001 4287256777
0.19934188 -0.05980739 1.258 4287584966
0.20939085 -0.0617566 1.299 4289034202
0.21736903 -0.063040227 1.3260001 4285812152
0.22232831 -0.063420564 1.3340001 4288972245
0.22817831 -0.064038604 1.3470001 4294962431
0.23530433 -0.064989433 1.3670001 4294965503
0.24586219 -0.066843554 1.406 4294967036
0.045107789 -0.057084296 1.274 4278190080
0.047371045 -0.055650465 1.2420001 4278190080
0.050154172 -0.054978359 1.2270001 4278190080
0.053073313 -0.054530289 1.217 4284693932
0.056215838 -0.054351058 1.2130001 4284562344
0.059483714 -0.054306254 1.212 4284562857
0.06284976 -0.054351058 1.2130001 4284168867
0.066112168 -0.054306254 1.212 4283379351
0.069426395 -0.054306254 1.212 4283642523
0.072560571 -0.05417183 1.2090001 4283774109
0.075615585 -0.053992599 1.205 4283774109
0.078583241 -0.053768568 1.2 4282787216
0.081728213 -0.053678948 1.1980001 4283049618
0.084791288 -0.053544533 1.1950001 4283181204
0.087985337 -0.053499721 1.194 4283181204
0.091173917 -0.053454917 1.1930001 4282721423
0.094357036 -0.053410109 1.192 4282261129
0.097370885 -0.053275689 1.189 4282590864
0.10045296 -0.053186074 1.187 4282590864
0.10387354 -0.053275689 1.189 4282326924
0.10694469 -0.053186074 1.187 4282327694
0.10991206 -0.053051651 1.184 4282458510
0.1129586 -0.052962039 1.182 4282655889
0.11609248 -0.052917227 1.1810001 4282786962
0.11911987 -0.052827615 1.179 4282852239
0.12234385 -0.052827615 1.179 4282654860
0.12578085 -0.052917227 1.1810001 4282654860
0.12922877 -0.053006843 1.1830001 4282589837
0.13257568 -0.053051651 1.184 4282655630
0.13581334 -0.053051651 1.184 4282589585
0.13893355 -0.053006843 1.1830001 4282852757
0.14180794 -0.052872423 1.1800001 4283180953
0.14491177 -0.052827615 1.179 4283049366
0.1480101 -0.052782811 1.1780001 4283050136
0.1516165 -0.052917227 1.1810001 4282983574
0.15484595 -0.052917227 1.1810001 4283115160
0.15794155 -0.052872423 1.1800001 4283509407
0.16116828 -0.052872423 1.1800001 4283772066
0.16495228 -0.053051651 1.184 4284100517
0.16861609 -0.053186074 1.187 4283968418
0.17258589 -0.053410109 1.192 4285415092
0.17658302 -0.053634144 1.197 4286007484
0.18105827 -0.053992599 1.205 4286401987
0.18588328 -0.05444067 1.215 4286993605
0.19138584 -0.055067975 1.2290001 4286993607
0.19823267 -0.056053732 1.251 4288500928
0.2077789 -0.057756402 1.289 4286992298
0.22015582 -0.060175985 1.3430001 4294966015
0.22916149 -0.061609812 1.3750001 4294966527
0.23766455 -0.062864415 1.4030001 4294967036
0.044682909 -0.053095654 1.2620001 4278190080
0.047104057 -0.051959697 1.235 4278190080
0.049908921 -0.05137068 1.2210001 4278190080
0.052855264 -0.050992027 1.212 4284299172
0.055984113 -0.050823737 1.2080001 4284101793
0.059238326 -0.050781664 1.207 4283773339
0.0626425 -0.050865807 1.2090001 4283774108
0.066003077 -0.05090788 1.21 4283774108
0.069311835 -0.05090788 1.21 4283510937
0.072560571 -0.050865807 1.2090001 4283116179
0.075615585 -0.050697517 1.205 4283116179
0.078648724 -0.050529227 1.2010001 4283115411
0.08179643 -0.050445084 1.199 4283707548
0.084933199 -0.050360937 1.197 4283904927
0.088132717 -0.050318863 1.1960001 4283641755
0.091326773 -0.050276794 1.1950001 4282983825
0.094357036 -0.050150573 1.192 4282524044
0.097534671 -0.050108504 1.1910001 4282392715
0.10070685 -0.050066426 1.1900001 4282721680
0.10396091 -0.050066426 1.1900001 4282590094
0.10712488 -0.050024357 1.189 4282853266
0.11037621 -0.050024357 1.189 4282853268
0.11343642 -0.049940214 1.187 4283313306
0.11628907 -0.049771916 1.1830001 4282918548
0.11932193 -0.049687773 1.1810001 4282787216
0.12244762 -0.049645703 1.1800001 4282655630
0.12588735 -0.049729846 1.182 4282326922
0.12911955 -0.049729846 1.182 4282326924
0.13235174 -0.049729846 1.182 4282655889
0.1353545 -0.049645703 1.1800001 4282721682
0.13858123 -0.049645703 1.1800001 4283115929
0.14168778 -0.049603626 1.179 4282852757
0.14478885 -0.049561556 1.1780001 4283050134
0.14826138 -0.049645703 1.1800001 4282852755
0.15174487 -0.049729846 1.182 4283050136
0.15497707 -0.049729846 1.182 4282983573
0.15820926 -0.049729846 1.182 4283246746
0.16144145 -0.049729846 1.182 4283377819
0.1652309 -0.049898136 1.1860001 4283443355
0.16875814 -0.049982283 1.1880001 4284100515
0.17258589 -0.050150573 1.192 4285152690
0.17673056 -0.050403006 1.1980001 4285810875
0.18120855 -0.05073959 1.2060001 4286467522
0.18618925 -0.05120239 1.217 4286599617
0.1916973 -0.051791407 1.2310001 4287387587
0.19823267 -0.052632861 1.251 4288891576
0.20552218 -0.053642601 1.2750001 4285878168
0.22195902 -0.056966338 1.3540001 4294966527
0.042963572 -0.051729627 1.3150001 4278190080
0.044258036 -0.049172647 1.25 4278190080
0.046913352 -0.048385885 1.23 4278190080
0.049786296 -0.047913827 1.2180001 4278190080
0.052724436 -0.047559783 1.2090001 4284233890
0.055891424 -0.047441773 1.2060001 4283773339
0.059238326 -0.047481108 1.207 4284036766
0.062590688 -0.047520448 1.2080001 4283050385
0.065893978 -0.047520448 1.2080001 4282393222
0.069197267 -0.047520448 1.2080001 4282919566
0.072560571 -0.047559783 1.2090001 4282985359
0.075678334 -0.047441773 1.2060001 4282984593
0.078845188 -0.047363099 1.2040001 4283115409
0.081932873 -0.047245082 1.2010001 4283839134
0.085146062 -0.047205746 1.2 4283773341
0.088280097 -0.047127064 1.1980001 4283707548
0.091479614 -0.047087729 1.197 4282786446
0.094515346 -0.046969712 1.194 4282523274
0.097780354 -0.046969712 1.194 4282589837
0.10104536 -0.046969712 1.194 4282392715
0.10431036 -0.046969712 1.194 4282853266
0.10730508 -0.046851702 1.1910001 4283050388
0.11056188 -0.046851702 1.1910001 4283116179
0.11362755 -0.046773024 1.189 4283181972
0.11697718 -0.046812359 1.1900001 4282918800
0.1201302 -0.046773024 1.189 4282918802
0.12296647 -0.046615675 1.1850001 4282721423
0.12620686 -0.046615675 1.1850001 4282524555
0.12933801 -0.046576332 1.184 4282524301
0.13257568 -0.046576332 1.184 4282853009
0.13569863 -0.046536993 1.1830001 4282918548
0.13869867 -0.046458315 1.1810001 4283115927
0.14192812 -0.046458315 1.1810001 4283181720
0.14515758 -0.046458315 1.1810001 4283049620
0.14888962 -0.046615675 1.1850001 4283115413
0.15238677 -0.046694349 1.187 4283181206
0.15563263 -0.046694349 1.187 4283246999
0.15901235 -0.046733685 1.1880001 4283181206
0.16226095 -0.046733685 1.1880001 4283246745
0.16578817 -0.046812359 1.1900001 4283312281
0.1691843 -0.046851702 1.1910001 4283706526
0.17302024 -0.047009055 1.1950001 4284232354
0.17717312 -0.047245082 1.2010001 4285218736
0.18195981 -0.047638461 1.2110001 4286336447
0.18710719 -0.048110522 1.223 4286731457
0.19309881 -0.048779268 1.24 4288040634
0.1988665 -0.049369343 1.2550001 4289347233
0.20487742 -0.049998749 1.271 4286271640
0.041068599 -0.046010736 1.2570001 4278190080
0.043549903 -0.045022435 1.23 4278190080
0.046531945 -0.044656403 1.22 4278190080
0.049541038 -0.044363573 1.212 4283970209
0.052680828 -0.044217162 1.2080001 4283378583
0.055891424 -0.044143952 1.2060001 4284036511
0.059238326 -0.044180553 1.207 4283642522
0.062538877 -0.044180553 1.207 4283445397
0.065839432 -0.044180553 1.207 4282261636
0.069139987 -0.044180553 1.207 4282327943
0.072440535 -0.044180553 1.207 4282196357
0.075552836 -0.044070743 1.2040001 4282524555
0.078779697 -0.044034142 1.2030001 4283181972
0.081932873 -0.043960936 1.2010001 4283445146
0.085217014 -0.043960936 1.2010001 4283246997
0.088280097 -0.043851126 1.1980001 4283246997
0.091403186 -0.043777917 1.1960001 4283049618
0.094515346 -0.043704711 1.194 4282720653
0.097944133 -0.043777917 1.1960001 4282589837
0.10121461 -0.043777917 1.1960001 4282853009
0.10431036 -0.043704711 1.194 4282919059
0.10739518 -0.043631501 1.192 4282787214
0.11046904 -0.043558296 1.1900001 4283116179
0.11372311 -0.043558296 1.1900001 4283247765
0.11697718 -0.043558296 1.1900001 4283116179
0.12033229 -0.043594897 1.1910001 4282918800
0.12358908 -0.043594897 1.1910001 4283181972
0.12684588 -0.043594897 1.1910001 4282853007
0.12933801 -0.043338675 1.184 4282984593
0.13246369 -0.04330207 1.1830001 4283181974
0.13546921 -0.043228865 1.1810001 4283378585
0.13869867 -0.043228865 1.1810001 4283181206
0.1420483 -0.043265466 1.182 4283443865
0.14552632 -0.043338675 1.184 4283246997
0.14914091 -0.043448485 1.187 4283115411
0.15264353 -0.043521691 1.189 4283246997
0.15589486 -0.043521691 1.189 4283246997
0.15928005 -0.043558296 1.1900001 4283049620
0.1626707 -0.043594897 1.1910001 4283181206
0.16606683 -0.043631501 1.192 4283246486
0.1694684 -0.043668106 1.1930001 4283378072
0.17302024 -0.043741316 1.1950001 4284363940
0.17746815 -0.044034142 1.2030001 4284956075
0.18226033 -0.044400178 1.2130001 4285547699
0.18756616 -0.044876024 1.2260001 4287060421
0.19372173 -0.04553489 1.2440001 4288631993
0.19934188 -0.046047337 1.258 4289479073
0.20519981 -0.046596393 1.273 4286074261
0.040219128 -0.04169286 1.2310001 4278190080
0.04312503 -0.041252565 1.2180001 4278190080
0.046226811 -0.04104935 1.212 4283773089
0.049418412 -0.040947743 1.2090001 4283509918
0.052637219 -0.040880002 1.207 4282983827
0.055937771 -0.040880002 1.207 4283049616
0.059287403 -0.040913872 1.2080001 4283839387
0.062590688 -0.040913872 1.2080001 4283313811
0.065893978 -0.040913872 1.2080001 4282459015
0.069254547 -0.040947743 1.2090001 4282196870
0.072560571 -0.040947743 1.2090001 4281867905
0.07574109 -0.040880002 1.207 4281998980
0.078910671 -0.040812265 1.205 4282327946
0.082069315 -0.040744524 1.2030001 4283313817
0.085429884 -0.040778395 1.2040001 4283379353
0.088501163 -0.040676787 1.2010001 4283378583
0.091632463 -0.040609051 1.199 4282918802
0.094831988 -0.04057518 1.1980001 4282721423
0.098189816 -0.040609051 1.199 4282524044
0.10146849 -0.040609051 1.199 4282787216
0.10465981 -0.04057518 1.1980001 4283247767
0.10775556 -0.040507443 1.1960001 4282721421
0.11074754 -0.040405836 1.1930001 4283379351
0.11400981 -0.040405836 1.1930001 4283575962
0.11737038 -0.040439706 1.194 4283444376
0.12083745 -0.040507443 1.1960001 4283246997
0.12410793 -0.040507443 1.1960001 4283444374
0.1274849 -0.040541314 1.197 4283641753
0.13053964 -0.040473573 1.1950001 4283641753
0.13358343 -0.040405836 1.1930001 4283641753
0.13569863 -0.040067144 1.1830001 4283839134
0.13916844 -0.040134884 1.1850001 4283510169
0.142529 -0.040168751 1.1860001 4283444376
0.14601795 -0.040236488 1.1880001 4283575962
0.1493922 -0.040270358 1.189 4283115411
0.15277191 -0.040304229 1.1900001 4283378583
0.15615709 -0.040338095 1.1910001 4283444376
0.15981545 -0.040439706 1.194 4283378583
0.16335361 -0.040507443 1.1960001 4283510171
0.16662408 -0.040507443 1.1960001 4283904416
0.16989456 -0.040507443 1.1960001 4284627626
0.17345461 -0.04057518 1.1980001 4284758698
0.17791072 -0.040846132 1.2060001 4285021868
0.18301162 -0.041252565 1.2180001 4285152945
0.18833111 -0.04169286 1.2310001 4286928322
0.19434462 -0.042268638 1.248 4289090224
0.1996588 -0.042675067 1.2600001 4290068886
0.20552218 -0.043183103 1.2750001 4286599586
0.21572974 -0.044571735 1.3160001 4294965247
0.035826217 -0.041004255 1.317 4285682862
0.037092447 -0.038575757 1.2390001 4278190080
0.039794397 -0.037921932 1.2180001 4278190080
0.042877182 -0.037703987 1.2110001 4278190080
0.046074253 -0.037610587 1.2080001 4284102057
0.049295787 -0.037548315 1.2060001 4283509666
0.052593604 -0.037548315 1.2060001 4282785684
0.055891424 -0.037548315 1.2060001 4282457230
0.059140164 -0.037517179 1.205 4283444892
0.062383439 -0.037486047 1.2040001 4282918800
0.065839432 -0.037579447 1.207 4282590348
0.069197267 -0.037610587 1.2080001 4282131079
0.072560571 -0.037641719 1.2090001 4282196872
0.075678334 -0.037548315 1.2060001 4281867907
0.078845188 -0.037486047 1.2040001 4281801859
0.082001098 -0.037423778 1.202 4281999238
0.085429884 -0.037486047 1.2040001 4282721934
0.088648543 -0.037454911 1.2030001 4282853009
0.091861732 -0.037423778 1.202 4282984593
0.094911136 -0.037330374 1.199 4282787216
0.098189816 -0.037330374 1.199 4282787216
0.10163775 -0.037392642 1.2010001 4282918802
0.1049219 -0.037392642 1.2010001 4283510939
0.10802585 -0.037330374 1.199 4283773341
0.11093321 -0.037205834 1.1950001 4284036513
0.11420094 -0.037205834 1.1950001 4283904927
0.11746868 -0.037205834 1.1950001 4283707548
0.12083745 -0.03723697 1.1960001 4283444374
0.1242117 -0.037268106 1.197 4283707801
0.1273784 -0.03723697 1.1960001 4284167840
0.13064887 -0.03723697 1.1960001 4284431011
0.13380738 -0.037205834 1.1950001 4283970460
0.13718982 -0.03723697 1.1960001 4284036254
0.14057773 -0.037268106 1.197 4283575703
0.14312989 -0.037081294 1.1910001 4283838875
0.14675543 -0.037174702 1.194 4283773082
0.1496435 -0.037081294 1.1910001 4283510169
0.15277191 -0.037050162 1.1900001 4283575962
0.15602598 -0.037050162 1.1900001 4283904927
0.15954775 -0.03711243 1.192 4283970720
0.16294385 -0.037143566 1.1930001 4284036002
0.16662408 -0.03723697 1.1960001 4284364454
0.16989456 -0.03723697 1.1960001 4284561833
0.17374419 -0.037361506 1.2 4284627112
0.17805824 -0.037579447 1.207 4284692903
0.18346238 -0.038015332 1.2210001 4285678519
0.18863709 -0.038388949 1.233 4286929339
0.19434462 -0.038855966 1.248 4288432799
0.19950035 -0.039198451 1.2590001 4290134166
0.20536099 -0.039665468 1.274 4287323573
0.21409047 -0.040661775 1.3060001 4294503935
0.032567423 -0.037800506 1.3310001 4292855551
0.036673326 -0.034790099 1.225 4278190080
0.03956569 -0.034392498 1.2110001 4278190080
0.042700149 -0.034250494 1.2060001 4285943748
0.045921691 -0.034193695 1.2040001 4284233132
0.049214039 -0.034193695 1.2040001 4283377570
0.052549999 -0.034222096 1.205 4283377823
0.055845082 -0.034222096 1.205 4283246748
0.059140164 -0.034222096 1.205 4282918551
0.062331621 -0.034165297 1.2030001 4282918548
0.065730333 -0.034222096 1.205 4282853266
0.0690827 -0.034250494 1.2060001 4282393996
0.072500557 -0.034307297 1.2080001 4282196872
0.075803839 -0.034307297 1.2080001 4281867652
0.079041645 -0.034278896 1.207 4282065031
0.0823422 -0.034278896 1.207 4282196360
0.085713707 -0.034307297 1.2080001 4282919313
0.088943303 -0.034278896 1.207 4283181972
0.09216743 -0.034250494 1.2060001 4283247765
0.095227771 -0.034165297 1.2030001 4283313560
0.098517388 -0.034165297 1.2030001 4283379353
0.10180701 -0.034165297 1.2030001 4283444376
0.10527134 -0.034222096 1.205 4283575962
0.10847633 -0.034193695 1.2040001 4283904925
0.11149019 -0.034108497 1.2010001 4283839387
0.1145832 -0.034051698 1.199 4284102306
0.11805849 -0.034108497 1.2010001 4283970718
0.12134263 -0.034108497 1.2010001 4284101795
0.12452301 -0.034080096 1.2 4284102559
0.1274849 -0.033994894 1.197 4283576981
0.13075811 -0.033994894 1.197 4285154475
0.13414329 -0.034023296 1.1980001 4284891050
0.13753393 -0.034051698 1.199 4284430498
0.14093006 -0.034080096 1.2 4284035740
0.14433165 -0.034108497 1.2010001 4284233120
0.14749289 -0.034080096 1.2 4284233120
0.15014608 -0.033938095 1.1950001 4284365219
0.15315706 -0.033881295 1.1930001 4284299172
0.15641932 -0.033881295 1.1930001 4284430758
0.15994929 -0.033938095 1.1950001 4284101793
0.16335361 -0.033966497 1.1960001 4284036000
0.16718136 -0.034080096 1.2 4284167588
0.17046277 -0.034080096 1.2 4284298661
0.17461289 -0.034250494 1.2060001 4284495526
0.17864834 -0.034392498 1.2110001 4284758185
0.18421364 -0.0348185 1.2260001 4285941691
0.18909606 -0.035102498 1.2360001 4286600623
0.19434462 -0.035443299 1.248 4293171417
0.19902496 -0.0356705 1.256 4289871253
0.20455502 -0.036039699 1.2690001 4287520184
0.21343477 -0.036976904 1.302 4292002796
0.029688476 -0.035059169 1.3660001 4278190080
0.031735498 -0.033288244 1.2970001 4278190080
0.033731595 -0.031825308 1.24 4278190080
0.03634401 -0.031158002 1.2140001 4278190080
0.039369661 -0.030927012 1.205 4285811651
0.042558525 -0.030850016 1.202 4284626610
0.045807261 -0.03082435 1.2010001 4284035240
0.049132288 -0.030850016 1.202 4283048347
0.052419167 -0.030850016 1.202 4283312028
0.05570605 -0.030850016 1.202 4283246494
0.058943849 -0.03082435 1.2010001 4282984092
0.062176183 -0.030798685 1.2 4282392464
0.065566689 -0.030850016 1.202 4282458512
0.068796284 -0.03082435 1.2010001 4282328205
0.07220047 -0.030875681 1.2030001 4282262412
0.075552836 -0.030901346 1.2040001 4281999238
0.078976154 -0.030952677 1.2060001 4281999238
0.082410417 -0.03100401 1.2080001 4282196360
0.085784659 -0.031029675 1.2090001 4282721934
0.089016989 -0.03100401 1.2080001 4283314071
0.092320271 -0.03100401 1.2080001 4283708316
0.095386088 -0.030927012 1.205 4283707548
0.098599285 -0.030901346 1.2040001 4283904927
0.10180701 -0.030875681 1.2030001 4283707548
0.10518399 -0.030901346 1.2040001 4283444374
0.10838623 -0.030875681 1.2030001 4283773339
0.11158302 -0.030850016 1.202 4284036766
0.1145832 -0.030773019 1.199 4284168099
0.11805849 -0.03082435 1.2010001 4284431011
0.12144366 -0.030850016 1.202 4284233120
0.12441923 -0.030773019 1.199 4284693152
0.12727191 -0.030670358 1.1950001 4285347723
0.13032116 -0.030619027 1.1930001 4283699552
0.13380738 -0.030670358 1.1950001 4284165761
0.13730453 -0.030721689 1.197 4285284511
0.14093006 -0.030798685 1.2 4284889506
0.14421147 -0.030798685 1.2 4284430498
0.14761581 -0.03082435 1.2010001 4284167327
0.15089995 -0.03082435 1.2010001 4284364965
0.15444085 -0.030875681 1.2030001 4284496805
0.15759934 -0.030850016 1.202 4284430758
0.16008313 -0.030696023 1.1960001 4284562344
0.16349019 -0.030721689 1.197 4284430758
0.16745999 -0.030850016 1.202 4284167588
0.17074686 -0.030850016 1.202 4284430760
0.17504726 -0.031029675 1.2090001 4284692905
0.17894337 -0.031132337 1.2130001 4284626599
0.18421364 -0.031465989 1.2260001 4285020839
0.18894309 -0.031696979 1.235 4287452839
0.19403316 -0.0319793 1.2460001 4285996891
0.19870804 -0.032184623 1.2540001 4289675155
0.20423265 -0.032518279 1.2670001 4286796965
0.21327083 -0.033390906 1.3010001 4294109439
0.033296347 -0.028067617 1.2240001 4278190080
0.036134452 -0.027677789 1.207 4278190080
0.039271645 -0.027563134 1.202 4284495793
0.042487711 -0.027517272 1.2 4283969194
0.045807261 -0.027540203 1.2010001 4283640484
0.049132288 -0.027563134 1.202 4283114908
0.052419167 -0.027563134 1.202 4282655127
0.0556597 -0.027540203 1.2010001 4282786713
0.05899293 -0.027563134 1.202 4282655640
0.062279809 -0.027563134 1.202 4282524052
0.065675788 -0.027608996 1.2040001 4281932683
0.06896814 -0.027608996 1.2040001 4281867656
0.07220047 -0.027586065 1.2030001 4282130828
0.075615585 -0.027631927 1.205 4281999240
0.079107128 -0.027700722 1.2080001 4282196360
0.082615077 -0.027769515 1.2110001 4282392969
0.085997522 -0.027792446 1.212 4282721421
0.089311749 -0.027792446 1.212 4283181972
0.092549555 -0.027769515 1.2110001 4283510937
0.095702723 -0.027723653 1.2090001 4283773339
0.098844968 -0.027677789 1.207 4283839134
0.10197625 -0.027631927 1.205 4283575960
0.1053587 -0.027654858 1.2060001 4283707546
0.10874663 -0.027677789 1.207 4283904925
0.11204718 -0.027677789 1.207 4283707801
0.11515659 -0.027631927 1.205 4284168099
0.11854998 -0.027654858 1.2060001 4284431012
0.12174676 -0.027631927 1.205 4284561317
0.12452301 -0.027517272 1.2 4285218471
0.1274849 -0.027448479 1.197 4286068629
0.13053964 -0.027402619 1.1950001 4288095082
0.13403133 -0.027448479 1.197 4287177056
0.13741924 -0.02747141 1.1980001 4283570534
0.14093006 -0.027517272 1.2 4284560277
0.14433165 -0.027540203 1.2010001 4285153705
0.14773871 -0.027563134 1.202 4284825256
0.15140252 -0.027631927 1.205 4284891052
0.15508275 -0.027700722 1.2080001 4284496291
0.15838604 -0.027700722 1.2080001 4284825257
0.16195703 -0.027746584 1.21 4284693673
0.1649926 -0.027700722 1.2080001 4284430758
0.16843522 -0.027723653 1.2090001 4284562344
0.17202535 -0.027769515 1.2110001 4284364967
0.17548162 -0.027792446 1.212 4284561833
0.17968099 -0.027930031 1.2180001 4284166561
0.18466441 -0.028182274 1.2290001 4285676967
0.18940206 -0.028388651 1.238 4287643531
0.19450034 -0.028640894 1.2490001 4285335369
0.19918342 -0.028824344 1.2570001 4288491408
0.20471624 -0.029122446 1.2700001 4287783344
0.21507405 -0.030085551 1.312 4294966271
0.030193992 -0.024922544 1.2340001 4278190080
0.032915507 -0.024437828 1.21 4278190080
0.035984766 -0.024276253 1.202 4284365227
0.039173629 -0.024215665 1.199 4284364718
0.042487711 -0.024235861 1.2 4283509409
0.045769125 -0.024235861 1.2 4283312030
0.049050536 -0.024235861 1.2 4283049883
