# .PCD v0.7 - Point Cloud Data file format
VERSION 0.7
FIELDS x y z rgba
SIZE 4 4 4 4
TYPE F F F U
COUNT 1 1 1 1
WIDTH 1128
HEIGHT 1
VIEWPOINT 0 0 0 1 0 0 0
POINTS 1128
DATA ascii
0.14966278 0.068398491 1.276 4284693421
0.15077014 0.068398491 1.276 4284824749
0.15187752 0.068398491 1.276 4284890028
0.1529849 0.068398491 1.276 4284824491
0.15409227 0.068398491 1.276 4284824491
0.15532129 0.06845209 1.2770001 4284955821
0.15642953 0.06845209 1.2770001 4285152429
0.15766114 0.068505697 1.2780001 4285283244
0.15877025 0.068505697 1.2780001 4285545131
0.16000445 0.068559304 1.279 4286068644
0.16111444 0.068559304 1.279 4286788248
0.16222441 0.068559304 1.279 4287966344
0.1632067 0.068505697 1.2780001 4288881269
0.1643158 0.068505697 1.2780001 4289469803
0.16516604 0.068398491 1.276 4289928040
0.1661431 0.068344884 1.2750001 4290058597
0.16724962 0.068344884 1.2750001 4289992547
0.16835612 0.068344884 1.2750001 4289992032
0.16959552 0.068398491 1.276 4289991776
0.1707029 0.068398491 1.276 4289926752
0.17207959 0.068505697 1.2780001 4289861472
0.1731887 0.068505697 1.2780001 4289796193
0.17443419 0.068559304 1.279 4289730915
0.17554416 0.068559304 1.279 4289470823
0.17665415 0.068559304 1.279 4288818026
0.17776412 0.068559304 1.279 4287245667
0.17887411 0.068559304 1.279 4286133861
0.17998408 0.068559304 1.279 4289231007
0.18109407 0.068559304 1.279 4293575911
0.18220404 0.068559304 1.279 4292852448
0.18345734 0.068612903 1.2800001 4288376732
0.1845682 0.068612903 1.2800001 4283703382
0.18582411 0.068666503 1.281 4283504212
0.18708174 0.06872011 1.2820001 4283964257
0.18819432 0.06872011 1.2820001 4284556914
0.18960224 0.068827316 1.284 4284953476
0.19071656 0.068827316 1.284 4285481368
0.19183089 0.068827316 1.284 4286008233
0.19324574 0.068934523 1.286 4286139314
0.19451293 0.068988129 1.2870001 4285942196
0.19562985 0.068988129 1.2870001 4285811125
0.19720539 0.069148935 1.2900001 4285680053
0.19832492 0.069148935 1.2900001 4285614775
0.19959904 0.06920255 1.291 4285680568
0.20118587 0.069363356 1.294 4285548725
0.20246521 0.069416963 1.2950001 4285285809
0.20374627 0.069470569 1.296 4285220015
0.20534524 0.069631383 1.299 4285286064
0.20647259 0.069631383 1.299 4285220272
0.20775974 0.069684982 1.3000001 4285154479
0.20953068 0.069899395 1.304 4285088687
0.21098545 0.070006602 1.3060001 4285548979
0.21228129 0.070060201 1.307 4286075577
0.21569893 0.070435435 1.314 4286799292
0.21733434 0.070596248 1.317 4286997942
0.21897496 0.070757061 1.3200001 4288117948
0.065228775 0.075598337 1.388 4282854034
0.066385485 0.075543866 1.3870001 4282853777
0.067589194 0.075543866 1.3870001 4282919057
0.0688425 0.075598337 1.388 4282787214
0.070097543 0.075652801 1.3890001 4282720908
0.071251653 0.075598337 1.388 4281997441
0.07240402 0.075543866 1.3870001 4282786700
0.073501587 0.075434938 1.3850001 4286339521
0.074244685 0.069389246 1.274 4284561582
0.075113751 0.069171384 1.2700001 4284298412
0.075975873 0.068953522 1.266 4284166828
0.077013679 0.068899058 1.2650001 4284166830
0.078049764 0.068844587 1.2640001 4284034989
0.078958876 0.068681188 1.261 4283706281
0.080053233 0.068681188 1.261 4283509158
0.081147589 0.068681188 1.261 4283574693
0.08217673 0.068626724 1.2600001 4283640486
0.083270222 0.068626724 1.2600001 4283574694
0.084363714 0.068626724 1.2600001 4283443109
0.085389376 0.06857226 1.2590001 4283377572
0.08655069 0.068626724 1.2600001 4283443365
0.087713741 0.068681188 1.261 4283311778
0.09004505 0.068790123 1.263 4283114655
0.091213301 0.068844587 1.2640001 4283180448
0.093481116 0.068899058 1.2650001 4282851739
0.094653718 0.068953522 1.266 4282851995
0.095828049 0.069007985 1.2670001 4282918045
0.096927613 0.069007985 1.2670001 4282918301
0.098027177 0.069007985 1.2670001 4282786972
0.09920498 0.069062456 1.268 4282655898
0.10030541 0.069062456 1.268 4282655897
0.10140584 0.069062456 1.268 4282590359
0.10258712 0.06911692 1.2690001 4282393236
0.10368842 0.06911692 1.2690001 4282195857
0.10478972 0.06911692 1.2690001 4282130064
0.10597447 0.069171384 1.2700001 4282195857
0.10707663 0.069171384 1.2700001 4282261650
0.1081788 0.069171384 1.2700001 4282327442
0.10936701 0.069225848 1.271 4282327697
0.11055698 0.069280311 1.2720001 4282393490
0.11166088 0.069280311 1.2720001 4282525076
0.11285343 0.069334783 1.273 4282656661
0.11404772 0.069389246 1.274 4282854040
0.11515336 0.069389246 1.274 4282985626
0.1164415 0.069498181 1.276 4283051419
0.11764101 0.069552645 1.2770001 4283379870
0.11884225 0.069607109 1.2780001 4283511200
0.12004521 0.06966158 1.279 4283379614
0.12115519 0.06966158 1.279 4283313821
0.12216958 0.069607109 1.2780001 4283248028
0.12327869 0.069607109 1.2780001 4283379614
0.1243878 0.069607109 1.2780001 4283576480
0.12549691 0.069607109 1.2780001 4283642273
0.12650695 0.069552645 1.2770001 4283708066
0.1276152 0.069552645 1.2770001 4283773602
0.12872344 0.069552645 1.2770001 4283839138
0.12973002 0.069498181 1.276 4283904675
0.13093993 0.069552645 1.2770001 4283970211
0.13204817 0.069552645 1.2770001 4284102054
0.13315642 0.069552645 1.2770001 4284299433
0.13415952 0.069498181 1.276 4284364969
0.13526689 0.069498181 1.276 4284233640
0.13637426 0.069498181 1.276 4284233640
0.13748164 0.069498181 1.276 4284233640
0.13869764 0.069552645 1.2770001 4284102054
0.13980588 0.069552645 1.2770001 4283970468
0.14091413 0.069552645 1.2770001 4283970211
0.14202236 0.069552645 1.2770001 4283970211
0.1431306 0.069552645 1.2770001 4284036004
0.14423884 0.069552645 1.2770001 4284233383
0.14534709 0.069552645 1.2770001 4284299176
0.14657003 0.069607109 1.2780001 4284298920
0.14767914 0.069607109 1.2780001 4284364456
0.14878826 0.069607109 1.2780001 4284561578
0.14989737 0.069607109 1.2780001 4284693164
0.15100648 0.069607109 1.2780001 4284824494
0.15211558 0.069607109 1.2780001 4284890030
0.15322469 0.069607109 1.2780001 4284890030
0.1543338 0.069607109 1.2780001 4284955823
0.15544292 0.069607109 1.2780001 4285021359
0.15667452 0.06966158 1.279 4285152687
0.15778449 0.06966158 1.279 4285283246
0.15889448 0.06966158 1.279 4285544875
0.16012956 0.069716036 1.2800001 4286003109
0.16124041 0.069716036 1.2800001 4286788505
0.16235125 0.069716036 1.2800001 4287900807
0.1633344 0.06966158 1.279 4288881268
0.16444437 0.06966158 1.279 4289470060
0.16529548 0.069552645 1.2770001 4289863017
0.16640371 0.069552645 1.2770001 4289993574
0.16724962 0.06944371 1.2750001 4290124644
0.16835612 0.06944371 1.2750001 4290124130
0.16959552 0.069498181 1.276 4290123617
0.17083669 0.069552645 1.2770001 4289926752
0.17207959 0.069607109 1.2780001 4289795936
0.1731887 0.069607109 1.2780001 4289599583
0.17443419 0.06966158 1.279 4289403743
0.17568141 0.069716036 1.2800001 4289143396
0.17679226 0.069716036 1.2800001 4288687210
0.17790312 0.069716036 1.2800001 4287312232
0.17901395 0.069716036 1.2800001 4286068840
0.1801248 0.069716036 1.2800001 4289099937
0.18123566 0.069716036 1.2800001 4293839343
0.18234649 0.069716036 1.2800001 4293115878
0.18345734 0.069716036 1.2800001 4289035433
0.1847124 0.0697705 1.281 4284887655
0.18596916 0.069824971 1.2820001 4285279597
0.18708174 0.069824971 1.2820001 4285081456
0.18834113 0.069879435 1.2830001 4284095853
0.18960224 0.069933899 1.284 4283505520
0.19071656 0.069933899 1.284 4283375993
0.19183089 0.069933899 1.284 4283705735
0.19324574 0.070042834 1.286 4284298392
0.19451293 0.070097297 1.2870001 4284956584
0.19578186 0.070151769 1.2880001 4285351602
0.19720539 0.070260696 1.2900001 4285548983
0.19847865 0.07031516 1.291 4285614521
0.19959904 0.07031516 1.291 4285614520
0.20118587 0.070478559 1.294 4285483189
0.20246521 0.070533022 1.2950001 4285351602
0.20374627 0.070587493 1.296 4285154735
0.20534524 0.070750892 1.299 4285088942
0.20663154 0.070805356 1.3000001 4285023149
0.20791957 0.07085982 1.3010001 4284891308
0.20969136 0.071077682 1.3050001 4285088944
0.21098545 0.071132146 1.3060001 4285681079
0.21341556 0.07118661 1.307 4286405051
0.21586308 0.071622334 1.3150001 4286602681
0.21749938 0.071785733 1.3180001 4286867123
0.21914086 0.071949132 1.3210001 4288974281
0.065369762 0.076960526 1.391 4282985110
0.066576943 0.076960526 1.391 4282853267
0.067735381 0.076905198 1.3900001 4282853010
0.06894169 0.076905198 1.3900001 4282655630
0.070198476 0.076960526 1.391 4282523529
0.071354315 0.076905198 1.3900001 4282128514
0.072508425 0.07684987 1.3890001 4283904925
0.073607728 0.076739214 1.3870001 4286799818
0.074186414 0.070431888 1.273 4284364204
0.075113751 0.070265904 1.2700001 4284232620
0.075975873 0.070044592 1.266 4284101035
0.077013679 0.069989264 1.2650001 4284035244
0.078049764 0.069933936 1.2640001 4283903658
0.079021491 0.06982328 1.2620001 4283640486
0.080053233 0.069767952 1.261 4283443364
0.081147589 0.069767952 1.261 4283443363
0.082241952 0.069767952 1.261 4283509156
0.083270222 0.069712624 1.2600001 4283509158
0.084363714 0.069712624 1.2600001 4283443365
0.085457206 0.069712624 1.2600001 4283377571
0.08655069 0.069712624 1.2600001 4283311778
0.087713741 0.069767952 1.261 4283114398
0.09004505 0.069878608 1.263 4282983325
0.091141142 0.069878608 1.263 4283049118
0.093481116 0.069989264 1.2650001 4282720152
0.094653718 0.070044592 1.266 4282654872
0.095828049 0.070099913 1.2670001 4282720922
0.097004108 0.070155248 1.268 4282786715
0.098104544 0.070155248 1.268 4282721179
0.099283218 0.070210576 1.2690001 4282787227
0.10038452 0.070210576 1.2690001 4282853019
0.10148582 0.070210576 1.2690001 4282655896
0.10258712 0.070210576 1.2690001 4282392981
0.10377013 0.070265904 1.2700001 4282195858
0.10487229 0.070265904 1.2700001 4282195858
0.1060579 0.070321232 1.271 4282392980
0.10716094 0.070321232 1.271 4282524822
0.10826398 0.070321232 1.271 4282459028
0.10945307 0.070376553 1.2720001 4282393234
0.11055698 0.070376553 1.2720001 4282459027
0.11166088 0.070376553 1.2720001 4282722199
0.11294208 0.070487209 1.274 4282919833
0.11404772 0.070487209 1.274 4283051419
0.11524376 0.070542537 1.2750001 4283248542
0.11653277 0.070653193 1.2770001 4283380128
0.11764101 0.070653193 1.2770001 4283643042
0.11884225 0.070708521 1.2780001 4283708579
0.12004521 0.070763849 1.279 4283576993
0.12115519 0.070763849 1.279 4283511200
0.12226517 0.070763849 1.279 4283510687
0.12337515 0.070763849 1.279 4283444894
0.12448513 0.070763849 1.279 4283444894
0.12559511 0.070763849 1.279 4283510687
0.12660603 0.070708521 1.2780001 4283642016
0.12771514 0.070708521 1.2780001 4283773089
0.12872344 0.070653193 1.2770001 4283838882
0.12983169 0.070653193 1.2770001 4283970468
0.13093993 0.070653193 1.2770001 4284036261
0.13204817 0.070653193 1.2770001 4284167847
0.13315642 0.070653193 1.2770001 4284365226
0.13426466 0.070653193 1.2770001 4284365226
0.13537291 0.070653193 1.2770001 4284299433
0.13648115 0.070653193 1.2770001 4284299433
0.1375894 0.070653193 1.2770001 4284299433
0.13869764 0.070653193 1.2770001 4284233640
0.13980588 0.070653193 1.2770001 4284101797
0.14091413 0.070653193 1.2770001 4284101797
0.14202236 0.070653193 1.2770001 4284101797
0.1432427 0.070708521 1.2780001 4284167590
0.14435181 0.070708521 1.2780001 4284299176
0.14546092 0.070708521 1.2780001 4284364969
0.14657003 0.070708521 1.2780001 4284364712
0.14767914 0.070708521 1.2780001 4284430249
0.14878826 0.070708521 1.2780001 4284561578
0.14989737 0.070708521 1.2780001 4284758444
0.15100648 0.070708521 1.2780001 4284890030
0.15211558 0.070708521 1.2780001 4284955823
0.15322469 0.070708521 1.2780001 4284955823
0.1543338 0.070708521 1.2780001 4285021359
0.15544292 0.070708521 1.2780001 4285021360
0.15667452 0.070763849 1.279 4285087151
0.15778449 0.070763849 1.279 4285086892
0.15901871 0.070819177 1.2800001 4285217447
0.16012956 0.070819177 1.2800001 4285741218
0.16124041 0.070819177 1.2800001 4286592154
0.1624781 0.070874505 1.281 4287704201
0.1634621 0.070819177 1.2800001 4288618869
0.16457295 0.070819177 1.2800001 4289338732
0.16555434 0.070763849 1.279 4289731689
0.16653404 0.070708521 1.2780001 4289993317
0.16764314 0.070708521 1.2780001 4290124133
0.16875225 0.070708521 1.2780001 4290123876
0.16986136 0.070708521 1.2780001 4289992291
0.17097047 0.070708521 1.2780001 4289926241
0.17234887 0.070819177 1.2800001 4289860704
0.17345972 0.070819177 1.2800001 4289794913
0.17470697 0.070874505 1.281 4289729893
0.17595592 0.070929833 1.2820001 4289404263
0.1770685 0.070929833 1.2820001 4288751722
0.17832008 0.070985161 1.2830001 4287508070
0.17943352 0.070985161 1.2830001 4285935197
0.18054697 0.070985161 1.2830001 4287321211
0.18151882 0.070929833 1.2820001 4291138745
0.18277387 0.070985161 1.2830001 4290348973
0.18388733 0.070985161 1.2830001 4286595438
0.18500078 0.070985161 1.2830001 4286261085
0.1862593 0.071040481 1.284 4287702632
0.18751954 0.071095817 1.2850001 4288293743
0.18863472 0.071095817 1.2850001 4287243112
0.18989758 0.071151137 1.286 4285929572
0.19116217 0.071206465 1.2870001 4284814182
0.19227909 0.071206465 1.2870001 4283831408
0.19369654 0.071317121 1.289 4283374205
0.19496635 0.071372449 1.2900001 4284033938
0.19608587 0.071372449 1.2900001 4285218727
0.19751114 0.071483105 1.2920001 4285679794
0.19878614 0.071538433 1.2930001 4285811381
0.20006287 0.071593761 1.294 4285679796
0.20149681 0.071704417 1.296 4285482674
0.20277789 0.071759745 1.2970001 4285351601
0.2040607 0.071815066 1.2980001 4285351603
0.20566142 0.07198105 1.3010001 4285220273
0.20694943 0.072036386 1.302 4285088687
0.20823918 0.072091706 1.3030001 4284957359
0.21130855 0.072368346 1.3080001 4285615801
0.21276854 0.072478995 1.3100001 4286076862
0.214232 0.072589658 1.312 4286274489
0.06551075 0.078327894 1.3940001 4282918803
0.06667266 0.078271702 1.393 4282721680
0.067881577 0.078271702 1.393 4282786702
0.069090486 0.078271702 1.393 4282523529
0.070349872 0.078327894 1.3940001 4281931391
0.071559653 0.078327894 1.3940001 4282062977
0.07261283 0.078159325 1.391 4285483957
0.073713869 0.078046948 1.3890001 4287457748
0.074186414 0.071528994 1.273 4284232875
0.075113751 0.071360424 1.2700001 4284166828
0.075975873 0.071135662 1.266 4284035499
0.077013679 0.071079478 1.2650001 4283969706
0.078049764 0.071023278 1.2640001 4283772328
0.079021491 0.070910908 1.2620001 4283574949
0.080116719 0.070910908 1.2620001 4283377827
0.081147589 0.070854716 1.261 4283312290
0.082241952 0.070854716 1.261 4283443619
0.083270222 0.070798524 1.2600001 4283509413
0.084363714 0.070798524 1.2600001 4283509413
0.085457206 0.070798524 1.2600001 4283377826
0.08655069 0.070798524 1.2600001 4283246240
0.087713741 0.070854716 1.261 4282983324
0.089973748 0.070910908 1.2620001 4282851738
0.091141142 0.070967093 1.263 4282917530
0.093481116 0.071079478 1.2650001 4282589078
0.094653718 0.071135662 1.266 4282457749
0.097004108 0.07124804 1.268 4282655385
0.098104544 0.07124804 1.268 4282721178
0.099283218 0.071304232 1.2690001 4282721434
0.10038452 0.071304232 1.2690001 4282787226
0.10148582 0.071304232 1.2690001 4282655897
0.10266796 0.071360424 1.2700001 4282524311
0.10377013 0.071360424 1.2700001 4282458518
0.10487229 0.071360424 1.2700001 4282458775
0.1060579 0.071416609 1.271 4282590360
0.10716094 0.071416609 1.271 4282722201
0.10834917 0.071472794 1.2720001 4282722200
0.10945307 0.071472794 1.2720001 4282590614
0.11064389 0.071528994 1.273 4282656149
0.11174866 0.071528994 1.273 4282787735
0.11294208 0.071585178 1.274 4283116699
0.11413725 0.071641363 1.2750001 4283380127
0.11524376 0.071641363 1.2750001 4283511457
0.11662403 0.071809933 1.2780001 4283642786
0.11773314 0.071809933 1.2780001 4283708323
0.11893523 0.071866125 1.279 4283708323
0.12013907 0.07192231 1.2800001 4283708066
0.12124992 0.07192231 1.2800001 4283708066
0.12236077 0.07192231 1.2800001 4283708066
0.12347161 0.07192231 1.2800001 4283576480
0.12458246 0.07192231 1.2800001 4283444894
0.12569331 0.07192231 1.2800001 4283510430
0.12670508 0.071866125 1.279 4283707552
0.12771514 0.071809933 1.2780001 4283838882
0.12882425 0.071809933 1.2780001 4283904675
0.12983169 0.071753748 1.2770001 4284036261
0.13093993 0.071753748 1.2770001 4284102054
0.13204817 0.071753748 1.2770001 4284233640
0.1332607 0.071809933 1.2780001 4284365226
0.13426466 0.071753748 1.2770001 4284431019
0.13537291 0.071753748 1.2770001 4284299433
0.13648115 0.071753748 1.2770001 4284299433
0.1375894 0.071753748 1.2770001 4284299433
0.13880625 0.071809933 1.2780001 4284233640
0.13991536 0.071809933 1.2780001 4284233383
0.14102447 0.071809933 1.2780001 4284299176
0.14213358 0.071809933 1.2780001 4284299176
0.1432427 0.071809933 1.2780001 4284299176
0.14435181 0.071809933 1.2780001 4284364712
0.14557473 0.071866125 1.279 4284430249
0.14668471 0.071866125 1.279 4284364456
0.14779468 0.071866125 1.279 4284430249
0.14890467 0.071866125 1.279 4284561578
0.15001464 0.071866125 1.279 4284758444
0.15112463 0.071866125 1.279 4284890030
0.1522346 0.071866125 1.279 4284890031
0.15334459 0.071866125 1.279 4284890030
0.15445456 0.071866125 1.279 4284890031
0.15556455 0.071866125 1.279 4285021360
0.15667452 0.071866125 1.279 4285086897
0.15790787 0.07192231 1.2800001 4285086639
0.15901871 0.07192231 1.2800001 4285282474
0.16025467 0.071978502 1.281 4285740707
0.16136639 0.071978502 1.281 4286591899
0.1624781 0.071978502 1.281 4287638667
0.16358981 0.071978502 1.281 4288356469
0.16470152 0.071978502 1.281 4288945000
0.16568379 0.07192231 1.2800001 4289337955
0.16666433 0.071866125 1.279 4289730914
0.1677743 0.071866125 1.279 4289992548
0.16875225 0.071809933 1.2780001 4290057828
0.16986136 0.071809933 1.2780001 4290057572
0.17110425 0.071866125 1.279 4289991521
0.17234887 0.07192231 1.2800001 4289991519
0.17359525 0.071978502 1.281 4289860702
0.17470697 0.071978502 1.281 4289599841
0.17609318 0.072090879 1.2830001 4289208420
0.17720662 0.072090879 1.2830001 4288620904
0.17832008 0.072090879 1.2830001 4287574376
0.17957339 0.072147064 1.284 4285869403
0.18054697 0.072090879 1.2830001 4284623442
0.18166043 0.072090879 1.2830001 4284757082
0.18291634 0.072147064 1.284 4284493397
0.18403065 0.072147064 1.284 4284161097
0.18514498 0.072147064 1.284 4285734741
0.18640435 0.072203264 1.2850001 4288031597
0.18766546 0.072259448 1.286 4288556404
0.18878151 0.072259448 1.286 4288491644
0.19004524 0.072315633 1.2870001 4287705218
0.19131069 0.072371826 1.2880001 4285998461
0.19242848 0.072371826 1.2880001 4284358267
0.19384682 0.072484203 1.2900001 4283769733
0.19511747 0.072540395 1.291 4284232344
0.19623786 0.072540395 1.291 4285285037
0.19766401 0.07265278 1.2930001 4285482675
0.19893987 0.072708964 1.294 4285482934
0.20021749 0.072765149 1.2950001 4285483189
0.20165229 0.072877534 1.2970001 4285351859
0.20293424 0.072933719 1.2980001 4285286322
0.20421791 0.072989911 1.299 4285286067
0.20581949 0.07315848 1.302 4285154481
0.20710838 0.073214665 1.3030001 4285022895
0.20823918 0.073214665 1.3030001 4285154482
0.21147011 0.073551804 1.309 4285813180
0.21293096 0.073664181 1.3110001 4286077117
0.21439528 0.073776558 1.3130001 4286209461
0.065839708 0.079928637 1.401 4282853007
0.067103423 0.079985686 1.4020001 4282655628
0.068368882 0.080042742 1.4030001 4282655370
0.069636077 0.080099791 1.404 4282062976
0.070854537 0.080099791 1.404 4281536631
0.072072998 0.080099791 1.404 4282523526
0.072926044 0.079700433 1.3970001 4286536901
0.07387308 0.07941518 1.3920001 4287918298
0.071094789 0.072854295 1.2770001 4284298923
0.072089948 0.07274019 1.2750001 4284101544
0.073081642 0.072626092 1.273 4284035753
0.074011579 0.072454944 1.2700001 4284035498
0.074995458 0.072340839 1.268 4283969706
0.075915851 0.072169684 1.2650001 4283969707
0.0769528 0.072112627 1.2640001 4283903914
0.078049764 0.072112627 1.2640001 4283706791
0.079021491 0.071998529 1.2620001 4283443876
0.080116719 0.071998529 1.2620001 4283312290
0.081147589 0.071941473 1.261 4283246497
0.082241952 0.071941473 1.261 4283378083
0.083336309 0.071941473 1.261 4283443876
0.084363714 0.071884423 1.2600001 4283443876
0.085457206 0.071884423 1.2600001 4283378082
0.086619385 0.071941473 1.261 4283246496
0.087713741 0.071941473 1.261 4283049117
0.088808097 0.071941473 1.261 4282851737
0.089973748 0.071998529 1.2620001 4282720407
0.091141142 0.072055578 1.263 4282786200
0.092310265 0.072112627 1.2640001 4282654870
0.093555018 0.072226733 1.266 4282457748
0.094728485 0.072283782 1.2670001 4282326162
0.095828049 0.072283782 1.2670001 4282457748
0.097080618 0.072397888 1.2690001 4282523798
0.098181918 0.072397888 1.2690001 4282655383
0.099283218 0.072397888 1.2690001 4282589847
0.10046362 0.072454944 1.2700001 4282589847
0.10164576 0.072511993 1.271 4282721432
0.1027488 0.072511993 1.271 4282787225
0.10393355 0.072569035 1.2720001 4282721433
0.10503745 0.072569035 1.2720001 4282787226
0.1062248 0.072626092 1.273 4282984860
0.10732957 0.072626092 1.273 4282985117
0.10843434 0.072626092 1.273 4282985116
0.10962516 0.072683141 1.274 4282853530
0.1107308 0.072683141 1.274 4282787480
0.11183644 0.072683141 1.274 4282853015
0.11311939 0.072797246 1.276 4283116443
0.11431628 0.072854295 1.2770001 4283511200
0.11542452 0.072854295 1.2770001 4283708579
0.11671527 0.072968401 1.279 4283708323
0.11791738 0.07302545 1.2800001 4283642530
0.11902823 0.07302545 1.2800001 4283773859
0.12032679 0.073139556 1.2820001 4283773859
0.12143937 0.073139556 1.2820001 4283773859
0.12255195 0.073139556 1.2820001 4283773602
0.12366454 0.073139556 1.2820001 4283773602
0.12477712 0.073139556 1.2820001 4283707553
0.1258897 0.073139556 1.2820001 4283773089
0.12680416 0.07302545 1.2800001 4283838882
0.12791499 0.07302545 1.2800001 4283904675
0.12892504 0.072968401 1.279 4284036261
0.13003503 0.072968401 1.279 4284102054
0.131145 0.072968401 1.279 4284167847
0.13225497 0.072968401 1.279 4284299433
0.13336496 0.072968401 1.279 4284431019
0.13447493 0.072968401 1.279 4284431019
0.13558492 0.072968401 1.279 4284365226
0.13658802 0.072911344 1.2780001 4284430762
0.13780488 0.072968401 1.279 4284431019
0.13891485 0.072968401 1.279 4284365225
0.14002483 0.072968401 1.279 4284430762
0.14113481 0.072968401 1.279 4284562348
0.14224479 0.072968401 1.279 4284496555
0.14335477 0.072968401 1.279 4284364969
0.14457771 0.07302545 1.2800001 4284364713
0.14568855 0.07302545 1.2800001 4284430249
0.1467994 0.07302545 1.2800001 4284364456
0.14791025 0.07302545 1.2800001 4284364456
0.14902109 0.07302545 1.2800001 4284561578
0.15013194 0.07302545 1.2800001 4284758444
0.15124279 0.07302545 1.2800001 4284824494
0.15235363 0.07302545 1.2800001 4284824495
0.15334459 0.072968401 1.279 4284824238
0.15445456 0.072968401 1.279 4284824495
0.15556455 0.072968401 1.279 4284955825
0.15679702 0.07302545 1.2800001 4285021618
0.15790787 0.07302545 1.2800001 4285086640
0.15914296 0.073082499 1.281 4285151402
0.16037977 0.073139556 1.2820001 4285544102
0.16149235 0.073139556 1.2820001 4286330018
0.16260493 0.073139556 1.2820001 4287245971
0.16371751 0.073139556 1.2820001 4287963775
0.16470152 0.073082499 1.281 4288551537
0.16581324 0.073082499 1.281 4289009512
0.16679464 0.07302545 1.2800001 4289599589
0.1677743 0.072968401 1.279 4289993060
0.16875225 0.072911344 1.2780001 4289993061
0.16999426 0.072968401 1.279 4289927270
0.17123803 0.07302545 1.2800001 4289861477
0.17248353 0.073082499 1.281 4289795684
0.17484334 0.073139556 1.2820001 4289796196
0.17734474 0.073253654 1.284 4289536360
0.17845906 0.073253654 1.284 4288948583
0.17957339 0.073253654 1.284 4287243355
0.1806877 0.073253654 1.284 4285142342
0.18180202 0.073253654 1.284 4283960891
0.18291634 0.073253654 1.284 4283763257
0.18417397 0.073310703 1.2850001 4284681538
0.18528916 0.073310703 1.2850001 4286650967
0.18654941 0.073367752 1.286 4288554604
0.1878114 0.073424801 1.2870001 4289013619
0.18892832 0.073424801 1.2870001 4288883068
0.19034056 0.073538907 1.289 4288031620
0.19145922 0.073538907 1.289 4286720391
0.1927273 0.073595956 1.2900001 4285804434
0.19414735 0.073710062 1.2920001 4285676451
0.19526862 0.073710062 1.2920001 4285677997
0.19654188 0.073767118 1.2930001 4285744305
0.19781688 0.073824167 1.294 4285678770
0.19909361 0.073881216 1.2950001 4285613237
0.20037208 0.073938273 1.296 4285548213
0.20180777 0.074052371 1.2980001 4285482676
0.20309058 0.07410942 1.299 4285351604
0.20437513 0.074166469 1.3000001 4285154483
0.20581949 0.074280575 1.302 4285088946
0.20710838 0.074337624 1.3030001 4285023664
0.20969136 0.07445173 1.3050001 4285353395
0.21163167 0.074736983 1.3100001 4285552051
0.21309339 0.074851081 1.312 4285816242
0.21472186 0.075022236 1.3150001 4286409647
0.065933697 0.081251882 1.4030001 4282589582
0.067247018 0.081367701 1.4050001 4282589069
0.06851507 0.081425622 1.406 4282523274
0.069784872 0.081483528 1.4070001 4281996928
0.071005933 0.081483528 1.4070001 4281996926
0.072227001 0.081483528 1.4070001 4284365474
0.072717234 0.080672748 1.393 4287457493
0.07382001 0.080556929 1.391 4287917791
0.071094789 0.073954843 1.2770001 4284496301
0.072089948 0.073839016 1.2750001 4284167337
0.072909415 0.073549457 1.2700001 4284101290
0.073953308 0.073491544 1.2690001 4283969706
0.074995458 0.07343363 1.268 4283903914
0.075855844 0.073201977 1.2640001 4283969707
0.0769528 0.073201977 1.2640001 4283772841
0.077988021 0.073144063 1.263 4283575461
0.079021491 0.073086157 1.2620001 4283312290
0.080053233 0.073028237 1.261 4283180704
0.081147589 0.073028237 1.261 4283246497
0.082241952 0.073028237 1.261 4283312290
0.083336309 0.073028237 1.261 4283378082
0.084363714 0.072970323 1.2600001 4283312290
0.085457206 0.072970323 1.2600001 4283246753
0.08655069 0.072970323 1.2600001 4283246753
0.087644182 0.072970323 1.2600001 4283115165
0.088808097 0.073028237 1.261 4282851993
0.09004505 0.073144063 1.263 4282655126
0.091141142 0.073144063 1.263 4282655126
0.092310265 0.073201977 1.2640001 4282589333
0.093555018 0.073317803 1.266 4282457747
0.094653718 0.073317803 1.266 4282391954
0.095828049 0.073375717 1.2670001 4282457747
0.097004108 0.07343363 1.268 4282457747
0.098181918 0.073491544 1.2690001 4282523540
0.099283218 0.073491544 1.2690001 4282523540
0.10046362 0.073549457 1.2700001 4282589590
0.10164576 0.07360737 1.271 4282786968
0.10282964 0.073665284 1.2720001 4282853017
0.10393355 0.073665284 1.2720001 4282853018
0.10503745 0.073665284 1.2720001 4283050140
0.1062248 0.073723197 1.273 4283247519
0.10732957 0.073723197 1.273 4283247518
0.10851952 0.07378111 1.274 4283181725
0.10962516 0.07378111 1.274 4283116189
0.11081772 0.073839016 1.2750001 4283115931
0.11192422 0.073839016 1.2750001 4282984601
0.11311939 0.073896937 1.276 4283050393
0.11431628 0.073954843 1.2770001 4283379358
0.11542452 0.073954843 1.2770001 4283773859
0.11671527 0.074070677 1.279 4283773859
0.11791738 0.074128583 1.2800001 4283642273
0.11902823 0.074128583 1.2800001 4283773859
0.12032679 0.07424441 1.2820001 4283839652
0.12143937 0.07424441 1.2820001 4283708066
0.12255195 0.07424441 1.2820001 4283773346
0.12366454 0.07424441 1.2820001 4283970468
0.1246798 0.074186496 1.281 4284036261
0.1257915 0.074186496 1.281 4284036261
0.12690322 0.074186496 1.281 4283970468
0.12791499 0.074128583 1.2800001 4283970468
0.12902585 0.074128583 1.2800001 4284102054
0.13003503 0.074070677 1.279 4284167847
0.131145 0.074070677 1.279 4284233640
0.13225497 0.074070677 1.279 4284431019
0.13336496 0.074070677 1.279 4284628398
0.13447493 0.074070677 1.279 4284628141
0.13558492 0.074070677 1.279 4284562348
0.13669489 0.074070677 1.279 4284628141
0.13780488 0.074070677 1.279 4284759725
0.13891485 0.074070677 1.279 4284628139
0.14002483 0.074070677 1.279 4284562347
0.14113481 0.074070677 1.279 4284628141
0.14224479 0.074070677 1.279 4284562348
0.14335477 0.074070677 1.279 4284430762
0.14457771 0.074128583 1.2800001 4284364969
0.14568855 0.074128583 1.2800001 4284430506
0.1467994 0.074128583 1.2800001 4284496042
0.14791025 0.074128583 1.2800001 4284430249
0.14902109 0.074128583 1.2800001 4284496042
0.15024923 0.074186496 1.281 4284627628
0.15136094 0.074186496 1.281 4284759215
0.15247266 0.074186496 1.281 4284825008
0.15358438 0.074186496 1.281 4284759215
0.15457533 0.074128583 1.2800001 4284759215
0.15568617 0.074128583 1.2800001 4284825009
0.15691952 0.074186496 1.281 4284956083
0.15815459 0.07424441 1.2820001 4285021104
0.15926717 0.07424441 1.2820001 4285151146
0.16050486 0.074302323 1.2830001 4285543847
0.1617443 0.074360237 1.284 4286329763
0.16285861 0.074360237 1.284 4287180182
0.16397293 0.074360237 1.284 4287964549
0.16495867 0.074302323 1.2830001 4288552566
0.16607212 0.074302323 1.2830001 4289075561
0.16705525 0.07424441 1.2820001 4289534310
0.16816784 0.07424441 1.2820001 4289862504
0.16914839 0.074186496 1.281 4290124906
0.1702601 0.074186496 1.281 4290189931
0.17137182 0.074186496 1.281 4290058344
0.17261817 0.07424441 1.2820001 4290123622
0.17386627 0.074302323 1.2830001 4290058085
0.17497972 0.074302323 1.2830001 4289927269
0.17623043 0.074360237 1.284 4289797222
0.17748286 0.07441815 1.2850001 4289536616
0.17859805 0.07441815 1.2850001 4289014633
0.17985308 0.074476063 1.286 4287769955
0.18096915 0.074476063 1.286 4285800783
0.1820852 0.074476063 1.286 4284224575
0.18334371 0.074533977 1.2870001 4284158526
0.18460396 0.07459189 1.2880001 4285077064
0.18572174 0.07459189 1.2880001 4287243616
0.1869846 0.074649803 1.289 4288620652
0.18824919 0.074707709 1.2900001 4288947826
0.18936871 0.074707709 1.2900001 4288619639
0.19078356 0.074823536 1.2920001 4287767679
0.19205336 0.074881457 1.2930001 4286720395
0.19317549 0.074881457 1.2930001 4286199195
0.19459815 0.074997276 1.2950001 4286005419
0.19587316 0.075055197 1.296 4285810098
0.19699788 0.075055197 1.296 4285679025
0.19842836 0.075171016 1.2980001 4285482161
0.19955483 0.075171016 1.2980001 4285482676
0.2008359 0.075228937 1.299 4285417396
0.20211872 0.075286843 1.3000001 4285417394
0.20340328 0.075344756 1.3010001 4285286322
0.20453234 0.075344756 1.3010001 4285089201
0.20726733 0.075518496 1.304 4284957869
0.20871863 0.075634323 1.3060001 4285155760
0.21001273 0.075692229 1.307 4285551028
0.21227786 0.07609763 1.314 4285749684
0.21374306 0.076213457 1.3160001 4286013617
0.21521172 0.076329276 1.3180001 4287528125
0.21766877 0.076792583 1.3260001 4290753249
0.2193146 0.076966323 1.3290001 4293320187
0.22096565 0.077140056 1.332 4294110205
0.066074677 0.082637347 1.406 4283181463
0.067390606 0.082754895 1.4080001 4283444378
0.068661265 0.082813673 1.409 4283641756
0.069933668 0.082872443 1.4100001 4283510168
0.071106859 0.082813673 1.409 4284167840
0.072329663 0.082813673 1.409 4286667973
0.072665028 0.081814498 1.3920001 4288115168
0.073766932 0.081696942 1.3900001 4287523034
0.071094789 0.075055398 1.2770001 4284562093
0.072089948 0.074937843 1.2750001 4284167337
0.072852008 0.074585199 1.2690001 4284101545
0.073895022 0.074526422 1.268 4283904169
0.074936315 0.074467644 1.2670001 4283772330
0.075855844 0.074291319 1.2640001 4283772328
0.076891921 0.074232548 1.263 4283640998
0.077988021 0.074232548 1.263 4283443876
0.078958876 0.074115001 1.261 4283246497
0.080053233 0.074115001 1.261 4283180704
0.081147589 0.074115001 1.261 4283246497
0.082241952 0.074115001 1.261 4283312290
0.083270222 0.074056223 1.2600001 4283378082
0.084363714 0.074056223 1.2600001 4283312289
0.085457206 0.074056223 1.2600001 4283181217
0.08655069 0.074056223 1.2600001 4283181473
0.087644182 0.074056223 1.2600001 4283049886
0.088808097 0.074115001 1.261 4282918299
0.09004505 0.074232548 1.263 4282786712
0.091141142 0.074232548 1.263 4282720918
0.092310265 0.074291319 1.2640001 4282655125
0.093555018 0.074408874 1.266 4282589332
0.094653718 0.074408874 1.266 4282589332
0.095828049 0.074467644 1.2670001 4282523539
0.097004108 0.074526422 1.268 4282523539
0.098181918 0.074585199 1.2690001 4282523539
0.099283218 0.074585199 1.2690001 4282523539
0.10046362 0.074643977 1.2700001 4282655125
0.10164576 0.074702747 1.271 4282918297
0.10282964 0.074761525 1.2720001 4282984090
0.10393355 0.074761525 1.2720001 4283115676
0.10512003 0.074820302 1.273 4283247262
0.10630824 0.074879073 1.274 4283378848
0.10741388 0.074879073 1.274 4283313055
0.10851952 0.074879073 1.274 4283313055
0.10971121 0.074937843 1.2750001 4283313055
0.11081772 0.074937843 1.2750001 4283378846
0.11192422 0.074937843 1.2750001 4283247516
0.11320803 0.075055398 1.2770001 4283115930
0.11431628 0.075055398 1.2770001 4283247516
0.11551491 0.075114168 1.2780001 4283576481
0.11680653 0.075231723 1.2800001 4283773859
0.11791738 0.075231723 1.2800001 4283773859
0.11912122 0.075290494 1.281 4283839652
0.12032679 0.075349271 1.2820001 4283839652
0.12143937 0.075349271 1.2820001 4283773859
0.12245636 0.075290494 1.281 4283773346
0.12366454 0.075349271 1.2820001 4283970468
0.12477712 0.075349271 1.2820001 4284167847
0.1258897 0.075349271 1.2820001 4284233640
0.12690322 0.075290494 1.281 4284167847
0.12801494 0.075290494 1.281 4284102054
0.12902585 0.075231723 1.2800001 4284036261
0.13003503 0.075172946 1.279 4284036261
0.13124754 0.075231723 1.2800001 4284233640
0.13235839 0.075231723 1.2800001 4284496812
0.13346924 0.075231723 1.2800001 4284759727
0.13447493 0.075172946 1.279 4284693934
0.13558492 0.075172946 1.279 4284693932
0.13669489 0.075172946 1.279 4284759725
0.13780488 0.075172946 1.279 4284825518
0.13891485 0.075172946 1.279 4284693932
0.14002483 0.075172946 1.279 4284628140
0.14113481 0.075172946 1.279 4284628141
0.14224479 0.075172946 1.279 4284496555
0.14335477 0.075172946 1.279 4284430762
0.14457771 0.075231723 1.2800001 4284430762
0.14568855 0.075231723 1.2800001 4284430762
0.1467994 0.075231723 1.2800001 4284496298
0.14791025 0.075231723 1.2800001 4284496041
0.14902109 0.075231723 1.2800001 4284561834
0.15024923 0.075290494 1.281 4284693421
0.15136094 0.075290494 1.281 4284759215
0.15247266 0.075290494 1.281 4284825008
0.15358438 0.075290494 1.281 4284825008
0.15469609 0.075290494 1.281 4284825265
0.15580781 0.075290494 1.281 4284890802
0.15704201 0.075349271 1.2820001 4284825267
0.15815459 0.075349271 1.2820001 4284758960
0.15939142 0.075408049 1.2830001 4284758188
0.16062997 0.075466819 1.284 4284954540
0.1617443 0.075466819 1.284 4285478313
0.16273177 0.075408049 1.2830001 4286198176
0.16397293 0.075466819 1.284 4287179923
0.16495867 0.075408049 1.2830001 4287964033
0.16607212 0.075408049 1.2830001 4288551535
0.16718557 0.075408049 1.2830001 4289141098
0.16816784 0.075349271 1.2820001 4289731435
0.16928042 0.075349271 1.2820001 4290124907
0.17039301 0.075349271 1.2820001 4290124648
0.17150559 0.075349271 1.2820001 4290058598
0.17261817 0.075349271 1.2820001 4290058853
0.17386627 0.075408049 1.2830001 4290058854
0.17511611 0.075466819 1.284 4290124393
0.17623043 0.075466819 1.284 4290124905
0.17748286 0.075525597 1.2850001 4290060138
0.17873703 0.075584367 1.286 4289995370
0.17985308 0.075584367 1.286 4289536614
0.18110988 0.075643145 1.2870001 4288879456
0.18222679 0.075643145 1.2870001 4288156504
0.18348616 0.075701922 1.2880001 4288025434
0.18474728 0.075760692 1.289 4288683111
0.18586594 0.075760692 1.289 4288946801
0.18712966 0.075819463 1.2900001 4288816506
0.18824919 0.075819463 1.2900001 4288095104
0.1895155 0.075878248 1.291 4287111559
0.19093123 0.075995795 1.2930001 4286392723
0.19205336 0.075995795 1.2930001 4286002851
0.19332489 0.076054573 1.294 4285940141
0.19587316 0.076172121 1.296 4285810356
0.19714989 0.076230891 1.2970001 4285678771
0.19970857 0.076348446 1.299 4285482165
0.2008359 0.076348446 1.299 4285483191
0.20324692 0.076407216 1.3000001 4285483447
0.20453234 0.076465987 1.3010001 4285286579
0.20742626 0.07670109 1.3050001 4285089968
0.20871863 0.076759867 1.3060001 4285485490
0.21017341 0.076877415 1.3080001 4285683377
0.21227786 0.077230066 1.314 4285750442
0.21374306 0.077347614 1.3160001 4286607021
0.21521172 0.077465162 1.3180001 4288911303
0.21783294 0.077994131 1.327 4292202223
0.21947964 0.078170456 1.33 4293781758
0.22228839 0.078346781 1.3330001 4294045178
0.071460128 0.084445432 1.416 4286009787
0.072688997 0.084445432 1.416 4287720406
0.071039118 0.076096311 1.276 4284693679
0.072033405 0.075977042 1.274 4284298922
0.07267978 0.075499944 1.266 4284101546
0.073720194 0.07544031 1.2650001 4283838376
0.074818023 0.07544031 1.2650001 4283575206
0.075795829 0.075321034 1.263 4283509412
0.076891921 0.075321034 1.263 4283443876
0.077926263 0.075261399 1.2620001 4283312290
0.078958876 0.075201757 1.261 4283180705
0.080053233 0.075201757 1.261 4283180705
0.081147589 0.075201757 1.261 4283115168
0.08217673 0.075142123 1.2600001 4283180960
0.083270222 0.075142123 1.2600001 4283246753
0.084363714 0.075142123 1.2600001 4283312802
0.085457206 0.075142123 1.2600001 4283247010
0.086619385 0.075201757 1.261 4283181473
0.087713741 0.075201757 1.261 4283115678
0.088808097 0.075201757 1.261 4282984092
0.09004505 0.075321034 1.263 4282852505
0.091213301 0.075380668 1.2640001 4282786712
0.092310265 0.075380668 1.2640001 4282720918
0.093555018 0.075499944 1.266 4282786711
0.094653718 0.075499944 1.266 4282655125
0.095828049 0.075559579 1.2670001 4282589332
0.097004108 0.075619221 1.268 4282655125
0.098181918 0.075678855 1.2690001 4282720918
0.099361457 0.075738497 1.2700001 4282655125
0.10054272 0.075798132 1.271 4282786711
0.10164576 0.075798132 1.271 4282918297
0.10282964 0.075857766 1.2720001 4283049883
0.10401525 0.075917408 1.273 4283247262
0.1052026 0.075977042 1.274 4283510434
0.10639168 0.076036677 1.2750001 4283576227
0.10758251 0.076096311 1.276 4283510434
0.10877506 0.076155946 1.2770001 4283378848
0.10996935 0.07621558 1.2780001 4283378591
0.11107846 0.07621558 1.2780001 4283510176
0.11218757 0.07621558 1.2780001 4283576225
0.11338534 0.076275222 1.279 4283378845
0.11458484 0.076334856 1.2800001 4283247259
0.11569569 0.076334856 1.2800001 4283444638
0.11689779 0.076394491 1.281 4283707809
0.11810162 0.076454133 1.2820001 4283905188
0.1192142 0.076454133 1.2820001 4283970981
0.12032679 0.076454133 1.2820001 4283970982
0.12143937 0.076454133 1.2820001 4283970982
0.12255195 0.076454133 1.2820001 4283904932
0.123761 0.076513767 1.2830001 4283970468
0.12487445 0.076513767 1.2830001 4284102054
0.1259879 0.076513767 1.2830001 4284233640
0.12700228 0.076454133 1.2820001 4284299433
0.12811486 0.076454133 1.2820001 4284233640
0.12922744 0.076454133 1.2820001 4284036261
0.13023837 0.076394491 1.281 4284036261
0.13135009 0.076394491 1.281 4284233640
0.1324618 0.076394491 1.281 4284496555
0.13357352 0.076394491 1.281 4284628141
0.13468523 0.076394491 1.281 4284628140
0.13579695 0.076394491 1.281 4284693932
0.13669489 0.076275222 1.279 4284759725
0.13780488 0.076275222 1.279 4284693933
0.13891485 0.076275222 1.279 4284628139
0.14002483 0.076275222 1.279 4284628140
0.14113481 0.076275222 1.279 4284628141
0.14224479 0.076275222 1.279 4284496555
0.14335477 0.076275222 1.279 4284430762
0.14457771 0.076334856 1.2800001 4284364969
0.14568855 0.076334856 1.2800001 4284364969
0.1467994 0.076334856 1.2800001 4284364712
0.14791025 0.076334856 1.2800001 4284430247
0.14913753 0.076394491 1.281 4284496041
0.15024923 0.076394491 1.281 4284627628
0.15136094 0.076394491 1.281 4284693678
0.15247266 0.076394491 1.281 4284759728
0.15358438 0.076394491 1.281 4284825265
0.15469609 0.076394491 1.281 4284825265
0.15580781 0.076394491 1.281 4284891058
0.15704201 0.076454133 1.2820001 4284825266
0.15827796 0.076513767 1.2830001 4284758960
0.15939142 0.076513767 1.2830001 4284758188
0.16062997 0.076573402 1.284 4284954025
0.16161832 0.076513767 1.2830001 4285346469
0.16285861 0.076573402 1.284 4286066590
0.16397293 0.076573402 1.284 4286983060
0.16508724 0.076573402 1.284 4287636099
0.16620156 0.076573402 1.284 4288157551
0.16718557 0.076513767 1.2830001 4288747112
0.16829902 0.076513767 1.2830001 4289271911
0.16941246 0.076513767 1.2830001 4289665640
0.17039301 0.076454133 1.2820001 4289796200
0.17163937 0.076513767 1.2830001 4289730150
0.17275283 0.076513767 1.2830001 4289730661
0.1740018 0.076573402 1.284 4289861734
0.17511611 0.076573402 1.284 4290058600
0.17623043 0.076573402 1.284 4290125163
0.17748286 0.076633044 1.2850001 4289994859
0.17873703 0.076692678 1.286 4289732969
0.17985308 0.076692678 1.286 4289471080
0.18110988 0.076752312 1.2870001 4289209446
0.18222679 0.076752312 1.2870001 4289012327
0.18348616 0.076811954 1.2880001 4288947050
0.18474728 0.076871589 1.289 4289144944
0.18712966 0.076931223 1.2900001 4288487541
0.18839511 0.076990865 1.291 4287963261
0.18966231 0.0770505 1.2920001 4287374473
0.19093123 0.077110134 1.2930001 4286787737
0.1922019 0.077169769 1.294 4286464172
0.19459815 0.077229403 1.2950001 4286073015
0.1960243 0.077348679 1.2970001 4285876406
0.19714989 0.077348679 1.2970001 4285679539
0.19842836 0.077408314 1.2980001 4285614004
0.19970857 0.077467956 1.299 4285614262
0.2008359 0.077467956 1.299 4285614776
0.20196325 0.077467956 1.299 4285548982
0.20340328 0.077587225 1.3010001 4285417653
0.20453234 0.077587225 1.3010001 4285483957
0.20581949 0.077646866 1.302 4285418420
0.20742626 0.077825777 1.3050001 4285419188
0.20871863 0.077885412 1.3060001 4285617076
0.21017341 0.078004688 1.3080001 4285617839
0.21227786 0.078362502 1.314 4286211504
0.21390547 0.078541413 1.317 4287988929
0.21537501 0.078660689 1.319 4290622176
0.21799709 0.079197414 1.3280001 4292794616
0.21964465 0.079376325 1.3310001 4293584381
0.22245514 0.079555236 1.3340001 4294242813
0.07098344 0.077135503 1.2750001 4284891058
0.07197687 0.077014506 1.273 4284496302
0.07267978 0.076591015 1.266 4284167338
0.073720194 0.076530516 1.2650001 4283772327
0.074818023 0.076530516 1.2650001 4283509411
0.075795829 0.076409519 1.263 4283378082
0.076891921 0.076409519 1.263 4283378083
0.077988021 0.076409519 1.263 4283246497
0.079021491 0.076349027 1.2620001 4283180706
0.080053233 0.076288521 1.261 4283180961
0.081147589 0.076288521 1.261 4283049632
0.082241952 0.076288521 1.261 4282983838
0.083336309 0.076288521 1.261 4283049887
0.084430665 0.076288521 1.261 4283181473
0.085525021 0.076288521 1.261 4283115680
0.086688071 0.076349027 1.2620001 4283115679
0.087783299 0.076349027 1.2620001 4283049885
0.08887852 0.076349027 1.2620001 4282918299
0.09004505 0.076409519 1.263 4282786713
0.091213301 0.076470017 1.2640001 4282720920
0.092310265 0.076470017 1.2640001 4282852504
0.093555018 0.076591015 1.266 4282918297
0.094728485 0.076651514 1.2670001 4282852504
0.095828049 0.076651514 1.2670001 4282786711
0.097080618 0.076772511 1.2690001 4282852504
0.098181918 0.076772511 1.2690001 4282918297
0.099361457 0.07683301 1.2700001 4282852504
0.10062183 0.076954007 1.2720001 4282786711
0.10172574 0.076954007 1.2720001 4282852504
0.10282964 0.076954007 1.2720001 4283181469
0.10409696 0.077075005 1.274 4283510434
0.10528518 0.077135503 1.2750001 4283707813
0.10647513 0.077196002 1.276 4283838885
0.10766682 0.077256501 1.2770001 4283773092
0.10886024 0.077316992 1.2780001 4283509920
0.10996935 0.077316992 1.2780001 4283444127
0.11116538 0.077377498 1.279 4283641506
0.11236314 0.077437997 1.2800001 4283838885
0.11467436 0.077498488 1.281 4283444125
0.11578608 0.077498488 1.281 4283312539
0.11698904 0.077558994 1.2820001 4283575711
0.11810162 0.077558994 1.2820001 4283970468
0.1192142 0.077558994 1.2820001 4284102054
0.12042065 0.077619486 1.2830001 4284102054
0.1215341 0.077619486 1.2830001 4284167847
0.12264755 0.077619486 1.2830001 4284102054
0.123761 0.077619486 1.2830001 4284102054
0.12487445 0.077619486 1.2830001 4284167847
0.1259879 0.077619486 1.2830001 4284299433
0.12700228 0.077558994 1.2820001 4284299433
0.12811486 0.077558994 1.2820001 4284102054
0.12922744 0.077558994 1.2820001 4284036261
0.13023837 0.077498488 1.281 4284233383
0.13145261 0.077558994 1.2820001 4284364969
0.1325652 0.077558994 1.2820001 4284430762
0.13357352 0.077498488 1.281 4284562348
0.13468523 0.077498488 1.281 4284628141
0.13579695 0.077498488 1.281 4284693934
0.13690865 0.077498488 1.281 4284693934
0.13802037 0.077498488 1.281 4284693932
0.13913208 0.077498488 1.281 4284628139
0.1402438 0.077498488 1.281 4284562346
0.14135551 0.077498488 1.281 4284496555
0.14246723 0.077498488 1.281 4284496555
0.14357895 0.077498488 1.281 4284430762
0.14469066 0.077498488 1.281 4284299176
0.14580238 0.077498488 1.281 4284101797
0.14702877 0.077558994 1.2820001 4284167590
0.14814135 0.077558994 1.2820001 4284364969
0.14925393 0.077558994 1.2820001 4284496555
0.15048382 0.077619486 1.2830001 4284628141
0.15159726 0.077619486 1.2830001 4284759727
0.15271071 0.077619486 1.2830001 4284759727
0.15382417 0.077619486 1.2830001 4284759728
0.15493761 0.077619486 1.2830001 4284891058
0.15605107 0.077619486 1.2830001 4284891314
0.15728702 0.077679984 1.284 4284759985
0.15840134 0.077679984 1.284 4284694191
0.15951565 0.077679984 1.284 4284562604
0.16075507 0.07774049 1.2850001 4284758697
0.16187026 0.07774049 1.2850001 4285019814
0.16311228 0.077800982 1.286 4285215393
0.16422834 0.077800982 1.286 4285869981
0.16534439 0.077800982 1.286 4286326675
0.16646044 0.077800982 1.286 4286717317
0.16757649 0.077800982 1.286 4287437177
0.16856137 0.07774049 1.2850001 4288157293
0.16967656 0.07774049 1.2850001 4288878697
0.17079175 0.07774049 1.2850001 4289403498
0.17190693 0.07774049 1.2850001 4289534568
0.17302211 0.07774049 1.2850001 4289599848
0.17427282 0.077800982 1.286 4289730921
0.17538887 0.077800982 1.286 4289730409
0.17650492 0.077800982 1.286 4289862252
0.17775911 0.07786148 1.2870001 4289796972
0.17901501 0.077921987 1.2880001 4289732462
0.18013279 0.077921987 1.2880001 4289536367
0.18153204 0.078042977 1.2900001 4289537393
0.18265156 0.078042977 1.2900001 4289538166
0.18377109 0.078042977 1.2900001 4289472634
0.18517727 0.078163974 1.2920001 4289209983
0.18644272 0.07822448 1.2930001 4288423044
0.18756485 0.07822448 1.2930001 4287373704
0.18897884 0.07834547 1.2950001 4286457232
0.1901027 0.07834547 1.2950001 4286067616
0.19122656 0.07834547 1.2950001 4286070701
0.19249895 0.078405969 1.296 4286073270
0.19377309 0.078466468 1.2970001 4285942970
0.19489869 0.078466468 1.2970001 4285876923
0.19632655 0.078587465 1.299 4285811131
0.19760591 0.078647964 1.3000001 4285614006
0.19858123 0.078587465 1.299 4285548470
0.20001605 0.078708462 1.3010001 4285614777
0.20114513 0.078708462 1.3010001 4285681081
0.2022742 0.078708462 1.3010001 4285418675
0.20355961 0.078768961 1.302 4285353393
0.20484677 0.07882946 1.3030001 4285485490
0.20597757 0.07882946 1.3030001 4285485745
0.20774418 0.079071447 1.307 4285420463
0.20919807 0.079192445 1.309 4285355689
0.21049479 0.079252943 1.3100001 4285883304
0.2127625 0.079676434 1.317 4287595193
0.21439272 0.079857931 1.3200001 4290359257
0.21586487 0.079978928 1.322 4292530416
0.070872098 0.078111611 1.273 4284890802
0.071920328 0.078050248 1.2720001 4284627631
0.07267978 0.077682085 1.266 4284101546
0.073720194 0.07762073 1.2650001 4283706534
0.074818023 0.07762073 1.2650001 4283509411
0.075795829 0.077498004 1.263 4283378082
0.076891921 0.077498004 1.263 4283378083
0.077926263 0.077436648 1.2620001 4283312290
0.079021491 0.077436648 1.2620001 4283115169
0.080116719 0.077436648 1.2620001 4283049632
0.081211939 0.077436648 1.2620001 4282918302
0.082307167 0.077436648 1.2620001 4282852508
0.083402395 0.077436648 1.2620001 4282918558
0.084497616 0.077436648 1.2620001 4283115680
0.085592844 0.077436648 1.2620001 4283049885
0.086688071 0.077436648 1.2620001 4282918299
0.087783299 0.077436648 1.2620001 4282918299
0.08887852 0.077436648 1.2620001 4282918299
0.090116337 0.077559367 1.2640001 4282786712
0.091213301 0.077559367 1.2640001 4282786712
0.092383288 0.07762073 1.2650001 4282984090
0.093555018 0.077682085 1.266 4283115676
0.094728485 0.077743441 1.2670001 4283115676
0.095828049 0.077743441 1.2670001 4283115419
0.097080618 0.077866167 1.2690001 4283115419
0.098259285 0.07792753 1.2700001 4283049626
0.099439688 0.077988885 1.271 4282918040
0.10062183 0.078050248 1.2720001 4282786711
0.10180571 0.078111611 1.273 4282983833
0.10291048 0.078111611 1.273 4283444384
0.10417867 0.07823433 1.2750001 4283773349
0.10536776 0.078295693 1.276 4283839142
0.10655858 0.078357048 1.2770001 4283904678
0.10783545 0.078479774 1.279 4283838885
0.10894542 0.078479774 1.279 4283641506
0.1100554 0.078479774 1.279 4283575713
0.11133921 0.078602485 1.281 4283707299
0.11245093 0.078602485 1.281 4283838885
0.1136513 0.078663856 1.2820001 4283904677
0.11476387 0.078663856 1.2820001 4283707297
