# .PCD v0.7 - Point Cloud Data file format
VERSION 0.7
FIELDS x y z rgba
SIZE 4 4 4 4
TYPE F F F U
COUNT 1 1 1 1
WIDTH 1152
HEIGHT 1
VIEWPOINT 0 0 0 1 0 0 0
POINTS 1152
DATA ascii
0.16650751 0.10780461 1.261 4288977344
0.16760187 0.10780461 1.261 4292267245
0.16882999 0.10789011 1.2620001 4292794610
0.17019452 0.10806108 1.2640001 4293124086
0.17129149 0.10806108 1.2640001 4293059063
0.17252482 0.10814658 1.2650001 4292730611
0.1740344 0.10840305 1.268 4292862197
0.17541108 0.10857404 1.2700001 4292927219
0.17665222 0.10865953 1.271 4292730354
0.19406623 0.11301959 1.322 4283707293
0.19550885 0.11319057 1.3240001 4283378075
0.19680643 0.11327606 1.325 4283970214
0.19855392 0.11361803 1.3290001 4284693936
0.20000783 0.11378901 1.3310001 4285088692
0.20146522 0.11395998 1.3330001 4285286577
0.204849 0.11455843 1.34 4285749668
0.20631941 0.1147294 1.342 4289633227
0.20794789 0.11498588 1.345 4294964991
0.022761159 0.10707796 1.24 4285419187
0.023837291 0.10707796 1.24 4284694442
0.024893332 0.1069916 1.2390001 4284233638
0.025968598 0.1069916 1.2390001 4283839139
0.027022036 0.10690524 1.238 4283509918
0.028096434 0.10690524 1.238 4283312792
0.029170832 0.10690524 1.238 4283115411
0.030245228 0.10690524 1.238 4282918547
0.031294327 0.1068189 1.2370001 4282852755
0.032367855 0.1068189 1.2370001 4282655376
0.033441383 0.1068189 1.2370001 4282523790
0.034514915 0.1068189 1.2370001 4282589583
0.035588443 0.1068189 1.2370001 4282655376
0.036691613 0.10690524 1.238 4282589583
0.03776601 0.10690524 1.238 4282589583
0.039979286 0.10707796 1.24 4282721169
0.041088529 0.10716431 1.2410001 4282721169
0.042199504 0.10725066 1.2420001 4282786962
0.043381907 0.10750972 1.245 4282852757
0.044498093 0.10759608 1.2460001 4282984343
0.045579433 0.10759608 1.2460001 4283246745
0.046810567 0.10794149 1.25 4283312538
0.047933698 0.10802784 1.251 4283378331
0.049058557 0.10811419 1.2520001 4283509917
0.050305314 0.10845961 1.256 4283773090
0.051436253 0.10854596 1.2570001 4284036262
0.052568927 0.10863231 1.258 4284298921
0.053831305 0.10897773 1.2620001 4284364714
0.055013575 0.10915043 1.2640001 4284430507
0.056154929 0.10923678 1.2650001 4284561836
0.057433795 0.1095822 1.2690001 4284693421
0.058581222 0.10966855 1.2700001 4284693421
0.059730384 0.10975491 1.271 4284825007
0.061024867 0.11010031 1.2750001 4284759214
0.062131375 0.11010031 1.2750001 4284693421
0.063287489 0.11018667 1.276 4284693421
0.064445324 0.11027303 1.2770001 4284890800
0.065553568 0.11027303 1.2770001 4285022386
0.066661812 0.11027303 1.2770001 4284890800
0.067716986 0.11018667 1.276 4284496555
0.068824366 0.11018667 1.276 4284036261
0.069876932 0.11010031 1.2750001 4283904675
0.070927769 0.11001396 1.274 4283970468
0.072033405 0.11001396 1.274 4283838882
0.073139049 0.11001396 1.274 4283641503
0.074244685 0.11001396 1.274 4283509660
0.075350329 0.11001396 1.274 4283509660
0.076455966 0.11001396 1.274 4283707039
0.077561602 0.11001396 1.274 4283838624
0.078605503 0.10992762 1.273 4283970209
0.079710275 0.10992762 1.273 4284101795
0.080688074 0.10975491 1.271 4284233381
0.08172676 0.10966855 1.2700001 4284364967
0.082763709 0.1095822 1.2690001 4284496553
0.083732836 0.10940949 1.2670001 4284562346
0.0848324 0.10940949 1.2670001 4284496553
0.085864142 0.10932314 1.266 4284430760
0.086825453 0.10915043 1.2640001 4284430760
0.087852858 0.10906408 1.263 4284496553
0.08894895 0.10906408 1.263 4284431017
0.089831159 0.10880502 1.2600001 4284365223
0.090852484 0.10871867 1.2590001 4284299687
0.091872081 0.10863231 1.258 4284233894
0.09296383 0.10863231 1.258 4284233894
0.094055586 0.10863231 1.258 4284168101
0.095222972 0.10871867 1.2590001 4284102308
0.096315593 0.10871867 1.2590001 4284102308
0.097330853 0.10863231 1.258 4284102308
0.09850084 0.10871867 1.2590001 4284102308
0.099593461 0.10871867 1.2590001 4284167844
0.10076606 0.10880502 1.2600001 4284233637
0.10185955 0.10880502 1.2600001 4284299174
0.10295304 0.10880502 1.2600001 4284364967
0.10404653 0.10880502 1.2600001 4284233381
0.10497313 0.10863231 1.258 4284101795
0.10606489 0.10863231 1.258 4283838623
0.10707146 0.10854596 1.2570001 4283640988
0.1080763 0.10845961 1.256 4283838110
0.10916631 0.10845961 1.256 4284035489
0.11025633 0.10845961 1.256 4284035489
0.11134635 0.10845961 1.256 4283969951
0.11243637 0.10845961 1.256 4284167329
0.11352639 0.10845961 1.256 4284430501
0.11461641 0.10845961 1.256 4284496294
0.11570642 0.10845961 1.256 4284430501
0.11688944 0.10854596 1.2570001 4284430758
0.11798032 0.10854596 1.2570001 4284496808
0.11907121 0.10854596 1.2570001 4284694442
0.1201621 0.10854596 1.2570001 4284760489
0.12125298 0.10854596 1.2570001 4284761768
0.12234387 0.10854596 1.2570001 4285025445
0.12323836 0.10837325 1.2550001 4284105104
0.12432752 0.10837325 1.2550001 4282659185
0.12541667 0.10837325 1.2550001 4284240000
0.12640502 0.1082869 1.2540001 4289768142
0.12739162 0.10820055 1.253 4293322239
0.12847903 0.10820055 1.253 4293388542
0.12946305 0.10811419 1.2520001 4292928506
0.13054959 0.10811419 1.2520001 4293059835
0.13163614 0.10811419 1.2520001 4293322492
0.13272269 0.10811419 1.2520001 4292598256
0.13370237 0.10802784 1.251 4289768134
0.13478804 0.10802784 1.251 4286872986
0.13587372 0.10802784 1.251 4288450992
0.1369594 0.10802784 1.251 4290687956
0.13793473 0.10794149 1.25 4289635271
0.13901953 0.10794149 1.25 4287792554
0.14010435 0.10794149 1.25 4286476181
0.14118916 0.10794149 1.25 4285423495
0.14238779 0.10802784 1.251 4284633981
0.14347348 0.10802784 1.251 4283778933
0.14467472 0.10811419 1.2520001 4283647353
0.14587767 0.10820055 1.253 4283844479
0.14696509 0.10820055 1.253 4283778176
0.1480525 0.10820055 1.253 4283646847
0.14925896 0.1082869 1.2540001 4283713152
0.15046713 0.10837325 1.2550001 4283647871
0.15155628 0.10837325 1.2550001 4283779199
0.15288869 0.10854596 1.2570001 4283778943
0.15385707 0.10845961 1.256 4283976063
0.15494709 0.10845961 1.256 4284107390
0.15603711 0.10845961 1.256 4284172923
0.15712713 0.10845961 1.256 4284831106
0.15821715 0.10845961 1.256 4286146965
0.15930717 0.10845961 1.256 4287265699
0.16052489 0.10854596 1.2570001 4288582069
0.16161577 0.10854596 1.2570001 4290226893
0.16283612 0.10863231 1.258 4291214557
0.16392787 0.10863231 1.258 4289438659
0.16515079 0.10871867 1.2590001 4288320432
0.16650751 0.10889137 1.261 4290492111
0.16760187 0.10889137 1.261 4293124344
0.16882999 0.10897773 1.2620001 4293321721
0.17019452 0.10915043 1.2640001 4292861682
0.171427 0.10923678 1.2650001 4292796403
0.17266122 0.10932314 1.266 4292664818
0.1743089 0.10966855 1.2700001 4292730611
0.17554919 0.10975491 1.271 4292796660
0.17679122 0.10984126 1.2720001 4292730355
0.19406623 0.11415892 1.322 4283378330
0.19536118 0.11424527 1.3230001 4283707041
0.19680643 0.11441798 1.325 4284299434
0.19870333 0.11484974 1.33 4284759984
0.2001581 0.11502246 1.332 4285088691
0.20146522 0.1151088 1.3330001 4285483956
0.20500188 0.11579964 1.3410001 4285815207
0.20647314 0.11597233 1.3430001 4288513981
0.20794789 0.11614504 1.345 4294635263
0.019548511 0.10823383 1.2410001 4286670517
0.020608893 0.10814662 1.24 4286275257
0.021667538 0.10805941 1.2390001 4285945525
0.022724448 0.10797219 1.238 4285221551
0.023798844 0.10797219 1.238 4284628650
0.024873242 0.10797219 1.238 4284168102
0.02594764 0.10797219 1.238 4283773089
0.027022036 0.10797219 1.238 4283575709
0.028096434 0.10797219 1.238 4283313047
0.029170832 0.10797219 1.238 4283049616
0.030245228 0.10797219 1.238 4282918546
0.031319626 0.10797219 1.238 4282786962
0.032394022 0.10797219 1.238 4282721169
0.033441383 0.10788497 1.2370001 4282655376
0.034514915 0.10788497 1.2370001 4282523790
0.035588443 0.10788497 1.2370001 4282523790
0.036691613 0.10797219 1.238 4282589583
0.03776601 0.10797219 1.238 4282721169
0.038871776 0.10805941 1.2390001 4282721169
0.040011529 0.10823383 1.2410001 4282721169
0.041088529 0.10823383 1.2410001 4282721169
0.042199504 0.10832105 1.2420001 4282852755
0.043416753 0.10866991 1.2460001 4282984342
0.044498093 0.10866991 1.2460001 4283115929
0.045616012 0.10875713 1.2470001 4283312795
0.046848018 0.10910598 1.251 4283444124
0.047972009 0.1091932 1.2520001 4283509917
0.049097743 0.10928041 1.253 4283641503
0.050345369 0.10962927 1.2570001 4283970468
0.051477171 0.10971649 1.258 4284233640
0.052652504 0.10989092 1.2600001 4284430763
0.053916615 0.11023977 1.2640001 4284562092
0.055057101 0.110327 1.2650001 4284561836
0.05619932 0.11041421 1.266 4284561836
0.057524312 0.11085028 1.271 4284627629
0.058673479 0.1109375 1.2720001 4284759214
0.059824377 0.11102472 1.273 4284890800
0.061072737 0.11128636 1.276 4284825007
0.06222884 0.11137357 1.2770001 4284890800
0.063386679 0.11146079 1.2780001 4285022642
0.064546265 0.11154801 1.279 4285219765
0.065604903 0.11146079 1.2780001 4285153972
0.066714011 0.11146079 1.2780001 4284693677
0.067770056 0.11137357 1.2770001 4284167590
0.0688783 0.11137357 1.2770001 4283904674
0.069931738 0.11128636 1.276 4283904931
0.07098344 0.11119914 1.2750001 4283838882
0.072089948 0.11119914 1.2750001 4283575710
0.073196456 0.11119914 1.2750001 4283312538
0.074302964 0.11119914 1.2750001 4283246488
0.075409472 0.11119914 1.2750001 4283378330
0.076515973 0.11119914 1.2750001 4283641246
0.077622481 0.11119914 1.2750001 4283641245
0.078667246 0.11111193 1.274 4283772830
0.079772882 0.11111193 1.274 4283838623
0.080751561 0.1109375 1.2720001 4283970209
0.08179111 0.11085028 1.271 4284299174
0.082894146 0.11085028 1.271 4284496296
0.083798923 0.11058864 1.268 4284562346
0.084899351 0.11058864 1.268 4284496553
0.085931964 0.11050142 1.2670001 4284364967
0.086894147 0.110327 1.2650001 4284430760
0.087922417 0.11023977 1.2640001 4284496809
0.08894895 0.11015256 1.263 4284431273
0.089902453 0.10997813 1.261 4284299687
0.09092465 0.10989092 1.2600001 4284233894
0.091945104 0.10980371 1.2590001 4284233894
0.093037732 0.10980371 1.2590001 4284168101
0.094130352 0.10980371 1.2590001 4284036515
0.095147341 0.10971649 1.258 4283970722
0.096315593 0.10980371 1.2590001 4284036515
0.09740822 0.10980371 1.2590001 4284102051
0.098579079 0.10989092 1.2600001 4284167844
0.099672571 0.10989092 1.2600001 4284167588
0.10076606 0.10989092 1.2600001 4284167588
0.10185955 0.10989092 1.2600001 4284364967
0.10295304 0.10989092 1.2600001 4284431017
0.10404653 0.10989092 1.2600001 4284562859
0.10505657 0.10980371 1.2590001 4284628395
0.10606489 0.10971649 1.258 4284496553
0.10715664 0.10971649 1.258 4284364710
0.10816234 0.10962927 1.2570001 4284298661
0.10925324 0.10962927 1.2570001 4284496039
0.11034412 0.10962927 1.2570001 4284496294
0.11134635 0.10954206 1.256 4284364708
0.11243637 0.10954206 1.256 4284364708
0.11352639 0.10954206 1.256 4284562087
0.11461641 0.10954206 1.256 4284693673
0.11570642 0.10954206 1.256 4284562344
0.11688944 0.10962927 1.2570001 4284562344
0.11807419 0.10971649 1.258 4284694187
0.11916594 0.10971649 1.258 4284826029
0.1202577 0.10971649 1.258 4284891819
0.12134945 0.10971649 1.258 4284892327
0.12234387 0.10962927 1.2570001 4284762276
0.12333655 0.10954206 1.256 4284303257
0.12432752 0.10945484 1.2550001 4283055228
0.12541667 0.10945484 1.2550001 4283122546
0.12640502 0.10936763 1.2540001 4287663279
0.12749329 0.10936763 1.2540001 4293190398
0.12847903 0.10928041 1.253 4293190907
0.12946305 0.1091932 1.2520001 4292862197
0.13054959 0.1091932 1.2520001 4292664818
0.13163614 0.1091932 1.2520001 4293190905
0.13272269 0.1091932 1.2520001 4292598000
0.13370237 0.10910598 1.251 4289636291
0.13478804 0.10910598 1.251 4287529889
0.13576511 0.10901877 1.25 4290621646
0.13684991 0.10901877 1.25 4293451001
0.13793473 0.10901877 1.25 4293385464
0.13901953 0.10901877 1.25 4292596467
0.14010435 0.10901877 1.25 4292399343
0.14118916 0.10901877 1.25 4292135917
0.14238779 0.10910598 1.251 4291609318
0.14347348 0.10910598 1.251 4290556635
0.14467472 0.1091932 1.2520001 4290096091
0.14576127 0.1091932 1.2520001 4289832152
0.14684781 0.1091932 1.2520001 4288647367
0.14793436 0.1091932 1.2520001 4286016416
0.14925896 0.10936763 1.2540001 4284766861
0.15046713 0.10945484 1.2550001 4286477989
0.15155628 0.10945484 1.2550001 4288123070
0.15276706 0.10954206 1.256 4288188862
0.15397957 0.10962927 1.2570001 4288780484
0.15507047 0.10962927 1.2570001 4289635277
0.15603711 0.10954206 1.256 4290029773
0.15712713 0.10954206 1.256 4290950615
0.15821715 0.10954206 1.256 4291740129
0.15930717 0.10954206 1.256 4292135140
0.16039719 0.10954206 1.256 4292464618
0.16161577 0.10962927 1.2570001 4293254132
0.16283612 0.10971649 1.258 4293254646
0.16392787 0.10971649 1.258 4291150039
0.16515079 0.10980371 1.2590001 4289045175
0.16650751 0.10997813 1.261 4290690511
0.16760187 0.10997813 1.261 4292730354
0.16882999 0.11006535 1.2620001 4292993783
0.17032917 0.110327 1.2650001 4292533231
0.17156251 0.11041421 1.266 4292533744
0.17266122 0.11041421 1.266 4292730866
0.1743089 0.11076307 1.2700001 4292665073
0.17554919 0.11085028 1.271 4292861938
0.1769302 0.11102472 1.273 4292861170
0.19391944 0.11521103 1.3210001 4283641501
0.19536118 0.11538546 1.3230001 4283904933
0.19680643 0.1155599 1.325 4284167849
0.19885272 0.11608319 1.3310001 4284628399
0.2001581 0.11617041 1.332 4285088946
0.20161635 0.11634483 1.3340001 4285550005
0.20500188 0.11695534 1.3410001 4285683366
0.20647314 0.11712977 1.3430001 4287723955
0.20779328 0.11721699 1.3440001 4294042367
0.019548511 0.10930336 1.2410001 4286275252
0.020608893 0.10921528 1.24 4286274745
0.021667538 0.10912721 1.2390001 4285813173
0.022724448 0.10903913 1.238 4284957868
0.023798844 0.10903913 1.238 4284562856
0.024873242 0.10903913 1.238 4284168101
0.02594764 0.10903913 1.238 4283641757
0.027022036 0.10903913 1.238 4283444376
0.028096434 0.10903913 1.238 4283181973
0.029170832 0.10903913 1.238 4282984593
0.030220795 0.10895105 1.2370001 4282984595
0.031294327 0.10895105 1.2370001 4282852755
0.032367855 0.10895105 1.2370001 4282852755
0.033441383 0.10895105 1.2370001 4282721169
0.034514915 0.10895105 1.2370001 4282589583
0.035588443 0.10895105 1.2370001 4282523790
0.036721248 0.10912721 1.2390001 4282655376
0.037796512 0.10912721 1.2390001 4282786962
0.038903151 0.10921528 1.24 4282786962
0.040043768 0.10939144 1.2420001 4282786962
0.041154746 0.10947951 1.243 4282786964
0.04226746 0.10956759 1.2440001 4282984343
0.043486442 0.1099199 1.248 4283115672
0.044605233 0.11000797 1.2490001 4283115929
0.045762338 0.11018413 1.251 4283378588
0.046997808 0.11053643 1.2550001 4283575710
0.048125278 0.11062451 1.256 4283707296
0.049293663 0.11080066 1.258 4283904675
0.050585676 0.11124105 1.263 4284102054
0.05172269 0.11132912 1.2640001 4284299433
0.052861441 0.1114172 1.2650001 4284496555
0.054129891 0.11176951 1.2690001 4284496555
0.055274718 0.11185759 1.2700001 4284627884
0.056421276 0.11194567 1.271 4284627628
0.058950234 0.1125622 1.2780001 4285022386
0.060153339 0.11273836 1.2800001 4285153972
0.061264183 0.11273836 1.2800001 4285088179
0.062472496 0.11291451 1.2820001 4285154485
0.063634671 0.11300259 1.2830001 4285417657
0.064697661 0.11291451 1.2820001 4285351864
0.065810241 0.11291451 1.2820001 4284891313
0.066922829 0.11291451 1.2820001 4284299176
0.067929268 0.11273836 1.2800001 4283904418
0.068986177 0.11265028 1.279 4283773088
0.070096157 0.11265028 1.279 4283707550
0.071094789 0.11247413 1.2770001 4283444380
0.072203033 0.11247413 1.2770001 4283180952
0.073311277 0.11247413 1.2770001 4283049366
0.074419513 0.11247413 1.2770001 4283049366
0.075527757 0.11247413 1.2770001 4283246743
0.076636001 0.11247413 1.2770001 4283444378
0.077744246 0.11247413 1.2770001 4283641500
0.07885249 0.11247413 1.2770001 4283772830
0.079898119 0.11238605 1.276 4283904416
0.081005499 0.11238605 1.276 4284036002
0.081984162 0.11220989 1.274 4284298917
0.083024584 0.11212182 1.273 4284430247
0.083997183 0.11194567 1.271 4284561833
0.085033268 0.11185759 1.2700001 4284562089
0.086135432 0.11185759 1.2700001 4284430760
0.087031528 0.11159335 1.2670001 4284431016
0.088131092 0.11159335 1.2670001 4284365480
0.089160234 0.11150528 1.266 4284299687
0.090116337 0.11132912 1.2640001 4284168101
0.091141142 0.11124105 1.263 4284168101
0.092164196 0.11115298 1.2620001 4284168101
0.093185529 0.1110649 1.261 4284168101
0.094279885 0.1110649 1.261 4284102307
0.095374241 0.1110649 1.261 4284036515
0.096468605 0.1110649 1.261 4284102052
0.097562961 0.1110649 1.261 4284101795
0.098657317 0.1110649 1.261 4284101795
0.099830776 0.11115298 1.2620001 4284101795
0.100926 0.11115298 1.2620001 4284233381
0.10202123 0.11115298 1.2620001 4284364967
0.10311645 0.11115298 1.2620001 4284430760
0.10421168 0.11115298 1.2620001 4284562346
0.10522346 0.1110649 1.261 4284693932
0.10623351 0.11097682 1.2600001 4284693932
0.107327 0.11097682 1.2600001 4284562346
0.10833444 0.11088874 1.2590001 4284628139
0.10934015 0.11080066 1.258 4284693932
0.1104319 0.11080066 1.258 4284759723
0.111435 0.11071259 1.2570001 4284562344
0.1125259 0.11071259 1.2570001 4284496551
0.11361678 0.11071259 1.2570001 4284628137
0.11470766 0.11071259 1.2570001 4284759723
0.11589068 0.11080066 1.258 4284759723
0.11816804 0.11088874 1.2590001 4284760236
0.11935539 0.11097682 1.2600001 4284891822
0.12044888 0.11097682 1.2600001 4284892078
0.1214459 0.11088874 1.2590001 4284695211
0.12253853 0.11088874 1.2590001 4284564649
0.12343476 0.11071259 1.2570001 4284303266
0.12452564 0.11071259 1.2570001 4283449485
0.12561654 0.11071259 1.2570001 4282660723
0.12660661 0.11062451 1.256 4284636296
0.12759496 0.11053643 1.2550001 4290164436
0.12868412 0.11053643 1.2550001 4293387774
0.12956645 0.11036029 1.253 4293189624
0.13075814 0.11044836 1.2540001 4292860914
0.13184643 0.11044836 1.2540001 4293124341
0.1328287 0.11036029 1.253 4292138214
0.13380924 0.11027221 1.2520001 4289309373
0.13468029 0.11009605 1.25 4287335840
0.13576511 0.11009605 1.25 4290230221
0.13684991 0.11009605 1.25 4293191162
0.13793473 0.11009605 1.25 4293389310
0.13901953 0.11009605 1.25 4293060603
0.14010435 0.11009605 1.25 4293060347
0.14107622 0.11000797 1.2490001 4293060091
0.14227398 0.11009605 1.25 4293060091
0.14347348 0.11018413 1.251 4293059836
0.14455916 0.11018413 1.251 4293059324
0.14576127 0.11027221 1.2520001 4293190907
0.14684781 0.11027221 1.2520001 4292401395
0.14793436 0.11027221 1.2520001 4290098385
0.14925896 0.11044836 1.2540001 4287861679
0.15034723 0.11044836 1.2540001 4289835468
0.15155628 0.11053643 1.2550001 4292532981
0.15276706 0.11062451 1.256 4292730357
0.15385707 0.11062451 1.256 4292466930
0.15507047 0.11071259 1.2570001 4292598516
0.15603711 0.11062451 1.256 4292861689
0.15712713 0.11062451 1.256 4292993273
0.15821715 0.11062451 1.256 4292993786
0.15930717 0.11062451 1.256 4292993527
0.16039719 0.11062451 1.256 4293058806
0.16148721 0.11062451 1.256 4293387770
0.16270667 0.11071259 1.2570001 4293124596
0.16392787 0.11080066 1.258 4291216343
0.16515079 0.11088874 1.2590001 4289176505
0.16650751 0.1110649 1.261 4290624207
0.16773477 0.11115298 1.2620001 4292664304
0.16896378 0.11124105 1.263 4292467950
0.17059845 0.11159335 1.2670001 4292337134
0.17183354 0.11168143 1.268 4292534256
0.17293397 0.11168143 1.268 4292665330
0.17472066 0.11212182 1.273 4292730610
0.17623979 0.11238605 1.276 4292861685
0.17762515 0.1125622 1.2780001 4293255675
0.19406623 0.11643758 1.322 4283970468
0.19550885 0.11661374 1.3240001 4284102056
0.19695495 0.11678988 1.3260001 4284233641
0.19900213 0.11731835 1.332 4284497068
0.20045863 0.11749451 1.3340001 4285154482
0.20176749 0.11758259 1.335 4285681334
0.204849 0.11802297 1.34 4285617574
0.20647314 0.1182872 1.3430001 4287131822
0.20794789 0.11846334 1.345 4293778943
0.019548511 0.11037288 1.2410001 4286143411
0.020608893 0.11028395 1.24 4286143416
0.021667538 0.11019501 1.2390001 4285550257
0.02270609 0.11001713 1.2370001 4284826280
0.023779619 0.11001713 1.2370001 4284431269
0.024853149 0.11001713 1.2370001 4284036257
0.025926679 0.11001713 1.2370001 4283444377
0.027000207 0.11001713 1.2370001 4283181204
0.028073737 0.11001713 1.2370001 4282984338
0.029147267 0.11001713 1.2370001 4282918544
0.030220795 0.11001713 1.2370001 4282984340
0.031294327 0.11001713 1.2370001 4282918548
0.032367855 0.11001713 1.2370001 4282786962
0.033441383 0.11001713 1.2370001 4282721169
0.034514915 0.11001713 1.2370001 4282589583
0.035588443 0.11001713 1.2370001 4282589583
0.036721248 0.11019501 1.2390001 4282655376
0.037796512 0.11019501 1.2390001 4282655376
0.038903151 0.11028395 1.24 4282721171
0.04007601 0.11055076 1.243 4282852757
0.041187856 0.1106397 1.2440001 4282984343
0.042301435 0.11072864 1.245 4283181465
0.043521289 0.11108439 1.2490001 4283312794
0.044640943 0.11117333 1.25 4283312538
0.045762338 0.11126227 1.251 4283444124
0.047035258 0.11170696 1.256 4283575710
0.048163597 0.1117959 1.2570001 4283904675
0.04933285 0.11197378 1.2590001 4284167847
0.050585676 0.11232954 1.263 4284299433
0.051763613 0.11250741 1.2650001 4284365226
0.052945018 0.11268529 1.2670001 4284562348
0.054172549 0.11295211 1.2700001 4284693934
0.055318236 0.11304104 1.271 4284891056
0.056421276 0.11304104 1.271 4284956593
0.059088614 0.11393043 1.281 4285285558
0.060247328 0.11401937 1.2820001 4285417400
0.061359912 0.11401937 1.2820001 4285417657
0.062569954 0.11419725 1.284 4285351864
0.06368427 0.11419725 1.284 4285351864
0.064748123 0.11410832 1.2830001 4285220277
0.065861575 0.11410832 1.2830001 4284562348
0.066922829 0.11401937 1.2820001 4283904418
0.067929268 0.11384149 1.2800001 4283509660
0.068986177 0.11375256 1.279 4283312536
0.070096157 0.11375256 1.279 4283181206
0.071094789 0.11357467 1.2770001 4283115415
0.072203033 0.11357467 1.2770001 4283049366
0.073311277 0.11357467 1.2770001 4282983573
0.074419513 0.11357467 1.2770001 4283049366
0.075527757 0.11357467 1.2770001 4283312793
0.076636001 0.11357467 1.2770001 4283510171
0.077744246 0.11357467 1.2770001 4283707294
0.07885249 0.11357467 1.2770001 4283970209
0.079898119 0.11348574 1.276 4284101795
0.081005499 0.11348574 1.276 4284167587
0.081984162 0.11330786 1.274 4284233381
0.083089806 0.11330786 1.274 4284364966
0.083997183 0.11304104 1.271 4284496296
0.085100219 0.11304104 1.271 4284496553
0.086135432 0.11295211 1.2700001 4284496552
0.087100215 0.11277423 1.268 4284431016
0.088131092 0.11268529 1.2670001 4284497066
0.089160234 0.11259635 1.266 4284497066
0.090116337 0.11241847 1.2640001 4284431272
0.091141142 0.11232954 1.263 4284299685
0.092164196 0.1122406 1.2620001 4284233892
0.093185529 0.11215165 1.261 4284168099
0.094279885 0.11215165 1.261 4284102307
0.095374241 0.11215165 1.261 4284102308
0.096468605 0.11215165 1.261 4284233637
0.097562961 0.11215165 1.261 4284167588
0.098657317 0.11215165 1.261 4284036002
0.099830776 0.1122406 1.2620001 4284167588
0.100926 0.1122406 1.2620001 4284299174
0.10202123 0.1122406 1.2620001 4284430760
0.10311645 0.1122406 1.2620001 4284430760
0.10421168 0.1122406 1.2620001 4284430760
0.10522346 0.11215165 1.261 4284562346
0.10631782 0.11215165 1.261 4284628139
0.10741218 0.11215165 1.261 4284562345
0.10833444 0.11197378 1.2590001 4284562344
0.10942706 0.11197378 1.2590001 4284693930
0.1104319 0.11188484 1.258 4284891309
0.111435 0.1117959 1.2570001 4284891309
0.1125259 0.1117959 1.2570001 4284825516
0.11361678 0.1117959 1.2570001 4284825516
0.11479893 0.11188484 1.258 4284759723
0.11589068 0.11188484 1.258 4284759979
0.11816804 0.11197378 1.2590001 4284760236
0.11935539 0.11206272 1.2600001 4284694699
0.12044888 0.11206272 1.2600001 4284629418
0.1214459 0.11197378 1.2590001 4284564136
0.12253853 0.11197378 1.2590001 4284565415
0.12343476 0.1117959 1.2570001 4284566437
0.12452564 0.1117959 1.2570001 4284172951
0.12561654 0.1117959 1.2570001 4283318911
0.12660661 0.11170696 1.256 4282728555
0.12769663 0.11170696 1.256 4285493387
0.12868412 0.11161803 1.2550001 4290954198
0.12966986 0.11152909 1.2540001 4293190388
0.13075814 0.11152909 1.2540001 4293321717
0.13184643 0.11152909 1.2540001 4293190648
0.13272269 0.11135121 1.2520001 4292138472
0.13370237 0.11126227 1.251 4289310141
0.13468029 0.11117333 1.25 4287336866
0.13576511 0.11117333 1.25 4289836745
0.13684991 0.11117333 1.25 4292665844
0.13793473 0.11117333 1.25 4292929017
0.13901953 0.11117333 1.25 4292534259
0.14010435 0.11117333 1.25 4292534259
0.14118916 0.11117333 1.25 4292665845
0.14227398 0.11117333 1.25 4292730870
0.14347348 0.11126227 1.251 4292599284
0.14455916 0.11126227 1.251 4292862456
0.14576127 0.11135121 1.2520001 4293454591
0.14684781 0.11135121 1.2520001 4293125626
0.14793436 0.11135121 1.2520001 4291086045
0.14925896 0.11152909 1.2540001 4288914876
0.15034723 0.11152909 1.2540001 4290954459
0.15155628 0.11161803 1.2550001 4293388799
0.15276706 0.11170696 1.256 4293388797
0.15385707 0.11170696 1.256 4292730868
0.15494709 0.11170696 1.256 4292665076
0.15603711 0.11170696 1.256 4292665079
0.15712713 0.11170696 1.256 4292599284
0.15821715 0.11170696 1.256 4292533747
0.15930717 0.11170696 1.256 4292533745
0.16039719 0.11170696 1.256 4292664817
0.16148721 0.11170696 1.256 4292796401
0.16283612 0.11188484 1.258 4292730606
0.16392787 0.11188484 1.258 4290822609
0.16515079 0.11197378 1.2590001 4289242809
0.16663954 0.1122406 1.2620001 4290624976
0.16786769 0.11232954 1.263 4292664815
0.16909756 0.11241847 1.2640001 4292402925
0.17046382 0.11259635 1.266 4292403438
0.17183354 0.11277423 1.268 4292337644
0.17307036 0.11286317 1.2690001 4292534256
0.17499517 0.1133968 1.2750001 4292796660
0.17637791 0.11357467 1.2770001 4293453820
0.17776412 0.11375256 1.279 4293320700
0.19421302 0.11766585 1.3230001 4284036518
0.19565652 0.11784373 1.325 4284299690
0.19710349 0.11802161 1.327 4284562347
0.19915153 0.11855524 1.3330001 4284694445
0.20045863 0.11864419 1.3340001 4285286068
0.20176749 0.11873312 1.335 4285681591
0.20500188 0.11926676 1.3410001 4285683623
0.20647314 0.11944463 1.3430001 4287394738
0.20810249 0.11971144 1.3460001 4294239743
0.019548511 0.11144241 1.2410001 4286472377
0.020608893 0.11135261 1.24 4286274745
0.02165005 0.111173 1.238 4285287083
0.022669381 0.11090361 1.235 4284628899
0.023760397 0.11099341 1.2360001 4284167839
0.024833059 0.11099341 1.2360001 4283773081
0.025905719 0.11099341 1.2360001 4283312788
0.026978381 0.11099341 1.2360001 4283049617
0.028051043 0.11099341 1.2360001 4282852240
0.029123703 0.11099341 1.2360001 4282786447
0.030196365 0.11099341 1.2360001 4282786962
0.031269025 0.11099341 1.2360001 4282852755
0.032341689 0.11099341 1.2360001 4282786962
0.033441383 0.11108321 1.2370001 4282589583
0.034514915 0.11108321 1.2370001 4282589584
0.035617214 0.111173 1.238 4282721169
0.036750887 0.11135261 1.24 4282721171
0.037827019 0.11135261 1.24 4282721171
0.038934529 0.11144241 1.2410001 4282852757
0.040140491 0.11180161 1.245 4283181722
0.041254073 0.11189141 1.2460001 4283444381
0.042403366 0.11207101 1.248 4283509917
0.043660667 0.11252002 1.253 4283509917
0.044819508 0.11269961 1.2550001 4283444124
0.045945238 0.11278942 1.256 4283444124
0.047185056 0.11314862 1.2600001 4283707296
0.048316859 0.11323842 1.261 4284167847
0.049450401 0.11332822 1.2620001 4284562348
0.055840522 0.11521403 1.2830001 4285088692
0.057042755 0.11539363 1.2850001 4285154485
0.058203198 0.11548344 1.286 4285220277
0.05950376 0.11584263 1.2900001 4285220276
0.060341313 0.11530383 1.284 4285154483
0.0615035 0.11539363 1.2850001 4285286325
0.062667415 0.11548344 1.286 4285088690
0.063733876 0.11539363 1.2850001 4284431016
0.064849056 0.11539363 1.2850001 4283970465
0.065861575 0.11521403 1.2830001 4283575708
0.066975027 0.11521403 1.2830001 4283378328
0.067929268 0.11494462 1.2800001 4283246486
0.069040112 0.11494462 1.2800001 4283115157
0.070096157 0.11485483 1.279 4282983827
0.071094789 0.11467522 1.2770001 4282983828
0.072203033 0.11467522 1.2770001 4283049366
0.073311277 0.11467522 1.2770001 4283049366
0.074419513 0.11467522 1.2770001 4283180952
0.075527757 0.11467522 1.2770001 4283510172
0.076636001 0.11467522 1.2770001 4283641757
0.077744246 0.11467522 1.2770001 4283839136
0.07885249 0.11467522 1.2770001 4284102308
0.079898119 0.11458543 1.276 4284233636
0.081005499 0.11458543 1.276 4284233379
0.081984162 0.11440582 1.274 4284299172
0.083089806 0.11440582 1.274 4284430758
0.084063277 0.11422622 1.2720001 4284496552
0.085100219 0.11413642 1.271 4284562345
0.086135432 0.11404663 1.2700001 4284496808
0.087100215 0.11386701 1.268 4284497064
0.088061534 0.11368742 1.266 4284628650
0.089160234 0.11368742 1.266 4284694443
0.090116337 0.11350782 1.2640001 4284497064
0.091141142 0.11341802 1.263 4284431271
0.092164196 0.11332822 1.2620001 4284365478
0.093185529 0.11323842 1.261 4284365478
0.094279885 0.11323842 1.261 4284299685
0.095374241 0.11323842 1.261 4284233892
0.096468605 0.11323842 1.261 4284299428
0.097562961 0.11323842 1.261 4284167586
0.098657317 0.11323842 1.261 4284167586
0.099830776 0.11332822 1.2620001 4284299174
0.100926 0.11332822 1.2620001 4284430760
0.10210208 0.11341802 1.263 4284430760
0.10311645 0.11332822 1.2620001 4284364967
0.10421168 0.11332822 1.2620001 4284364967
0.10530691 0.11332822 1.2620001 4284496553
0.10631782 0.11323842 1.261 4284562346
0.10741218 0.11323842 1.261 4284562345
0.10842049 0.11314862 1.2600001 4284496551
0.10942706 0.11305881 1.2590001 4284628137
0.11051968 0.11305881 1.2590001 4284891309
0.11152366 0.11296903 1.258 4285022895
0.11261541 0.11296903 1.258 4284957102
0.11370716 0.11296903 1.258 4284891309
0.11479893 0.11296903 1.258 4284825516
0.11589068 0.11296903 1.258 4284759979
0.11698243 0.11296903 1.258 4284760236
0.11816804 0.11305881 1.2590001 4284760236
0.11926066 0.11305881 1.2590001 4284694443
0.12044888 0.11314862 1.2600001 4284694443
0.1214459 0.11305881 1.2590001 4284760493
0.12253853 0.11305881 1.2590001 4284695468
0.12353296 0.11296903 1.258 4284696235
0.12452564 0.11287922 1.2570001 4284500391
0.12561654 0.11287922 1.2570001 4283777943
0.12670742 0.11287922 1.2570001 4282661760
0.12769663 0.11278942 1.256 4282663800
0.12868412 0.11269961 1.2550001 4286546344
0.12966986 0.11260982 1.2540001 4291677929
0.13065386 0.11252002 1.253 4293256955
0.13174129 0.11252002 1.253 4293453817
0.13272269 0.11243021 1.2520001 4292467178
0.13380924 0.11243021 1.2520001 4289440958
0.13478804 0.11234041 1.251 4287664548
0.13576511 0.11225062 1.25 4290230476
0.13684991 0.11225062 1.25 4292796660
0.13793473 0.11225062 1.25 4292599282
0.13901953 0.11225062 1.25 4292467953
0.14010435 0.11225062 1.25 4292599282
0.14118916 0.11225062 1.25 4292599283
0.14238779 0.11234041 1.251 4292599284
0.14347348 0.11234041 1.251 4292599284
0.14455916 0.11234041 1.251 4292665077
0.14576127 0.11243021 1.2520001 4292730870
0.14684781 0.11243021 1.2520001 4292533491
0.14793436 0.11243021 1.2520001 4290493908
0.14925896 0.11260982 1.2540001 4288717497
0.15034723 0.11260982 1.2540001 4290691287
0.15155628 0.11269961 1.2550001 4292994042
0.15276706 0.11278942 1.256 4292796661
0.15385707 0.11278942 1.256 4292533489
0.15494709 0.11278942 1.256 4292533489
0.15603711 0.11278942 1.256 4292402673
0.15712713 0.11278942 1.256 4292336623
0.15809119 0.11269961 1.2550001 4292336366
0.15918034 0.11269961 1.2550001 4292401902
0.16039719 0.11278942 1.256 4292467439
0.16148721 0.11278942 1.256 4292467695
0.16283612 0.11296903 1.258 4292402157
0.16392787 0.11296903 1.258 4290493904
0.16515079 0.11305881 1.2590001 4289111224
0.16663954 0.11332822 1.2620001 4290756304
0.16786769 0.11341802 1.263 4292861680
0.16896378 0.11341802 1.263 4292664812
0.17059845 0.11377723 1.2670001 4292665581
0.17183354 0.11386701 1.268 4292534253
0.17307036 0.11395682 1.2690001 4292665074
0.17513241 0.11458543 1.276 4293321979
0.17651603 0.11476503 1.2780001 4293978111
0.17901395 0.11494462 1.2800001 4287461049
0.19435982 0.11889585 1.3240001 4284102308
0.19580418 0.11907545 1.3260001 4284431530
0.19725202 0.11925505 1.3280001 4284759469
0.19915153 0.11970405 1.3330001 4284957104
0.20030837 0.11970405 1.3330001 4285352116
0.20176749 0.11988366 1.335 4285681847
0.20500188 0.12042247 1.3410001 4285749415
0.20662689 0.12069187 1.3440001 4287658165
0.019532759 0.11242127 1.24 4287129538
0.020592272 0.11233062 1.2390001 4286931906
0.02165005 0.11223994 1.238 4285418670
0.022687735 0.11205862 1.2360001 4284168349
0.023760397 0.11205862 1.2360001 4283773337
0.024833059 0.11205862 1.2360001 4283444116
0.025905719 0.11205862 1.2360001 4283115409
0.026978381 0.11205862 1.2360001 4282918287
0.028051043 0.11205862 1.2360001 4282852241
0.029123703 0.11205862 1.2360001 4282852243
0.030196365 0.11205862 1.2360001 4282786705
0.031294327 0.11214928 1.2370001 4282721169
0.032367855 0.11214928 1.2370001 4282721169
0.033468422 0.11223994 1.238 4282655376
0.034542818 0.11223994 1.238 4282655378
0.035617214 0.11223994 1.238 4282786964
0.036750887 0.11242127 1.24 4282852757
0.037857525 0.11251193 1.2410001 4282918550
0.038965899 0.1126026 1.2420001 4283115929
0.040172733 0.11296525 1.2460001 4283444894
0.04128718 0.11305591 1.2470001 4283707553
0.042437345 0.11323724 1.2490001 4283641503
0.043695513 0.11369055 1.2540001 4283575710
0.044855222 0.11387186 1.256 4283509917
0.045981821 0.11396253 1.2570001 4283575453
0.047222499 0.11432519 1.261 4283904418
0.048316859 0.11432519 1.261 4284364969
0.049450401 0.11441584 1.2620001 4284759727
0.05597109 0.11659174 1.286 4285220277
0.057131533 0.1166824 1.2870001 4285351862
0.058293715 0.11677306 1.2880001 4285286069
0.059596017 0.11713572 1.2920001 4284957104
0.060717277 0.11713572 1.2920001 4284562859
0.061838537 0.11713572 1.2920001 4284233893
0.062959798 0.11713572 1.2920001 4283641757
0.064031459 0.11704505 1.291 4283246999
0.065101385 0.11695439 1.2900001 4283181206
0.06611824 0.11677306 1.2880001 4283181206
0.06718383 0.1166824 1.2870001 4283246999
0.068141542 0.11641041 1.284 4283246999
0.069201924 0.11631976 1.2830001 4283181206
0.070315376 0.11631976 1.2830001 4283049620
0.071317479 0.11613843 1.281 4283115413
0.072429195 0.11613843 1.281 4283181206
0.073426098 0.1159571 1.279 4283181207
0.074477792 0.11586644 1.2780001 4283378331
0.07564605 0.1159571 1.279 4283641502
0.076696016 0.11586644 1.2780001 4283707550
0.077805124 0.11586644 1.2780001 4283970722
0.07891424 0.11586644 1.2780001 4284299687
0.080023348 0.11586644 1.2780001 4284299686
0.081068978 0.11577577 1.2770001 4284299685
0.082177222 0.11577577 1.2770001 4284431014
0.083220243 0.11568512 1.276 4284496551
0.084195442 0.11550379 1.274 4284496551
0.085167177 0.11532246 1.2720001 4284496808
0.086203255 0.1152318 1.271 4284562601
0.087237604 0.11514115 1.2700001 4284694443
0.08827021 0.11505048 1.2690001 4284760236
0.08930108 0.11495981 1.268 4284628650
0.090330221 0.11486915 1.2670001 4284497064
0.091357626 0.11477849 1.266 4284497064
0.092383288 0.11468782 1.2650001 4284562857
0.093407221 0.11459717 1.2640001 4284562857
0.094504185 0.11459717 1.2640001 4284496807
0.095525511 0.11450651 1.263 4284430758
0.09662161 0.11450651 1.263 4284364965
0.097640328 0.11441584 1.2620001 4284299172
0.098735549 0.11441584 1.2620001 4284364965
0.099909887 0.11450651 1.263 4284496551
0.10100598 0.11450651 1.263 4284562344
0.10218292 0.11459717 1.2640001 4284364965
0.10327987 0.11459717 1.2640001 4284233380
0.10437684 0.11459717 1.2640001 4284233381
0.10539035 0.11450651 1.263 4284364966
0.10648645 0.11450651 1.263 4284496551
0.10758254 0.11450651 1.263 4284562344
0.10859258 0.11441584 1.2620001 4284562344
0.10960089 0.11432519 1.261 4284628137
0.11069525 0.11432519 1.261 4284825516
0.11161231 0.11414385 1.2590001 4284891309
0.11279445 0.11423452 1.2600001 4284825516
0.11379755 0.11414385 1.2590001 4284759722
0.11489017 0.11414385 1.2590001 4284694185
0.11598279 0.11414385 1.2590001 4284760234
0.11707541 0.11414385 1.2590001 4284826027
0.11816804 0.11414385 1.2590001 4284760234
0.11935539 0.11423452 1.2600001 4284694441
0.12044888 0.11423452 1.2600001 4284694441
0.12154237 0.11423452 1.2600001 4284760492
0.12253853 0.11414385 1.2590001 4284761260
0.12363115 0.11414385 1.2590001 4284695980
0.12472377 0.11414385 1.2590001 4284434343
0.12581639 0.11414385 1.2590001 4283975581
0.12680823 0.1140532 1.258 4283056265
0.1277983 0.11396253 1.2570001 4281939823
0.12878665 0.11387186 1.256 4283190901
0.12977327 0.11378121 1.2550001 4287336616
0.13086241 0.11378121 1.2550001 4292139497
0.13195157 0.11378121 1.2550001 4293520378
0.1329347 0.11369055 1.2540001 4292730863
0.13391611 0.11359988 1.253 4289901510
0.13500352 0.11359988 1.253 4288059307
0.13587372 0.11341856 1.251 4290296782
0.13706888 0.11350922 1.2520001 4292731122
0.13815543 0.11350922 1.2520001 4292599282
0.13924198 0.11350922 1.2520001 4292533489
0.14032853 0.11350922 1.2520001 4292533489
0.14130212 0.11341856 1.251 4292599282
0.14250162 0.11350922 1.2520001 4292599282
0.14370285 0.11359988 1.253 4292599283
0.14479026 0.11359988 1.253 4292599284
0.1459941 0.11369055 1.2540001 4292730870
0.14708239 0.11369055 1.2540001 4292533491
0.14817066 0.11369055 1.2540001 4290099150
0.14937799 0.11378121 1.2550001 4288585910
0.15058702 0.11387186 1.256 4290493907
0.15167704 0.11387186 1.256 4292862454
0.15288869 0.11396253 1.2570001 4292599283
0.15397957 0.11396253 1.2570001 4292402416
0.15507047 0.11396253 1.2570001 4292468209
0.15603711 0.11387186 1.256 4292534001
0.15712713 0.11387186 1.256 4292468208
0.15809119 0.11378121 1.2550001 4292402156
0.15930717 0.11387186 1.256 4292401900
0.16039719 0.11387186 1.256 4292401902
0.16161577 0.11396253 1.2570001 4292467951
0.16296555 0.11414385 1.2590001 4292402158
0.16418847 0.11423452 1.2600001 4290297039
0.16541316 0.11432519 1.261 4288980410
0.16677159 0.11450651 1.263 4290756820
0.16800059 0.11459717 1.2640001 4292927988
0.16936512 0.11477849 1.266 4292599791
0.1710024 0.11514115 1.2700001 4292534254
0.1723756 0.11532246 1.2720001 4292600048
0.17361589 0.11541313 1.273 4293322747
0.19091272 0.12003691 1.3240001 4283773082
0.19235188 0.12021822 1.3260001 4283838109
0.19350265 0.12021822 1.3260001 4284298917
0.19494702 0.12039956 1.3280001 4284298917
0.19639485 0.12058088 1.33 4284628393
0.19769761 0.12067155 1.3310001 4284825515
0.20045863 0.12094353 1.3340001 4285286322
0.20176749 0.1210342 1.335 4285813176
0.20307808 0.12112485 1.3360001 4286011316
0.20515476 0.12166882 1.342 4285749670
0.019532759 0.11348994 1.24 4287129540
0.020592272 0.11339841 1.2390001 4286931906
0.02165005 0.11330689 1.238 4285155497
0.022687735 0.11312384 1.2360001 4283839640
0.023760397 0.11312384 1.2360001 4283378578
0.024833059 0.11312384 1.2360001 4283115150
0.025905719 0.11312384 1.2360001 4282984077
0.026978381 0.11312384 1.2360001 4282918285
0.028051043 0.11312384 1.2360001 4282918032
0.029123703 0.11312384 1.2360001 4282918291
0.030220795 0.11321537 1.2370001 4282786962
0.031294327 0.11321537 1.2370001 4282721169
0.032367855 0.11321537 1.2370001 4282852755
0.033468422 0.11330689 1.238 4282786962
0.034542818 0.11330689 1.238 4282786964
0.035645984 0.11339841 1.2390001 4282852757
0.036780525 0.11358146 1.2410001 4282918550
0.037888031 0.11367299 1.2420001 4283115929
0.038997274 0.11376452 1.243 4283379101
0.040204972 0.1141306 1.2470001 4283576480
0.04132029 0.11422213 1.248 4283773345
0.042471319 0.11440517 1.25 4283575710
0.043730356 0.1148628 1.2550001 4283444124
0.044855222 0.11495432 1.256 4283509917
0.046018399 0.11513738 1.258 4283707039
0.047259949 0.11550346 1.2620001 4284036004
0.048355177 0.11550346 1.2620001 4284496555
0.049489584 0.11559499 1.263 4284825520
0.056058139 0.11788309 1.2880001 4285351862
0.057220321 0.11797462 1.289 4285417655
0.058429491 0.11815767 1.291 4285286068
0.05964214 0.11834071 1.2930001 4284825516
0.060764268 0.11834071 1.2930001 4284167843
0.061934259 0.11843224 1.294 4283575962
0.063008524 0.11834071 1.2930001 4283312790
0.064081058 0.1182492 1.2920001 4283378583
0.065151848 0.11815767 1.291 4283378840
0.066169582 0.11797462 1.289 4283378583
0.067236029 0.11788309 1.2880001 4283313048
0.06819462 0.11760852 1.2850001 4283444378
0.069255859 0.11751699 1.284 4283378585
0.070370182 0.11751699 1.284 4283246999
0.071373157 0.11733395 1.2820001 4283246999
0.072485738 0.11733395 1.2820001 4283246999
0.073540911 0.11724243 1.281 4283378330
0.07465262 0.11724243 1.281 4283641502
0.075705193 0.1171509 1.2800001 4283707551
0.076816045 0.1171509 1.2800001 4283773343
0.077926889 0.1171509 1.2800001 4284168100
0.07897599 0.11705938 1.279 4284365480
0.08008597 0.11705938 1.279 4284365479
0.081132457 0.11696785 1.2780001 4284299685
0.082177222 0.11687632 1.2770001 4284497064
0.083285466 0.11687632 1.2770001 4284628650
0.084261529 0.11669328 1.2750001 4284497064
0.085301086 0.11660175 1.274 4284497064
0.086406723 0.11660175 1.274 4284628650
0.087306291 0.11632718 1.271 4284694443
0.088339768 0.11623567 1.2700001 4284694443
0.08944194 0.11623567 1.2700001 4284628650
0.090401515 0.11605261 1.268 4284562857
0.091429785 0.11596109 1.2670001 4284497064
0.092456326 0.11586956 1.266 4284497064
0.093481116 0.11577804 1.2650001 4284562857
0.094578952 0.11577804 1.2650001 4284562601
0.09567678 0.11577804 1.2650001 4284562344
0.09662161 0.11559499 1.263 4284562344
0.097717702 0.11559499 1.263 4284496551
0.098813795 0.11559499 1.263 4284562344
0.099909887 0.11559499 1.263 4284628137
0.10100598 0.11559499 1.263 4284628137
0.10218292 0.11568652 1.2640001 4284364965
0.10327987 0.11568652 1.2640001 4284233379
0.10437684 0.11568652 1.2640001 4284233379
0.10547379 0.11568652 1.2640001 4284299172
0.10657076 0.11568652 1.2640001 4284430758
0.10766772 0.11568652 1.2640001 4284562344
0.10859258 0.11550346 1.2620001 4284693930
0.10968781 0.11550346 1.2620001 4284825516
0.11078303 0.11550346 1.2620001 4284891309
0.11178961 0.11541194 1.261 4284957101
0.11279445 0.11532042 1.2600001 4284825770
0.11388794 0.11532042 1.2600001 4284694184
0.11498143 0.11532042 1.2600001 4284694184
0.11607492 0.11532042 1.2600001 4284891563
0.11716841 0.11532042 1.2600001 4285023406
0.1182619 0.11532042 1.2600001 4284957613
0.11935539 0.11532042 1.2600001 4284760234
0.12054448 0.11541194 1.261 4284694442
0.12154237 0.11532042 1.2600001 4284891566
0.12263586 0.11532042 1.2600001 4284826284
0.12363115 0.11522889 1.2590001 4284695209
0.12472377 0.11522889 1.2590001 4284499111
0.12571646 0.11513738 1.258 4284368037
0.12680823 0.11513738 1.258 4283974045
0.1277983 0.11504585 1.2570001 4283185291
0.12888919 0.11504585 1.2570001 4282396789
0.12987666 0.11495432 1.256 4283977088
0.13096668 0.11495432 1.256 4288715198
0.1320567 0.11495432 1.256 4293189625
0.13314672 0.11495432 1.256 4292729839
0.134023 0.11477128 1.2540001 4289835204
0.13500352 0.11467975 1.253 4287927462
0.13609093 0.11467975 1.253 4290822611
0.13706888 0.11458823 1.2520001 4292993781
0.13815543 0.11458823 1.2520001 4292664817
0.13924198 0.11458823 1.2520001 4292796403
0.14032853 0.11458823 1.2520001 4292665330
0.14141507 0.11458823 1.2520001 4292599281
0.14261542 0.11467975 1.253 4292665074
0.14370285 0.11467975 1.253 4292599281
0.14490582 0.11477128 1.2540001 4292533489
0.14611053 0.1148628 1.2550001 4292665076
0.14719968 0.1148628 1.2550001 4292271087
0.14828883 0.1148628 1.2550001 4289968076
0.149497 0.11495432 1.256 4288586422
0.15058702 0.11495432 1.256 4290560468
0.1517978 0.11504585 1.2570001 4292731381
0.15288869 0.11504585 1.2570001 4292534001
0.15397957 0.11504585 1.2570001 4292468465
0.15507047 0.11504585 1.2570001 4292468465
0.15603711 0.11495432 1.256 4292533745
0.15712713 0.11495432 1.256 4292533488
0.15821715 0.11495432 1.256 4292336621
0.15943401 0.11504585 1.2570001 4292336621
0.16052489 0.11504585 1.2570001 4292401646
0.16161577 0.11504585 1.2570001 4292533744
0.16309498 0.11532042 1.2600001 4292467438
0.16431879 0.11541194 1.261 4290427597
0.16528197 0.11532042 1.2600001 4289308602
0.16690364 0.11568652 1.2640001 4291019219
0.1681335 0.11577804 1.2650001 4293190643
0.16949889 0.11596109 1.2670001 4293190901
0.1712717 0.1164187 1.2720001 4292861938
0.17251112 0.11651023 1.273 4293322234
0.17375228 0.11660175 1.274 4293912575
0.19105692 0.12126949 1.325 4283444377
0.19235188 0.121361 1.3260001 4284167332
0.19364858 0.12145253 1.327 4284430760
0.19524062 0.12172711 1.33 4284430504
0.19639485 0.12172711 1.33 4284562344
0.19769761 0.12181863 1.3310001 4284693929
0.20060891 0.12218474 1.335 4285286321
0.20191863 0.12227625 1.3360001 4285813431
0.20323007 0.12236778 1.337 4286142902
0.019517008 0.11446621 1.2390001 4286471353
0.020575654 0.11437383 1.238 4285879217
0.02165005 0.11437383 1.238 4284629155
0.022687735 0.11418906 1.2360001 4283642006
0.023760397 0.11418906 1.2360001 4283115408
0.024833059 0.11418906 1.2360001 4282852237
0.025905719 0.11418906 1.2360001 4282852493
0.027000207 0.11428145 1.2370001 4282918030
0.028073737 0.11428145 1.2370001 4282852497
0.029123703 0.11418906 1.2360001 4282852755
0.030220795 0.11428145 1.2370001 4282787219
0.031319626 0.11437383 1.238 4282852755
0.032394022 0.11437383 1.238 4282918548
0.033522487 0.11455861 1.24 4282918548
0.034598622 0.11455861 1.24 4282852757
0.035674755 0.11455861 1.24 4282918550
0.036839802 0.11483576 1.243 4283050136
0.037949044 0.11492814 1.2440001 4283313308
0.039060019 0.11502053 1.245 4283510687
0.040301699 0.11548246 1.25 4283576480
0.041419622 0.11557484 1.251 4283575968
0.042539276 0.11566724 1.2520001 4283509918
0.043834891 0.11622155 1.258 4283444124
0.045033786 0.11649871 1.261 4283575710
0.046201304 0.11668348 1.263 4283970211
0.048661705 0.11733018 1.2700001 4284759727
0.049803056 0.11742256 1.271 4284957106
0.050986201 0.11760734 1.273 4285089204
0.0563628 0.11963983 1.2950001 4285615032
0.057531059 0.11973221 1.296 4285680825
0.058701046 0.1198246 1.2970001 4285549495
0.05987278 0.11991699 1.2980001 4285154994
0.060952246 0.1198246 1.2970001 4284497063
0.062077846 0.1198246 1.2970001 4284036511
0.063105993 0.11963983 1.2950001 4283839647
0.064180255 0.11954744 1.294 4283774111
0.065252788 0.11945505 1.2930001 4283642524
0.066272244 0.11927029 1.291 4283642525
0.067340441 0.11917789 1.2900001 4283576732
0.068459965 0.11917789 1.2900001 4283445146
0.069417678 0.11890074 1.2870001 4283510425
0.070534594 0.11890074 1.2870001 4283510169
0.071540177 0.11871597 1.2850001 4283444377
0.072655365 0.11871597 1.2850001 4283378585
0.073713139 0.11862358 1.284 4283575964
0.074769177 0.1185312 1.2830001 4283773343
0.075882629 0.1185312 1.2830001 4283839136
0.076996081 0.1185312 1.2830001 4283970722
0.077987768 0.11834642 1.281 4284168099
0.079099484 0.11834642 1.281 4284233892
0.0802112 0.11834642 1.281 4284233892
0.081259429 0.11825403 1.2800001 4284299685
0.082370274 0.11825403 1.2800001 4284562857
0.083481126 0.11825403 1.2800001 4284694443
0.084525883 0.11816166 1.279 4284562857
0.085501954 0.11797687 1.2770001 4284562857
0.086610191 0.11797687 1.2770001 4284628650
0.087649748 0.11788449 1.276 4284694443
0.088687561 0.11779211 1.2750001 4284628650
0.08979407 0.11779211 1.2750001 4284628650
0.090757988 0.11760734 1.273 4284694443
0.09186276 0.11760734 1.273 4284562857
0.092894509 0.11751495 1.2720001 4284497064
0.093850613 0.11733018 1.2700001 4284628137
0.094952784 0.11733018 1.2700001 4284628137
0.095979318 0.11723779 1.2690001 4284628137
0.097004108 0.1171454 1.268 4284759723
0.098104544 0.1171454 1.268 4284693930
0.09920498 0.1171454 1.268 4284628137
0.10022631 0.11705302 1.2670001 4284628137
0.10108595 0.11677586 1.2640001 4284693930
0.10218292 0.11677586 1.2640001 4284562344
0.10336158 0.11686824 1.2650001 4284496551
0.10445941 0.11686824 1.2650001 4284496551
0.10555724 0.11686824 1.2650001 4284496551
0.10657076 0.11677586 1.2640001 4284562344
0.10766772 0.11677586 1.2640001 4284693930
0.10867864 0.11668348 1.263 4284825516
0.10977473 0.11668348 1.263 4284891565
0.11078303 0.11659109 1.2620001 4284957356
0.11187826 0.11659109 1.2620001 4284957356
0.11288397 0.11649871 1.261 4284825770
0.11397833 0.11649871 1.261 4284759977
0.11507269 0.11649871 1.261 4284825770
0.11607492 0.11640632 1.2600001 4284957613
0.11716841 0.11640632 1.2600001 4285023406
0.1182619 0.11640632 1.2600001 4284957613
0.11945012 0.11649871 1.261 4284760234
0.12054448 0.11649871 1.261 4284694442
0.12163883 0.11649871 1.261 4284760494
0.12253853 0.11631393 1.2590001 4284761006
0.12353296 0.11622155 1.258 4284563882
0.12462471 0.11622155 1.258 4284499114
0.12581639 0.11631393 1.2590001 4284630699
0.12680823 0.11622155 1.258 4284433572
0.12789997 0.11622155 1.258 4284236185
