# .PCD v0.7 - Point Cloud Data file format
VERSION 0.7
FIELDS x y z rgba
SIZE 4 4 4 4
TYPE F F F U
COUNT 1 1 1 1
WIDTH 1079
HEIGHT 1
VIEWPOINT 0 0 0 1 0 0 0
POINTS 1079
DATA ascii
-0.17179245 -0.32228374 1.651 4280890165
-0.16454215 -0.3170132 1.6240001 4280955193
-0.16296026 -0.32267416 1.6530001 4279770151
-0.070011497 -0.2764599 1.595 4280627250
-0.27017635 -0.2544668 1.567 4279640608
-0.26589137 -0.2544668 1.567 4280034853
-0.0086917784 -0.24730799 1.549 4280561457
0.016819917 -0.24874489 1.5580001 4280364078
-0.0086693335 -0.24244455 1.5450001 4280561457
0.012503121 -0.24338609 1.5510001 4280429871
-0.12707572 -0.15527213 1.406 4291611844
-0.11480102 -0.14930862 1.3520001 4291676867
-0.11044655 -0.14842515 1.3440001 4291808453
-0.10637415 -0.14787295 1.3390001 4291809483
-0.10301948 -0.1483147 1.3430001 4291678156
-0.13332741 -0.14981189 1.391 4291611590
-0.12598531 -0.14571927 1.353 4291676867
-0.12020676 -0.14324215 1.33 4291742399
-0.11560575 -0.14205743 1.319 4291808192
-0.11131964 -0.14119583 1.3110001 4291939008
-0.10748816 -0.14087272 1.3080001 4291939780
-0.10391142 -0.14087272 1.3080001 4291545279
-0.10071822 -0.14141123 1.3130001 4291677896
-0.097793579 -0.14238054 1.322 4291809742
-0.095959544 -0.14507306 1.3470001 4293520880
-0.12757641 -0.13971022 1.3310001 4291676867
-0.12254003 -0.13813573 1.3160001 4291611072
-0.11821838 -0.13729599 1.3080001 4291676606
-0.11446634 -0.13708606 1.3060001 4291808191
-0.11055543 -0.13666619 1.302 4291808191
-0.10691292 -0.13656123 1.3010001 4291808192
-0.10327587 -0.13645625 1.3000001 4291479229
-0.10002785 -0.13687612 1.304 4291611074
-0.096905887 -0.13750592 1.3100001 4291808970
-0.093893602 -0.13834566 1.3180001 4291809490
-0.092070647 -0.14107478 1.3440001 4293586418
-0.14557095 -0.14302234 1.399 4291349444
-0.13597018 -0.13719513 1.342 4291480256
-0.12983586 -0.13463934 1.317 4291611326
-0.12498846 -0.13331032 1.304 4291808192
-0.12086397 -0.13269694 1.2980001 4291610812
-0.11731457 -0.13269694 1.2980001 4291742652
-0.11385282 -0.13279916 1.299 4291347894
-0.11030069 -0.13279916 1.299 4291479480
-0.10666639 -0.13269694 1.2980001 4291347640
-0.10303754 -0.1325947 1.2970001 4291545019
-0.099644303 -0.13279916 1.299 4291545022
-0.096388072 -0.1332081 1.3030001 4291545281
-0.093109958 -0.13361703 1.307 4291612104
-0.090221018 -0.13463934 1.317 4291546572
-0.088395461 -0.1373996 1.3440001 4293455345
-0.1460861 -0.13611235 1.368 4291546310
-0.13828719 -0.13223197 1.3290001 4291414465
-0.13293061 -0.13054049 1.312 4291611072
-0.12845567 -0.12964503 1.3030001 4291545533
-0.12441336 -0.12914754 1.2980001 4291348154
-0.12067772 -0.12894854 1.296 4291479480
-0.1171338 -0.12894854 1.296 4291413687
-0.11376517 -0.12914754 1.2980001 4291413687
-0.1103856 -0.12934653 1.3000001 4291282101
-0.10683074 -0.12934653 1.3000001 4291347894
-0.10319643 -0.12924704 1.299 4291150261
-0.099721014 -0.12934653 1.3000001 4291281848
-0.096240133 -0.12944603 1.3010001 4291413693
-0.092825003 -0.12964503 1.3030001 4291545797
-0.089878485 -0.13054049 1.312 4290888127
-0.08727736 -0.13203296 1.327 4292994536
-0.086296178 -0.13621184 1.3690001 4293390322
-0.15828252 -0.13643558 1.4100001 4278190080
-0.14796501 -0.13072658 1.3510001 4291282877
-0.14096026 -0.12772693 1.3200001 4291545533
-0.13599801 -0.12646902 1.307 4291610812
-0.13161346 -0.12569492 1.299 4291281847
-0.12776558 -0.12540461 1.296 4291216054
-0.12393411 -0.12511434 1.2930001 4291084468
-0.12030527 -0.12501757 1.2920001 4291150261
-0.11686266 -0.12511434 1.2930001 4291347640
-0.11332694 -0.12511434 1.2930001 4291216308
-0.10996105 -0.12530786 1.2950001 4291347894
-0.10658421 -0.12550138 1.2970001 4291150515
-0.103117 -0.12559815 1.2980001 4290623917
-0.099721014 -0.12579167 1.3000001 4290624945
-0.096092179 -0.12569492 1.299 4291019966
-0.092611283 -0.12579167 1.3000001 4290822588
-0.089467451 -0.12637225 1.3060001 4290296505
-0.086948514 -0.12792045 1.322 4291218382
-0.084846355 -0.13024276 1.3460001 4293586931
-0.2118101 -0.13229783 1.4070001 4291940039
-0.20737144 -0.13192172 1.4030001 4291742660
-0.20338984 -0.1318277 1.4020001 4291742660
-0.1996984 -0.13192172 1.4030001 4291676867
-0.19614108 -0.13210979 1.4050001 4291676867
-0.19284658 -0.1324859 1.409 4291742662
-0.16098826 -0.13163964 1.4000001 4291216832
-0.15132257 -0.12675017 1.348 4291413695
-0.14456981 -0.12411737 1.3200001 4291150262
-0.13935845 -0.12270695 1.3050001 4291018929
-0.13526964 -0.1222368 1.3000001 4290821550
-0.13151215 -0.12204875 1.2980001 4290953136
-0.12786415 -0.12195472 1.2970001 4290953136
-0.12422165 -0.12186069 1.296 4291018675
-0.12058461 -0.12176666 1.2950001 4291216054
-0.11704343 -0.12176666 1.2950001 4290952882
-0.11350223 -0.12176666 1.2950001 4291018929
-0.10996105 -0.12176666 1.2950001 4291018929
-0.10650203 -0.12186069 1.296 4290558124
-0.103117 -0.12204875 1.2980001 4290492844
-0.099644303 -0.12214278 1.299 4291612103
-0.09601821 -0.12204875 1.2980001 4291809995
-0.092611283 -0.1222368 1.3000001 4284507489
-0.089330442 -0.12261292 1.304 4281349432
-0.08661966 -0.12383529 1.317 4285231220
-0.084152959 -0.1255278 1.335 4293586931
-0.083758667 -0.13060533 1.3890001 4293323761
-0.22623105 -0.12790263 1.401 4291874762
-0.22176504 -0.12753744 1.3970001 4292006602
-0.2176329 -0.12735486 1.3950001 4292071625
-0.21351172 -0.12717228 1.393 4291874244
-0.20955202 -0.12708098 1.3920001 4291940037
-0.20544995 -0.12689838 1.3900001 4291939780
-0.20164898 -0.12689838 1.3900001 4292005573
-0.1977057 -0.12680709 1.3890001 4292005573
-0.19390745 -0.12680709 1.3890001 4292136905
-0.19024608 -0.12689838 1.3900001 4292202698
-0.18617685 -0.12671581 1.388 4292400077
-0.18238135 -0.12671581 1.388 4292466385
-0.17910051 -0.12708098 1.3920001 4292401106
-0.1766793 -0.12808521 1.4030001 4292401106
-0.16340385 -0.12671581 1.388 4291019705
-0.15431874 -0.12251628 1.342 4291018676
-0.14795485 -0.12032523 1.3180001 4291018675
-0.14314602 -0.119321 1.307 4290755757
-0.13882451 -0.11868194 1.3000001 4290755755
-0.13495748 -0.11840806 1.2970001 4290624169
-0.13120818 -0.11822547 1.2950001 4290755757
-0.12766699 -0.11822547 1.2950001 4290887343
-0.12402995 -0.11813419 1.294 4291018675
-0.12049149 -0.11813419 1.294 4290887089
-0.11704343 -0.11822547 1.2950001 4291216055
-0.11332694 -0.11804289 1.2930001 4290755503
-0.10970631 -0.11795159 1.2920001 4290492845
-0.10617332 -0.11795159 1.2920001 4291217086
-0.10271978 -0.11804289 1.2930001 4291677896
-0.099260762 -0.11813419 1.294 4285888370
-0.095648333 -0.11804289 1.2930001 4280823088
-0.092183851 -0.11813419 1.294 4281415996
-0.088782407 -0.11831677 1.296 4281547582
-0.085764647 -0.11904711 1.304 4281283642
-0.08308135 -0.12032523 1.3180001 4291810522
-0.082673237 -0.12516381 1.3710001 4293192175
-0.23255758 -0.1233631 1.393 4291940809
-0.22792734 -0.1229203 1.388 4292006602
-0.22364742 -0.12265462 1.3850001 4292334795
-0.22001886 -0.12274318 1.386 4292137416
-0.21622884 -0.12274318 1.386 4292203209
-0.21228552 -0.12265462 1.3850001 4292005573
-0.20849822 -0.12265462 1.3850001 4291808194
-0.20471093 -0.12265462 1.3850001 4292005573
-0.20106871 -0.12274318 1.386 4292137159
-0.19727868 -0.12274318 1.386 4292005573
-0.19334905 -0.12265462 1.3850001 4292137159
-0.18969862 -0.12274318 1.386 4292466124
-0.18564031 -0.12256607 1.3840001 4292597969
-0.18172437 -0.12247751 1.383 4292532176
-0.17781387 -0.12238894 1.3820001 4292269004
-0.17441256 -0.12265462 1.3850001 4278190080
-0.17050207 -0.12256607 1.3840001 4278190080
-0.16479014 -0.12114911 1.368 4290887090
-0.15751755 -0.11849233 1.3380001 4290755503
-0.15167393 -0.11680971 1.319 4290689964
-0.14694454 -0.11592411 1.309 4290755757
-0.14292698 -0.11556987 1.3050001 4290754985
-0.13903809 -0.1153042 1.302 4290689962
-0.13516559 -0.11503853 1.299 4290689962
-0.13151215 -0.11494996 1.2980001 4290887343
-0.12796275 -0.11494996 1.2980001 4291084722
-0.1243175 -0.11486141 1.2970001 4290887089
-0.12058461 -0.11468428 1.2950001 4290689710
-0.11704343 -0.11468428 1.2950001 4290558125
-0.11341458 -0.11459573 1.294 4290230189
-0.10979122 -0.11450717 1.2930001 4288782745
-0.10625549 -0.11450717 1.2930001 4281611568
-0.10271978 -0.11450717 1.2930001 4281085485
-0.099030636 -0.11433005 1.291 4281283378
-0.09542641 -0.1142415 1.2900001 4281350203
-0.091827653 -0.11415293 1.289 4281942340
-0.088576891 -0.11450717 1.2930001 4282337611
-0.085370019 -0.11494996 1.2980001 4283719264
-0.082577065 -0.11601268 1.3100001 4284047462
-0.080864199 -0.11875802 1.3410001 4288258214
-0.23534866 -0.11903898 1.3870001 4292203211
-0.23038727 -0.11843821 1.3800001 4292071625
-0.22612101 -0.11818072 1.3770001 4292137416
-0.22219411 -0.11809491 1.376 4292334795
-0.21843141 -0.11809491 1.376 4292532174
-0.21482475 -0.11818072 1.3770001 4292203209
-0.21105933 -0.11818072 1.3770001 4291610815
-0.20744444 -0.11826655 1.378 4291610813
-0.20338067 -0.11809491 1.376 4291808192
-0.2000532 -0.11835238 1.3790001 4292005571
-0.19613998 -0.11826655 1.378 4292005571
-0.19237182 -0.11826655 1.378 4292268745
-0.18846682 -0.11818072 1.3770001 4292334538
-0.18483551 -0.11826655 1.378 4292071625
-0.18093598 -0.11818072 1.3770001 4292005832
-0.17665589 -0.11783743 1.373 4291874246
-0.1720199 -0.11723666 1.3660001 4291545279
-0.16692941 -0.11629258 1.355 4291018935
-0.16081494 -0.11457609 1.335 4290821296
-0.15528075 -0.11320289 1.319 4290689964
-0.150639 -0.11243047 1.3100001 4290624169
-0.14638326 -0.11191551 1.304 4290426790
-0.14259841 -0.11174387 1.302 4290557606
-0.13882451 -0.11157221 1.3000001 4290886571
-0.13516559 -0.1114864 1.299 4290689962
-0.13141082 -0.11131474 1.2970001 4290755757
-0.12766699 -0.11114309 1.2950001 4290821550
-0.12412581 -0.11114309 1.2950001 4290755503
-0.12039838 -0.11097144 1.2930001 4290164398
-0.11677228 -0.11088562 1.2920001 4289769899
-0.113064 -0.11071397 1.2900001 4284836454
-0.10962139 -0.11079979 1.291 4280494375
-0.10600896 -0.11071397 1.2900001 4281283640
-0.10224312 -0.1104565 1.2870001 4281678398
-0.098570392 -0.11028485 1.2850001 4281678398
-0.095056549 -0.11028485 1.2850001 4282073926
-0.091542698 -0.11028485 1.2850001 4283455579
-0.088165857 -0.1104565 1.2870001 4283653471
-0.085041173 -0.11097144 1.2930001 4283785057
-0.081946701 -0.11157221 1.3000001 4282798162
-0.079115458 -0.11260211 1.312 4282008392
-0.07644885 -0.11397532 1.3280001 4281678916
-0.076217033 -0.11929645 1.3900001 4293653242
-0.23914142 -0.11524621 1.3870001 4291940809
-0.23399121 -0.11458149 1.3790001 4292269004
-0.22938558 -0.11416604 1.3740001 4292203211
-0.22546415 -0.11408295 1.373 4292005832
-0.22154818 -0.11399985 1.3720001 4291940037
-0.21779643 -0.11399985 1.3720001 4292137159
-0.21435672 -0.11416604 1.3740001 4291676608
-0.21059951 -0.11416604 1.3740001 4291545020
-0.20699282 -0.11424913 1.3750001 4291873985
-0.20293726 -0.11408295 1.373 4291939778
-0.19947292 -0.11424913 1.3750001 4292137157
-0.1958553 -0.11433222 1.376 4292005571
-0.19209263 -0.11433222 1.376 4291939778
-0.18819307 -0.11424913 1.3750001 4291742658
-0.18416485 -0.11408295 1.373 4278190080
-0.18001617 -0.11383368 1.3700001 4291611072
-0.17485459 -0.11291968 1.3590001 4291413434
-0.1695013 -0.11183952 1.3460001 4291216055
-0.16421913 -0.11075934 1.3330001 4290952882
-0.15912849 -0.10976225 1.3210001 4290295204
-0.15445666 -0.10901444 1.312 4290163618
-0.15040903 -0.10868207 1.3080001 4290426790
-0.14660777 -0.1085159 1.3060001 4289505688
-0.14281747 -0.10834971 1.304 4289504918
-0.13914487 -0.10826663 1.3030001 4290031262
-0.1353737 -0.10810044 1.3010001 4290097825
-0.13171478 -0.10801736 1.3000001 4290689964
-0.12776558 -0.10768499 1.296 4290689710
-0.1243175 -0.10776809 1.2970001 4290163880
-0.12049149 -0.10751882 1.294 4289704106
-0.11695304 -0.10751882 1.294 4287598990
-0.1132393 -0.10735263 1.2920001 4280494377
-0.10970631 -0.10735263 1.2920001 4280824112
-0.10592679 -0.10710336 1.289 4280955444
-0.10224312 -0.10693718 1.2870001 4281284410
-0.098570392 -0.10677101 1.2850001 4282468684
-0.095056549 -0.10677101 1.2850001 4281744961
-0.091685176 -0.10693718 1.2870001 4284113509
-0.088234365 -0.10702027 1.2880001 4282600783
-0.084975399 -0.10735263 1.2920001 4281811267
-0.081568487 -0.10751882 1.294 4281219130
-0.078271233 -0.10785118 1.2980001 4281153083
-0.074952111 -0.10818354 1.302 4281547843
-0.072433598 -0.10976225 1.3210001 4281415744
-0.071790881 -0.1144984 1.378 4293652726
-0.23776209 -0.1108106 1.3790001 4292006348
-0.23280342 -0.1102481 1.3720001 4292203981
-0.22871779 -0.1100874 1.3700001 4292071625
-0.22497152 -0.1100874 1.3700001 4291742660
-0.22138672 -0.11016776 1.3710001 4291873987
-0.2173202 -0.11000704 1.3690001 4291808194
-0.21373267 -0.1100874 1.3700001 4291873985
-0.20983312 -0.11000704 1.3690001 4291939778
-0.20608957 -0.11000704 1.3690001 4292137157
-0.20205042 -0.10984634 1.3670001 4292466122
-0.19845743 -0.10992669 1.368 4292663501
-0.19485894 -0.11000704 1.3690001 4292400842
-0.191255 -0.1100874 1.3700001 4291808705
-0.187235 -0.10992669 1.368 4278190080
-0.18268938 -0.10944455 1.3620001 4291611326
-0.1777824 -0.10872135 1.353 4291018676
-0.17202398 -0.10743566 1.337 4290755504
-0.16685678 -0.10647138 1.325 4290689710
-0.162248 -0.10582854 1.317 4290360999
-0.15792389 -0.10534641 1.3110001 4290426790
-0.15386803 -0.10502499 1.307 4290032032
-0.14994906 -0.10478391 1.304 4289834653
-0.14649552 -0.10486427 1.3050001 4290295204
-0.14281747 -0.10478391 1.304 4290294434
-0.13914487 -0.10470357 1.3030001 4290491813
-0.1353737 -0.10454285 1.3010001 4290097825
-0.13171478 -0.10446249 1.3000001 4290031780
-0.12766699 -0.10406071 1.2950001 4290163626
-0.12402995 -0.10398036 1.294 4288914331
-0.12030527 -0.10381965 1.2920001 4286217335
-0.11686266 -0.10390001 1.2930001 4280757034
-0.11297636 -0.10357858 1.289 4281087030
-0.10919683 -0.10333752 1.286 4281350203
-0.10535154 -0.10301609 1.2820001 4281087544
-0.10176646 -0.10293574 1.281 4282666576
-0.098340265 -0.10301609 1.2820001 4283192920
-0.095056549 -0.10325716 1.2850001 4283521885
-0.091542698 -0.10325716 1.2850001 4282140232
-0.087823339 -0.10301609 1.2820001 4281087801
-0.084317692 -0.10301609 1.2820001 4281153594
-0.080938123 -0.1031768 1.284 4281219389
-0.07766822 -0.10349822 1.2880001 4280956217
-0.074376442 -0.10381965 1.2920001 4282534736
-0.071282111 -0.10446249 1.3000001 4282863188
-0.069133893 -0.1066321 1.327 4284376429
-0.23297311 -0.10657398 1.373 4291875016
-0.22888474 -0.10641874 1.3710001 4291742660
-0.22513573 -0.10641874 1.3710001 4291742660
-0.22154818 -0.10649636 1.3720001 4291874244
-0.2176377 -0.10641874 1.3710001 4292137416
-0.21373267 -0.10634112 1.3700001 4292005571
-0.20983312 -0.1062635 1.3690001 4292137157
-0.20593905 -0.10618588 1.368 4292137157
-0.20190261 -0.10603064 1.3660001 4292466122
-0.19802222 -0.10595302 1.365 4292137416
-0.19443193 -0.10603064 1.3660001 4291874244
-0.1906966 -0.10603064 1.3660001 4278190080
-0.18655065 -0.10579778 1.363 4291611072
-0.1814822 -0.10502156 1.353 4291150262
-0.17594281 -0.10393486 1.3390001 4290887089
-0.17060867 -0.10292578 1.3260001 4290689964
-0.16597527 -0.10230482 1.3180001 4290689964
-0.16175522 -0.10191671 1.3130001 4290229413
-0.15768296 -0.10160622 1.309 4290295206
-0.15386803 -0.10145099 1.307 4290426792
-0.15006405 -0.10129574 1.3050001 4290426790
-0.14660777 -0.10137336 1.3060001 4290624169
-0.14292698 -0.10129574 1.3050001 4291018927
-0.13935845 -0.10129574 1.3050001 4290360997
-0.13547775 -0.10106288 1.302 4290295206
-0.1318161 -0.10098525 1.3010001 4289045915
-0.12776558 -0.10059714 1.296 4288651418
-0.12412581 -0.10051952 1.2950001 4282269755
-0.12030527 -0.10028666 1.2920001 4281218100
-0.11686266 -0.10036428 1.2930001 4280888881
-0.1128887 -0.099976175 1.2880001 4281021238
-0.10919683 -0.099820942 1.286 4281284923
-0.10535154 -0.099510454 1.2820001 4282469197
-0.10192534 -0.099588066 1.2830001 4282403404
-0.098570392 -0.099743314 1.2850001 4283521885
-0.095056549 -0.099743314 1.2850001 4281020984
-0.091328986 -0.099510454 1.2820001 4281613636
-0.087617822 -0.099277586 1.279 4281021499
-0.084120385 -0.099277586 1.279 4281218878
-0.080812052 -0.099510454 1.2820001 4282206284
-0.07748732 -0.099743314 1.2850001 4282469456
-0.074261308 -0.10013142 1.2900001 4283653730
-0.071007952 -0.10051952 1.2950001 4284047975
-0.22888474 -0.10266973 1.3710001 4291808969
-0.22497152 -0.10259484 1.3700001 4291874762
-0.22122523 -0.10259484 1.3700001 4292005832
-0.21700272 -0.10237019 1.3670001 4292269002
-0.21295264 -0.10222041 1.365 4292137416
-0.20891346 -0.10207064 1.363 4292268743
-0.20503581 -0.10199575 1.3620001 4292137157
-0.20131141 -0.10199575 1.3620001 4291676608
-0.19729684 -0.10184597 1.36 4291940037
-0.19343558 -0.10177108 1.3590001 4291940039
-0.18957978 -0.1016962 1.358 4291676867
-0.18490826 -0.10117199 1.3510001 4291282107
-0.1794702 -0.10019846 1.3380001 4290952883
-0.17423463 -0.099299826 1.3260001 4290755503
-0.16970803 -0.098775618 1.319 4290492585
-0.16534562 -0.098326296 1.3130001 4290558378
-0.16126244 -0.098026745 1.309 4290426792
-0.15732157 -0.097802088 1.3060001 4290558124
-0.15375032 -0.097802088 1.3060001 4290623917
-0.14994906 -0.097652309 1.304 4290492585
-0.14638326 -0.097652309 1.304 4290558376
-0.14259841 -0.097502545 1.302 4290426790
-0.13882451 -0.097352766 1.3000001 4290295206
-0.13506153 -0.097203001 1.2980001 4289834914
-0.13141082 -0.097128108 1.2970001 4285822319
-0.12766699 -0.096978329 1.2950001 4282927687
-0.12393411 -0.096828565 1.2930001 4281218098
-0.1199328 -0.096454129 1.2880001 4281087030
-0.11623 -0.096304357 1.286 4281613375
-0.11253812 -0.096154578 1.284 4281877060
-0.10877227 -0.095929921 1.281 4283390299
-0.10518719 -0.095855035 1.2800001 4283850850
-0.10168701 -0.095855035 1.2800001 4282863442
-0.098186843 -0.095855035 1.2800001 4281087031
-0.094538718 -0.095705256 1.2780001 4280823607
-0.090830296 -0.095480599 1.2750001 4281087292
-0.087343805 -0.095480599 1.2750001 4281877321
-0.083857305 -0.095480599 1.2750001 4282337870
-0.080685981 -0.095855035 1.2800001 4283522144
-0.077427015 -0.096154578 1.284 4283522914
-0.07403104 -0.096304357 1.286 4282469456
-0.070624121 -0.096454129 1.2880001 4281548356
-0.068612911 -0.098625839 1.317 4281482050
-0.067035466 -0.1016962 1.358 4281482050
-0.21668525 -0.098487802 1.365 4291809221
-0.2126406 -0.098343499 1.363 4292071623
-0.2087602 -0.098271348 1.3620001 4292269256
-0.20488526 -0.098199196 1.3610001 4292268743
-0.20101577 -0.098127037 1.36 4292071366
-0.19671658 -0.097838432 1.3560001 4292005319
-0.19272391 -0.097694129 1.3540001 4291545281
-0.18832336 -0.097333364 1.3490001 4291282107
-0.18326584 -0.096611843 1.3390001 4291018935
-0.17826299 -0.095890328 1.3290001 4290821297
-0.17357764 -0.095313102 1.3210001 4290689710
-0.16957936 -0.095096648 1.3180001 4290623917
-0.16534562 -0.094735883 1.3130001 4290558124
-0.16163202 -0.094663724 1.312 4290426538
-0.15768296 -0.094447277 1.309 4290624171
-0.15410349 -0.094447277 1.309 4290624171
-0.15029402 -0.094302975 1.307 4290492585
-0.14649552 -0.094158664 1.3050001 4290426792
-0.1424889 -0.093870059 1.3010001 4289966498
-0.13861093 -0.093653604 1.2980001 4289177501
-0.13495748 -0.093581453 1.2970001 4285756526
-0.13141082 -0.093581453 1.2970001 4282138939
-0.12786415 -0.093581453 1.2970001 4281678397
-0.12383825 -0.093220688 1.2920001 4281087031
-0.11983968 -0.092859924 1.2870001 4280758579
-0.11604923 -0.09264347 1.284 4282206025
-0.11262577 -0.092715628 1.2850001 4281284923
-0.10919683 -0.09278778 1.286 4282337611
-0.1055159 -0.09264347 1.284 4281482302
-0.10168701 -0.092354864 1.2800001 4280890165
-0.098033421 -0.092210554 1.2780001 4281482048
-0.094464749 -0.09213841 1.2770001 4280889913
-0.090901546 -0.092066251 1.276 4281942601
-0.087480813 -0.09213841 1.2770001 4283127388
-0.084120385 -0.092282705 1.279 4282403665
-0.080938123 -0.09264347 1.284 4281812042
-0.077427015 -0.09264347 1.284 4281088319
-0.073743209 -0.092427015 1.281 4281087551
-0.070788622 -0.09314853 1.291 4281745481
-0.067675151 -0.093725756 1.299 4280824122
-0.065209024 -0.095313102 1.3210001 4281613636
-0.21217258 -0.094408102 1.36 4291809221
-0.20830038 -0.094338685 1.3590001 4292138186
-0.20413256 -0.094130434 1.3560001 4292466381
-0.20027675 -0.094061017 1.355 4292137418
-0.19584614 -0.093713932 1.35 4291545281
-0.19172755 -0.093505673 1.3470001 4291413182
-0.18664813 -0.092811503 1.337 4291084728
-0.18189715 -0.092256166 1.3290001 4291084469
-0.17732406 -0.091770232 1.322 4290821296
-0.17318344 -0.091492563 1.3180001 4290623917
-0.16919337 -0.091284312 1.3150001 4290492331
-0.16521969 -0.091076054 1.312 4290623918
-0.16150883 -0.091006644 1.3110001 4290558124
-0.15768296 -0.090867803 1.309 4290426792
-0.15398577 -0.090798378 1.3080001 4290360999
-0.15017904 -0.090659551 1.3060001 4290098086
-0.14627101 -0.0904513 1.3030001 4289572512
-0.14237936 -0.090243042 1.3000001 4288848534
-0.13850413 -0.09003479 1.2970001 4284770144
-0.13495748 -0.09003479 1.2970001 4281809976
-0.13120818 -0.089895949 1.2950001 4281218098
-0.12746982 -0.089757122 1.2930001 4280758065
-0.123359 -0.089340612 1.2870001 4281679168
-0.11956034 -0.089132361 1.284 4281877060
-0.11586847 -0.088993527 1.2820001 4282798162
-0.11245047 -0.089062944 1.2830001 4283456092
-0.1089421 -0.089062944 1.2830001 4281811267
-0.10535154 -0.088993527 1.2820001 4280824372
-0.10152813 -0.088715851 1.2780001 4280890165
-0.097803295 -0.0885076 1.2750001 4280758325
-0.094242826 -0.088438183 1.274 4282074185
-0.090759061 -0.088438183 1.274 4282337870
-0.087412313 -0.088577017 1.276 4282403665
-0.083988845 -0.088646434 1.2770001 4282140493
-0.080622941 -0.088785268 1.279 4281351491
-0.077065207 -0.088715851 1.2780001 4280955965
-0.073455371 -0.088577017 1.276 4280955965
-0.070459627 -0.089201778 1.2850001 4281021501
-0.067414664 -0.089826539 1.294 4281745224
-0.06451793 -0.090728968 1.307 4283521120
-0.061876502 -0.092117324 1.327 4283719012
-0.054454476 -0.091839649 1.3230001 4283258459
-0.20383149 -0.090289079 1.3540001 4291743176
-0.19998115 -0.090222396 1.353 4291808453
-0.195556 -0.089888975 1.348 4291282109
-0.19101587 -0.089488879 1.342 4291018937
-0.18595013 -0.088822044 1.332 4290952883
-0.1817603 -0.088555314 1.3280001 4290952883
-0.17759232 -0.088288575 1.3240001 4290689711
-0.17344624 -0.088021845 1.3200001 4290558124
-0.16957936 -0.087888479 1.3180001 4290360745
-0.16572341 -0.087755114 1.3160001 4290492331
-0.16200161 -0.087688431 1.3150001 4290558124
-0.15804434 -0.087488383 1.312 4290360999
-0.15422121 -0.08735501 1.3100001 4289703329
-0.15017904 -0.087088279 1.3060001 4288914327
-0.14638326 -0.086954914 1.304 4287467657
-0.14259841 -0.086821549 1.302 4282073145
-0.13893129 -0.086754866 1.3010001 4282270786
-0.13547775 -0.086821549 1.302 4281744444
-0.13161346 -0.086621501 1.299 4281546812
-0.12756841 -0.08628808 1.294 4281744191
-0.12355071 -0.085954666 1.289 4283192407
-0.1199328 -0.085887983 1.2880001 4281679168
-0.11613961 -0.085687935 1.2850001 4282600270
-0.11245047 -0.08555457 1.2830001 4280955958
-0.10868736 -0.085354514 1.2800001 4280824372
-0.10502283 -0.085221149 1.2780001 4280758579
-0.10144868 -0.085154466 1.2770001 4280955958
-0.098033421 -0.085221149 1.2780001 4283390299
-0.094686672 -0.085354514 1.2800001 4283390558
-0.091328986 -0.08548788 1.2820001 4282008905
-0.087754831 -0.085421205 1.281 4281153598
-0.083988845 -0.085154466 1.2770001 4280693047
-0.080370806 -0.085021101 1.2750001 4280955706
-0.076763704 -0.084887736 1.273 4281021499
-0.073685639 -0.085354514 1.2800001 4281679429
-0.070569292 -0.085821301 1.2870001 4283915878
-0.067258373 -0.086088032 1.291 4283850087
-0.064024299 -0.086488128 1.2970001 4282600018
-0.059964724 -0.085754618 1.286 4281810502
-0.056843188 -0.086354762 1.2950001 4281482052
-0.053795919 -0.087154962 1.307 4281218878
-0.051105697 -0.088688679 1.33 4280889400
-0.19938992 -0.086266808 1.3490001 4291479488
-0.19483064 -0.085883111 1.3430001 4291084730
-0.1900195 -0.085371524 1.335 4290821558
-0.18567093 -0.085051782 1.33 4290821297
-0.18162343 -0.084859937 1.327 4290689711
-0.17759232 -0.084668085 1.3240001 4290294953
-0.17357764 -0.08447624 1.3210001 4290229159
-0.16957936 -0.084284395 1.3180001 4290163620
-0.16572341 -0.084156498 1.3160001 4289900448
-0.16187842 -0.084028602 1.314 4289637022
-0.15780342 -0.083772808 1.3100001 4289374363
-0.15398577 -0.083644912 1.3080001 4288914329
-0.14994906 -0.083389118 1.304 4287532935
-0.14615874 -0.083261214 1.302 4282731078
-0.1424889 -0.083197266 1.3010001 4282073407
-0.13882451 -0.083133318 1.3000001 4281152307
-0.13495748 -0.082941473 1.2970001 4280823088
-0.1308029 -0.082557783 1.291 4281349432
-0.12697689 -0.08236593 1.2880001 4281809984
-0.123359 -0.082301989 1.2870001 4283191637
-0.12002592 -0.082429886 1.289 4282731856
-0.11623 -0.082238033 1.286 4281087031
-0.11227518 -0.081918299 1.281 4280692786
-0.10843263 -0.081662498 1.2770001 4280627250
-0.10485848 -0.08159855 1.276 4281482559
-0.10136925 -0.08159855 1.276 4282074696
-0.098110139 -0.081790395 1.279 4282930007
-0.094612703 -0.081790395 1.279 4281614147
-0.090972781 -0.081662498 1.2770001 4280890426
-0.087206796 -0.081406705 1.273 4281022012
-0.083528452 -0.08121486 1.2700001 4281022012
-0.080055624 -0.08121486 1.2700001 4281087803
-0.076582797 -0.08121486 1.2700001 4283192666
-0.073512934 -0.081662498 1.2770001 4282468943
-0.069691971 -0.081278808 1.271 4282600018
-0.066320613 -0.081406705 1.273 4282073676
-0.063135758 -0.081790395 1.279 4281613125
-0.059871461 -0.082110137 1.284 4281811017
-0.056535929 -0.08236593 1.2880001 4281350466
-0.05321968 -0.082685679 1.2930001 4281284671
-0.049952935 -0.083133318 1.3000001 4281942601
-0.047218964 -0.084604137 1.3230001 4283060569
-0.19468558 -0.082149453 1.342 4290821558
-0.18987715 -0.081659742 1.3340001 4290887351
-0.18581051 -0.081476092 1.3310001 4290492591
-0.1817603 -0.081292458 1.3280001 4290294953
-0.17786059 -0.081170022 1.3260001 4290294953
-0.17370903 -0.080925167 1.322 4290229159
-0.16983669 -0.080802739 1.3200001 4290294952
-0.16572341 -0.080557883 1.3160001 4289703328
-0.1621248 -0.080557883 1.3160001 4288650641
-0.15804434 -0.080313027 1.312 4288322192
-0.15422121 -0.080190599 1.3100001 4287072386
-0.15017904 -0.079945743 1.3060001 4282401341
-0.14649552 -0.079884522 1.3050001 4282468167
-0.14292698 -0.079884522 1.3050001 4281546812
-0.13903809 -0.079700887 1.302 4281021238
-0.13474938 -0.079272382 1.2950001 4280626480
-0.1308029 -0.079027526 1.291 4282402891
-0.12707549 -0.078905098 1.289 4282205512
-0.12374239 -0.079027526 1.291 4282599500
-0.12021215 -0.079027526 1.291 4280626480
-0.11613961 -0.078660242 1.2850001 4280626480
-0.11209989 -0.078292958 1.279 4280890165
-0.10843263 -0.07817053 1.2770001 4281219387
-0.10502283 -0.078231744 1.2780001 4282864212
-0.10168701 -0.078354172 1.2800001 4283456351
-0.098416969 -0.078537814 1.2830001 4281350975
-0.094760641 -0.078415386 1.281 4280496436
-0.090901546 -0.078109317 1.276 4280430643
-0.087206796 -0.077925675 1.273 4280758838
-0.083462678 -0.077680811 1.2690001 4282337357
-0.080055624 -0.077742033 1.2700001 4281811524
-0.076582797 -0.077742033 1.2700001 4283192920
-0.073109969 -0.077742033 1.2700001 4282205771
-0.069801643 -0.077925675 1.273 4281744709
-0.066528998 -0.07817053 1.2770001 4281020988
-0.063283846 -0.0784766 1.2820001 4280955195
-0.059964724 -0.078721456 1.286 4281152574
-0.056360349 -0.078599028 1.284 4281678916
-0.052931562 -0.078721456 1.286 4283850085
-0.049568683 -0.078966312 1.2900001 4283324254
-0.046469457 -0.079700887 1.302 4283784805
-0.04356825 -0.080925167 1.322 4283521633
-0.18987715 -0.078011908 1.3340001 4290624179
-0.18581051 -0.077836461 1.3310001 4290492591
-0.18162343 -0.077602543 1.327 4290361005
-0.17772646 -0.077485584 1.325 4289967015
-0.17357764 -0.077251665 1.3210001 4290164394
-0.1694507 -0.077017747 1.317 4289703843
-0.16534562 -0.076783828 1.3130001 4288585877
-0.16163202 -0.076725349 1.312 4288454550
-0.15792389 -0.076666869 1.3110001 4281481011
-0.15433894 -0.076666869 1.3110001 4280823342
-0.15029402 -0.076432951 1.307 4281481018
-0.14638326 -0.076257512 1.304 4282665293
-0.1424889 -0.076082073 1.3010001 4280757812
-0.13829057 -0.075731196 1.2950001 4280955445
-0.13422911 -0.075438797 1.2900001 4281218617
-0.13029632 -0.075204879 1.286 4282797649
-0.12687832 -0.075263359 1.2870001 4283389786
-0.12345485 -0.075321838 1.2880001 4281021238
-0.11983968 -0.075263359 1.2870001 4280758066
-0.11577808 -0.074912481 1.281 4280560687
-0.11201224 -0.074737042 1.2780001 4281350203
-0.10843263 -0.074678555 1.2770001 4281679681
-0.10518719 -0.074854001 1.2800001 4282666833
-0.10152813 -0.074737042 1.2780001 4281087801
-0.097803295 -0.074561596 1.2750001 4280693045
-0.094168857 -0.074444637 1.273 4281219389
-0.090616591 -0.074386165 1.2720001 4280890424
-0.087001279 -0.074269205 1.2700001 4282798421
-0.083659992 -0.074386165 1.2720001 4282995798
-0.079929546 -0.074152246 1.268 4282469454
-0.076522492 -0.074210726 1.2690001 4281548354
-0.073109969 -0.074269205 1.2700001 4281087290
-0.069746807 -0.074386165 1.2720001 4281020986
-0.066528998 -0.074678555 1.2770001 4281613123
-0.063086398 -0.074737042 1.2780001 4281876295
-0.059591692 -0.074737042 1.2780001 4284179050
-0.056053091 -0.074678555 1.2770001 4283257946
-0.052684601 -0.074854001 1.2800001 4283257946
-0.049376555 -0.075146399 1.2850001 4282863703
-0.046148237 -0.075614236 1.2930001 4282074187
-0.04304095 -0.076374471 1.3060001 4281416257
-0.04016478 -0.077719502 1.3290001 4280626741
-0.18622932 -0.074364066 1.3340001 4290426798
-0.18203403 -0.074141085 1.33 4290492591
-0.17799473 -0.073973849 1.327 4290032808
-0.17384043 -0.073750868 1.3230001 4289835944
-0.16957936 -0.073472142 1.3180001 4288783515
-0.16559748 -0.073304914 1.3150001 4288060308
-0.16187842 -0.073249161 1.314 4280494113
-0.1581648 -0.073193423 1.3130001 4282007614
-0.15457439 -0.073193423 1.3130001 4282928464
-0.150869 -0.073137671 1.312 4282665293
-0.14672002 -0.072858945 1.307 4280888884
-0.14237936 -0.072468735 1.3000001 4280625712
-0.13829057 -0.072190002 1.2950001 4281020984
-0.13433315 -0.071967028 1.291 4282205258
-0.13060027 -0.071855538 1.289 4283324506
-0.12687832 -0.071744047 1.2870001 4281284923
-0.12326315 -0.071688294 1.286 4280692786
-0.11956034 -0.071576804 1.284 4280889652
-0.11577808 -0.071409576 1.281 4281876547
-0.11227518 -0.071409576 1.281 4282600270
-0.10877227 -0.071409576 1.281 4283126873
-0.10559808 -0.071632557 1.2850001 4281350975
-0.10160758 -0.071298078 1.279 4280626739
-0.097649887 -0.070963606 1.273 4280560946
-0.094094887 -0.070907868 1.2720001 4281416255
-0.090545341 -0.070852116 1.271 4281416255
-0.087138288 -0.070907868 1.2720001 4282205771
-0.083396904 -0.070684887 1.268 4283061593
-0.079992585 -0.070740633 1.2690001 4280956217
-0.076703399 -0.070907868 1.2720001 4281284669
-0.0733978 -0.071075097 1.2750001 4280889911
-0.069856472 -0.071019359 1.274 4281547328
-0.066372707 -0.071019359 1.274 4283586395
-0.062839575 -0.070963606 1.273 4282599500
-0.059358548 -0.070963606 1.273 4284178534
-0.056009199 -0.071130849 1.276 4283586397
-0.052602284 -0.07124234 1.2780001 4281744709
-0.049376555 -0.071632557 1.2850001 4281153085
-0.046041165 -0.071911275 1.2900001 4281218878
-0.042876169 -0.072524473 1.3010001 4281218878
-0.03965101 -0.073137671 1.312 4281547843
-0.036585592 -0.07419683 1.3310001 4281218878
-0.17812885 -0.070398167 1.3280001 4289506979
-0.17384043 -0.070133112 1.3230001 4288388757
-0.16957936 -0.069868058 1.3180001 4288520859
-0.16572341 -0.069762036 1.3160001 4281086764
-0.16175522 -0.069603011 1.3130001 4280757545
-0.15804434 -0.069549993 1.312 4282139972
-0.15433894 -0.069496982 1.3110001 4282731855
-0.15029402 -0.069284938 1.307 4280955444
-0.14593422 -0.06891387 1.3000001 4280824372
-0.14183176 -0.068648815 1.2950001 4281547582
-0.13786341 -0.068436772 1.291 4282863701
-0.13433315 -0.068436772 1.291 4282995800
-0.13039763 -0.068224728 1.2870001 4280956217
-0.12668115 -0.068118706 1.2850001 4280561200
-0.12287976 -0.067959674 1.2820001 4280561200
-0.11946723 -0.068012692 1.2830001 4281745220
-0.11577808 -0.06790667 1.281 4282600529
-0.11245047 -0.068012692 1.2830001 4282797908
-0.10877227 -0.06790667 1.281 4280955704
-0.10502283 -0.06774763 1.2780001 4280824118
-0.10105148 -0.067429572 1.2720001 4281153083
-0.097419761 -0.067323551 1.2700001 4281416255
-0.094316795 -0.067588598 1.2750001 4283192666
-0.090331621 -0.067217529 1.268 4283258200
-0.086727254 -0.067111507 1.266 4281942086
-0.083068058 -0.066952474 1.263 4280824118
-0.079866514 -0.067164518 1.2670001 4280889911
-0.076582797 -0.067323551 1.2700001 4280955958
-0.073282674 -0.067482576 1.273 4280890165
-0.069527477 -0.067217529 1.268 4283587165
-0.065955922 -0.067111507 1.266 4283783774
-0.0625434 -0.067164518 1.2670001 4283849567
-0.059172031 -0.06727054 1.2690001 4282336330
-0.055965304 -0.067588598 1.2750001 4281612607
-0.052602284 -0.06774763 1.2780001 4281152572
-0.049376555 -0.068118706 1.2850001 4281613123
-0.045791332 -0.068012692 1.2830001 4281021499
-0.042480692 -0.06833075 1.289 4282863701
-0.039046574 -0.068489783 1.2920001 4283455838
-0.035788462 -0.069019891 1.302 4284179561
-0.032648928 -0.069921069 1.319 4284837493
-0.17022267 -0.066515356 1.3230001 4280297248
-0.16635306 -0.066414803 1.3210001 4280166178
-0.16237119 -0.066263974 1.3180001 4283258451
-0.15840572 -0.066113152 1.3150001 4282600523
-0.15445666 -0.065962322 1.312 4281153334
-0.15017904 -0.065660663 1.3060001 4280890164
-0.14593422 -0.065359004 1.3000001 4281087544
-0.14194128 -0.065157898 1.296 4281679681
-0.13807699 -0.065007076 1.2930001 4283192920
-0.13433315 -0.064906523 1.291 4281745731
-0.13049895 -0.064755693 1.2880001 4280693043
-0.12668115 -0.064604864 1.2850001 4280561457
-0.12307145 -0.064554587 1.284 4281943110
-0.11965346 -0.064604864 1.2850001 4283126873
-0.11623 -0.06465514 1.286 4283192666
-0.1128887 -0.064755693 1.2880001 4281153083
-0.10885719 -0.064454034 1.2820001 4280692532
-0.10494065 -0.064202651 1.2770001 4280692786
-0.10144868 -0.064202651 1.2770001 4282140232
-0.097726591 -0.064051829 1.274 4281416509
-0.094094887 -0.063951276 1.2720001 4283060821
-0.090189151 -0.063649617 1.266 4282007879
-0.086795762 -0.063699894 1.2670001 4280823605
-0.083528452 -0.063850723 1.2700001 4281679427
-0.080181696 -0.063951276 1.2720001 4280824118
-0.076643094 -0.063900992 1.271 4283061334
-0.073109969 -0.063850723 1.2700001 4283916643
-0.069472648 -0.063699894 1.2670001 4282008133
-0.066008024 -0.063699894 1.2670001 4282863442
-0.06259276 -0.06375017 1.268 4281744191
-0.059311915 -0.063951276 1.2720001 4281283642
-0.056009199 -0.064152375 1.276 4281414974
-0.052602284 -0.064252928 1.2780001 4280757814
-0.049299706 -0.06450431 1.2830001 4281547843
-0.04575564 -0.064454034 1.2820001 4281547582
-0.042315912 -0.064554587 1.284 4283127127
-0.038865246 -0.06465514 1.286 4283719264
-0.035541076 -0.065007076 1.2930001 4283390299
-0.032351892 -0.065710939 1.307 4282863701
-0.16237119 -0.062659889 1.3180001 4282732109
-0.1581648 -0.062422186 1.3130001 4281679167
-0.15398577 -0.062184475 1.3080001 4280890164
-0.14983407 -0.061946765 1.3030001 4280955957
-0.14593422 -0.061804146 1.3000001 4283127127
-0.14226985 -0.0617566 1.299 4282864212
-0.13839735 -0.061613973 1.296 4281745731
-0.13422911 -0.061328724 1.2900001 4280430643
-0.13009366 -0.061043475 1.284 4280430643
-0.12668115 -0.061091021 1.2850001 4281219389
-0.12307145 -0.061043475 1.284 4281943112
-0.11965346 -0.061091021 1.2850001 4282798421
-0.11568771 -0.06085331 1.2800001 4280889911
-0.11209989 -0.060805764 1.279 4280758325
-0.10834771 -0.060663145 1.276 4280824372
-0.10502283 -0.060758226 1.2780001 4282337611
-0.10144868 -0.060710683 1.2770001 4283192920
-0.097496465 -0.060425434 1.271 4282403404
-0.09379898 -0.060282812 1.268 4281219130
-0.090117902 -0.060140185 1.2650001 4280692532
-0.086727254 -0.060187727 1.266 4280692532
-0.083265364 -0.060187727 1.266 4280824631
-0.079866514 -0.060235269 1.2670001 4281285182
-0.076281294 -0.060140185 1.2650001 4283719264
-0.072879702 -0.060187727 1.266 4283061334
-0.069417812 -0.060187727 1.266 4281679168
-0.066060118 -0.060282812 1.268 4281547328
-0.062691487 -0.060377896 1.2700001 4280888884
-0.059311915 -0.060472976 1.2720001 4281086009
-0.055877518 -0.060520515 1.273 4281414974
-0.052396487 -0.060520515 1.273 4281613123
-0.048992306 -0.060615599 1.2750001 4282995287
-0.045505803 -0.060615599 1.2750001 4283850850
-0.042085215 -0.060710683 1.2770001 4282798162
-0.038683914 -0.06085331 1.2800001 4282337611
-0.035431124 -0.061281186 1.289 4281811267
-0.032228131 -0.061899226 1.302 4281482048
-0.1581648 -0.058831774 1.3130001 4281350202
-0.15386803 -0.058562927 1.307 4280692786
-0.14983407 -0.0583837 1.3030001 4281416766
-0.14627101 -0.0583837 1.3030001 4282732626
-0.14270793 -0.0583837 1.3030001 4281416766
-0.13861093 -0.058159668 1.2980001 4280627250
-0.13422911 -0.057801206 1.2900001 4280628022
-0.13039763 -0.05766679 1.2870001 4281220159
-0.12687832 -0.05766679 1.2870001 4282667605
-0.12345485 -0.057711594 1.2880001 4282337870
-0.11974657 -0.057621978 1.286 4281153596
-0.11568771 -0.057353139 1.2800001 4280298285
-0.11209989 -0.057308327 1.279 4280561200
-0.10860246 -0.057308327 1.279 4281744961
-0.1047763 -0.0571291 1.2750001 4281942340
-0.10121036 -0.057084296 1.274 4282534223
-0.097419761 -0.056905068 1.2700001 4280823605
-0.093872964 -0.056860257 1.2690001 4280823605
-0.090402871 -0.056860257 1.2690001 4280955704
-0.087138288 -0.05699468 1.2720001 4281219389
-0.083199598 -0.056681029 1.2650001 4283324765
-0.079740442 -0.056681029 1.2650001 4283061591
-0.076220989 -0.056636225 1.2640001 4281416766
-0.072822139 -0.056681029 1.2650001 4281087801
-0.069527477 -0.056815453 1.268 4280758579
-0.066372707 -0.057084296 1.274 4280955445
-0.06298767 -0.057173908 1.276 4281350203
-0.059358548 -0.057039484 1.273 4281152570
-0.055701938 -0.056860257 1.2690001 4282994774
-0.052273005 -0.056905068 1.2700001 4282864214
-0.048838601 -0.056949873 1.271 4282403663
-0.045470111 -0.057084296 1.274 4282534736
-0.042118173 -0.057263523 1.2780001 4281745220
-0.03877458 -0.057487562 1.2830001 4280955704
-0.035486102 -0.057846017 1.291 4281153083
-0.032277636 -0.058428511 1.304 4281153083
-0.15756251 -0.055030998 1.3080001 4280955445
-0.15327941 -0.054778565 1.302 4281613888
-0.14971907 -0.054778565 1.302 4283127127
-0.14615874 -0.054778565 1.302 4281877060
-0.1424889 -0.054736488 1.3010001 4280758579
-0.13797019 -0.054357834 1.2920001 4280495407
-0.13391694 -0.054147474 1.2870001 4280956217
-0.13029632 -0.054105401 1.286 4281877321
-0.12697689 -0.054189544 1.2880001 4282995802
-0.12307145 -0.054021254 1.284 4280364082
-0.11928099 -0.053895041 1.281 4280758325
-0.11568771 -0.053852964 1.2800001 4280824118
-0.11227518 -0.053895041 1.281 4282205771
-0.10843263 -0.053726744 1.2770001 4282929748
-0.10444759 -0.053474311 1.271 4282206025
-0.1007337 -0.053348094 1.268 4280890165
-0.097189635 -0.053306021 1.2670001 4280231981
-0.093872964 -0.053390164 1.2690001 4280560946
-0.090545341 -0.053474311 1.271 4281745220
-0.086590245 -0.053179804 1.2640001 4281876806
-0.083068058 -0.053137731 1.263 4283522144
-0.07967741 -0.053179804 1.2640001 4281877319
-0.076100387 -0.053095654 1.2620001 4281087803
-0.072764568 -0.053179804 1.2640001 4280824118
-0.069417812 -0.053263951 1.266 4280692532
-0.066008024 -0.053306021 1.2670001 4281284156
-0.06259276 -0.053348094 1.268 4282666063
-0.058985516 -0.053221874 1.2650001 4282008133
-0.055570252 -0.053263951 1.266 4283850083
-0.052108362 -0.053263951 1.266 4282272077
-0.048723325 -0.053348094 1.268 4281416768
-0.045363039 -0.053474311 1.271 4280758327
-0.042052262 -0.053684674 1.276 4280824118
-0.038744356 -0.053937111 1.2820001 4280889911
-0.035431124 -0.054231621 1.289 4281152570
-0.032030109 -0.054441981 1.294 4282205258
-0.028645778 -0.054736488 1.3010001 4283981923
-0.14627101 -0.051257569 1.3030001 4280626480
-0.14216033 -0.051060881 1.2980001 4280626993
-0.13786341 -0.050785512 1.291 4280692786
-0.13422911 -0.050746173 1.2900001 4283521631
-0.13090423 -0.050824847 1.2920001 4282995289
-0.12697689 -0.050667495 1.2880001 4281022012
-0.12316731 -0.050549485 1.2850001 4280627254
-0.11946723 -0.05047081 1.2830001 4280758325
-0.11604923 -0.050510146 1.284 4281876806
-0.11236283 -0.050431468 1.2820001 4281811013
-0.10834771 -0.050195441 1.276 4282863701
-0.10436542 -0.049959414 1.2700001 4280363567
-0.10081315 -0.049920071 1.2690001 4280955704
-0.097496465 -0.049998749 1.271 4280824118
-0.094464749 -0.050234776 1.2770001 4282139978
-0.091044016 -0.050274115 1.2780001 4283192666
-0.086521745 -0.049684044 1.263 4282468943
-0.083199598 -0.049762722 1.2650001 4281482048
-0.079866514 -0.049841397 1.2670001 4280692786
-0.076462187 -0.049880736 1.268 4280692786
-0.072994836 -0.049880736 1.268 4280626993
-0.069472648 -0.049841397 1.2670001 4280955958
-0.065903828 -0.049762722 1.2650001 4282468684
-0.062444672 -0.049762722 1.2650001 4283389786
-0.058985516 -0.049762722 1.2650001 4282665809
-0.055570252 -0.049802061 1.266 4281284671
-0.05219068 -0.049880736 1.268 4280956219
-0.048915453 -0.050077423 1.273 4280758838
-0.045577183 -0.050234776 1.2770001 4281087290
-0.042151131 -0.05031345 1.279 4280692786
-0.038714133 -0.050392132 1.281 4282600270
-0.035321176 -0.050549485 1.2850001 4282337098
-0.031906344 -0.050706837 1.289 4283652958
-0.028491654 -0.050903525 1.294 4282929235
-0.025068898 -0.051139556 1.3000001 4283061334
-0.14183176 -0.047401674 1.2950001 4280494894
-0.13786341 -0.047255259 1.291 4282139465
-0.13495748 -0.04747488 1.2970001 4283061080
-0.13070159 -0.047218654 1.2900001 4280758327
-0.12687832 -0.047108848 1.2870001 4280561461
-0.12326315 -0.047072239 1.286 4280495668
-0.11974657 -0.047072239 1.286 4282469458
-0.11586847 -0.046925828 1.2820001 4282995800
-0.11209989 -0.046816014 1.279 4281811526
-0.10809298 -0.046596393 1.273 4280692532
-0.10436542 -0.046486586 1.2700001 4280298028
-0.10081315 -0.046449978 1.2690001 4280298028
-0.097496465 -0.046523187 1.271 4281679681
-0.094316795 -0.046669599 1.2750001 4282534990
-0.090759061 -0.046632998 1.274 4283061080
-0.086453237 -0.046193752 1.2620001 4280692532
-0.083265364 -0.046340171 1.266 4281153083
-0.079992585 -0.046449978 1.2690001 4280758325
-0.076401889 -0.046376772 1.2670001 4280890165
-0.072879702 -0.046340171 1.266 4282666576
-0.069308147 -0.046266966 1.2640001 4281679681
-0.065695435 -0.046157151 1.261 4281810754
-0.062296581 -0.046193752 1.2620001 4282337098
-0.058845628 -0.046193752 1.2620001 4280823605
-0.055570252 -0.046340171 1.266 4281020984
-0.052231845 -0.046449978 1.2690001 4280692532
-0.048953876 -0.046632998 1.274 4280758325
-0.045541499 -0.046706207 1.276 4281482302
-0.042019304 -0.046669599 1.2750001 4282206025
-0.038593248 -0.046742808 1.2770001 4283192406
-0.035211228 -0.046889227 1.281 4282731855
-0.031856839 -0.047108848 1.2870001 4281679167
-0.028425597 -0.047255259 1.291 4281482302
-0.024953198 -0.047365069 1.294 4280758325
-0.1308029 -0.04372501 1.291 4280692534
-0.12717406 -0.04369114 1.2900001 4280495668
-0.12374239 -0.04372501 1.291 4280758840
-0.11983968 -0.043589529 1.2870001 4282469456
-0.11586847 -0.043420184 1.2820001 4282206284
-0.1119246 -0.04325084 1.2770001 4280495153
-0.10834771 -0.04321697 1.276 4280823605
-0.1047763 -0.043183103 1.2750001 4280757812
-0.10136925 -0.04321697 1.276 4283257946
-0.097880013 -0.04321697 1.276 4282863188
-0.094168857 -0.043115366 1.273 4281810500
-0.090189151 -0.042878281 1.266 4281349949
-0.086727254 -0.042878281 1.266 4280560435
-0.083396904 -0.042946018 1.268 4280692019
-0.080181696 -0.043081496 1.2720001 4280758325
-0.076341592 -0.042878281 1.266 4282271818
-0.072764568 -0.042810541 1.2640001 4282995541
-0.069253311 -0.042776674 1.263 4283324506
-0.065851726 -0.042810541 1.2640001 4281745474
-0.062444672 -0.042844411 1.2650001 4280626480
-0.059125397 -0.042946018 1.268 4280429360
-0.055877518 -0.043115366 1.273 4280626739
-0.052478805 -0.043183103 1.2750001 4281020984
-0.048953876 -0.043149233 1.274 4282666063
-0.045470111 -0.043149233 1.274 4282731856
-0.041986346 -0.043149233 1.274 4281942340
-0.038593248 -0.04325084 1.2770001 4282008133
-0.035211228 -0.043386318 1.281 4280889651
-0.031881589 -0.043623399 1.2880001 4281021751
-0.028425597 -0.04372501 1.291 4280824372
-0.024933912 -0.043792747 1.2930001 4280889911
-0.13060027 -0.040132489 1.289 4280823859
-0.11983968 -0.040070217 1.2870001 4281811526
-0.11577808 -0.039883409 1.281 4281219389
-0.1119246 -0.039758872 1.2770001 4280495407
-0.1082628 -0.039696604 1.2750001 4280560687
-0.10485848 -0.039727736 1.276 4280955191
-0.10136925 -0.039727736 1.276 4283126360
-0.097649887 -0.039634336 1.273 4283126360
-0.093872964 -0.039509792 1.2690001 4281613121
-0.090545341 -0.039572064 1.271 4281152572
-0.086932771 -0.039509792 1.2690001 4280363569
-0.083331138 -0.039447524 1.2670001 4280889398
-0.079740442 -0.039385255 1.2650001 4282732115
-0.076040082 -0.039260719 1.261 4280890165
-0.0725343 -0.039229583 1.2600001 4282008646
-0.069143645 -0.039260719 1.261 4280890165
-0.065799624 -0.039322987 1.263 4280429614
-0.06264212 -0.039509792 1.2690001 4281284923
-0.059265286 -0.039572064 1.271 4280495407
-0.055833619 -0.0396032 1.2720001 4281482302
-0.052314162 -0.039572064 1.271 4282271305
-0.048761752 -0.039509792 1.2690001 4281876547
-0.045398731 -0.0396032 1.2720001 4282666063
-0.041953389 -0.039634336 1.273 4281415996
-0.038683914 -0.039852276 1.2800001 4281152824
-0.035238713 -0.039914545 1.2820001 4280889652
-0.031832088 -0.040039081 1.286 4280955191
-0.028359542 -0.040101349 1.2880001 4280889911
-0.11595885 -0.036437303 1.2830001 4280758579
-0.11236283 -0.036408901 1.2820001 4280429614
-0.1089421 -0.036437303 1.2830001 4281613375
-0.10535154 -0.036408901 1.2820001 4282731602
-0.10152813 -0.036295302 1.2780001 4281547582
-0.097573183 -0.036124904 1.2720001 4281547328
-0.093946934 -0.0360681 1.2700001 4280429362
-0.090901546 -0.036238503 1.276 4280429362
-0.087412313 -0.036238503 1.276 4280824120
-0.083462678 -0.036039699 1.2690001 4282863188
-0.079803482 -0.035954501 1.266 4282797908
-0.076160684 -0.0358693 1.263 4282205771
-0.072649434 -0.035840902 1.2620001 4280955958
-0.069253311 -0.0358693 1.263 4280429614
-0.066112213 -0.036039699 1.2690001 4280495407
-0.062938303 -0.036210101 1.2750001 4280561200
-0.059405174 -0.036181703 1.274 4280823859
-0.055789724 -0.036096502 1.271 4282600270
-0.052273005 -0.0360681 1.2700001 4282599500
-0.048838601 -0.036096502 1.271 4281679168
-0.045470111 -0.036181703 1.274 4280560687
-0.042052262 -0.036238503 1.276 4280626480
-0.038744356 -0.036408901 1.2820001 4280823859
-0.035266202 -0.036437303 1.2830001 4280889652
-0.10868736 -0.032851931 1.2800001 4283126614
-0.10502283 -0.0328006 1.2780001 4282534477
-0.1012898 -0.032723602 1.2750001 4280955191
-0.097649887 -0.032672271 1.273 4280889398
-0.094316795 -0.032723602 1.2750001 4280428849
-0.090616591 -0.032646608 1.2720001 4280692021
-0.087001279 -0.032595273 1.2700001 4282336844
-0.083331138 -0.032518279 1.2670001 4282205512
-0.079740442 -0.032466948 1.2650001 4282731602
-0.076220989 -0.032441281 1.2640001 4280494894
-0.072706997 -0.032415617 1.263 4280560687
-0.069472648 -0.032518279 1.2670001 4280495407
-0.066164315 -0.032595273 1.2700001 4280363821
-0.062839575 -0.032672271 1.273 4281219130
-0.05921866 -0.032595273 1.2700001 4281284923
-0.055701938 -0.03256961 1.2690001 4282798162
-0.05219068 -0.032543942 1.268 4282271305
-0.048761752 -0.03256961 1.2690001 4281021238
-0.045363039 -0.03262094 1.271 4280692273
-0.041920435 -0.032646608 1.2720001 4280626480
-0.038593248 -0.032774933 1.2770001 4280823859
-0.097803295 -0.029237103 1.2750001 4280626480
-0.094316795 -0.029237103 1.2750001 4280494894
-0.090545341 -0.029145377 1.271 4282600016
-0.087138288 -0.02916831 1.2720001 4282534477
-0.083659992 -0.02916831 1.2720001 4282008133
-0.080118656 -0.029145377 1.271 4280560433
-0.076522492 -0.029099515 1.2690001 4280363054
-0.072937265 -0.029053653 1.2670001 4280232235
-0.069472648 -0.029053653 1.2670001 4280429614
-0.066060118 -0.029076584 1.268 4281482302
-0.06264212 -0.029099515 1.2690001 4282140232
-0.059172031 -0.029099515 1.2690001 4282403404
-0.055701938 -0.029099515 1.2690001 4281350716
