# .PCD v0.7 - Point Cloud Data file format
VERSION 0.7
FIELDS x y z rgba
SIZE 4 4 4 4
TYPE F F F U
COUNT 1 1 1 1
WIDTH 877
HEIGHT 1
VIEWPOINT 0 0 0 1 0 0 0
POINTS 877
DATA ascii
-0.49757025 -0.34714517 1.6840001 4279968801
-0.48517039 -0.34487757 1.6730001 4279903521
-0.48404273 -0.34735131 1.6850001 4279969571
-0.25170326 -0.34009936 1.6720001 4280100135
-0.57776767 -0.33372119 1.6630001 4280823088
-0.48781973 -0.3313131 1.651 4278917914
-0.4825604 -0.33392185 1.664 4278190080
-0.24476628 -0.33231646 1.6560001 4278190080
-0.24067315 -0.33291849 1.659 4280298027
-0.12220498 -0.33151376 1.6520001 4280824629
-0.018415356 -0.3335205 1.6620001 4278190080
0.10454404 -0.3343232 1.6660001 4279638817
0.12261944 -0.33392185 1.664 4278190080
0.14475901 -0.33251712 1.6570001 4281020468
0.21738745 -0.33271781 1.6580001 4278190080
-0.49047896 -0.32857987 1.6600001 4278190080
-0.484476 -0.3275902 1.6550001 4279772964
-0.47676036 -0.32541284 1.6440001 4278190080
-0.34006682 -0.32798606 1.6570001 4279771424
-0.24387945 -0.32660049 1.6500001 4278190080
-0.23528259 -0.3271943 1.6530001 4280231722
-0.12702924 -0.32778811 1.6560001 4281087801
-0.12094743 -0.32363138 1.6350001 4280693043
-0.1171889 -0.32561079 1.6450001 4280824629
-0.10885006 -0.3275902 1.6550001 4278190080
-0.013812182 -0.3275902 1.6550001 4278190080
-0.0092697339 -0.32699636 1.6520001 4280561457
-0.004772461 -0.32838193 1.659 4280495664
0.10366552 -0.32699636 1.6520001 4279441436
-0.47862127 -0.31916046 1.6350001 4279837987
-0.35131228 -0.32130772 1.646 4279837728
-0.347022 -0.32150292 1.6470001 4279706142
-0.12572518 -0.31994128 1.6390001 4280759606
-0.12057756 -0.31818444 1.6300001 4280562227
-0.11676146 -0.31994128 1.6390001 4280496436
-0.1122796 -0.31994128 1.6390001 4280693815
-0.10799505 -0.3205269 1.6420001 4280626739
-0.013670304 -0.31974608 1.6380001 4280693043
-0.0091518983 -0.31837964 1.631 4280495664
-0.0047178036 -0.32013649 1.6400001 4280758836
-0.35365161 -0.31488201 1.636 4279903521
-0.34768391 -0.31353471 1.6290001 4279705629
-0.34660059 -0.31661424 1.6450001 4279574045
-0.23820695 -0.31603685 1.6420001 4279969062
-0.12057756 -0.31372717 1.6300001 4278190080
-0.11619155 -0.31391963 1.631 4280430643
-0.11248512 -0.31603685 1.6420001 4280562229
-0.017949987 -0.31180248 1.6200001 4278190080
-0.013586847 -0.31334224 1.628 4280430641
-0.0091631208 -0.31430459 1.6330001 4280233262
-0.0047235573 -0.31603685 1.6420001 4280561457
0.098547935 -0.31603685 1.6420001 4278190080
-0.34960482 -0.31078783 1.6380001 4279639836
-0.017916745 -0.30680338 1.6170001 4280627250
-0.013536773 -0.30775204 1.6220001 4280628020
-0.0091238422 -0.30851099 1.626 4280233262
-0.022421338 -0.30350366 1.623 4280955958
-0.017983228 -0.30350366 1.623 4280562227
-0.013495043 -0.30238166 1.6170001 4280693813
0.22112834 -0.30275565 1.6190001 4278190080
0.22485892 -0.30182067 1.6140001 4278190080
-0.56387067 -0.29906556 1.623 4280758578
-0.022379892 -0.29851276 1.6200001 4281021751
-0.017894587 -0.29759142 1.6150001 4280430641
0.11423764 -0.29667008 1.6100001 4280626992
0.20720494 -0.29740715 1.6140001 4278190080
0.22513758 -0.29777569 1.6160001 4278190080
-0.11490924 -0.29281211 1.613 4280693043
-0.10562732 -0.2915414 1.6060001 4278190080
0.10997152 -0.29263058 1.6120001 4278190080
0.11409573 -0.29190448 1.608 4280692786
0.11775593 -0.29008913 1.598 4280758066
0.12243136 -0.29081526 1.6020001 4280758066
-0.11835834 -0.28607696 1.6 4280693815
-0.11398312 -0.28607696 1.6 4280759606
-0.10995044 -0.28697097 1.605 4280890422
-0.10536424 -0.28643456 1.6020001 4280824629
0.11359905 -0.28625578 1.6010001 4280626993
0.11731378 -0.2846466 1.5920001 4280626993
-0.11384064 -0.28134966 1.598 4281284156
-0.10503538 -0.28117356 1.5970001 4281020984
0.10881177 -0.28082147 1.595 4278190080
0.11324427 -0.28099751 1.5960001 4278190080
0.13481177 -0.28046933 1.5930001 4278190080
0.13942993 -0.28099751 1.5960001 4278190080
0.20925838 -0.28099751 1.5960001 4280823858
0.13803214 -0.27385998 1.58 4280757812
0.20399544 -0.27541992 1.5890001 4280889652
0.22543702 -0.27507329 1.5870001 4280495407
-0.24773543 -0.20115949 1.46 4291612103
-0.23334637 -0.19578604 1.4210001 4291546310
-0.2296221 -0.19592382 1.4220001 4291875275
-0.22608025 -0.20322619 1.475 4292335573
-0.24731296 -0.1906849 1.4120001 4291348929
-0.24052075 -0.18838911 1.3950001 4291480258
-0.2350093 -0.18703865 1.3850001 4291545279
-0.23022032 -0.18622838 1.3790001 4291742658
-0.22579257 -0.18568818 1.3750001 4291808451
-0.22203262 -0.18568818 1.3750001 4291611074
-0.21859017 -0.18595828 1.3770001 4291940039
-0.21513677 -0.18622838 1.3790001 4291874762
-0.21197899 -0.18676855 1.383 4291940555
-0.21000361 -0.18838911 1.3950001 4292137935
-0.21047534 -0.19230545 1.424 4292335826
-0.21180397 -0.1971671 1.46 4292598999
-0.21051599 -0.19973297 1.4790001 4292335826
-0.20744886 -0.2006783 1.4860001 4292072654
-0.20420659 -0.20148857 1.4920001 4291941068
-0.20066324 -0.20202877 1.4960001 4292006861
-0.27154779 -0.19595326 1.4810001 4290822845
-0.25702205 -0.1882792 1.4230001 4291085757
-0.24797216 -0.18444216 1.3940001 4291019705
-0.24153298 -0.18245749 1.3790001 4291281847
-0.23638277 -0.181399 1.3710001 4291413687
-0.23178533 -0.18073744 1.3660001 4291413687
-0.22738221 -0.18020819 1.3620001 4291676087
-0.22332938 -0.17994358 1.36 4291676087
-0.21977192 -0.18007588 1.3610001 4291741882
-0.21636774 -0.18034051 1.363 4291676091
-0.2126406 -0.18034051 1.363 4291742399
-0.2093733 -0.18073744 1.3660001 4292071366
-0.20624012 -0.18126668 1.3700001 4291808453
-0.20426752 -0.18285443 1.3820001 4291940039
-0.20309971 -0.18523604 1.4000001 4292072141
-0.20297214 -0.18867613 1.4260001 4292138447
-0.20200439 -0.19145466 1.447 4292269774
-0.20064802 -0.19396858 1.4660001 4292138186
-0.19784644 -0.19515939 1.475 4292334797
-0.19460143 -0.19595326 1.4810001 4292005832
-0.19119494 -0.19661482 1.4860001 4291940556
-0.2610966 -0.18451756 1.424 4290558902
-0.25178406 -0.18063027 1.3940001 4290821558
-0.24512598 -0.17855702 1.378 4290952883
-0.23978147 -0.17739083 1.3690001 4291150261
-0.23517585 -0.17674294 1.3640001 4291347122
-0.23076724 -0.17622463 1.36 4291347122
-0.22654749 -0.17583591 1.3570001 4291347122
-0.22250831 -0.17557675 1.355 4291412915
-0.21896455 -0.17570633 1.3560001 4291281331
-0.21557403 -0.17596549 1.358 4291610296
-0.21170457 -0.17583591 1.3570001 4291610812
-0.20830038 -0.17609505 1.3590001 4291676606
-0.20473471 -0.17622463 1.36 4291479227
-0.20205042 -0.17713168 1.3670001 4291939780
-0.1990377 -0.17777956 1.3720001 4291742660
-0.19685167 -0.17920491 1.383 4292071625
-0.19502427 -0.18101899 1.3970001 4292203981
-0.19476272 -0.184388 1.4230001 4292334797
-0.19502963 -0.18840487 1.4540001 4292071625
-0.19289324 -0.19021896 1.4680001 4291940039
-0.18977964 -0.19112599 1.475 4291940039
-0.18662775 -0.19203302 1.4820001 4291940555
-0.26815405 -0.18277995 1.4410001 4290756794
-0.25706279 -0.17783308 1.4020001 4290755763
-0.25015849 -0.17567676 1.3850001 4290689711
-0.24459232 -0.17440835 1.3750001 4290952882
-0.23960634 -0.17352045 1.368 4291018929
-0.23483102 -0.1727594 1.3620001 4291412917
-0.23059757 -0.17237885 1.3590001 4291543990
-0.22654749 -0.17212518 1.3570001 4291610037
-0.22283676 -0.17212518 1.3570001 4291544501
-0.21912603 -0.17212518 1.3570001 4291347894
-0.21573278 -0.17237885 1.3590001 4291676859
-0.21201658 -0.17237885 1.3590001 4291610812
-0.20860693 -0.17263255 1.3610001 4291545019
-0.20488526 -0.17263255 1.3610001 4291742399
-0.2014592 -0.17288624 1.363 4291808192
-0.19802222 -0.17313991 1.365 4291676354
-0.19500129 -0.17377414 1.3700001 4291742660
-0.19209263 -0.17453519 1.376 4292334797
-0.18983547 -0.17593046 1.3870001 4292203211
-0.18953018 -0.17922835 1.4130001 4292269004
-0.19065946 -0.18404835 1.4510001 4292466383
-0.18900764 -0.18633153 1.4690001 4292268751
-0.18599808 -0.18734626 1.4770001 4292137165
-0.27738154 -0.18231453 1.4690001 4290362037
-0.26331574 -0.1756127 1.4150001 4290493620
-0.2546792 -0.1723859 1.3890001 4290887603
-0.24907476 -0.17114483 1.3790001 4290689711
-0.2437029 -0.17002785 1.3700001 4290821296
-0.23890571 -0.1692832 1.3640001 4291150261
-0.23396894 -0.16841444 1.3570001 4291018929
-0.22991884 -0.16816624 1.355 4291084722
-0.22604665 -0.16804212 1.3540001 4291150515
-0.22250831 -0.16816624 1.355 4291413687
-0.21896455 -0.16829033 1.3560001 4291282101
-0.2154153 -0.16841444 1.3570001 4291610812
-0.21170457 -0.16841444 1.3570001 4291413433
-0.20814709 -0.16853856 1.358 4291808192
-0.20458418 -0.16866265 1.3590001 4291873985
-0.20101577 -0.16878676 1.36 4291873985
-0.19773206 -0.1691591 1.363 4291807940
-0.19443193 -0.16953142 1.3660001 4291808453
-0.191255 -0.17002785 1.3700001 4291808453
-0.18819307 -0.1706484 1.3750001 4292005832
-0.18590859 -0.17201358 1.386 4292071627
-0.18566631 -0.17536449 1.4130001 4292334799
-0.18694903 -0.1803288 1.4530001 4292006348
-0.18499064 -0.18231453 1.4690001 4292006349
-0.27115035 -0.17429221 1.4360001 4290559415
-0.26052442 -0.16992278 1.4000001 4290690740
-0.25394577 -0.16810217 1.3850001 4290953396
-0.24853291 -0.16700982 1.376 4290624428
-0.24334714 -0.16603883 1.368 4290690223
-0.23855543 -0.16531059 1.3620001 4290229672
-0.23396894 -0.16470371 1.3570001 4290624430
-0.22974917 -0.1643396 1.3540001 4290492844
-0.22587968 -0.16421823 1.353 4290690223
-0.22234412 -0.1643396 1.3540001 4290953395
-0.21864159 -0.1643396 1.3540001 4291216568
-0.21525654 -0.16458234 1.3560001 4291150775
-0.21170457 -0.16470371 1.3570001 4291479227
-0.20845364 -0.16506784 1.36 4291676606
-0.20488526 -0.16518921 1.3610001 4291413434
-0.2014592 -0.16543196 1.363 4291150262
-0.19802222 -0.1656747 1.365 4291742658
-0.19457428 -0.16591746 1.3670001 4291742401
-0.19139461 -0.16640295 1.3710001 4291808453
-0.1880562 -0.16676706 1.3740001 4291874762
-0.18510379 -0.16749531 1.3800001 4291808969
-0.18316975 -0.16919453 1.3940001 4291743176
-0.18373242 -0.17332123 1.4280001 4291940555
-0.18410914 -0.17744793 1.462 4291875276
-0.2779505 -0.17214505 1.4510001 4290888638
-0.26624095 -0.16728085 1.4100001 4290559413
-0.25866351 -0.16490807 1.3900001 4290230702
-0.25284564 -0.16360305 1.3790001 4290032808
-0.24799104 -0.16289121 1.373 4290427821
-0.24263559 -0.16182345 1.3640001 4289638050
-0.23802997 -0.16123027 1.3590001 4289901737
-0.2336241 -0.16075571 1.355 4290428081
-0.22957948 -0.16051844 1.353 4291480769
-0.22554581 -0.16028115 1.3510001 4291677894
-0.22168726 -0.16016252 1.35 4291414722
-0.21799567 -0.16016252 1.35 4291677635
-0.21462156 -0.16039979 1.3520001 4290559154
-0.21108052 -0.16051844 1.353 4291151289
-0.20768727 -0.16075571 1.355 4290558638
-0.20413256 -0.16087435 1.3560001 4290492845
-0.20086798 -0.16123027 1.3590001 4291019189
-0.197587 -0.16158618 1.3620001 4291808451
-0.19428961 -0.16194209 1.365 4291413693
-0.19111539 -0.16241665 1.3690001 4291546051
-0.18791933 -0.16289121 1.373 4291414465
-0.18483551 -0.16348441 1.378 4291348418
-0.18211856 -0.16443351 1.386 4291677383
-0.18077314 -0.16668765 1.4050001 4291743430
-0.18196833 -0.17143321 1.4450001 4291480264
-0.27296999 -0.16516376 1.4250001 4290560443
-0.26416388 -0.16215025 1.399 4290098862
-0.25810525 -0.16075939 1.3870001 4289375393
-0.25284564 -0.15983216 1.3790001 4288586134
-0.24781041 -0.15902083 1.3720001 4286678137
-0.24263559 -0.15809359 1.3640001 4282928708
-0.23785481 -0.15739816 1.358 4280297247
-0.23379652 -0.15716635 1.3560001 4280690978
-0.22957948 -0.15681864 1.353 4280230941
-0.22554581 -0.15658683 1.3510001 4280033562
-0.22152305 -0.15635502 1.3490001 4280888355
-0.21767272 -0.15623912 1.348 4280427291
-0.21430409 -0.15647094 1.35 4282072116
-0.21108052 -0.15681864 1.353 4288717209
-0.20784056 -0.15716635 1.3560001 4289375139
-0.20398201 -0.15705045 1.355 4289901224
-0.20086798 -0.15751407 1.3590001 4290492593
-0.197587 -0.15786178 1.3620001 4291413695
-0.19443193 -0.1583254 1.3660001 4291282107
-0.19111539 -0.15867311 1.3690001 4291217086
-0.18819307 -0.15936854 1.3750001 4291480004
-0.18510379 -0.15994807 1.3800001 4291480004
-0.18224995 -0.16075939 1.3870001 4291348418
-0.17987248 -0.16203433 1.3980001 4291283138
-0.17982754 -0.16551147 1.4280001 4291678158
-0.28075251 -0.16353047 1.4450001 4278190080
-0.2700966 -0.15956953 1.4100001 4290034101
-0.26265332 -0.15741931 1.391 4289573548
-0.25754699 -0.15662712 1.3840001 4286612863
-0.25211224 -0.15560859 1.3750001 4282731076
-0.24690732 -0.15470323 1.3670001 4280625959
-0.24174617 -0.15379786 1.3590001 4281152305
-0.23732936 -0.15334518 1.355 4280625963
-0.23345169 -0.15323202 1.3540001 4281218870
-0.22890075 -0.15266617 1.3490001 4280824112
-0.224878 -0.15243983 1.3470001 4280231975
-0.22053777 -0.15198715 1.3430001 4281218868
-0.21670385 -0.15187398 1.342 4280954926
-0.21335162 -0.15210032 1.3440001 4281152307
-0.21014446 -0.15243983 1.3470001 4281349684
-0.2070742 -0.1528925 1.3510001 4280559655
-0.20337987 -0.1528925 1.3510001 4285362026
-0.20027675 -0.15334518 1.355 4290362037
-0.19715178 -0.15379786 1.3590001 4290164144
-0.19400492 -0.15425055 1.363 4290690488
-0.1906966 -0.15459006 1.3660001 4291019453
-0.18778245 -0.15526907 1.3720001 4291480004
-0.18483551 -0.1559481 1.378 4291414211
-0.18198715 -0.15674028 1.3850001 4291545797
-0.17922917 -0.15764566 1.393 4291348931
-0.17768674 -0.15968271 1.411 4291283914
-0.17801698 -0.16353047 1.4450001 4279704607
-0.2786153 -0.15836433 1.434 4278190080
-0.26952192 -0.15538256 1.4070001 4288784293
-0.26284215 -0.15372604 1.3920001 4283915611
-0.25717482 -0.15262169 1.3820001 4281349684
-0.2519289 -0.1517382 1.3740001 4280823342
-0.24654609 -0.15074429 1.365 4281152054
-0.24192405 -0.1501921 1.36 4282599500
-0.23732936 -0.14963992 1.355 4282994258
-0.23345169 -0.1495295 1.3540001 4282270535
-0.22890075 -0.14897732 1.3490001 4283389786
-0.22471105 -0.14864601 1.3460001 4281679680
-0.22053777 -0.1483147 1.3430001 4282863954
-0.21670385 -0.14820427 1.342 4282534476
-0.21303414 -0.14820427 1.342 4281613374
-0.20983246 -0.14853558 1.345 4281021237
-0.2070742 -0.14919819 1.3510001 4281020467
-0.20368095 -0.14941905 1.353 4281744444
-0.20057239 -0.1498608 1.3570001 4280164897
-0.19729684 -0.1501921 1.36 4288387993
-0.19428961 -0.15074429 1.365 4291151553
-0.19111539 -0.15118602 1.3690001 4290427830
-0.18791933 -0.15162776 1.373 4290756281
-0.18496965 -0.15229037 1.3790001 4291283139
-0.18211856 -0.15306343 1.386 4291151553
-0.17922917 -0.15383647 1.393 4291414725
-0.17705709 -0.15527213 1.406 4291612365
-0.17616905 -0.15792258 1.4300001 4290231228
-0.27880958 -0.15455075 1.4350001 4278190080
-0.26971349 -0.15164281 1.4080001 4286218114
-0.26303095 -0.1500273 1.393 4278190080
-0.25643045 -0.14841178 1.378 4282468683
-0.2506454 -0.14722708 1.3670001 4284441704
-0.24528174 -0.14625777 1.358 4283191637
-0.24050097 -0.14561157 1.3520001 4283520602
-0.23592816 -0.14507306 1.3470001 4283389016
-0.23172753 -0.14474995 1.3440001 4282994258
-0.22737361 -0.14431916 1.34 4283455579
-0.22287464 -0.14378065 1.335 4283192920
-0.21938829 -0.14388835 1.3360001 4283521884
-0.21605793 -0.14410375 1.3380001 4283982435
-0.21271664 -0.14431916 1.34 4283390298
-0.20936443 -0.14453456 1.342 4283390298
-0.20661436 -0.14518076 1.348 4283323992
-0.20353039 -0.14561157 1.3520001 4281218616
-0.20027675 -0.14593467 1.355 4281021237
-0.19715178 -0.14636546 1.3590001 4280691502
-0.19414726 -0.14690398 1.3640001 4280164899
-0.19111539 -0.14744247 1.3690001 4288980645
-0.18778245 -0.14776558 1.3720001 4289901232
-0.1847014 -0.14830409 1.3770001 4290625209
-0.18172437 -0.14895029 1.383 4291217346
-0.17897184 -0.14981189 1.391 4291217346
-0.17655337 -0.15099661 1.4020001 4291217092
-0.1749371 -0.15293522 1.4200001 4291547088
-0.27105442 -0.14852738 1.4150001 4278190080
-0.2634086 -0.14642806 1.3950001 4283719264
-0.25587219 -0.14432874 1.3750001 4283389786
-0.24954528 -0.14285921 1.3610001 4280889652
-0.24419802 -0.1419145 1.3520001 4280823859
-0.23978944 -0.14149465 1.348 4280757296
-0.23522756 -0.14096981 1.3430001 4281217847
-0.23052061 -0.14034002 1.337 4280757296
-0.2265252 -0.14013007 1.335 4280559917
-0.2223738 -0.13981518 1.332 4281350203
-0.21905984 -0.14002511 1.3340001 4280166442
-0.21573497 -0.14023505 1.3360001 4280363821
-0.21255791 -0.14054994 1.3390001 4281613888
-0.2088964 -0.14054994 1.3390001 4282140232
-0.20615454 -0.14117974 1.345 4283784544
-0.20322932 -0.14170457 1.35 4282600270
-0.20072018 -0.14254431 1.358 4283718751
-0.19744192 -0.14285921 1.3610001 4281481019
-0.19457428 -0.143489 1.3670001 4280758066
-0.19139461 -0.14390887 1.3710001 4280822829
-0.18819307 -0.14432874 1.3750001 4286019960
-0.18496965 -0.1447486 1.3790001 4289506728
-0.18198715 -0.1453784 1.3850001 4290625209
-0.17897184 -0.14600819 1.391 4291414725
-0.17642744 -0.14705786 1.401 4291217092
-0.1744443 -0.14863235 1.416 4290889158
-0.26990506 -0.14404467 1.409 4278190080
-0.2609539 -0.14128441 1.3820001 4280889652
-0.25326693 -0.13913754 1.3610001 4280758066
-0.24716167 -0.13780852 1.348 4280363307
-0.24257244 -0.13729736 1.3430001 4281218616
-0.23818846 -0.13688843 1.3390001 4281021750
-0.2340015 -0.13658175 1.3360001 4280955445
-0.22965853 -0.13617282 1.332 4280560687
-0.2256768 -0.13596834 1.33 4280429101
-0.22170602 -0.13576388 1.3280001 4280758066
-0.21823879 -0.13586612 1.3290001 4280429614
-0.21460462 -0.13586612 1.3290001 4280560687
-0.21144669 -0.13617282 1.332 4281810754
-0.20796034 -0.13627505 1.3330001 4280758066
-0.20492832 -0.13668397 1.337 4280429101
-0.202025 -0.13719513 1.342 4281415996
-0.19998115 -0.13831969 1.353 4283127127
-0.19715178 -0.13893306 1.3590001 4282402891
-0.19443193 -0.13964871 1.3660001 4283323993
-0.191255 -0.14005762 1.3700001 4281152053
-0.18846682 -0.14077325 1.3770001 4280954415
-0.18537205 -0.14128441 1.3820001 4287072133
-0.18211856 -0.14169334 1.386 4289967279
-0.17884317 -0.14210226 1.3900001 4290690748
-0.17592372 -0.14281788 1.3970001 4290954174
-0.17395154 -0.14435136 1.4120001 4291020746
-0.26798949 -0.13919677 1.399 4280626480
-0.25887686 -0.13641085 1.3710001 4280560687
-0.25252259 -0.13501789 1.3570001 4282797648
-0.24697831 -0.13402291 1.3470001 4282929234
-0.24275307 -0.13372442 1.3440001 4282995027
-0.23854423 -0.13342592 1.3410001 4283258712
-0.23417664 -0.13302794 1.337 4282271817
-0.23000336 -0.13272944 1.3340001 4284245607
-0.22635552 -0.13272944 1.3340001 4284245608
-0.22254075 -0.13262995 1.3330001 4281416766
-0.21889564 -0.13262995 1.3330001 4283193177
-0.21492757 -0.13243096 1.3310001 4282403404
-0.21160544 -0.13262995 1.3330001 4281153083
-0.20780432 -0.13253045 1.332 4280560946
-0.20477507 -0.13292843 1.3360001 4280428847
-0.2017239 -0.13332643 1.34 4281021497
-0.19924213 -0.1341224 1.348 4280495153
-0.19628136 -0.13461989 1.353 4281613888
-0.1938626 -0.13551538 1.3620001 4283455325
-0.19139461 -0.13641085 1.3710001 4282796879
-0.18915114 -0.13750531 1.3820001 4281086261
-0.18617685 -0.13810231 1.388 4280953645
-0.18264414 -0.1383013 1.3900001 4288322715
-0.17922917 -0.13859978 1.393 4290032820
-0.17604965 -0.13909727 1.3980001 4290822334
-0.17395154 -0.14049023 1.4120001 4290691781
-0.26530766 -0.1340165 1.3850001 4283390045
-0.2577439 -0.13208126 1.365 4283587165
-0.25159213 -0.13082333 1.3520001 4283323993
-0.24624489 -0.12995248 1.3430001 4282271305
-0.24166934 -0.12946865 1.3380001 4281482302
-0.23765481 -0.12927513 1.3360001 4281811267
-0.2329506 -0.12869455 1.33 4281219130
-0.22862403 -0.12830751 1.3260001 4281416509
-0.22499807 -0.12830751 1.3260001 4281679938
-0.22187296 -0.1285978 1.3290001 4281679938
-0.21856721 -0.12879132 1.3310001 4283061591
-0.21492757 -0.12879132 1.3310001 4283587937
-0.21160544 -0.12898485 1.3330001 4282600531
-0.20811634 -0.12908161 1.3340001 4283784292
-0.20508161 -0.12946865 1.3380001 4282271564
-0.20157339 -0.12956542 1.3390001 4281218876
-0.1986509 -0.13004923 1.3440001 4280495153
-0.195556 -0.13043629 1.348 4281021751
-0.19286624 -0.13111362 1.355 4280494640
-0.190557 -0.13208126 1.365 4283389018
-0.18887742 -0.1335327 1.3800001 4283191637
-0.18657926 -0.13459709 1.391 4281283382
-0.18303834 -0.13479061 1.393 4281545784
-0.17935784 -0.13488737 1.3940001 4288059289
-0.17604965 -0.13527443 1.3980001 4290822595
-0.17382833 -0.13653234 1.411 4290625988
-0.27298081 -0.13210979 1.4050001 4283719012
-0.26262587 -0.12891282 1.3710001 4282995287
-0.25585565 -0.12740836 1.355 4281679168
-0.25028953 -0.12646808 1.345 4280363308
-0.24587819 -0.12609197 1.3410001 4281218617
-0.24130811 -0.12562183 1.3360001 4280758066
-0.23747692 -0.1255278 1.335 4280495407
-0.23224999 -0.12468154 1.3260001 4281087544
-0.22810678 -0.12439946 1.3230001 4280429614
-0.22431935 -0.12430543 1.322 4280955958
-0.22153907 -0.12477557 1.327 4280955958
-0.21856721 -0.12515168 1.3310001 4280890165
-0.21508905 -0.12524572 1.332 4280692532
-0.21176417 -0.12543377 1.3340001 4281547841
-0.20842837 -0.12562183 1.3360001 4281745220
-0.20523489 -0.1259039 1.3390001 4282666322
-0.202025 -0.126186 1.342 4283390045
-0.1987987 -0.12646808 1.345 4283652704
-0.1951208 -0.12646808 1.345 4280955191
-0.19229689 -0.12703225 1.3510001 4280757814
-0.18971939 -0.12778448 1.3590001 4281152572
-0.18819307 -0.12928893 1.3750001 4283192155
-0.18644512 -0.13069935 1.3900001 4284046948
-0.18382673 -0.1315456 1.399 4281085748
-0.18038715 -0.1318277 1.4020001 4285624950
-0.2679292 -0.12589416 1.3790001 4281152572
-0.25898626 -0.12342922 1.3520001 4280692786
-0.25377861 -0.12269887 1.3440001 4281087031
-0.2488008 -0.12205982 1.337 4280298028
-0.24477805 -0.12187723 1.335 4281021238
-0.24040499 -0.12151206 1.3310001 4280560687
-0.23676537 -0.12151206 1.3310001 4280889652
-0.23172453 -0.1207817 1.3230001 4280823859
-0.22758953 -0.12050783 1.3200001 4280757812
-0.22414966 -0.12059911 1.3210001 4281087031
-0.22103822 -0.120873 1.3240001 4280626480
-0.21758194 -0.12096429 1.325 4280495407
-0.21412019 -0.12105558 1.3260001 4280955958
-0.21065298 -0.12114688 1.327 4280626739
-0.20749231 -0.12142076 1.33 4280692532
-0.20416196 -0.12160335 1.332 4281482048
-0.20097122 -0.12187723 1.335 4281810500
-0.19791187 -0.1222424 1.3390001 4282402637
-0.1945405 -0.122425 1.3410001 4282731602
-0.19201221 -0.12315534 1.3490001 4283784290
-0.18930058 -0.1237944 1.3560001 4280560433
-0.18696125 -0.12470734 1.3660001 4281086779
-0.18496965 -0.12589416 1.3790001 4283059799
-0.18330114 -0.12735486 1.3950001 4283454811
-0.26540339 -0.120972 1.3660001 4281613636
-0.25822005 -0.11937793 1.348 4281744961
-0.25340098 -0.11884657 1.342 4282929235
-0.2488008 -0.11840378 1.337 4282995541
-0.24477805 -0.11822665 1.335 4283719264
-0.24094686 -0.1181381 1.3340001 4283718750
-0.23747692 -0.11822665 1.335 4282073156
-0.2329506 -0.11778386 1.33 4283454809
-0.22879645 -0.11751819 1.327 4283783776
-0.22499807 -0.11742962 1.3260001 4281809984
-0.22137211 -0.11742962 1.3260001 4283520602
-0.21791036 -0.11751819 1.327 4282271305
-0.21412019 -0.11742962 1.3260001 4281284410
-0.21065298 -0.11751819 1.327 4280758066
-0.20702429 -0.11751819 1.327 4280692019
-0.20370214 -0.11769531 1.3290001 4281218876
-0.20036905 -0.11787242 1.3310001 4280560946
-0.19746846 -0.11831522 1.3360001 4280626739
-0.19425036 -0.11858089 1.3390001 4282205258
-0.19201221 -0.11946649 1.3490001 4284244841
-0.18944019 -0.12017496 1.3570001 4282402637
-0.18709813 -0.12106056 1.3670001 4281415744
-0.18443312 -0.12176903 1.3750001 4280955191
-0.18264414 -0.12309742 1.3900001 4284375913
-0.27288225 -0.11886732 1.3850001 4283521120
-0.26307189 -0.11620677 1.3540001 4283718499
-0.25726223 -0.11526268 1.3430001 4282797395
-0.25264567 -0.11483356 1.3380001 4282205258
-0.2488008 -0.11474774 1.337 4281942340
-0.24386129 -0.11414696 1.33 4281284410
-0.23986316 -0.11397532 1.3280001 4281218617
-0.23587595 -0.11380366 1.3260001 4281744960
-0.2326003 -0.11397532 1.3280001 4281678398
-0.22879645 -0.11388949 1.327 4282007363
-0.22482839 -0.11371783 1.325 4281875777
-0.22070433 -0.11346036 1.322 4283454809
-0.21725351 -0.11354619 1.3230001 4283850337
-0.21395873 -0.11371783 1.325 4281876547
-0.21081173 -0.11397532 1.3280001 4283981923
-0.20718031 -0.11397532 1.3280001 4283982436
-0.20354888 -0.11397532 1.3280001 4281021751
-0.20006797 -0.11406115 1.3290001 4280890165
-0.19732064 -0.11457609 1.335 4280758325
-0.19410528 -0.11483356 1.3380001 4280692019
-0.19144288 -0.11543434 1.345 4280692273
-0.18874216 -0.1160351 1.3520001 4282600270
-0.18668753 -0.11706501 1.3640001 4283784290
-0.18403071 -0.1177516 1.3720001 4281678914
-0.18185575 -0.11878151 1.3840001 4281942086
-0.26972982 -0.11375058 1.3690001 4282007881
-0.26171187 -0.1119226 1.3470001 4280757812
-0.25630444 -0.11117478 1.3380001 4280889398
-0.25189036 -0.11084242 1.3340001 4280692273
-0.24787036 -0.11067625 1.332 4281218617
-0.24312787 -0.1101777 1.3260001 4280561200
-0.23877944 -0.10984534 1.322 4280495407
-0.23498653 -0.10976225 1.3210001 4281087544
-0.2315494 -0.10984534 1.322 4280626480
-0.22810678 -0.10992844 1.3230001 4281546812
-0.22397998 -0.10967917 1.3200001 4282007363
-0.22020349 -0.10959607 1.319 4280757296
-0.21676087 -0.10967917 1.3200001 4280560687
-0.21395873 -0.11009461 1.325 4281744961
-0.21081173 -0.11034389 1.3280001 4282337611
-0.20718031 -0.11034389 1.3280001 4283522142
-0.20400867 -0.11059316 1.3310001 4282469454
-0.20082067 -0.11084242 1.3340001 4283916900
-0.19791187 -0.11125787 1.3390001 4281942853
-0.19439542 -0.11134097 1.34 4281087544
-0.19130053 -0.11167333 1.3440001 4280692532
-0.18832336 -0.11208878 1.3490001 4280758325
-0.18641379 -0.11316895 1.3620001 4282139980
-0.18389659 -0.11391677 1.3710001 4284113770
-0.26677445 -0.10880171 1.3540001 4281087292
-0.26015753 -0.10759637 1.3390001 4280692019
-0.25496352 -0.10695352 1.3310001 4281547328
-0.25075746 -0.10671246 1.3280001 4281942340
-0.24693993 -0.1066321 1.327 4282140232
-0.24239446 -0.10623032 1.322 4281811267
-0.23823757 -0.10598926 1.319 4281219130
-0.23445287 -0.1059089 1.3180001 4281811267
-0.23084879 -0.1059089 1.3180001 4281876547
-0.22741713 -0.10598926 1.319 4281415226
-0.22330126 -0.10574819 1.3160001 4280889652
-0.21936874 -0.10558748 1.314 4280691503
-0.21577559 -0.10558748 1.314 4280955445
-0.21298985 -0.10598926 1.319 4281218876
-0.20985927 -0.10623032 1.322 4280824120
-0.20671228 -0.10647138 1.325 4280758836
-0.2032423 -0.10655174 1.3260001 4281285180
-0.20021851 -0.10687316 1.33 4281943110
-0.19717284 -0.10719459 1.3340001 4282206282
-0.19425036 -0.10759637 1.3390001 4283390558
-0.19115819 -0.10791779 1.3430001 4282666322
-0.18804416 -0.10823921 1.3470001 4280297774
-0.18531886 -0.10880171 1.3540001 4280824120
-0.18268938 -0.10944455 1.3620001 4282863703
-0.27347335 -0.1062635 1.3690001 4282468947
-0.26598632 -0.1047887 1.35 4283981671
-0.26015753 -0.10393486 1.3390001 4283060567
-0.25496352 -0.10331389 1.3310001 4284310888
-0.2503798 -0.10292578 1.3260001 4283060821
-0.24656776 -0.10284816 1.325 4283324506
-0.24294452 -0.10284816 1.325 4283785057
-0.23914067 -0.10277054 1.3240001 4282469196
-0.23534229 -0.10269292 1.3230001 4283456092
-0.23119909 -0.10246006 1.3200001 4283192920
-0.22758953 -0.10246006 1.3200001 4282534990
-0.22364062 -0.10230482 1.3180001 4283192407
-0.22003654 -0.10230482 1.3180001 4283323993
-0.21626823 -0.10222719 1.317 4281482302
-0.21315132 -0.10246006 1.3200001 4282008646
-0.20985927 -0.1026153 1.322 4280495153
-0.20655626 -0.10277054 1.3240001 4280692532
-0.20308904 -0.10284816 1.325 4280561459
-0.19991745 -0.10308103 1.3280001 4280693045
-0.19672941 -0.10331389 1.3310001 4281219389
-0.19410528 -0.10385723 1.3380001 4281548354
-0.19144288 -0.10440059 1.345 4283061082
-0.18846297 -0.1047887 1.35 4283192668
-0.18559259 -0.10525442 1.3560001 4281153085
-0.18268938 -0.10572015 1.3620001 4280889915
-0.271276 -0.1016962 1.358 4283521892
-0.26460713 -0.1005729 1.3430001 4283324767
-0.25899175 -0.099824034 1.3330001 4281876806
-0.25381419 -0.099224932 1.325 4281547582
-0.24924685 -0.098850511 1.3200001 4281679168
-0.2456373 -0.098850511 1.3200001 4281284923
-0.2422111 -0.098925389 1.3210001 4280824372
-0.23914067 -0.099150054 1.3240001 4281745473
-0.23498653 -0.098925389 1.3210001 4281548094
-0.23102394 -0.098775618 1.319 4281679680
-0.2272447 -0.098700732 1.3180001 4281679680
-0.2238103 -0.098775618 1.319 4283455578
-0.22003654 -0.098700732 1.3180001 4282797648
-0.21610403 -0.09855096 1.3160001 4281876547
-0.21298985 -0.098775618 1.319 4282995541
-0.21001799 -0.099075168 1.3230001 4283323993
-0.20671228 -0.099224932 1.325 4282271818
-0.20308904 -0.099224932 1.325 4283521885
-0.19961634 -0.099299826 1.3260001 4280889911
-0.19643381 -0.099524491 1.3290001 4280824633
-0.19352499 -0.099898912 1.3340001 4280758840
-0.19073118 -0.10034824 1.34 4280890172
-0.18804416 -0.10087244 1.3470001 4282600790
-0.18545571 -0.10147154 1.355 4282798423
-0.18295765 -0.10214552 1.3640001 4282666837
-0.26887885 -0.097116917 1.3460001 4281416516
-0.26283386 -0.096251078 1.3340001 4280824379
-0.25763172 -0.095673859 1.3260001 4281087290
-0.25343108 -0.095457412 1.3230001 4280824118
-0.24905804 -0.095168799 1.319 4281416509
-0.24507903 -0.095024489 1.317 4280626993
-0.24147767 -0.095024489 1.317 4280626993
-0.23805696 -0.095096648 1.3180001 4281219130
-0.23391922 -0.094880193 1.3150001 4280758579
-0.23014818 -0.094808035 1.314 4280429871
-0.22655503 -0.094808035 1.314 4281548352
-0.22330126 -0.094952345 1.3160001 4280890165
-0.21970265 -0.094952345 1.3160001 4280758579
-0.21626823 -0.095024489 1.317 4281548095
-0.21298985 -0.095168799 1.319 4281876547
-0.21001799 -0.095457412 1.3230001 4282205512
-0.20655626 -0.095529564 1.3240001 4282205512
-0.20354888 -0.095818169 1.3280001 4283916130
-0.20006797 -0.095890328 1.3290001 4283784544
-0.19717284 -0.096251078 1.3340001 4281811013
-0.19381516 -0.096395388 1.3360001 4281284669
-0.19073118 -0.096683994 1.34 4281021499
-0.18762535 -0.096972607 1.3440001 4280890426
-0.18504511 -0.097549818 1.3520001 4281745735
-0.18268938 -0.098271348 1.3620001 4284114283
-0.27438197 -0.094061017 1.355 4281087551
-0.26688126 -0.092742085 1.3360001 4281087551
-0.26165172 -0.092186742 1.3280001 4281021758
-0.25704882 -0.091839649 1.3230001 4281021499
-0.25304797 -0.091700815 1.3210001 4281547841
-0.24924685 -0.091631405 1.3200001 4281613121
-0.24507903 -0.091423139 1.317 4280823859
-0.24129434 -0.091353729 1.3160001 4281350203
-0.23733446 -0.091214895 1.314 4281350203
-0.23320766 -0.091006644 1.3110001 4281152824
-0.22962272 -0.091006644 1.3110001 4280758578
-0.22638263 -0.091145471 1.3130001 4280955957
-0.22279221 -0.091145471 1.3130001 4280824372
-0.21903485 -0.091076054 1.312 4280758579
-0.21511875 -0.09093722 1.3100001 4281219130
-0.21169801 -0.091006644 1.3110001 4280823859
-0.2085893 -0.091214895 1.314 4280889398
-0.20515217 -0.091284312 1.3150001 4281547328
-0.20232266 -0.091631405 1.3200001 4281218617
-0.19916473 -0.091839649 1.3230001 4282073926
-0.19643381 -0.092256166 1.3290001 4282665809
-0.19352499 -0.092603244 1.3340001 4283719010
-0.19044651 -0.092880912 1.3380001 4282469458
-0.18748574 -0.093228005 1.3430001 4280890426
-0.18449765 -0.093575098 1.348 4280890426
-0.18188459 -0.094130434 1.3560001 4281416770
-0.27316698 -0.089955658 1.3490001 4281679431
-0.26708099 -0.089155458 1.337 4283258463
-0.26204577 -0.088688679 1.33 4282468947
-0.25763172 -0.088421941 1.3260001 4283258974
-0.25343108 -0.088221893 1.3230001 4283719012
-0.25000215 -0.088288575 1.3240001 4282863190
-0.24582338 -0.088088527 1.3210001 4283389786
-0.2418444 -0.087955162 1.319 4283587165
-0.23769572 -0.087755114 1.3160001 4282402891
-0.23391922 -0.087688431 1.3150001 4282995028
-0.23032333 -0.087688431 1.3150001 4283258712
-0.22689988 -0.087755114 1.3160001 4281942850
-0.22313157 -0.087688431 1.3150001 4282469197
-0.21953569 -0.087688431 1.3150001 4281745474
-0.21577559 -0.087621748 1.314 4281284923
-0.21218245 -0.087621748 1.314 4280758325
-0.20874806 -0.087688431 1.3150001 4281087290
-0.20515217 -0.087688431 1.3150001 4281482302
-0.20186283 -0.087821797 1.317 4280626993
-0.19871311 -0.088021845 1.3200001 4280758327
-0.19599038 -0.088421941 1.3260001 4281547843
-0.19323486 -0.088822044 1.332 4280955706
-0.19030416 -0.089155458 1.337 4282403665
-0.18748574 -0.089555554 1.3430001 4283324513
-0.18449765 -0.089888975 1.348 4281877321
-0.26728076 -0.085563369 1.3380001 4284245358
-0.26165172 -0.084923886 1.3280001 4282666324
-0.25685456 -0.084540188 1.322 4282732117
-0.25266486 -0.084348343 1.319 4282074187
-0.24905804 -0.084348343 1.319 4281942601
-0.24507903 -0.084220447 1.317 4282468430
-0.24129434 -0.084156498 1.3160001 4282205258
-0.23733446 -0.084028602 1.314 4282402637
-0.23374131 -0.084028602 1.314 4283587165
-0.23032333 -0.08409255 1.3150001 4282863442
-0.2272447 -0.084284395 1.3180001 4283456092
-0.22347093 -0.084220447 1.317 4283587165
-0.21986958 -0.084220447 1.317 4282863442
-0.21577559 -0.084028602 1.314 4283521118
-0.21218245 -0.084028602 1.314 4283652704
-0.20874806 -0.08409255 1.3150001 4281942599
-0.20530818 -0.084156498 1.3160001 4281547841
-0.20186283 -0.084220447 1.317 4280758325
-0.19856258 -0.084348343 1.319 4280824120
-0.19569479 -0.084668085 1.3240001 4280889913
-0.19236442 -0.084795982 1.3260001 4280626741
-0.18930782 -0.085051782 1.33 4280889913
-0.18678774 -0.085563369 1.3380001 4283916138
-0.26668149 -0.081720948 1.335 4280758329
-0.26106066 -0.081108809 1.325 4281613636
-0.25646594 -0.080802739 1.3200001 4281021499
-0.25209019 -0.080557883 1.3160001 4281153085
-0.2481139 -0.080435455 1.314 4281613123
-0.24433468 -0.080374241 1.3130001 4281086779
-0.2405609 -0.080313027 1.312 4281284158
-0.23697323 -0.080313027 1.312 4281020986
-0.23320766 -0.080251813 1.3110001 4280889400
-0.22997303 -0.080374241 1.3130001 4281284156
-0.22672746 -0.080496669 1.3150001 4280889398
-0.22296189 -0.080435455 1.314 4281021238
-0.21936874 -0.080435455 1.314 4281613375
-0.21577559 -0.080435455 1.314 4281942086
-0.21282837 -0.080680311 1.3180001 4282929496
-0.20970051 -0.080863953 1.3210001 4283258461
-0.20624425 -0.080925167 1.322 4282139980
-0.20293577 -0.081047595 1.3240001 4283061082
-0.19931528 -0.081047595 1.3240001 4282074700
-0.1961382 -0.081231236 1.327 4281482563
-0.1925095 -0.081231236 1.327 4280495668
-0.18930782 -0.081414886 1.33 4280824633
-0.18664813 -0.081843376 1.337 4280889915
-0.2654829 -0.077719502 1.3290001 4280955708
-0.26027253 -0.077251665 1.3210001 4281350464
-0.25588307 -0.077017747 1.317 4280824120
-0.25170705 -0.076842308 1.314 4281152572
-0.24773626 -0.076725349 1.312 4281086779
-0.24377641 -0.07660839 1.3100001 4280889400
-0.23982748 -0.07649143 1.3080001 4281020986
-0.23625074 -0.07649143 1.3080001 4281020988
-0.23231824 -0.076374471 1.3060001 4280757816
-0.22892213 -0.076432951 1.307 4280955195
-0.22552054 -0.07649143 1.3080001 4280758329
-0.2219438 -0.07649143 1.3080001 4280757814
-0.21820012 -0.076432951 1.307 4281415744
-0.21462612 -0.076432951 1.307 4281086777
-0.21137506 -0.07654991 1.309 4280758327
-0.20827182 -0.076725349 1.312 4281350464
-0.20515217 -0.076900788 1.3150001 4281219391
-0.20232266 -0.077193186 1.3200001 4282666837
-0.19886366 -0.077251665 1.3210001 4282863703
-0.19584259 -0.077485584 1.325 4283587424
-0.1925095 -0.077602543 1.327 4283719012
-0.18930782 -0.077777989 1.33 4281416255
-0.26588243 -0.07419683 1.3310001 4282073674
-0.26086363 -0.073806614 1.3240001 4282468432
-0.25646594 -0.073583633 1.3200001 4283060567
-0.25228173 -0.073416397 1.317 4282204744
-0.24830273 -0.073304914 1.3150001 4283257432
-0.24433468 -0.073193423 1.3130001 4282731602
-0.24037755 -0.073081926 1.3110001 4281744709
-0.23679261 -0.073081926 1.3110001 4282994776
-0.23320766 -0.073081926 1.3110001 4282863190
-0.22979788 -0.073137671 1.312 4281284158
-0.22621021 -0.073137671 1.312 4282402637
-0.22228317 -0.07302618 1.3100001 4281284158
-0.21870096 -0.07302618 1.3100001 4281152572
-0.21495454 -0.072970435 1.309 4280889400
-0.21153654 -0.07302618 1.3100001 4280626741
-0.20811307 -0.073081926 1.3110001 4281218878
-0.20484015 -0.073193423 1.3130001 4280758840
-0.20186283 -0.073416397 1.317 4280955706
-0.19856258 -0.073527887 1.319 4281218878
-0.19584259 -0.073862359 1.325 4281284669
-0.19294472 -0.074141085 1.33 4283126873
-0.26125768 -0.070292145 1.3260001 4283126360
-0.25685456 -0.070080101 1.322 4283323739
-0.25247329 -0.069868058 1.3180001 4282205512
-0.24849157 -0.069762036 1.3160001 4282928465
-0.24433468 -0.069603011 1.3130001 4282731856
-0.2405609 -0.069549993 1.312 4282402891
-0.23715386 -0.069603011 1.3130001 4282731856
-0.23356345 -0.069603011 1.3130001 4283323993
-0.23032333 -0.069709033 1.3150001 4282336328
-0.22655503 -0.069656014 1.314 4283257430
-0.22262253 -0.069549993 1.312 4283060051
-0.2188679 -0.069496982 1.3110001 4282271305
-0.21511875 -0.069443978 1.3100001 4283389532
-0.21137506 -0.06939096 1.309 4283126360
-0.20795433 -0.069443978 1.3100001 4280955191
-0.20421611 -0.06939096 1.309 4280824372
-0.20124975 -0.069603011 1.3130001 4280626739
-0.19780986 -0.069656014 1.314 4281284671
-0.19495577 -0.069921069 1.319 4280560948
-0.1920743 -0.070186123 1.3240001 4280889913
-0.25228173 -0.066213705 1.317 4281219130
-0.24849157 -0.066163421 1.3160001 4281152824
-0.24470685 -0.066113152 1.3150001 4281021751
-0.24129434 -0.066163421 1.3160001 4281613888
-0.23733446 -0.066062868 1.314 4280955445
-0.23374131 -0.066062868 1.314 4281152824
-0.23032333 -0.066113152 1.3150001 4281481789
-0.22707228 -0.066213705 1.317 4281481789
-0.22330126 -0.066163421 1.3160001 4282205512
-0.21970265 -0.066163421 1.3160001 4281876547
-0.21610403 -0.066163421 1.3160001 4283060821
-0.21250542 -0.066163421 1.3160001 4282797649
-0.2089068 -0.066163421 1.3160001 4282402891
-0.20499615 -0.066062868 1.314 4283455579
-0.20170957 -0.066163421 1.3160001 4282600270
-0.19811095 -0.066163421 1.3160001 4281284671
-0.25189862 -0.06251727 1.3150001 4281021751
-0.2481139 -0.062469725 1.314 4280824372
-0.24433468 -0.062422186 1.3130001 4280626993
-0.2401942 -0.06227956 1.3100001 4280955958
-0.23607014 -0.062136933 1.307 4281021238
-0.23249614 -0.062136933 1.307 4281021237
-0.22892213 -0.062136933 1.307 4280889651
-0.22552054 -0.062184475 1.3080001 4280758066
-0.22211348 -0.062232014 1.309 4281415996
-0.21853401 -0.062232014 1.309 4280955445
-0.21479031 -0.062184475 1.3080001 4281152824
-0.21153654 -0.06227956 1.3100001 4281679168
-0.2085893 -0.062469725 1.314 4281942340
-0.24037755 -0.058742154 1.3110001 4281087544
-0.23607014 -0.058562927 1.307 4281284922
-0.23231824 -0.058518123 1.3060001 4281021750
-0.22874698 -0.058518123 1.3060001 4281021750
-0.22534813 -0.058562927 1.307 4280758065
-0.22177412 -0.058562927 1.307 4280824372
-0.21836706 -0.058607738 1.3080001 4280495407
-0.21462612 -0.058562927 1.307 4280561200
-0.21137506 -0.058652543 1.309 4280889652
