# .PCD v0.7 - Point Cloud Data file format
VERSION 0.7
FIELDS x y z rgba
SIZE 4 4 4 4
TYPE F F F U
COUNT 1 1 1 1
WIDTH 1139
HEIGHT 1
VIEWPOINT 0 0 0 1 0 0 0
POINTS 1139
DATA ascii
-0.22688974 0.19873346 1.0910001 4280626228
-0.22329071 0.19818701 1.0880001 4280363569
-0.21910058 0.19709407 1.082 4280232496
-0.21554255 0.19654758 1.079 4280364080
-0.21160689 0.19563681 1.074 4280100908
-0.20886432 0.19581895 1.075 4280364080
-0.20554161 0.19545464 1.0730001 4280100908
-0.20336278 0.19618328 1.077 4280298285
-0.20060378 0.19636542 1.0780001 4280232492
-0.19783935 0.19654758 1.079 4280232492
-0.19452758 0.19618328 1.077 4280232492
-0.19176038 0.19636542 1.0780001 4280232492
-0.18933803 0.1969119 1.0810001 4280232494
-0.18586478 0.19636542 1.0780001 4278521365
-0.18308666 0.19654758 1.079 4280099886
-0.18047002 0.1969119 1.0810001 4294573567
-0.17767823 0.19709407 1.082 4293981437
-0.17439654 0.19672975 1.08 4294113023
-0.17160201 0.1969119 1.0810001 4294047230
-0.16880201 0.19709407 1.082 4294113277
-0.16645637 0.19782268 1.0860001 4294047484
-0.16333616 0.19764054 1.085 4294047484
-0.16036922 0.19764054 1.085 4294113277
-0.1572572 0.19745837 1.0840001 4293981691
-0.15472001 0.19800484 1.087 4293981691
-0.15174758 0.19800484 1.087 4294047484
-0.14863831 0.19782268 1.0860001 4294113277
-0.14566863 0.19782268 1.0860001 4294113277
-0.14283036 0.19800484 1.087 4294047484
-0.13985795 0.19800484 1.087 4294113277
-0.13688552 0.19800484 1.087 4294113277
-0.13378991 0.19782268 1.0860001 4294113277
-0.13094071 0.19800484 1.087 4294047484
-0.12773284 0.19764054 1.085 4294047484
-0.1246509 0.19745837 1.0840001 4293981691
-0.12179895 0.19764054 1.085 4294047484
-0.11894153 0.19782268 1.0860001 4293981691
-0.11618543 0.19818701 1.0880001 4294113277
-0.11310624 0.19800484 1.087 4294113277
-0.10972854 0.1972762 1.0830001 4294113277
-0.10676707 0.1972762 1.0830001 4294047484
-0.10380559 0.1972762 1.0830001 4294047484
-0.10121658 0.19800484 1.087 4294179070
-0.098153785 0.19782268 1.0860001 4294113277
-0.095271759 0.19800484 1.087 4294047484
-0.092129521 0.19764054 1.085 4293981691
-0.089244761 0.19782268 1.0860001 4294047484
-0.086116195 0.19745837 1.0840001 4293981691
-0.083228692 0.19764054 1.085 4294113277
-0.080261752 0.19764054 1.085 4293981691
-0.077508524 0.19818701 1.0880001 4293981691
-0.074533381 0.19818701 1.0880001 4293981691
-0.071624003 0.19836916 1.0890001 4294047484
-0.068457015 0.19782268 1.0860001 4293915898
-0.065427035 0.19764054 1.085 4294047484
-0.062402528 0.19745837 1.0840001 4294573567
-0.059438318 0.19745837 1.0840001 4289112755
-0.05642201 0.1972762 1.0830001 4278782743
-0.053460535 0.1972762 1.0830001 4280427054
-0.05045243 0.19709407 1.082 4292598759
-0.047669273 0.19782268 1.0860001 4294835711
-0.044658434 0.19764054 1.085 4294177789
-0.041614641 0.1972762 1.0830001 4294046973
-0.038617473 0.19709407 1.082 4294046971
-0.035724647 0.19745837 1.0840001 4293981691
-0.032760438 0.19745837 1.0840001 4293981691
-0.029823717 0.19764054 1.085 4293981437
-0.026856774 0.19764054 1.085 4293915898
-0.023911851 0.19782268 1.0860001 4293915898
-0.020961456 0.19800484 1.087 4293915898
-0.018022142 0.19836916 1.0890001 4293981691
-0.014975187 0.19745837 1.0840001 4294047484
-0.012033139 0.19782268 1.0860001 4294047484
-0.0090718074 0.19800484 1.087 4293981691
-0.0061050067 0.19818701 1.0880001 4293915898
-0.0031298599 0.19818701 1.0880001 4293981691
-0.00015485563 0.19836916 1.0890001 4293915898
0.0028230255 0.19836916 1.0890001 4293915898
0.0058009066 0.19836916 1.0890001 4293981691
0.0087868487 0.19855133 1.09 4293981691
0.01175667 0.19836916 1.0890001 4293915898
0.014721019 0.19818701 1.0880001 4293981691
0.017696166 0.19818701 1.0880001 4294047230
0.020652313 0.19800484 1.087 4293981437
0.023624726 0.19800484 1.087 4294047484
0.026572667 0.19782268 1.0860001 4293981691
0.029542346 0.19782268 1.0860001 4293915898
0.03254196 0.19800484 1.087 4293850105
0.035449032 0.19764054 1.085 4293981691
0.038380567 0.19745837 1.0840001 4293915898
0.041306634 0.1972762 1.0830001 4293981691
0.04434986 0.19764054 1.085 4293915898
0.047360409 0.19782268 1.0860001 4293981691
0.050283745 0.19764054 1.085 4293915898
0.053152531 0.1972762 1.0830001 4293915898
0.056062192 0.19709407 1.082 4293850105
0.059020933 0.19709407 1.082 4293850105
0.061865106 0.19672975 1.08 4293915898
0.064878389 0.1969119 1.0810001 4293850105
0.067897148 0.19709407 1.082 4293915898
0.07098686 0.19745837 1.0840001 4293915898
0.073882848 0.1972762 1.0830001 4293915898
0.076915272 0.19745837 1.0840001 4293915898
0.080026865 0.19782268 1.0860001 4293915898
0.083072968 0.19800484 1.087 4293915644
0.086124539 0.19818701 1.0880001 4293915644
0.088935897 0.19782268 1.0860001 4293850105
0.0916517 0.1972762 1.0830001 4293850105
0.094525807 0.19709407 1.082 4293718519
0.097574644 0.1972762 1.0830001 4293850105
0.10062894 0.19745837 1.0840001 4293784312
0.10330646 0.1969119 1.0810001 4293850105
0.10616416 0.19672975 1.08 4293850105
0.10921846 0.1969119 1.0810001 4293915385
0.11227825 0.19709407 1.082 4293784312
0.11513048 0.1969119 1.0810001 4293849851
0.11775877 0.19636542 1.0780001 4293719037
0.12059459 0.19618328 1.077 4294376959
0.12342496 0.19600111 1.0760001 4294442751
0.12636729 0.19600111 1.0760001 4282468945
0.12942979 0.19618328 1.077 4278653464
0.13262069 0.19654758 1.079 4280429875
0.13569686 0.19672975 1.08 4294508543
0.13865013 0.19672975 1.08 4293653755
0.14134118 0.19636542 1.0780001 4293719035
0.14469053 0.1969119 1.0810001 4293850105
0.1479197 0.1972762 1.0830001 4293850105
-0.3591544 0.20060748 1.085 4294047484
-0.35618746 0.20060748 1.085 4294113277
-0.35289496 0.20042259 1.0840001 4294113277
-0.3505764 0.20079236 1.0860001 4294113277
-0.34760672 0.20079236 1.0860001 4294113277
-0.34400234 0.20042259 1.0840001 4294113277
-0.34103811 0.20042259 1.0840001 4294047484
-0.33776206 0.20023768 1.0830001 4294113277
-0.33480057 0.20023768 1.0830001 4293982207
-0.33153269 0.2000528 1.082 4293785854
-0.32827026 0.1998679 1.0810001 4293720575
-0.3247124 0.19949812 1.079 4294049791
-0.32116544 0.19912834 1.077 4285826447
-0.31822038 0.19912834 1.077 4278851617
-0.31556803 0.19931322 1.0780001 4279839281
-0.31146026 0.19857366 1.074 4280035631
-0.30852339 0.19857366 1.074 4280035885
-0.30644011 0.19912834 1.077 4280167469
-0.30377683 0.19931322 1.0780001 4280035113
-0.30110809 0.19949812 1.079 4280166699
-0.29788125 0.19931322 1.0780001 4280100906
-0.29465985 0.19912834 1.077 4280166699
-0.29036051 0.19820389 1.072 4280100906
-0.28689283 0.19783409 1.0700001 4280232235
-0.28317076 0.19727944 1.067 4280232235
-0.28130364 0.19801898 1.0710001 4280232234
-0.27889484 0.19838877 1.0730001 4280232234
-0.27698946 0.19912834 1.077 4280166441
-0.27378991 0.19894345 1.0760001 4280035113
-0.27034417 0.19857366 1.074 4280166699
-0.26641136 0.19783409 1.0700001 4280298028
-0.26348543 0.19783409 1.0700001 4280363308
-0.26104656 0.19820389 1.072 4280494126
-0.25859672 0.19857366 1.074 4280690226
-0.25613594 0.19894345 1.0760001 4279440159
-0.25342891 0.19912834 1.077 4288453800
-0.25048384 0.19912834 1.077 4294901503
-0.24799846 0.19949812 1.079 4294309373
-0.24504793 0.19949812 1.079 4294112764
-0.24209738 0.19949812 1.079 4294178557
-0.2389252 0.19931322 1.0780001 4294047484
-0.2359774 0.19931322 1.0780001 4294113277
-0.23324578 0.19949812 1.079 4294639359
-0.23050869 0.19968303 1.08 4279375391
-0.2277661 0.1998679 1.0810001 4280495155
-0.22439417 0.19949812 1.079 4280231983
-0.22123839 0.19931322 1.0780001 4280364080
-0.21788561 0.19894345 1.0760001 4280232494
-0.21434399 0.19838877 1.0730001 4280035885
-0.21042474 0.19746432 1.0680001 4279970092
-0.20769857 0.19764921 1.069 4280167471
-0.20496693 0.19783409 1.0700001 4280167471
-0.20279631 0.19857366 1.074 4280233262
-0.20004551 0.19875854 1.075 4280101676
-0.19673921 0.19838877 1.0730001 4280101678
-0.19362448 0.19820389 1.072 4280364850
-0.19069308 0.19820389 1.072 4280429364
-0.18811199 0.19857366 1.074 4280231478
-0.18465787 0.19801898 1.0710001 4282928734
-0.18206857 0.19838877 1.0730001 4294639359
-0.17963529 0.19894345 1.0760001 4294113023
-0.17685717 0.19912834 1.077 4294047484
-0.17391211 0.19912834 1.077 4294047230
-0.17096704 0.19912834 1.077 4293981691
-0.16817798 0.19931322 1.0780001 4294047484
-0.16553673 0.19968303 1.08 4294047484
-0.16258346 0.19968303 1.08 4294047484
-0.15963019 0.19968303 1.08 4293981691
-0.15667692 0.19968303 1.08 4294047484
-0.15400831 0.2000528 1.082 4294113277
-0.15104957 0.2000528 1.082 4294113277
-0.14795397 0.1998679 1.0810001 4294047484
-0.14472969 0.19949812 1.079 4294113277
-0.14191057 0.19968303 1.08 4294113277
-0.13895729 0.19968303 1.08 4293981691
-0.13625588 0.2000528 1.082 4294113277
-0.13317394 0.1998679 1.0810001 4293981691
-0.13021794 0.1998679 1.0810001 4293981691
-0.12702648 0.19949812 1.079 4294047484
-0.12396096 0.19931322 1.0780001 4294047484
-0.12123767 0.19968303 1.08 4294047484
-0.11839392 0.1998679 1.0810001 4293981691
-0.11565149 0.20023768 1.0830001 4294113277
-0.11258596 0.2000528 1.082 4294047484
-0.10942459 0.19968303 1.08 4293981691
-0.10647132 0.19968303 1.08 4294047484
-0.1036139 0.1998679 1.0810001 4294113277
-0.10093724 0.20042259 1.0840001 4294047484
-0.097882643 0.20023768 1.0830001 4294047484
-0.094833523 0.2000528 1.082 4294047484
-0.091874786 0.2000528 1.082 4294047484
-0.088916048 0.2000528 1.082 4294047484
-0.085877866 0.1998679 1.0810001 4294047484
-0.082921863 0.1998679 1.0810001 4293981691
-0.080039829 0.2000528 1.082 4293981691
-0.077223569 0.20042259 1.0840001 4293981691
-0.074190855 0.20023768 1.0830001 4293981691
-0.07116361 0.2000528 1.082 4293981691
-0.068141833 0.1998679 1.0810001 4293850105
-0.065125525 0.19968303 1.08 4294705151
-0.062114689 0.19949812 1.079 4288784044
-0.059054486 0.19912834 1.077 4279506977
-0.056109421 0.19912834 1.077 4280625458
-0.053263079 0.19949812 1.079 4280691253
-0.050359175 0.19968303 1.08 4279835431
-0.047669273 0.20079236 1.0860001 4279769124
-0.044576112 0.20023768 1.0830001 4292204001
-0.041499361 0.19968303 1.08 4294769919
-0.038439021 0.19912834 1.077 4294111996
-0.035625778 0.1998679 1.0810001 4293981178
-0.032669771 0.1998679 1.0810001 4293915898
-0.029741254 0.2000528 1.082 4293981691
-0.026757762 0.1998679 1.0810001 4293915898
-0.023801757 0.1998679 1.0810001 4293981691
-0.020903604 0.20042259 1.0840001 4293915898
-0.017955944 0.20060748 1.085 4293915898
-0.014906114 0.19949812 1.079 4293981691
-0.011977738 0.1998679 1.0810001 4294047484
-0.0090300785 0.2000528 1.082 4293981691
-0.0060713394 0.2000528 1.082 4293981691
-0.0031097231 0.1998679 1.0810001 4293915898
-0.00015386024 0.2000528 1.082 4293915898
0.0028048793 0.2000528 1.082 4293915898
0.005758292 0.1998679 1.0810001 4293981691
0.0087142969 0.1998679 1.0810001 4293981691
0.011659506 0.19968303 1.08 4294047484
0.014626307 0.1998679 1.0810001 4293915898
0.017614841 0.20023768 1.0830001 4293981691
0.020576315 0.20023768 1.0830001 4293981691
0.023516057 0.2000528 1.082 4293981691
0.026450329 0.1998679 1.0810001 4293915898
0.029433537 0.2000528 1.082 4293915898
0.032392275 0.2000528 1.082 4293981691
0.035318341 0.1998679 1.0810001 4293981691
0.038203534 0.19949812 1.079 4293981691
0.041115928 0.19931322 1.0780001 4293981691
0.044186357 0.1998679 1.0810001 4293915898
0.047098752 0.19968303 1.08 4293915898
0.050005682 0.19949812 1.079 4293915898
0.052907135 0.19931322 1.0780001 4293915898
0.055906754 0.19949812 1.079 4293981691
0.058857288 0.19949812 1.079 4293915898
0.061750539 0.19931322 1.0780001 4293850105
0.06457831 0.19894345 1.0760001 4293915898
0.067520641 0.19894345 1.0760001 4293981691
0.070528463 0.19912834 1.077 4293915898
0.073541746 0.19931322 1.0780001 4293850105
0.076489545 0.19931322 1.0780001 4293915898
0.079584725 0.19968303 1.08 4293915898
0.082461573 0.19949812 1.079 4293915898
0.08549127 0.19968303 1.08 4293915898
0.088362649 0.19949812 1.079 4293915898
0.091228552 0.19931322 1.0780001 4293850105
0.094176352 0.19931322 1.0780001 4293850105
0.097034059 0.19912834 1.077 4293850105
0.099979125 0.19912834 1.077 4293915898
0.10282863 0.19894345 1.0760001 4293850105
0.10586926 0.19912834 1.077 4293915898
0.10891537 0.19931322 1.0780001 4293850105
0.11175939 0.19912834 1.077 4293915898
0.11470446 0.19912834 1.077 4293915898
0.11732181 0.19857366 1.074 4293915898
0.12037065 0.19875854 1.075 4293850105
0.12331025 0.19875854 1.075 4293915644
0.12624985 0.19875854 1.075 4294179583
0.12906927 0.19857366 1.074 4293193204
0.13212904 0.19875854 1.075 4292206311
0.13531993 0.19912834 1.077 4293784830
0.138265 0.19912834 1.077 4293719035
0.14081672 0.19857366 1.074 4293915898
0.14388743 0.19875854 1.075 4293784312
-0.35388947 0.20226103 1.0780001 4294047484
-0.35126722 0.20244867 1.079 4294047484
-0.34896231 0.20282391 1.0810001 4294047484
-0.34632638 0.20301154 1.082 4294047482
-0.34336764 0.20301154 1.082 4294047484
-0.34072351 0.20319915 1.0830001 4294179070
-0.33776206 0.20319915 1.0830001 4294047484
-0.33480057 0.20319915 1.0830001 4294047484
-0.33122626 0.20282391 1.0810001 4293916412
-0.32735926 0.20226103 1.0780001 4293785341
-0.32380956 0.20188577 1.0760001 4293654783
-0.31997263 0.2013229 1.0730001 4294246399
-0.31674305 0.20113528 1.072 4294115327
-0.31322616 0.20076001 1.0700001 4279049766
-0.31030023 0.20076001 1.0700001 4278852387
-0.30794886 0.20113528 1.072 4279905074
-0.30587104 0.20169814 1.075 4279904558
-0.30264968 0.20151053 1.074 4279970092
-0.29971281 0.20151053 1.074 4280035883
-0.29677594 0.20151053 1.074 4280035883
-0.29356548 0.2013229 1.0730001 4280101676
-0.28954792 0.2005724 1.069 4280035113
-0.2863566 0.20038477 1.0680001 4280035113
-0.28317076 0.20019716 1.067 4280166442
-0.28130364 0.20094764 1.0710001 4280100648
-0.278375 0.20094764 1.0710001 4280363820
-0.27621788 0.20151053 1.074 4280100648
-0.27353546 0.20169814 1.075 4280232747
-0.27009243 0.2013229 1.0730001 4280100906
-0.26641136 0.20076001 1.0700001 4280298285
-0.2632392 0.2005724 1.069 4280298028
-0.26129004 0.2013229 1.0730001 4280100649
-0.25835592 0.2013229 1.0730001 4280362540
-0.25518376 0.20113528 1.072 4280559919
-0.25248766 0.2013229 1.0730001 4280690994
-0.25048384 0.20207341 1.077 4279703329
-0.24776861 0.20226103 1.0780001 4287927454
-0.2448208 0.20226103 1.0780001 4294901503
-0.24187301 0.20226103 1.0780001 4294243582
-0.23870358 0.20207341 1.077 4294573567
-0.23619631 0.20244867 1.079 4286810000
-0.23324578 0.20244867 1.079 4279310368
-0.2307221 0.20282391 1.0810001 4280494642
-0.22692332 0.20207341 1.077 4280364080
-0.22335435 0.20151053 1.074 4280298287
-0.22000703 0.20113528 1.072 4280429873
-0.21707563 0.20113528 1.072 4280101676
-0.21414424 0.20113528 1.072 4280233262
-0.21081878 0.20076001 1.0700001 4280035883
-0.20750427 0.20038477 1.0680001 4280035885
-0.20496693 0.20076001 1.0700001 4280101678
-0.20222983 0.20094764 1.0710001 4280167471
-0.19967334 0.2013229 1.0730001 4280101678
-0.19637251 0.20094764 1.0710001 4280101424
-0.19362448 0.20113528 1.072 4280692793
-0.19069308 0.20113528 1.072 4280626230
-0.18741138 0.20076001 1.0700001 4289047734
-0.18465787 0.20094764 1.0710001 4294639359
-0.18206857 0.2013229 1.0730001 4294047230
-0.17963529 0.20188577 1.0760001 4294047231
-0.17685717 0.20207341 1.077 4294113277
-0.17391211 0.20207341 1.077 4294047484
-0.17112578 0.20226103 1.0780001 4294113277
-0.16802198 0.20207341 1.077 4294113277
-0.16538344 0.20244867 1.079 4293981691
-0.16243291 0.20244867 1.079 4294179070
-0.15963019 0.20263629 1.08 4294113277
-0.15653184 0.20244867 1.079 4294047484
-0.15400831 0.20301154 1.082 4294113277
-0.15104957 0.20301154 1.082 4294047484
-0.14809084 0.20301154 1.082 4293981691
-0.14472969 0.20244867 1.079 4294113277
-0.14177915 0.20244867 1.079 4294113277
-0.13844264 0.20188577 1.0760001 4293981691
-0.13587809 0.20244867 1.079 4294047484
-0.13292755 0.20244867 1.079 4294113277
-0.13009748 0.20263629 1.08 4294113277
-0.12679103 0.20207341 1.077 4294047484
-0.12384596 0.20207341 1.077 4294113277
-0.12123767 0.20263629 1.08 4294047484
-0.11839392 0.20282391 1.0810001 4294179070
-0.11543792 0.20282391 1.0810001 4294113277
-0.11248191 0.20282391 1.0810001 4294113277
-0.10932326 0.20244867 1.079 4294047484
-0.10647132 0.20263629 1.08 4294047484
-0.1036139 0.20282391 1.0810001 4293981691
-0.10093724 0.20338678 1.0840001 4293981691
-0.097882643 0.20319915 1.0830001 4294047484
-0.094658241 0.20263629 1.08 4294047484
-0.091450229 0.20207341 1.077 4293981691
-0.088587336 0.20226103 1.0780001 4294047484
-0.085639536 0.20226103 1.0780001 4294047484
-0.082845151 0.20263629 1.08 4293981691
-0.079891883 0.20263629 1.08 4293981691
-0.077152327 0.20319915 1.0830001 4294113277
-0.073985338 0.20263629 1.08 4293981691
-0.070966296 0.20244867 1.079 4293981691
-0.06795273 0.20226103 1.0780001 4294639615
-0.065065227 0.20244867 1.079 4286941840
-0.062114689 0.20244867 1.079 4279244573
-0.059109323 0.20226103 1.0780001 4280428847
-0.056005228 0.20169814 1.075 4280560433
-0.052966904 0.2013229 1.0730001 4280428847
-0.050219286 0.20207341 1.077 4280428849
-0.047449801 0.20282391 1.0810001 4280691253
-0.044329152 0.20207341 1.077 4279704358
-0.041230384 0.2013229 1.0730001 4280493615
-0.038331944 0.20151053 1.074 4293060078
-0.03559282 0.20263629 1.08 4294770687
-0.032609329 0.20244867 1.079 4293915385
-0.029686281 0.20263629 1.08 4294112764
-0.026708258 0.20244867 1.079 4293981178
-0.023779741 0.20263629 1.08 4293981691
-0.020845752 0.20282391 1.0810001 4294113277
-0.017889747 0.20282391 1.0810001 4294047484
-0.014892299 0.20226103 1.0780001 4293981691
-0.011955578 0.20244867 1.079 4294113277
-0.0090050418 0.20244867 1.079 4294047484
-0.0060601169 0.20263629 1.08 4293981691
-0.0031039696 0.20244867 1.079 4293981691
-0.00015343363 0.20244867 1.079 4293915898
0.0027971023 0.20244867 1.079 4293981691
0.0057476382 0.20244867 1.079 4293981691
0.0086901132 0.20226103 1.0780001 4293981691
0.011637915 0.20226103 1.0780001 4293981691
0.014599246 0.20244867 1.079 4293981691
0.017598577 0.20301154 1.082 4293981691
0.020519318 0.20263629 1.08 4293981691
0.023472589 0.20263629 1.08 4293981691
0.026352454 0.20207341 1.077 4293915898
0.029351925 0.20244867 1.079 4293981691
0.032272525 0.20226103 1.0780001 4293915898
0.03528567 0.20263629 1.08 4293915898
0.038168125 0.20226103 1.0780001 4293915898
0.041039649 0.20188577 1.0760001 4293981691
0.044022854 0.20207341 1.077 4293981691
0.046967924 0.20207341 1.077 4293915898
0.050052024 0.20263629 1.08 4293850105
0.053005293 0.20263629 1.08 4293850105
0.056010377 0.20282391 1.0810001 4293850105
0.058857288 0.20244867 1.079 4293915898
0.061865106 0.20263629 1.08 4294047484
0.064698339 0.20226103 1.0780001 4293915898
0.06758339 0.20207341 1.077 4293915898
0.070462972 0.20188577 1.0760001 4293915898
0.073405311 0.20188577 1.0760001 4293850105
0.076418594 0.20207341 1.077 4293850105
0.079511039 0.20244867 1.079 4293850105
0.082538001 0.20263629 1.08 4293981691
0.085332952 0.20226103 1.0780001 4293981691
0.088116966 0.20188577 1.0760001 4293850105
0.091059305 0.20188577 1.0760001 4293850105
0.094088987 0.20207341 1.077 4293915898
0.097124159 0.20226103 1.0780001 4293915898
0.099979125 0.20207341 1.077 4293915898
0.10282863 0.20188577 1.0760001 4293850105
0.10596756 0.20226103 1.0780001 4293915898
0.1090164 0.20244867 1.079 4293915898
0.11196694 0.20244867 1.079 4293915898
0.11470446 0.20207341 1.077 4293915898
0.11743105 0.20169814 1.075 4293850105
0.12037065 0.20169814 1.075 4293850105
0.12342496 0.20188577 1.0760001 4293850105
0.1261324 0.20151053 1.074 4293784312
0.12894909 0.2013229 1.0730001 4293915898
0.13200612 0.20151053 1.074 4293850105
0.13519429 0.20188577 1.0760001 4293850105
0.13813663 0.20188577 1.0760001 4293784312
0.14068562 0.2013229 1.0730001 4293915898
0.14375359 0.20151053 1.074 4293850105
-0.34632638 0.20597029 1.082 4294047482
-0.34336764 0.20597029 1.082 4294113275
-0.34103811 0.206351 1.0840001 4294113277
-0.33776206 0.20616063 1.0830001 4293850105
-0.33480057 0.20616063 1.0830001 4293981691
-0.33122626 0.20577991 1.0810001 4293981178
-0.32827026 0.20577991 1.0810001 4293850105
-0.3247124 0.2053992 1.079 4293916414
-0.32086724 0.20482811 1.0760001 4293982719
-0.31703851 0.20425703 1.0730001 4293588991
-0.31322616 0.20368594 1.0700001 4294180863
-0.31088027 0.20406668 1.072 4293590527
-0.30823612 0.20425703 1.0730001 4278193942
-0.30530199 0.20425703 1.0730001 4279905075
-0.30124068 0.20349559 1.069 4279905074
-0.2988756 0.2038763 1.0710001 4280101935
-0.29649961 0.20425703 1.0730001 4280102189
-0.29383907 0.20444739 1.074 4280167469
-0.28954792 0.20349559 1.069 4280035113
-0.2863566 0.20330523 1.0680001 4280100906
-0.28290537 0.2029245 1.0660001 4280100906
-0.281041 0.20368594 1.0700001 4280100648
-0.278375 0.2038763 1.0710001 4280034855
-0.27621788 0.20444739 1.074 4280166441
-0.27353546 0.20463774 1.075 4280166954
-0.26807871 0.20273414 1.0650001 4280101161
-0.26466849 0.20235342 1.0630001 4280166954
-0.26225421 0.20273414 1.0650001 4280100906
-0.25982898 0.20311488 1.067 4280100906
-0.2564297 0.20273414 1.0650001 4280231981
-0.25304136 0.20235342 1.0630001 4280428847
-0.25036988 0.2025438 1.064 4280626226
-0.24885581 0.20368594 1.0700001 4280559665
-0.24592988 0.20368594 1.0700001 4280559408
-0.24368528 0.20425703 1.0730001 4279506720
-0.24075115 0.20425703 1.0730001 4294639359
-0.23781702 0.20425703 1.0730001 4282599248
-0.2351018 0.20444739 1.074 4279441954
-0.23130026 0.20368594 1.0700001 4280626741
-0.22837433 0.20368594 1.0700001 4280363569
-0.22502701 0.20330523 1.0680001 4280100908
-0.22210656 0.20330523 1.0680001 4280166701
-0.21877564 0.2029245 1.0660001 4280167469
-0.21606314 0.20311488 1.067 4280101676
-0.21354496 0.20349559 1.069 4280167469
-0.21042474 0.20330523 1.0680001 4280167471
-0.2069214 0.20273414 1.0650001 4280101678
-0.20439225 0.20311488 1.067 4280167471
-0.20166336 0.20330523 1.0680001 4280232496
-0.19967334 0.20425703 1.0730001 4280232496
-0.19655588 0.20406668 1.072 4280166449
-0.19362448 0.20406668 1.072 4280165937
-0.18998154 0.20330523 1.0680001 4284705141
-0.18688592 0.20311488 1.067 4294574079
-0.18431304 0.20349559 1.069 4294047230
-0.18189891 0.20406668 1.072 4293915646
-0.17946833 0.20463774 1.075 4294047484
-0.17636454 0.20444739 1.074 4294047484
-0.17342767 0.20444739 1.074 4294047484
-0.1704908 0.20444739 1.074 4294179070
-0.16755395 0.20444739 1.074 4294047484
-0.16492362 0.20482811 1.0760001 4294047484
-0.16168022 0.20444739 1.074 4294113277
-0.15889116 0.20463774 1.075 4294047484
-0.15595156 0.20463774 1.075 4294113277
-0.15329663 0.20501848 1.077 4294113277
-0.15035157 0.20501848 1.077 4294047484
-0.1474065 0.20501848 1.077 4294047484
-0.14419317 0.20463774 1.075 4294047484
-0.14112218 0.20444739 1.074 4293981691
-0.13779932 0.2038763 1.0710001 4293981691
-0.13512251 0.20425703 1.0730001 4294047484
-0.13243477 0.20463774 1.075 4294047484
-0.12949517 0.20463774 1.075 4294047484
-0.12643786 0.20444739 1.074 4294047484
-0.123501 0.20444739 1.074 4294047484
-0.12078863 0.20482811 1.0760001 4293981691
-0.11773679 0.20463774 1.075 4294113277
-0.11479719 0.20463774 1.075 4293981691
-0.11175354 0.20444739 1.074 4294047484
-0.10881668 0.20444739 1.074 4294047484
-0.10578122 0.20425703 1.0730001 4294113277
-0.1030388 0.20463774 1.075 4294047484
-0.1000992 0.20463774 1.075 4294113277
-0.097249977 0.20482811 1.0760001 4293915898
-0.094132356 0.20444739 1.074 4293981691
-0.091195494 0.20444739 1.074 4294047484
-0.088176452 0.20425703 1.0730001 4294047484
-0.085242324 0.20425703 1.0730001 4294113277
-0.082384899 0.20444739 1.074 4294047484
-0.079522014 0.20463774 1.075 4294047484
-0.076653652 0.20482811 1.0760001 4293981691
-0.073642813 0.20463774 1.075 4293915898
-0.070637442 0.20444739 1.074 4294573567
-0.067637548 0.20425703 1.0730001 4285559933
-0.064643115 0.20406668 1.072 4279770403
-0.061596587 0.20368594 1.0700001 4280428847
-0.058561001 0.20330523 1.0680001 4280429360
-0.05548425 0.20273414 1.0650001 4280232235
-0.052621357 0.2029245 1.0660001 4280232492
-0.049846258 0.20349559 1.069 4280298285
-0.047010854 0.2038763 1.0710001 4280363567
-0.043917555 0.20311488 1.067 4280560433
-0.040999833 0.20311488 1.067 4280757298
-0.038260564 0.20406668 1.072 4279967782
-0.03542804 0.20463774 1.075 4283388505
-0.032427996 0.20425703 1.0730001 4294704895
-0.029411409 0.20368594 1.0700001 4294639103
-0.026510237 0.2038763 1.0710001 4294112764
-0.023603594 0.20406668 1.072 4293915385
-0.020730052 0.20463774 1.075 4293981691
-0.017807001 0.20482811 1.0760001 4294047484
-0.014850855 0.20463774 1.075 4293981691
-0.011900176 0.20444739 1.074 4293915898
-0.008963313 0.20444739 1.074 4293981691
-0.0060376721 0.20482811 1.0760001 4293915898
-0.0030924629 0.20463774 1.075 4293981691
-0.00015258044 0.20425703 1.0730001 4293915898
0.0027815485 0.20425703 1.0730001 4293915898
0.0057156775 0.20425703 1.0730001 4293915898
0.0086498065 0.20425703 1.0730001 4293981691
0.01157314 0.20406668 1.072 4293915898
0.014518065 0.20425703 1.0730001 4293915898
0.017484723 0.20463774 1.075 4293915898
0.020386323 0.20425703 1.0730001 4293981691
0.023342187 0.20444739 1.074 4293981691
0.026205642 0.2038763 1.0710001 4293981691
0.029215913 0.20444739 1.074 4293981691
0.032092899 0.20406668 1.072 4293915898
0.035122309 0.20463774 1.075 4293981691
0.038026504 0.20444739 1.074 4293981691
0.040848941 0.2038763 1.0710001 4293915898
0.043736726 0.20368594 1.0700001 4293981691
0.046706263 0.2038763 1.0710001 4293981691
0.0498203 0.20463774 1.075 4293850105
0.052759897 0.20463774 1.075 4293915898
0.055751313 0.20482811 1.0760001 4293915898
0.058639094 0.20463774 1.075 4293915898
0.061750539 0.20520882 1.0780001 4293850105
0.06457831 0.20482811 1.0760001 4293981691
0.067457885 0.20463774 1.075 4293981691
0.070266515 0.20425703 1.0730001 4293850105
0.073268868 0.20444739 1.074 4293915898
0.076347642 0.20482811 1.0760001 4293915898
0.079289973 0.20482811 1.0760001 4293981691
0.082155876 0.20463774 1.075 4293981691
0.084858 0.20406668 1.072 4293981691
0.087707505 0.2038763 1.0710001 4293915898
0.090636156 0.2038763 1.0710001 4293915898
0.093652181 0.20406668 1.072 4293718519
0.09640339 0.20368594 1.0700001 4293784312
0.099329315 0.20368594 1.0700001 4293915898
0.10215967 0.20349559 1.069 4293850105
0.10527946 0.2038763 1.0710001 4293850105
0.10841019 0.20425703 1.0730001 4293915898
0.11124055 0.20406668 1.072 4293784312
0.11395894 0.20368594 1.0700001 4293915898
0.11688486 0.20368594 1.0700001 4293915898
0.12003473 0.20406668 1.072 4293915898
0.12296613 0.20406668 1.072 4293915898
0.1255452 0.20349559 1.069 4293784312
0.12858857 0.20368594 1.0700001 4293784312
0.13151449 0.20368594 1.0700001 4293784312
0.13456605 0.2038763 1.0710001 4293850105
0.13736634 0.20368594 1.0700001 4293850105
0.14016116 0.20349559 1.069 4293850105
-0.34178093 0.20796354 1.077 4294047484
-0.33915046 0.20815663 1.0780001 4294179070
-0.33620265 0.20815663 1.0780001 4293718519
-0.33325484 0.20815663 1.0780001 4293981691
-0.32938781 0.20757733 1.075 4294047484
-0.32675192 0.20777044 1.0760001 4294047484
-0.32350862 0.20757733 1.075 4294047484
-0.32056904 0.20757733 1.075 4293719033
-0.31644759 0.20680496 1.0710001 4293784828
-0.31322616 0.20661187 1.0700001 4293851134
-0.31059024 0.20680496 1.0710001 4293720575
-0.30708706 0.20641878 1.069 4294049791
-0.3035948 0.2060326 1.067 4287339684
-0.29898629 0.20487402 1.0610001 4278589728
-0.29720125 0.2056464 1.0650001 4279970867
-0.2953943 0.20641878 1.069 4280036914
-0.29247111 0.20641878 1.069 4279838763
-0.28873533 0.2058395 1.0660001 4280035883
-0.2863566 0.20622568 1.0680001 4280166699
-0.28263998 0.2056464 1.0650001 4280232235
-0.2805157 0.20622568 1.0680001 4280034856
-0.27681547 0.2056464 1.0650001 4280100648
-0.27467477 0.20622568 1.0680001 4280034855
-0.27124542 0.2058395 1.0660001 4280166954
-0.26807871 0.2056464 1.0650001 4280232747
-0.26466849 0.2052602 1.0630001 4280035368
-0.26200795 0.20545331 1.064 4280101161
-0.25909844 0.20545331 1.064 4280100906
-0.25594816 0.2052602 1.0630001 4280166699
-0.25327939 0.20545331 1.064 4280364078
-0.2510758 0.2060326 1.067 4280166701
-0.24815808 0.2060326 1.067 4280494640
-0.24547021 0.20622568 1.0680001 4280428847
-0.24232264 0.2060326 1.067 4280493872
-0.23940492 0.2060326 1.067 4280494642
-0.23648719 0.2060326 1.067 4280165675
-0.23356947 0.2060326 1.067 4280429360
-0.23021942 0.2056464 1.0650001 4280363567
-0.22752061 0.2058395 1.0660001 4280101678
-0.22439492 0.2056464 1.0650001 4280167471
-0.22106674 0.2052602 1.0630001 4280101676
-0.21815996 0.2052602 1.0630001 4280035883
-0.21545565 0.20545331 1.064 4280035883
-0.21334518 0.20622568 1.0680001 4280167469
-0.21062177 0.20641878 1.069 4280233262
-0.20730998 0.2060326 1.067 4280233264
-0.20381758 0.20545331 1.064 4280233264
-0.20090806 0.20545331 1.064 4280101426
-0.198929 0.20641878 1.069 4280166449
-0.19600581 0.20641878 1.069 4278784284
-0.19344385 0.20680496 1.0710001 4289047479
-0.19015943 0.20641878 1.069 4294574079
-0.18723623 0.20641878 1.069 4294047230
-0.18448545 0.20661187 1.0700001 4294113277
-0.18206857 0.20719115 1.0730001 4294113277
-0.1793014 0.20738426 1.074 4294047484
-0.17636454 0.20738426 1.074 4294047484
-0.17358914 0.20757733 1.075 4294179070
-0.17064954 0.20757733 1.075 4294179070
-0.16755395 0.20738426 1.074 4294113277
-0.16492362 0.20777044 1.0760001 4294113277
-0.16168022 0.20738426 1.074 4294113277
-0.15874335 0.20738426 1.074 4294047484
-0.1556614 0.20719115 1.0730001 4293981691
-0.15286963 0.20738426 1.074 4294113277
-0.15007237 0.20757733 1.075 4294047484
-0.14713277 0.20757733 1.075 4294047484
-0.14419317 0.20757733 1.075 4294047484
-0.14125356 0.20757733 1.075 4294113277
-0.13805664 0.20719115 1.0730001 4293981691
-0.13537437 0.20757733 1.075 4294113277
-0.13231158 0.20738426 1.074 4294047484
-0.12937471 0.20738426 1.074 4294113277
-0.12632012 0.20719115 1.0730001 4294047484
-0.123271 0.20699807 1.072 4294047230
-0.12056413 0.20738426 1.074 4294113023
-0.11751773 0.20719115 1.0730001 4294047484
-0.11447682 0.20699807 1.072 4294047484
-0.11144137 0.20680496 1.0710001 4294047484
-0.10851271 0.20680496 1.0710001 4294113277
-0.10548546 0.20661187 1.0700001 4294047484
-0.1026554 0.20680496 1.0710001 4294113277
-0.099726737 0.20680496 1.0710001 4294047484
-0.096978836 0.20719115 1.0730001 4294047484
-0.093957059 0.20699807 1.072 4294047484
-0.091110572 0.20719115 1.0730001 4294113277
-0.088094272 0.20699807 1.072 4294047484
-0.085083432 0.20680496 1.0710001 4294047484
-0.082154773 0.20680496 1.0710001 4294047484
-0.079226114 0.20680496 1.0710001 4294047230
-0.076439932 0.20719115 1.0730001 4293915644
-0.073437296 0.20699807 1.072 4294639103
-0.070505902 0.20699807 1.072 4283915108
-0.067511469 0.20680496 1.0710001 4280757044
-0.064522512 0.20661187 1.0700001 4280297261
-0.061423887 0.2060326 1.067 4280297774
-0.058451332 0.2058395 1.0660001 4280166701
-0.05538005 0.2052602 1.0630001 4280166701
-0.052473266 0.2052602 1.0630001 4280100908
-0.049613114 0.20545331 1.064 4280298287
-0.046747491 0.2056464 1.0650001 4280232494
-0.043794077 0.20545331 1.064 4280297774
-0.040999833 0.2060326 1.067 4280429360
-0.038296256 0.20719115 1.0730001 4280626226
-0.035329171 0.20699807 1.072 4280363054
-0.032337334 0.20661187 1.0700001 4279967269
-0.02927397 0.2056464 1.0650001 4279835685
-0.026435977 0.20622568 1.0680001 4293190894
-0.023537539 0.20641878 1.069 4294835711
-0.020672198 0.20699807 1.072 4293915385
-0.017773904 0.20738426 1.074 4294046971
-0.01483704 0.20738426 1.074 4293915898
-0.011866936 0.20680496 1.0710001 4293915898
-0.0089382762 0.20680496 1.0710001 4293981691
-0.0060264496 0.20738426 1.074 4293915898
-0.0030867094 0.20719115 1.0730001 4294047484
-0.00015229604 0.20680496 1.0710001 4293981691
0.0027763639 0.20680496 1.0710001 4294047484
0.0057103508 0.20699807 1.072 4293981691
0.008657868 0.20738426 1.074 4293981691
0.01157314 0.20699807 1.072 4293915898
0.014518065 0.20719115 1.0730001 4293981691
0.017468458 0.20738426 1.074 4293981691
0.020405322 0.20738426 1.074 4293915898
0.023342187 0.20738426 1.074 4293915898
0.026205642 0.20680496 1.0710001 4294047484
0.029134303 0.20680496 1.0710001 4293850105
0.032033026 0.20661187 1.0700001 4293981691
0.035056967 0.20719115 1.0730001 4293915898
0.037991095 0.20719115 1.0730001 4293981691
0.040810801 0.20661187 1.0700001 4293981691
0.043736726 0.20661187 1.0700001 4293915898
0.046706263 0.20680496 1.0710001 4293981691
0.049866647 0.20777044 1.0760001 4293915898
0.052808981 0.20777044 1.0760001 4293915898
0.055647686 0.20738426 1.074 4293915898
0.058529995 0.20719115 1.0730001 4293850105
0.061635979 0.20777044 1.0760001 4293850105
0.06457831 0.20777044 1.0760001 4293915898
0.067457885 0.20757733 1.075 4294047484
0.070266515 0.20719115 1.0730001 4293981691
0.073268868 0.20738426 1.074 4293915898
0.076276682 0.20757733 1.075 4293850105
0.079068899 0.20719115 1.0730001 4293981691
0.081850186 0.20680496 1.0710001 4293981691
0.084541366 0.20622568 1.0680001 4294047484
0.087461822 0.20622568 1.0680001 4293981691
0.09055154 0.20661187 1.0700001 4293915898
0.093477465 0.20661187 1.0700001 4293850105
0.09631329 0.20641878 1.069 4293915898
0.099143647 0.20622568 1.0680001 4293849851
0.10187297 0.2058395 1.0660001 4293849851
0.10488626 0.2060326 1.067 4293915898
0.10800605 0.20641878 1.069 4293850105
0.11113678 0.20680496 1.0710001 4293915898
0.11385243 0.20641878 1.069 4293850105
0.11688486 0.20661187 1.0700001 4293981691
0.11992276 0.20680496 1.0710001 4293915898
0.12296613 0.20699807 1.072 4293850105
0.12542775 0.20622568 1.0680001 4293915898
0.12846839 0.20641878 1.069 4293850105
0.13139158 0.20641878 1.069 4293784312
0.13431478 0.20641878 1.069 4293784312
0.1369812 0.2060326 1.067 4293850105
-0.33495516 0.21032111 1.074 4293981691
-0.33170915 0.21012528 1.0730001 4294047484
-0.32816222 0.20973364 1.0710001 4294047484
-0.32644823 0.21051693 1.075 4294047484
-0.32350862 0.21051693 1.075 4294047484
-0.32086724 0.21071278 1.0760001 4293981691
-0.31703851 0.21012528 1.0730001 4294047484
-0.31381166 0.20992947 1.072 4294047998
-0.31030023 0.20953779 1.0700001 4294047998
-0.30651253 0.20895033 1.067 4293917183
-0.3035948 0.20895033 1.067 4293523198
-0.30039528 0.20875448 1.0660001 4293918719
-0.29803842 0.20914614 1.0680001 4284773757
-0.29567063 0.20953779 1.0700001 4278589215
-0.2927447 0.20953779 1.0700001 4280036660
-0.2890062 0.20895033 1.067 4279904045
-0.28582036 0.20875448 1.0660001 4280429873
-0.28237459 0.20836283 1.064 4280100906
-0.27946505 0.20836283 1.064 4279969320
-0.27577579 0.20777534 1.0610001 4280298028
-0.27313167 0.20797116 1.062 4280035113
-0.27048206 0.20816699 1.0630001 4280101161
-0.26807871 0.20855865 1.0650001 4280232747
-0.26541546 0.20875448 1.0660001 4280232747
-0.26200795 0.20836283 1.064 4280035883
-0.25909844 0.20836283 1.064 4279904297
-0.25402188 0.20660035 1.0550001 4280101676
-0.25137505 0.20679618 1.056 4279970090
-0.24942864 0.20757949 1.0600001 4280035883
-0.24676263 0.20777534 1.0610001 4280100906
-0.24363148 0.20757949 1.0600001 4280363567
-0.2405058 0.20738368 1.059 4280232235
-0.23783432 0.20757949 1.0600001 4280298028
-0.23493575 0.20757949 1.0600001 4280429871
-0.23203717 0.20757949 1.0600001 4280298285
-0.22935474 0.20777534 1.0610001 4280035883
-0.22645342 0.20777534 1.0610001 4280035883
-0.22292002 0.20718785 1.0580001 4280167469
-0.21919505 0.20640454 1.054 4280101676
-0.21672334 0.20679618 1.056 4280101676
-0.21383569 0.20679618 1.056 4280167469
-0.21194685 0.20777534 1.0610001 4280232494
-0.20904553 0.20777534 1.0610001 4280364082
-0.2069214 0.20855865 1.0650001 4280166703
-0.20362604 0.20816699 1.0630001 4280298035
-0.20090806 0.20836283 1.064 4280494902
-0.19799854 0.20836283 1.064 4278784284
-0.19582245 0.20914614 1.0680001 4292402922
-0.19326323 0.20953779 1.0700001 4294639359
-0.18998154 0.20914614 1.0680001 4294047231
-0.18706109 0.20914614 1.0680001 4294047484
-0.18414062 0.20914614 1.0680001 4294047484
-0.18138985 0.20934197 1.069 4294113277
-0.17846666 0.20934197 1.069 4294047484
-0.17537926 0.20914614 1.0680001 4294047484
-0.17278175 0.20953779 1.0700001 4294047484
-0.16985582 0.20953779 1.0700001 4294047484
-0.16708592 0.20973364 1.0710001 4294113277
-0.16431053 0.20992947 1.072 4294113277
-0.1609275 0.20934197 1.069 4294113277
-0.1577087 0.20895033 1.067 4294047484
-0.15479098 0.20895033 1.067 4294047484
-0.15215793 0.20934197 1.069 4294113277
-0.14951396 0.20973364 1.0710001 4294047484
-0.14631155 0.20934197 1.069 4294113277
-0.1435225 0.20953779 1.0700001 4294047484
-0.14059657 0.20953779 1.0700001 4294047484
-0.13754198 0.20934197 1.069 4294047484
-0.13474472 0.20953779 1.0700001 4294113277
-0.1316956 0.20934197 1.069 4294113277
-0.12877241 0.20934197 1.069 4294113277
-0.1257315 0.20914614 1.0680001 4294047484
-0.12304102 0.20953779 1.0700001 4294047484
-0.12011509 0.20953779 1.0700001 4294047484
-0.11697013 0.20914614 1.0680001 4294047484
-0.11383609 0.20875448 1.0660001 4294047484
-0.11071299 0.20836283 1.064 4294047484
-0.10780347 0.20836283 1.064 4294113277
-0.10479537 0.20816699 1.0630001 4293981691
-0.10208029 0.20855865 1.0650001 4293981691
-0.09916804 0.20855865 1.0650001 4294047484
-0.096526936 0.20914614 1.0680001 4294047484
-0.093606479 0.20914614 1.0680001 4293981691
-0.090855837 0.20953779 1.0700001 4293981691
-0.087765567 0.20914614 1.0680001 4293981691
-0.084845111 0.20914614 1.0680001 4294047484
-0.081694528 0.20855865 1.0650001 4294113277
-0.078782275 0.20855865 1.0650001 4294047231
-0.075870022 0.20855865 1.0650001 4294705151
-0.073094778 0.20895033 1.067 4281349181
-0.070242822 0.20914614 1.0680001 4280559665
-0.067511469 0.20973364 1.0710001 4280428849
-0.064281307 0.20875448 1.0660001 4280429360
-0.061136052 0.20797116 1.062 4280100906
-0.058012672 0.20718785 1.0580001 4280100906
-0.055223756 0.20757949 1.0600001 4280035113
-0.052325174 0.20757949 1.0600001 4280232494
-0.049333338 0.20718785 1.0580001 4280166701
-0.046352439 0.20679618 1.056 4280232494
-0.043588277 0.20738368 1.059 4280232494
-0.040884558 0.20836283 1.064 4280429873
-0.038117804 0.20914614 1.0680001 4280364080
-0.035065521 0.20836283 1.064 4280560946
-0.032004893 0.20738368 1.059 4280626228
-0.029026587 0.20679618 1.056 4280362286
-0.026213203 0.20738368 1.059 4280032296
-0.023427447 0.20836283 1.064 4281611328
-0.020595064 0.20914614 1.0680001 4294704127
-0.017674608 0.20914614 1.0680001 4294704127
-0.014754151 0.20914614 1.0680001 4294112766
-0.011822616 0.20895033 1.067 4293849851
-0.0088965474 0.20875448 1.0660001 4293981691
-0.0059927823 0.20914614 1.0680001 4293915898
-0.0030723258 0.20914614 1.0680001 4293915898
-0.00015158503 0.20875448 1.0660001 4293981691
0.0027659948 0.20895033 1.067 4294047484
0.0056890436 0.20914614 1.0680001 4293981691
0.0086256228 0.20953779 1.0700001 4293981691
0.011540753 0.20934197 1.069 4293915898
0.014477474 0.20953779 1.0700001 4294047484
0.017419662 0.20973364 1.0710001 4293915898
0.020329325 0.20953779 1.0700001 4293981691
0.023211781 0.20914614 1.0680001 4293981691
0.026107769 0.20895033 1.067 4293915898
0.028998289 0.20875448 1.0660001 4293981691
0.031943213 0.20895033 1.067 4293915898
0.034860935 0.20895033 1.067 4293850105
0.037884876 0.20953779 1.0700001 4293981691
0.040772662 0.20934197 1.069 4294047484
0.043695852 0.20934197 1.069 4293915898
0.046619043 0.20934197 1.069 4294047484
0.049634926 0.20973364 1.0710001 4293915898
0.052514501 0.20953779 1.0700001 4293915898
0.055336799 0.20914614 1.0680001 4293915898
0.058257256 0.20914614 1.0680001 4293915898
0.06129228 0.20953779 1.0700001 4293915898
0.064278223 0.20973364 1.0710001 4293981691
0.067018628 0.20914614 1.0680001 4293850105
0.069939084 0.20914614 1.0680001 4293784312
0.072859541 0.20914614 1.0680001 4293850105
0.075921908 0.20953779 1.0700001 4293981691
0.078553073 0.20875448 1.0660001 4293981691
0.081238791 0.20816699 1.0630001 4293915898
0.083987258 0.20777534 1.0610001 4293981691
0.08705236 0.20816699 1.0630001 4293915898
0.090213023 0.20875448 1.0660001 4293850105
0.093040645 0.20855865 1.0650001 4293915898
0.095862813 0.20836283 1.064 4293915898
0.098679498 0.20816699 1.0630001 4293784312
0.10158627 0.20816699 1.0630001 4293784312
0.10449306 0.20816699 1.0630001 4293915898
0.10739984 0.20816699 1.0630001 4293981691
0.1104104 0.20836283 1.064 4293915898
0.11342642 0.20855865 1.0650001 4293915898
0.11633867 0.20855865 1.0650001 4293915898
0.11958684 0.20914614 1.0680001 4293915898
0.1225073 0.20914614 1.0680001 4293915898
0.12519288 0.20875448 1.0660001 4293850105
0.12786752 0.20836283 1.064 4293850105
0.13065411 0.20816699 1.0630001 4293784312
0.13368654 0.20836283 1.064 4293850105
-0.32954517 0.21166947 1.0660001 4294113277
-0.32663018 0.21166947 1.0660001 4293915898
-0.32432252 0.21206659 1.0680001 4294047484
-0.32200393 0.21246372 1.0700001 4294113277
-0.31967443 0.21286087 1.072 4294047484
-0.3161521 0.21246372 1.0700001 4294179070
-0.31293344 0.21226516 1.069 4294244863
-0.30943024 0.21186805 1.067 4294113277
-0.30565071 0.21127234 1.064 4293850621
-0.30245668 0.21107377 1.0630001 4293851134
-0.29954991 0.21107377 1.0630001 4293785854
-0.29664311 0.21107377 1.0630001 4294311935
-0.29346001 0.2108752 1.062 4293984255
-0.29055595 0.2108752 1.062 4278591268
-0.28846449 0.2114709 1.0650001 4279773489
-0.28501597 0.21107377 1.0630001 4280100656
-0.2821092 0.21107377 1.0630001 4280167217
-0.27841446 0.21047808 1.0600001 4280100906
-0.27525595 0.21027952 1.059 4280035113
-0.27210289 0.21008095 1.0580001 4280101161
-0.26895535 0.20988238 1.057 4279970090
-0.26656839 0.21027952 1.059 4279838763
-0.26367256 0.21027952 1.059 4279970090
-0.2607767 0.21027952 1.059 4279904297
-0.25690681 0.20948526 1.0550001 4279970090
-0.25402188 0.20948526 1.0550001 4280233262
-0.25137505 0.20968384 1.056 4280233262
-0.24942864 0.21047808 1.0600001 4280166701
-0.24653007 0.21047808 1.0600001 4280035115
-0.24386132 0.21067666 1.0610001 4280232494
-0.2405058 0.21027952 1.059 4280166701
-0.23783432 0.21047808 1.0600001 4280100906
-0.23471411 0.21027952 1.059 4280166699
-0.23181826 0.21027952 1.059 4279970090
-0.22935474 0.21067666 1.0610001 4279970603
-0.22602656 0.21027952 1.059 4279970603
-0.22313072 0.21027952 1.059 4280036396
-0.21919505 0.2092867 1.054 4279970603
-0.21631289 0.2092867 1.054 4279970603
-0.21363319 0.20948526 1.0550001 4279904297
-0.21154733 0.21027952 1.059 4280298289
-0.20924257 0.2108752 1.062 4280232242
-0.20653282 0.21107377 1.0630001 4280429109
-0.20324291 0.21067666 1.0610001 4280429109
-0.20015278 0.21047808 1.0600001 4278849566
-0.1972542 0.21047808 1.0600001 4294705151
-0.19527239 0.2114709 1.0650001 4293981439
-0.192902 0.21206659 1.0680001 4294047230
-0.18998154 0.21206659 1.0680001 4294047230
-0.18706109 0.21206659 1.0680001 4294047484
-0.18431304 0.21226516 1.069 4294047484
-0.18122017 0.21206659 1.0680001 4294047484
-0.17796582 0.21166947 1.0660001 4294113277
-0.1747224 0.21127234 1.064 4293981691
-0.17213584 0.21166947 1.0660001 4294047484
-0.16953835 0.21206659 1.0680001 4294047484
-0.1669299 0.21246372 1.0700001 4294179070
-0.16385069 0.21226516 1.069 4294113277
-0.16062643 0.21186805 1.067 4294047484
-0.1574131 0.2114709 1.0650001 4294047484
-0.15450084 0.2114709 1.0650001 4294113277
-0.15201561 0.21206659 1.0680001 4294113277
-0.14923474 0.21226516 1.069 4293981691
-0.1461747 0.21206659 1.0680001 4293981691
-0.14338836 0.21226516 1.069 4294113277
-0.14046517 0.21226516 1.069 4294179070
-0.13754198 0.21226516 1.069 4294047484
-0.13449286 0.21206659 1.0680001 4294113277
-0.13132602 0.21166947 1.0660001 4294113277
-0.12877241 0.21226516 1.069 4294113277
-0.12584922 0.21226516 1.069 4294047484
-0.123271 0.21286087 1.072 4294047484
-0.12000284 0.21226516 1.069 4294113277
-0.11697013 0.21206659 1.0680001 4294047484
-0.11372931 0.2114709 1.0650001 4293981691
-0.11081705 0.2114709 1.0650001 4294113277
-0.10780347 0.21127234 1.064 4293981691
-0.10499255 0.2114709 1.0650001 4294244863
-0.10217614 0.21166947 1.0660001 4294113277
-0.099540502 0.21226516 1.069 4293981691
-0.096707687 0.21246372 1.0700001 4294047484
-0.093694121 0.21226516 1.069 4294047484
-0.090601102 0.21186805 1.067 4294113277
-0.087601207 0.21166947 1.0660001 4293981691
-0.08468622 0.21166947 1.0660001 4294047484
-0.081617817 0.21127234 1.064 4294046973
-0.078708299 0.21127234 1.064 4294639103
-0.075727537 0.21107377 1.0630001 4279704099
-0.07302627 0.21166947 1.0660001 4280625458
-0.070111282 0.21166947 1.0660001 4280363056
-0.067259334 0.21186805 1.067 4280297776
-0.06422101 0.2114709 1.0650001 4280232494
-0.061193619 0.21107377 1.0630001 4279969320
-0.058012672 0.21008095 1.0580001 4280232492
-0.055171661 0.21027952 1.059 4280035113
-0.052275814 0.21027952 1.059 4280035113
-0.049426593 0.21047808 1.0600001 4280100908
-0.046440225 0.21008095 1.0580001 4280100908
-0.043794077 0.21127234 1.064 4280166701
-0.040999833 0.21186805 1.067 4280232494
-0.038117804 0.21206659 1.0680001 4280166701
-0.034999609 0.2108752 1.062 4280429873
-0.03194445 0.20988238 1.057 4280363569
-0.029081559 0.21008095 1.0580001 4280428849
-0.026312213 0.21107377 1.0630001 4280493872
-0.023471482 0.21166947 1.0660001 4280625458
-0.020556496 0.21166947 1.0660001 4279769892
-0.017591862 0.21107377 1.0630001 4280625201
-0.014726522 0.21166947 1.0660001 4293783801
-0.011800454 0.2114709 1.0650001 4294770687
-0.0088798553 0.21127234 1.064 4294047484
-0.0059703374 0.21127234 1.064 4293981691
-0.0030608189 0.21127234 1.064 4293850105
-0.00015130064 0.21127234 1.064 4293915898
0.0027659948 0.21186805 1.067 4293981691
0.0056943703 0.21226516 1.069 4293915898
0.0086175613 0.21226516 1.069 4293981691
0.011519159 0.21186805 1.067 4293981691
0.014450412 0.21206659 1.0680001 4293981691
0.017387135 0.21226516 1.069 4293981691
0.020329325 0.21246372 1.0700001 4293981691
0.023211781 0.21206659 1.0680001 4293981691
0.026156707 0.21226516 1.069 4294047484
0.029025491 0.21186805 1.067 4293915898
0.03197315 0.21206659 1.0680001 4293981691
0.034795593 0.2114709 1.0650001 4293981691
0.037778657 0.21186805 1.067 4294047484
0.040696379 0.21186805 1.067 4293849851
0.043736726 0.21246372 1.0700001 4293915644
0.046575431 0.21206659 1.0680001 4293981437
0.049542233 0.21226516 1.069 4293981691
0.052416343 0.21206659 1.0680001 4293981691
0.055336799 0.21206659 1.0680001 4293915898
0.05820271 0.21186805 1.067 4293981691
0.061177712 0.21206659 1.0680001 4293915898
0.064098172 0.21206659 1.0680001 4293915898
0.066955872 0.21186805 1.067 4293915898
0.069808111 0.21166947 1.0660001 4293981691
0.072654873 0.2114709 1.0650001 4293915898
0.075638086 0.21166947 1.0660001 4293915898
0.078405693 0.21127234 1.064 4293915898
0.081315212 0.21127234 1.064 4293915898
0.084066413 0.2108752 1.062 4293915898
0.086970463 0.2108752 1.062 4293915898
0.090043776 0.21127234 1.064 4293981691
0.093040645 0.2114709 1.0650001 4293915898
0.095952898 0.2114709 1.0650001 4293981691
0.098865151 0.2114709 1.0650001 4293784312
0.1017774 0.2114709 1.0650001 4293586933
0.10459136 0.21127234 1.064 4293784312
0.10739984 0.21107377 1.0630001 4293915898
0.1104104 0.21127234 1.064 4293915898
0.11331992 0.21127234 1.064 4293915898
0.11622944 0.21127234 1.064 4293850105
0.11925092 0.2114709 1.0650001 4293981178
0.12227789 0.21166947 1.0660001 4293915898
0.12507543 0.2114709 1.0650001 4293915898
0.12774733 0.21107377 1.0630001 4293850105
0.13040829 0.21067666 1.0610001 4293850105
-0.32601735 0.21418187 1.064 4294047484
-0.32371518 0.21458445 1.0660001 4293915898
-0.32140207 0.21498705 1.0680001 4294047484
-0.31907803 0.21538964 1.0700001 4293981691
-0.31585664 0.21518835 1.069 4294047484
-0.3126407 0.21498705 1.0680001 4294113277
-0.30914026 0.21458445 1.0660001 4294113277
-0.30593801 0.21438316 1.0650001 4294047484
-0.3027412 0.21418187 1.064 4294113277
-0.30039528 0.21458445 1.0660001 4293850619
-0.29692218 0.21418187 1.064 4293850621
-0.29401264 0.21418187 1.064 4293785854
-0.29055595 0.21377926 1.062 4294180863
-0.28792277 0.21398056 1.0630001 4286683807
-0.28447971 0.21357797 1.0610001 4278458142
-0.28184381 0.21377926 1.062 4279839281
-0.27815178 0.21317537 1.059 4280036146
-0.27525595 0.21317537 1.059 4279838506
-0.27158853 0.21257147 1.056 4279904297
-0.26844645 0.21237017 1.0550001 4280101676
-0.26606497 0.21277276 1.057 4279838504
