# .PCD v0.7 - Point Cloud Data file format
VERSION 0.7
FIELDS x y z rgba
SIZE 4 4 4 4
TYPE F F F U
COUNT 1 1 1 1
WIDTH 1073
HEIGHT 1
VIEWPOINT 0 0 0 1 0 0 0
POINTS 1073
DATA ascii
-0.13348511 -0.066263333 1.25 4280693838
-0.12975481 -0.0661043 1.2470001 4280562252
-0.12583826 -0.065839253 1.2420001 4280628045
-0.12214626 -0.065680213 1.2390001 4280628045
-0.11856651 -0.065574192 1.2370001 4280693838
-0.11499768 -0.065468177 1.235 4280891217
-0.11153018 -0.065415166 1.2340001 4278190080
-0.10771756 -0.065150112 1.2290001 4281089109
-0.10350773 -0.064620003 1.2190001 4280958036
-0.098941699 -0.063824847 1.2040001 4281220953
-0.09469603 -0.063188717 1.192 4281090139
-0.090899535 -0.062817641 1.1850001 4281221725
-0.087437227 -0.062658608 1.182 4280299593
-0.084632464 -0.062976673 1.1880001 4280036162
-0.081931911 -0.063400753 1.1960001 4279904572
-0.079121836 -0.063771829 1.2030001 4282009952
-0.078542762 -0.066051289 1.2460001 4281285975
-0.076281294 -0.067058496 1.2650001 4280956744
-0.073167533 -0.067376554 1.271 4280035115
-0.069911301 -0.067588598 1.2750001 4279179546
-0.066528998 -0.067694619 1.2770001 4279442205
-0.063234486 -0.06790667 1.281 4279573021
-0.059871461 -0.068065695 1.284 4279704608
-0.056579825 -0.06833075 1.289 4279573538
-0.053301997 -0.068648815 1.2950001 4279968298
-0.050183486 -0.069231935 1.3060001 4280034866
-0.047040511 -0.069868058 1.3180001 4280955714
-0.04449103 -0.071564399 1.35 4280626751
-0.24085675 -0.068073913 1.3540001 4280628558
-0.235753 -0.067671709 1.3460001 4280562765
-0.2313827 -0.067470603 1.342 4280365644
-0.22737361 -0.06737005 1.34 4280563023
-0.22304159 -0.067168951 1.3360001 4280760402
-0.21823879 -0.066817015 1.3290001 4280562766
-0.21395873 -0.066615909 1.325 4280562512
-0.20938304 -0.06631425 1.319 4279970375
-0.20499615 -0.066062868 1.314 4280299342
-0.20033009 -0.065710939 1.307 4280364876
-0.19615392 -0.065509833 1.3030001 4280299081
-0.19155622 -0.065157898 1.296 4280101701
-0.1869968 -0.06480597 1.289 4280299080
-0.18290266 -0.064604864 1.2850001 4280233287
-0.17855121 -0.064303204 1.279 4280167494
-0.17478004 -0.064202651 1.2770001 4280233287
-0.1706174 -0.063951276 1.2720001 4280364873
-0.16713911 -0.063951276 1.2720001 4280233287
-0.16327482 -0.063800447 1.2690001 4280035908
-0.159301 -0.063599341 1.2650001 4280233287
-0.15571865 -0.063549064 1.2640001 4280101701
-0.1520213 -0.063448511 1.2620001 4280167494
-0.14845264 -0.063398235 1.261 4280101701
-0.14431447 -0.063096583 1.2550001 4280167494
-0.14065816 -0.06299603 1.253 4280167494
-0.13690324 -0.0628452 1.25 4280562252
-0.13316473 -0.062694363 1.2470001 4280628045
-0.12944265 -0.062543541 1.2440001 4280759631
-0.12573695 -0.062392712 1.2410001 4280891217
-0.12194909 -0.062191606 1.2370001 4278190080
-0.1181831 -0.061990503 1.233 4278190080
-0.11462522 -0.06188995 1.2310001 4280891730
-0.11026485 -0.061336912 1.22 4281286488
-0.10561405 -0.060582768 1.205 4281352281
-0.10130002 -0.059979457 1.1930001 4281024344
-0.097215973 -0.059476692 1.1830001 4281155932
-0.093424954 -0.059124764 1.176 4280891988
-0.090746127 -0.059476692 1.1830001 4280563023
-0.088176966 -0.059929177 1.192 4279839040
-0.085701063 -0.060482219 1.2030001 4279641400
-0.083027996 -0.060934704 1.212 4279772472
-0.082476124 -0.063046299 1.2540001 4279838262
-0.080181696 -0.063951276 1.2720001 4279904309
-0.07718581 -0.064353481 1.2800001 4279245597
-0.073743209 -0.064403757 1.281 4279113492
-0.070295125 -0.064454034 1.2820001 4279244308
-0.066945784 -0.064604864 1.2850001 4279310101
-0.063530661 -0.064705417 1.2870001 4279375896
-0.060151234 -0.064856239 1.2900001 4279441435
-0.056799296 -0.065057345 1.294 4279507228
-0.053507797 -0.065359004 1.3000001 4279376159
-0.050145067 -0.065610386 1.3050001 4279508262
-0.046862058 -0.066012599 1.3130001 4280297523
-0.043897815 -0.066967845 1.332 4280889408
-0.041464318 -0.068978891 1.3720001 4279704875
-0.24329492 -0.064038604 1.3470001 4281220693
-0.23712115 -0.063373014 1.3330001 4281418074
-0.2329506 -0.063230395 1.33 4280892243
-0.22862403 -0.063040227 1.3260001 4280563278
-0.22414966 -0.062802516 1.3210001 4280497483
-0.2188679 -0.062327098 1.3110001 4280431179
-0.21413347 -0.06199431 1.304 4280431180
-0.20943733 -0.061661519 1.2970001 4280365387
-0.20509695 -0.061423808 1.2920001 4280167497
-0.20125195 -0.061328724 1.2900001 4280364876
-0.19726461 -0.061186101 1.2870001 4280364874
-0.19314313 -0.060995936 1.2830001 4280430667
-0.1884523 -0.060615599 1.2750001 4280167494
-0.18424043 -0.060377896 1.2700001 4280233287
-0.18062529 -0.06033035 1.2690001 4280167494
-0.17687598 -0.060235269 1.2670001 4280167494
-0.17341135 -0.060235269 1.2670001 4280430666
-0.16967846 -0.060140185 1.2650001 4280167494
-0.16608791 -0.060092647 1.2640001 4280233287
-0.16237417 -0.059997559 1.2620001 4280299080
-0.15816763 -0.059712309 1.256 4280233288
-0.1544867 -0.059617225 1.2540001 4280299083
-0.15069625 -0.059474602 1.251 4280101704
-0.14739309 -0.059522144 1.2520001 4280101702
-0.14327954 -0.059236895 1.2460001 4280233288
-0.13976009 -0.059189349 1.245 4280167494
-0.13602705 -0.059046727 1.2420001 4280299080
-0.13241722 -0.058951646 1.24 4280693838
-0.12881832 -0.058856562 1.238 4280825424
-0.12553431 -0.0589041 1.2390001 4278190080
-0.12175192 -0.058713935 1.235 4278190080
-0.11770386 -0.05838114 1.228 4280825424
-0.11294914 -0.057668015 1.2130001 4280891731
-0.10800532 -0.056812271 1.1950001 4280760402
-0.10351053 -0.056146685 1.1810001 4280957781
-0.099431954 -0.055671271 1.171 4280957781
-0.096558549 -0.055861436 1.1750001 4280497230
-0.093822159 -0.056146685 1.1810001 4280168005
-0.091359787 -0.056622103 1.1910001 4279969851
-0.088842735 -0.057097521 1.2010001 4280035384
-0.086413458 -0.057668015 1.2130001 4280100659
-0.083850048 -0.058190975 1.2240001 4280100144
-0.083594218 -0.060425434 1.271 4279770917
-0.080496877 -0.060710683 1.2770001 4279310366
-0.077246115 -0.060900852 1.281 4279244310
-0.073800772 -0.060948394 1.2820001 4279310101
-0.07040479 -0.061043475 1.284 4279244560
-0.066893682 -0.061043475 1.284 4279310099
-0.063431934 -0.061091021 1.2850001 4279310103
-0.060057979 -0.06123364 1.2880001 4279375642
-0.05671151 -0.061423808 1.2920001 4279441689
-0.053343162 -0.061613973 1.296 4279507229
-0.049837664 -0.061661519 1.2970001 4279442206
-0.046433765 -0.061851684 1.3010001 4279442465
-0.043172777 -0.06227956 1.3100001 4280560437
-0.040436774 -0.063610725 1.3380001 4287928483
-0.24734502 -0.060444832 1.3490001 4281417811
-0.23950191 -0.059414264 1.3260001 4281023314
-0.23409711 -0.058966193 1.3160001 4280825937
-0.22979788 -0.058786966 1.312 4280628558
-0.22517571 -0.058518123 1.3060001 4280760657
-0.22041665 -0.058204472 1.299 4280563278
-0.21552895 -0.057846017 1.291 4280497485
-0.21101342 -0.057577174 1.2850001 4280365387
-0.20685367 -0.057397947 1.281 4280365387
-0.20303327 -0.057308327 1.279 4279970116
-0.19969185 -0.057353139 1.2800001 4280035909
-0.19619167 -0.057353139 1.2800001 4280167494
-0.19223988 -0.057218712 1.2770001 4280101701
-0.18786107 -0.056949873 1.271 4280101701
-0.18380523 -0.056770645 1.2670001 4280299080
-0.18005593 -0.056681029 1.2650001 4280430666
-0.17645718 -0.056636225 1.2640001 4280364873
-0.17313762 -0.056681029 1.2650001 4280299080
-0.1698126 -0.056725841 1.266 4280035908
-0.16569372 -0.056501802 1.261 4280035909
-0.16173084 -0.056322575 1.2570001 4280035909
-0.15728612 -0.05596412 1.2490001 4280035911
-0.15362434 -0.0558745 1.2470001 4280036168
-0.14985302 -0.055740081 1.2440001 4280365133
-0.14680447 -0.0558745 1.2470001 4280365133
-0.14316455 -0.055784885 1.245 4279904836
-0.13942331 -0.055650465 1.2420001 4280101701
-0.13580802 -0.055560853 1.24 4280364873
-0.13231044 -0.055516042 1.2390001 4278190080
-0.12881832 -0.055471238 1.238 4278190080
-0.12512904 -0.055336814 1.235 4280825424
-0.12047032 -0.054754321 1.222 4281352282
-0.11559515 -0.054037411 1.2060001 4281286489
-0.11099371 -0.053410109 1.192 4280891731
-0.1061977 -0.052648388 1.1750001 4280760144
-0.10315995 -0.052738 1.177 4281089109
-0.10019617 -0.052872423 1.1800001 4280628558
-0.097380325 -0.053096462 1.1850001 4280167748
-0.09469603 -0.053410109 1.192 4279706679
-0.092203587 -0.053858183 1.202 4279772212
-0.089656442 -0.054306254 1.212 4279838001
-0.087410808 -0.054978359 1.2270001 4279903020
-0.08542566 -0.0558745 1.2470001 4279507745
-0.084186152 -0.057353139 1.2800001 4278981654
-0.080812052 -0.057442751 1.2820001 4278981908
-0.077306412 -0.057442751 1.2820001 4279244308
-0.073743209 -0.057397947 1.281 4279375894
-0.070295125 -0.057442751 1.2820001 4279244306
-0.066789486 -0.057442751 1.2820001 4279310099
-0.063333213 -0.057487562 1.2830001 4279310103
-0.059918091 -0.057577174 1.2850001 4279309849
-0.056579825 -0.057756402 1.289 4279375642
-0.053137362 -0.057846017 1.291 4279507229
-0.049645536 -0.057890821 1.2920001 4279507999
-0.046148237 -0.057935629 1.2930001 4279507745
-0.042810258 -0.058204472 1.299 4279573540
-0.039741676 -0.058921389 1.3150001 4279704356
-0.037052877 -0.06040002 1.348 4291941856
-0.25623333 -0.057092559 1.3570001 4278190080
-0.2489869 -0.056293178 1.3380001 4281812823
-0.2418444 -0.055493798 1.319 4281088846
-0.23588951 -0.054946855 1.3060001 4281023568
-0.23107304 -0.054652344 1.299 4280497485
-0.22647002 -0.054399908 1.2930001 4280563278
-0.22189981 -0.054147474 1.2870001 4280694862
-0.21753207 -0.053937111 1.2820001 4280760402
-0.21319169 -0.053726744 1.2770001 4280299851
-0.20953551 -0.053684674 1.276 4280365387
-0.20572332 -0.053600531 1.274 4280167495
-0.20223956 -0.053600531 1.274 4279970116
-0.19875579 -0.053600531 1.274 4279904323
-0.19481219 -0.053474311 1.271 4279970115
-0.19058394 -0.053263951 1.266 4280035908
-0.18638302 -0.053053584 1.261 4280035908
-0.18235452 -0.052885294 1.2570001 4280035908
-0.17877489 -0.052843221 1.256 4279970116
-0.17520076 -0.052801151 1.2550001 4280101702
-0.17190582 -0.052843221 1.256 4280101961
-0.16847126 -0.052843221 1.256 4279970375
-0.16451113 -0.052674931 1.2520001 4280036683
-0.16044421 -0.052464567 1.2470001 4280299601
-0.15640461 -0.052254207 1.2420001 4279970636
-0.15288517 -0.05221213 1.2410001 4280365648
-0.14937118 -0.052170061 1.24 4279970890
-0.14609812 -0.05221213 1.2410001 4279970375
-0.14247461 -0.052127987 1.2390001 4280102215
-0.13886203 -0.05204384 1.2370001 4280365387
-0.13536991 -0.052001771 1.2360001 4278190080
-0.1316697 -0.05187555 1.233 4278190080
-0.12715346 -0.05141275 1.222 4281023317
-0.12219079 -0.05073959 1.2060001 4281286746
-0.11731561 -0.050066426 1.1900001 4280891988
-0.11214455 -0.049224976 1.1700001 4280694609
-0.10922452 -0.049351193 1.1730001 4280496972
-0.10646884 -0.049561556 1.1780001 4280431177
-0.10368583 -0.049771916 1.1830001 4279838783
-0.10096037 -0.050024357 1.189 4279772986
-0.098202094 -0.050276794 1.1950001 4279575091
-0.095490471 -0.050571304 1.202 4279772212
-0.092893958 -0.05094995 1.2110001 4279771179
-0.090470158 -0.051454827 1.223 4279836712
-0.088621885 -0.052338351 1.2440001 4279244827
-0.087343805 -0.053642601 1.2750001 4279244310
-0.083923079 -0.053684674 1.276 4279178515
-0.080496877 -0.053726744 1.2770001 4279244310
-0.077065207 -0.053768821 1.2780001 4279375894
-0.073512934 -0.053726744 1.2770001 4279113492
-0.070075803 -0.053768821 1.2780001 4279245080
-0.0665811 -0.053768821 1.2780001 4279245080
-0.063234486 -0.053895041 1.281 4279376413
-0.05973158 -0.053895041 1.281 4279375643
-0.056404248 -0.054063331 1.2850001 4279507231
-0.052931562 -0.054105401 1.286 4279573538
-0.049453404 -0.054147474 1.2870001 4279574055
-0.046005476 -0.054231621 1.289 4279639848
-0.042645477 -0.054441981 1.294 4279902252
-0.039439458 -0.054904778 1.3050001 4280034091
-0.036420669 -0.055746235 1.325 4285033843
-0.25898626 -0.053185135 1.3520001 4282601309
-0.25207919 -0.052516386 1.335 4278190080
-0.24600948 -0.052004993 1.322 4278190080
-0.23927742 -0.051336244 1.3050001 4281154641
-0.23408331 -0.0509822 1.296 4280694349
-0.22840478 -0.050510146 1.284 4280760657
-0.22436821 -0.050392132 1.281 4280826450
-0.22017562 -0.050234776 1.2770001 4280760402
-0.21668366 -0.050234776 1.2770001 4280497232
-0.21269085 -0.050116766 1.274 4280234060
-0.20871444 -0.049998749 1.271 4280299594
-0.20523888 -0.049998749 1.271 4280101702
-0.20160457 -0.049959414 1.2700001 4280035909
-0.19813174 -0.049959414 1.2700001 4280035909
-0.19404583 -0.049802061 1.266 4279904323
-0.19013232 -0.049684044 1.263 4280035908
-0.1860874 -0.049526691 1.2590001 4280035908
-0.18206438 -0.049369343 1.2550001 4279970116
-0.1783479 -0.049290664 1.253 4279904584
-0.17464235 -0.04921199 1.251 4279839304
-0.17108461 -0.049172647 1.25 4280102476
-0.1673982 -0.049093973 1.248 4280563543
-0.16345994 -0.04893662 1.2440001 4280892508
-0.15941489 -0.048739929 1.2390001 4280892506
-0.15577498 -0.048661251 1.2370001 4280431955
-0.15239239 -0.048661251 1.2370001 4280234062
-0.14913025 -0.048700593 1.238 4280168267
-0.14550948 -0.048621915 1.2360001 4280102474
-0.14201464 -0.048582576 1.235 4280102474
-0.13863751 -0.048582576 1.235 4280628816
-0.13482231 -0.048425224 1.2310001 4280826195
-0.12953395 -0.047717135 1.2130001 4280891988
-0.12423996 -0.046969712 1.194 4281352541
-0.11955649 -0.04641898 1.1800001 4280628818
-0.11544251 -0.046064936 1.171 4280694611
-0.1126238 -0.046222288 1.1750001 4280496972
-0.10987633 -0.04641898 1.1800001 4280036162
-0.10728227 -0.046694349 1.187 4279970367
-0.10473758 -0.047009055 1.1950001 4279772472
-0.10197931 -0.047245082 1.2010001 4279640884
-0.099188231 -0.047481108 1.207 4279838003
-0.096523225 -0.047795814 1.215 4279705901
-0.094274715 -0.048346549 1.2290001 4279705124
-0.092319503 -0.049093973 1.248 4279179034
-0.090117902 -0.049762722 1.2650001 4279178517
-0.087480813 -0.050234776 1.2770001 4279244310
-0.084054612 -0.050274115 1.2780001 4279178517
-0.080622941 -0.05031345 1.279 4279112724
-0.077065207 -0.050274115 1.2780001 4279179287
-0.073512934 -0.050234776 1.2770001 4279244826
-0.070075803 -0.050274115 1.2780001 4279179547
-0.066528998 -0.050234776 1.2770001 4279442719
-0.063185118 -0.050352793 1.2800001 4279311133
-0.059778202 -0.050431468 1.2820001 4279442719
-0.056404248 -0.050549485 1.2850001 4279508260
-0.052931562 -0.05058882 1.286 4279640105
-0.049453404 -0.050628159 1.2870001 4279705899
-0.046041165 -0.050746173 1.2900001 4280034866
-0.042678431 -0.050942864 1.2950001 4280100659
-0.039439458 -0.051336244 1.3050001 4280494902
-0.036283232 -0.051926315 1.3200001 4279244575
-0.033391509 -0.053067125 1.3490001 4294508543
-0.25764537 -0.049231857 1.345 4291285459
-0.25189036 -0.048829217 1.3340001 4278190080
-0.24600948 -0.048389971 1.322 4278190080
-0.23909408 -0.047731109 1.304 4283917429
-0.23245774 -0.047108848 1.2870001 4280430920
-0.22627015 -0.046559792 1.2720001 4280957523
-0.22279185 -0.046559792 1.2720001 4281023316
-0.21879631 -0.046449978 1.2690001 4280760402
-0.21566556 -0.046523187 1.271 4280430926
-0.21135528 -0.046340171 1.266 4280167754
-0.20772918 -0.046303567 1.2650001 4280167495
-0.20394707 -0.046230357 1.263 4280233288
-0.20049338 -0.046230357 1.263 4280167495
-0.19672768 -0.046157151 1.261 4280562253
-0.19235982 -0.045937531 1.2550001 4280299081
-0.18832584 -0.045791116 1.251 4280101702
-0.18460935 -0.04571791 1.2490001 4279904582
-0.18090379 -0.045644697 1.2470001 4279904582
-0.17735153 -0.045608096 1.2460001 4279839821
-0.17338593 -0.045461684 1.2420001 4280300372
-0.16985281 -0.045425076 1.2410001 4280760923
-0.16592275 -0.045278665 1.2370001 4280958302
-0.16267155 -0.045315269 1.238 4280892509
-0.15890023 -0.045205455 1.235 4280431957
-0.15527125 -0.04513225 1.233 4280497748
-0.15165322 -0.045059044 1.2310001 4280497232
-0.14840749 -0.045095645 1.2320001 4280431439
-0.14480312 -0.045022435 1.23 4278190080
-0.14097971 -0.044876024 1.2260001 4280695381
-0.13661689 -0.044546593 1.217 4281024346
-0.13197473 -0.044107348 1.205 4280826967
-0.12686424 -0.043485086 1.1880001 4280958553
-0.12174268 -0.042826224 1.1700001 4280761172
-0.11864462 -0.042862825 1.171 4280628816
-0.11554109 -0.04289943 1.1720001 4280299594
-0.11291134 -0.043119054 1.1780001 4279970369
-0.11024879 -0.043338675 1.184 4279904058
-0.10782456 -0.043668106 1.1930001 4279772469
-0.10517582 -0.043924332 1.2 4279772208
-0.10248879 -0.044180553 1.207 4279640876
-0.10001001 -0.044546593 1.217 4279639846
-0.097953193 -0.04513225 1.233 4279639585
-0.095962301 -0.045791116 1.251 4279244310
-0.093503088 -0.046266966 1.2640001 4279112722
-0.090474106 -0.046486586 1.2700001 4279112722
-0.087480813 -0.046742808 1.2770001 4279244308
-0.083988845 -0.046742808 1.2770001 4279375896
-0.080622941 -0.046816014 1.279 4279441689
-0.077125505 -0.046816014 1.279 4279638815
-0.073628068 -0.046816014 1.279 4279573792
-0.070185468 -0.046852618 1.2800001 4279442719
-0.066633195 -0.046816014 1.279 4279574305
-0.063283846 -0.046925828 1.2820001 4279639844
-0.059871461 -0.046999034 1.284 4279771943
-0.056492034 -0.047108848 1.2870001 4279705898
-0.05301388 -0.047145449 1.2880001 4279837485
-0.04953026 -0.047182053 1.289 4279903026
-0.046183929 -0.047365069 1.294 4279968819
-0.042777296 -0.047511488 1.2980001 4280297784
-0.039439458 -0.04776771 1.3050001 4280494650
-0.036200769 -0.048206955 1.317 4280692023
-0.033242993 -0.049158644 1.3430001 4292599784
-0.2488008 -0.045282986 1.337 4278190080
-0.24092761 -0.044503998 1.314 4278190080
-0.23281898 -0.043657269 1.289 4285759632
-0.22555859 -0.042946018 1.268 4281153873
-0.22191608 -0.042912148 1.2670001 4280957272
-0.21810663 -0.042844411 1.2650001 4280694098
-0.21447781 -0.042810541 1.2640001 4280496719
-0.2103536 -0.042675067 1.2600001 4280694098
-0.2067439 -0.042641196 1.2590001 4280628048
-0.20346263 -0.042675067 1.2600001 4280496460
-0.19954091 -0.042573459 1.2570001 4280299081
-0.19594762 -0.042539589 1.256 4280233549
-0.19174671 -0.042370241 1.251 4279970888
-0.18772367 -0.042234767 1.2470001 4279904843
-0.18387032 -0.04213316 1.2440001 4279905613
-0.18017845 -0.042065423 1.2420001 4280498010
-0.17678219 -0.042065423 1.2420001 4280827745
-0.17296712 -0.041963812 1.2390001 4281024870
-0.16916846 -0.041862205 1.2360001 4280893284
-0.1653862 -0.041760601 1.233 4280958563
-0.16214596 -0.041794468 1.2340001 4280300631
-0.15877157 -0.041794468 1.2340001 4280300371
-0.15527125 -0.041760601 1.233 4280628820
-0.15153001 -0.041658994 1.23 4278190080
-0.14780518 -0.041557387 1.2270001 4280431439
-0.14362586 -0.041320302 1.22 4280300623
-0.13867988 -0.040846132 1.2060001 4280892760
-0.13111629 -0.039559107 1.1680001 4280761174
-0.12792239 -0.039559107 1.1680001 4280498000
-0.12504885 -0.039660715 1.171 4280563793
-0.12195078 -0.039694585 1.1720001 4280563278
-0.11904989 -0.039796192 1.1750001 4280299593
-0.11593544 -0.039830063 1.176 4279838783
-0.11348645 -0.040101014 1.184 4279707195
-0.11099371 -0.040371966 1.192 4279706164
-0.10854761 -0.040676787 1.2010001 4279838003
-0.10578933 -0.040880002 1.207 4279640875
-0.10350773 -0.041286431 1.2190001 4279508258
-0.1014892 -0.041828338 1.235 4279179547
-0.099621505 -0.042471848 1.2540001 4279113494
-0.096959509 -0.042810541 1.2640001 4279310101
-0.094020903 -0.043047626 1.271 4279178515
-0.090972781 -0.04325084 1.2770001 4279375894
-0.08768633 -0.043352447 1.2800001 4279441689
-0.084251925 -0.043386318 1.281 4279441689
-0.080812052 -0.043420184 1.2820001 4279638557
-0.077306412 -0.043420184 1.2820001 4279704608
-0.073800772 -0.043420184 1.2820001 4279507229
-0.070349962 -0.043454055 1.2830001 4279376413
-0.066789486 -0.043420184 1.2820001 4279639585
-0.063382573 -0.043487921 1.284 4279639844
-0.060057979 -0.043623399 1.2880001 4279442465
-0.05671151 -0.043758877 1.2920001 4279442980
-0.05321968 -0.043792747 1.2930001 4279442726
-0.049645536 -0.043758877 1.2920001 4279574315
-0.046183929 -0.043826614 1.294 4279574315
-0.042777296 -0.043962091 1.2980001 4279902515
-0.039439458 -0.044199176 1.3050001 4280100144
-0.036283232 -0.044707209 1.3200001 4280230703
-0.25611287 -0.041626949 1.337 4285297262
-0.25207919 -0.041564677 1.335 4281810237
-0.24824253 -0.041533541 1.3340001 4278981655
-0.24257781 -0.041191064 1.3230001 4278190080
-0.23426393 -0.040381562 1.2970001 4278190080
-0.22644801 -0.039634336 1.273 4288391344
-0.22139065 -0.039354123 1.2640001 4281154643
-0.21724455 -0.039229583 1.2600001 4281023317
-0.21345972 -0.039167315 1.258 4280956759
-0.20951886 -0.039073911 1.2550001 4280628305
-0.20575862 -0.039011639 1.253 4280496719
-0.20249376 -0.039042775 1.2540001 4280299340
-0.1987472 -0.038980506 1.2520001 4280102474
-0.1953236 -0.038980506 1.2520001 4280365394
-0.19098035 -0.038793698 1.2460001 4280431957
-0.18682042 -0.038638026 1.2410001 4281024354
-0.18283568 -0.038513485 1.2370001 4280893795
-0.17901789 -0.038420085 1.2340001 4281025383
-0.17592816 -0.038482353 1.2360001 4280959588
-0.17240871 -0.038451217 1.235 4280893797
-0.16862099 -0.038357813 1.2320001 4280696159
-0.16484967 -0.038264412 1.2290001 4280366424
-0.16148897 -0.038264412 1.2290001 4280300372
-0.15851425 -0.038357813 1.2320001 4278190080
-0.1550194 -0.038326681 1.2310001 4278190080
-0.15079084 -0.038108736 1.2240001 4280037197
-0.14623919 -0.037797391 1.2140001 4280958299
-0.13738638 -0.036334068 1.1670001 4281221471
-0.1343102 -0.0363652 1.1680001 4281155932
-0.13122855 -0.036396336 1.169 4280826965
-0.12825096 -0.036458604 1.171 4280629071
-0.12526242 -0.036520872 1.1730001 4280431692
-0.12215889 -0.036552008 1.174 4280496970
-0.11925253 -0.036645412 1.177 4279970367
-0.11623118 -0.036707681 1.179 4279969851
-0.11367815 -0.036925621 1.1860001 4279706677
-0.11127306 -0.037205834 1.1950001 4279837487
-0.10890914 -0.037517179 1.205 4279705898
-0.10640286 -0.037797391 1.2140001 4279771430
-0.10444175 -0.038295545 1.23 4279310619
-0.10239315 -0.038793698 1.2460001 4279047699
-0.099859834 -0.039136179 1.2570001 4279178515
-0.096729383 -0.039260719 1.261 4279310099
-0.093725011 -0.039447524 1.2670001 4279178515
-0.090616591 -0.0396032 1.2720001 4279375896
-0.087343805 -0.039696604 1.2750001 4279244310
-0.083988845 -0.039758872 1.2770001 4279178517
-0.080496877 -0.039758872 1.2770001 4279178263
-0.076944605 -0.039727736 1.276 4279309850
-0.073455371 -0.039727736 1.276 4279179034
-0.070075803 -0.039790004 1.2780001 4279178780
-0.066528998 -0.039758872 1.2770001 4279244573
-0.063135758 -0.03982114 1.279 4279310881
-0.059638318 -0.03982114 1.279 4279376674
-0.056272563 -0.039914545 1.2820001 4279311140
-0.052808084 -0.039945677 1.2830001 4279508519
-0.049376555 -0.040007945 1.2850001 4279508522
-0.045898404 -0.040039081 1.286 4279442729
-0.042447735 -0.040101349 1.2880001 4279508270
-0.039076794 -0.040257026 1.2930001 4279376169
-0.036035847 -0.040817447 1.3110001 4279902256
-0.27069893 -0.037459705 1.319 4291416264
-0.26688963 -0.037431303 1.3180001 4290824127
-0.26348531 -0.037459705 1.319 4290495162
-0.25928742 -0.037374504 1.3160001 4290429369
-0.25530019 -0.037317704 1.314 4289837232
-0.25170705 -0.037317704 1.314 4288323740
-0.24830273 -0.037346106 1.3150001 4288521121
-0.2456373 -0.037488103 1.3200001 4279638814
-0.2418444 -0.037459705 1.319 4282402890
-0.23625074 -0.037147306 1.3080001 4278190080
-0.22822689 -0.036437303 1.2830001 4288982704
-0.22191608 -0.035982899 1.2670001 4286351510
-0.21689974 -0.035727303 1.258 4280298311
-0.21295068 -0.035642099 1.2550001 4281022554
-0.20885107 -0.0355285 1.251 4280891479
-0.20510177 -0.0354717 1.2490001 4280891992
-0.2013634 -0.035414901 1.2470001 4280497748
-0.19779474 -0.035386499 1.2460001 4280563543
-0.19438754 -0.035386499 1.2460001 4281090145
-0.19052051 -0.035301302 1.243 4281025124
-0.1866699 -0.035216101 1.24 4281025381
-0.18283568 -0.035130899 1.2370001 4281025383
-0.17901789 -0.035045698 1.2340001 4280893797
-0.1756435 -0.035045698 1.2340001 4280827743
-0.17226912 -0.035045698 1.2340001 4280301398
-0.16848412 -0.034960497 1.2310001 4280366677
-0.1645814 -0.034846898 1.2270001 4280563541
-0.16096337 -0.034790099 1.225 4280168785
-0.15774226 -0.0348185 1.2260001 4278190080
-0.15363416 -0.034648098 1.22 4280431957
-0.14413832 -0.033228092 1.1700001 4281221471
-0.14081848 -0.033199694 1.169 4281155932
-0.13773957 -0.033228092 1.1700001 4280958551
-0.13500015 -0.033341695 1.174 4280760144
-0.13201435 -0.033398494 1.176 4280168005
-0.12890808 -0.033426896 1.177 4279838779
-0.12568957 -0.033426896 1.177 4279839033
-0.12267915 -0.033483695 1.179 4279707446
-0.11996177 -0.033625696 1.184 4279706676
-0.11721703 -0.033767693 1.189 4279443245
-0.1149242 -0.034051698 1.199 4279574313
-0.11229733 -0.034250494 1.2060001 4279639846
-0.11008409 -0.034591299 1.2180001 4279442718
-0.10780521 -0.034932099 1.23 4279179287
-0.10554561 -0.035301302 1.243 4278981134
-0.10272187 -0.035500098 1.25 4279112720
-0.099462613 -0.035556901 1.2520001 4279178513
-0.096269131 -0.035642099 1.2550001 4279178515
-0.092985272 -0.035698902 1.2570001 4279112724
-0.089761712 -0.035784103 1.2600001 4279178263
-0.086453237 -0.035840902 1.2620001 4279178263
-0.082936518 -0.035812501 1.261 4279178263
-0.079551339 -0.035840902 1.2620001 4279243799
-0.076040082 -0.035812501 1.261 4279375643
-0.072591864 -0.035812501 1.261 4279376413
-0.069198482 -0.035840902 1.2620001 4279310881
-0.065747529 -0.035840902 1.2620001 4279442469
-0.062296581 -0.035840902 1.2620001 4279507749
-0.058798999 -0.035812501 1.261 4279639848
-0.055482466 -0.035897702 1.2640001 4279771179
-0.052149527 -0.035982899 1.2670001 4279771181
-0.048800178 -0.0360681 1.2700001 4279705901
-0.04532735 -0.0360681 1.2700001 4279771440
-0.041953389 -0.036153302 1.273 4280034612
-0.038744356 -0.036408901 1.2820001 4280231991
-0.035705999 -0.036891703 1.299 4280889408
-0.27305797 -0.033698894 1.3130001 4290100151
-0.26721001 -0.033416573 1.302 4289968819
-0.26324469 -0.033365242 1.3000001 4289771439
-0.2604889 -0.033467904 1.304 4289837232
-0.25692308 -0.033467904 1.304 4289968818
-0.25374585 -0.033519235 1.3060001 4289574830
-0.24921681 -0.033390906 1.3010001 4288982440
-0.24565922 -0.033390906 1.3010001 4288587684
-0.24210161 -0.033390906 1.3010001 4283784027
-0.23872736 -0.033416573 1.302 4284375911
-0.23354146 -0.033185583 1.2930001 4285691771
-0.22769323 -0.032851931 1.2800001 4285823873
-0.22156578 -0.032466948 1.2650001 4288982963
-0.21603763 -0.03215896 1.253 4288193714
-0.21210225 -0.032081962 1.25 4281351001
-0.20801634 -0.0319793 1.2460001 4281483618
-0.20411649 -0.031902306 1.243 4281483876
-0.20007157 -0.031799641 1.2390001 4281682024
-0.19636604 -0.03174831 1.2370001 4281748330
-0.19282743 -0.031722642 1.2360001 4281485673
-0.18914104 -0.031671312 1.2340001 4281354348
-0.18576665 -0.031671312 1.2340001 4281091176
-0.18239227 -0.031671312 1.2340001 4280959590
-0.17872773 -0.031619981 1.2320001 4280762209
-0.17507415 -0.03156865 1.23 4280498778
-0.1714315 -0.031517319 1.228 4280432468
-0.16793665 -0.031491656 1.2270001 4278190080
-0.16404487 -0.031388991 1.223 4278190080
-0.15399924 -0.030080048 1.1720001 4280498002
-0.15015107 -0.029951721 1.1670001 4280826967
-0.14708583 -0.029977387 1.1680001 4281024346
-0.14376873 -0.029951721 1.1670001 4281090137
-0.1410594 -0.030054383 1.171 4280826197
-0.13821046 -0.030131379 1.174 4280036422
-0.13534513 -0.030208377 1.177 4280036162
-0.13201435 -0.030182712 1.176 4279772988
-0.12879857 -0.030182712 1.176 4279969851
-0.12579636 -0.030234043 1.1780001 4279838263
-0.12299132 -0.030336704 1.182 4279706419
-0.12036704 -0.030490696 1.1880001 4279838005
-0.11800571 -0.030721689 1.197 4279640106
-0.115691 -0.030978343 1.207 4279639846
-0.11332159 -0.031234998 1.217 4279179547
-0.11107828 -0.031542987 1.2290001 4279310103
-0.10833108 -0.031722642 1.2360001 4279178513
-0.10512106 -0.031773973 1.238 4279178513
-0.10190009 -0.031825308 1.24 4279244308
-0.098509304 -0.031825308 1.24 4279244308
-0.095348626 -0.031902306 1.243 4279310103
-0.091801688 -0.031850975 1.2410001 4279309849
-0.088408165 -0.031850975 1.2410001 4279375642
-0.085220151 -0.031927969 1.2440001 4279309849
-0.08175265 -0.031902306 1.243 4279375642
-0.07841669 -0.031927969 1.2440001 4279441435
-0.074894354 -0.031876639 1.2420001 4279638814
-0.071382962 -0.031825308 1.24 4279639331
-0.068101831 -0.031876639 1.2420001 4279837227
-0.064861864 -0.031953637 1.245 4279705388
-0.061556127 -0.032004967 1.2470001 4279902767
-0.058052938 -0.031953637 1.245 4279902513
-0.054648474 -0.031953637 1.245 4279968306
-0.051326327 -0.032004967 1.2470001 4279771694
-0.047916394 -0.032004967 1.2470001 4279837487
-0.04450646 -0.032004967 1.2470001 4279903796
-0.041360177 -0.03221029 1.2550001 4280101177
-0.038260806 -0.032492612 1.266 4280298556
-0.035266202 -0.032928925 1.2830001 4280889923
-0.032500409 -0.033698894 1.3130001 4281152321
-0.2709783 -0.029879171 1.3030001 4290626495
-0.26536295 -0.029649861 1.2930001 4290363577
-0.26101723 -0.029558139 1.289 4290166197
-0.25789198 -0.029603999 1.291 4290100404
-0.25436172 -0.029603999 1.291 4289639853
-0.25180292 -0.029718654 1.296 4289640623
-0.2478759 -0.029672792 1.294 4287863961
-0.24471508 -0.029718654 1.296 4287732636
-0.24098508 -0.029695723 1.2950001 4282534990
-0.23671046 -0.029603999 1.291 4279836714
-0.23155463 -0.02939762 1.2820001 4282271305
-0.22662592 -0.029214172 1.274 4289902522
-0.22139065 -0.028984861 1.2640001 4288390053
-0.21586524 -0.028709687 1.2520001 4288390818
-0.2115932 -0.028595032 1.2470001 4286417552
-0.20734854 -0.028480379 1.2420001 4281220695
-0.20345964 -0.028411582 1.2390001 4282076780
-0.19958715 -0.028342791 1.2360001 4282011502
-0.19588982 -0.028296929 1.2340001 4281879914
-0.1923594 -0.028273998 1.233 4281748844
-0.18868122 -0.028228136 1.2310001 4281748847
-0.18546556 -0.028251067 1.2320001 4281485675
-0.18209665 -0.028251067 1.2320001 4281090145
-0.17872773 -0.028251067 1.2320001 4281024607
-0.17493181 -0.028182274 1.2290001 4278190080
-0.16668501 -0.027379688 1.194 4278190080
-0.16123013 -0.02701279 1.1780001 4280498002
-0.15693583 -0.026829341 1.1700001 4280826450
-0.15321085 -0.026737617 1.166 4281418587
-0.14989375 -0.026714686 1.1650001 4281089109
-0.14708583 -0.026783479 1.1680001 4280891730
-0.1443847 -0.026875202 1.1720001 4280167494
-0.14178216 -0.026989859 1.177 4279970367
-0.13879909 -0.027035721 1.179 4279772986
-0.13580509 -0.027081583 1.1810001 4279904055
-0.13257563 -0.027081583 1.1810001 4279969591
-0.1294557 -0.027104514 1.182 4279772210
-0.12665066 -0.027196238 1.1860001 4279838003
-0.12403185 -0.027333822 1.192 4279640622
-0.12158287 -0.027517272 1.2 4279640105
-0.11938588 -0.027769515 1.2110001 4279639844
-0.11703291 -0.027998824 1.2210001 4279310619
-0.11434587 -0.028159343 1.228 4279178517
-0.11153018 -0.028296929 1.2340001 4279112724
-0.10833108 -0.028342791 1.2360001 4279244310
-0.10478141 -0.028296929 1.2340001 4279112724
-0.10132484 -0.028273998 1.233 4279375642
-0.097794317 -0.028228136 1.2310001 4279375642
-0.094734967 -0.02831986 1.235 4279179033
-0.091135919 -0.028251067 1.2320001 4279244826
-0.087767005 -0.028251067 1.2320001 4279047448
-0.084466599 -0.028273998 1.233 4279179034
-0.081029177 -0.028251067 1.2320001 4279244827
-0.077660255 -0.028251067 1.2320001 4279441954
-0.074170738 -0.028205205 1.23 4279968300
-0.070922427 -0.028251067 1.2320001 4279903280
-0.067608342 -0.028273998 1.233 4280100407
-0.06449718 -0.028388651 1.238 4280101177
-0.06116122 -0.028411582 1.2390001 4280495680
-0.057819795 -0.028434517 1.24 4280627268
-0.054385103 -0.028411582 1.2390001 4280758854
-0.050914727 -0.028365722 1.2370001 4280561475
-0.047416862 -0.028296929 1.2340001 4280298301
-0.043971099 -0.028251067 1.2320001 4280101437
-0.040964704 -0.02850331 1.243 4280101953
-0.037958588 -0.028801411 1.256 4280365125
-0.034881379 -0.029099515 1.2690001 4281351250
-0.032153871 -0.029787447 1.299 4280758082
-0.27035442 -0.026255514 1.3000001 4287600789
-0.26495248 -0.026073748 1.291 4287797396
-0.26101723 -0.026033355 1.289 4287600270
-0.25749245 -0.026033355 1.289 4287600270
-0.25416473 -0.026053552 1.2900001 4287798419
-0.25141436 -0.026134336 1.294 4284048219
-0.2478759 -0.026134336 1.294 4285561715
-0.24452627 -0.026154533 1.2950001 4285825152
-0.24024072 -0.026073748 1.291 4282995802
-0.23561034 -0.025952566 1.2850001 4280363828
-0.23047091 -0.0257708 1.276 4280495157
-0.22591436 -0.025649618 1.2700001 4279178782
-0.22104034 -0.025488047 1.2620001 4291482324
-0.21534798 -0.025225492 1.2490001 4291943640
-0.2107448 -0.025084117 1.2420001 4286746254
-0.2068477 -0.025023526 1.2390001 4290825945
-0.20313121 -0.024983132 1.2370001 4280957524
-0.1992642 -0.024922544 1.2340001 4281615713
-0.19541357 -0.024861954 1.2310001 4281814123
-0.1920474 -0.024861954 1.2310001 4281616744
-0.18837467 -0.024821561 1.2290001 4281221731
-0.18411072 -0.024700381 1.223 4280892766
-0.17899273 -0.024458025 1.2110001 4280498008
-0.17365025 -0.024175271 1.197 4278190080
-0.16824198 -0.023872323 1.182 4278190080
-0.16361377 -0.023670357 1.1720001 4280826197
-0.15958773 -0.023549179 1.166 4281549920
-0.15626515 -0.023528982 1.1650001 4281418587
-0.15294805 -0.023508785 1.164 4280760144
-0.15015107 -0.023569375 1.1670001 4280035908
-0.14746362 -0.02365016 1.171 4280036162
-0.14500068 -0.023771342 1.177 4280035644
-0.14190263 -0.023791539 1.1780001 4280101435
-0.13868137 -0.023791539 1.1780001 4279772470
-0.1355751 -0.023811733 1.179 4279903798
-0.13268788 -0.023872323 1.182 4279838005
-0.12978427 -0.023932913 1.1850001 4279640624
-0.1271846 -0.024054091 1.1910001 4279772208
-0.12486428 -0.024235861 1.2 4279509289
-0.12239343 -0.024397435 1.2080001 4279508258
-0.11978023 -0.024538809 1.215 4279244827
-0.11674535 -0.024599399 1.2180001 4279047447
-0.11369406 -0.024659988 1.2210001 4279244056
-0.11071675 -0.024740776 1.225 4279375642
-0.10754226 -0.024781169 1.2270001 4279244827
-0.10427194 -0.024801364 1.228 4279113241
-0.10066743 -0.024740776 1.225 4279376413
-0.097317658 -0.024740776 1.225 4279179034
-0.094044589 -0.024760973 1.2260001 4279179034
-0.090692081 -0.024760973 1.2260001 4279244827
-0.08726833 -0.024740776 1.225 4279244827
-0.083918557 -0.024740776 1.225 4279441952
-0.080437236 -0.024700381 1.223 4279310881
-0.077092931 -0.024700381 1.223 4279639848
-0.073748626 -0.024700381 1.223 4280034353
-0.070577025 -0.024760973 1.2260001 4280231991
-0.067389011 -0.024821561 1.2290001 4280232508
-0.064236693 -0.024902347 1.233 4280429889
-0.060815677 -0.024882151 1.2320001 4280759113
-0.057353504 -0.024841757 1.23 4280824649
-0.053858373 -0.024781169 1.2270001 4280364098
-0.050420813 -0.024740776 1.225 4280429889
-0.046994183 -0.024700381 1.223 4280364609
-0.04361419 -0.024680184 1.222 4280233537
-0.040635139 -0.024902347 1.233 4280496711
-0.037656374 -0.025164902 1.2460001 4280562504
-0.034661479 -0.02546785 1.261 4281812571
-0.031931095 -0.026053552 1.2900001 4280496195
-0.27118629 -0.022770504 1.304 4287403410
-0.26556817 -0.022595882 1.294 4287402892
-0.26182723 -0.02257842 1.2930001 4287468685
-0.25809175 -0.022560958 1.2920001 4287140487
-0.2547558 -0.02257842 1.2930001 4286811524
-0.25122008 -0.02257842 1.2930001 4289772210
-0.2478759 -0.022595882 1.294 4290101436
-0.24414863 -0.02257842 1.2930001 4284377453
-0.23986855 -0.022508573 1.289 4280166452
-0.23487693 -0.022368874 1.281 4280363579
-0.23029031 -0.022264102 1.2750001 4280099892
-0.22591436 -0.022176793 1.2700001 4280231480
-0.22121549 -0.022054559 1.263 4279310379
-0.21586524 -0.021862475 1.2520001 4284968826
-0.21142353 -0.021757703 1.2460001 4289706173
-0.20718159 -0.021670394 1.2410001 4290562244
-0.20313121 -0.021600544 1.2370001 4288062379
-0.19942565 -0.02156562 1.235 4281548881
-0.1955723 -0.021513235 1.2320001 4281286486
-0.19220339 -0.021513235 1.2320001 4280891477
-0.18714845 -0.021321153 1.2210001 4280760406
-0.18140098 -0.02104176 1.205 4278190080
-0.1755932 -0.020744905 1.1880001 4280760153
-0.17089389 -0.020570284 1.1780001 4280957785
-0.16653395 -0.020430587 1.1700001 4281484129
-0.16277616 -0.02036074 1.166 4281549409
-0.15945086 -0.020343278 1.1650001 4280694098
-0.15653342 -0.020378202 1.1670001 4280299593
-0.15360504 -0.020413125 1.169 4280167494
-0.15105172 -0.020500436 1.174 4279969597
-0.14834513 -0.020570284 1.1780001 4279838265
-0.14561665 -0.020640133 1.182 4279904056
-0.14202307 -0.020587746 1.179 4279904056
-0.13879909 -0.020587746 1.179 4279772469
-0.13603507 -0.020657595 1.1830001 4279706417
-0.13358594 -0.020779829 1.1900001 4279771440
-0.13098902 -0.020884601 1.1960001 4279903280
-0.12857285 -0.021024296 1.2040001 4279705898
-0.12611292 -0.021163994 1.212 4279442465
-0.12330529 -0.021251304 1.217 4279376926
-0.12017456 -0.021286227 1.2190001 4279507999
-0.11674535 -0.021268766 1.2180001 4279442205
-0.11350783 -0.021286227 1.2190001 4279507745
-0.11044561 -0.021338614 1.222 4279507745
-0.10745462 -0.021408463 1.2260001 4279441952
-0.10410211 -0.021408463 1.2260001 4279441952
-0.1004209 -0.021338614 1.222 4279244573
-0.096999884 -0.021321153 1.2210001 4279310366
-0.093661048 -0.021321153 1.2210001 4279310368
-0.090618104 -0.021391001 1.225 4279244573
-0.087197088 -0.021373538 1.2240001 4279441952
-0.08371304 -0.021338614 1.222 4279508260
-0.080239929 -0.021303689 1.22 4279639854
-0.076903827 -0.021303689 1.22 4279903028
-0.073688328 -0.021338614 1.222 4280035382
-0.070577025 -0.021408463 1.2260001 4280232763
-0.067279346 -0.021425923 1.2270001 4280627781
-0.063872002 -0.021408463 1.2260001 4280561734
-0.060371406 -0.021356076 1.223 4280627529
-0.056933843 -0.021321153 1.2210001 4279969599
-0.05350722 -0.021286227 1.2190001 4280166978
-0.050173853 -0.021286227 1.2190001 4280430920
-0.046802059 -0.021268766 1.2180001 4280628297
-0.043435734 -0.021251304 1.217 4280562504
-0.040371489 -0.021391001 1.225 4281088848
-0.037444819 -0.021635469 1.2390001 4280694090
-0.034551531 -0.021949785 1.2570001 4280693574
-0.031906344 -0.022508573 1.289 4280035642
-0.26721001 -0.019175246 1.302 4289047463
-0.26364967 -0.019175246 1.302 4288784291
-0.26008934 -0.019175246 1.302 4288521119
-0.25633201 -0.019160518 1.3010001 4283850586
-0.25219151 -0.019116335 1.2980001 4284969328
-0.24768434 -0.019042699 1.2930001 4280560948
-0.24244922 -0.018910149 1.284 4280626749
-0.23782158 -0.018821785 1.2780001 4283521895
-0.23359345 -0.018762875 1.274 4286482580
-0.23065154 -0.018807057 1.2770001 4285232261
-0.22466917 -0.018600872 1.263 4280560453
-0.21771248 -0.018306321 1.243 4280955214
-0.21293414 -0.018188501 1.235 4279968318
-0.20904797 -0.018144319 1.2320001 4290233032
-0.20584601 -0.018159047 1.233 4287798687
-0.20214593 -0.018129591 1.2310001 4289706688
-0.19861828 -0.018114863 1.23 4285627785
-0.19509609 -0.018100137 1.2290001 4280429897
-0.19126736 -0.018055953 1.2260001 4278190080
-0.18484934 -0.017761404 1.2060001 4278190080
-0.17793855 -0.017407943 1.182 4280825173
-0.1730805 -0.017245939 1.171 4281220442
-0.16915303 -0.017172301 1.166 4281484129
-0.16582227 -0.017157575 1.1650001 4280628820
-0.16235735 -0.017128119 1.1630001 4280497232
-0.15945086 -0.017157575 1.1650001 4280430926
-0.15653342 -0.017187029 1.1670001 4280365386
-0.15386784 -0.017245939 1.171 4279970115
-0.15156637 -0.017349031 1.1780001 4280101183
-0.14884885 -0.017407943 1.182 4279904058
-0.14586304 -0.017437397 1.184 4279838263
-0.14202307 -0.017363759 1.179 4279969336
-0.13903454 -0.017393215 1.1810001 4279903796
-0.13626505 -0.017452125 1.1850001 4279772210
-0.13414723 -0.0175994 1.1950001 4279771694
-0.13164616 -0.017702492 1.202 4279639846
-0.12910679 -0.017805586 1.2090001 4279376672
-0.12652914 -0.017908677 1.2160001 4279245340
-0.12340662 -0.017938133 1.2180001 4279376926
-0.12017456 -0.017952859 1.2190001 4279376672
-0.11664949 -0.017923405 1.217 4279639585
-0.11322848 -0.017908677 1.2160001 4279770919
-0.11008409 -0.017938133 1.2180001 4279573540
-0.10684109 -0.017952859 1.2190001 4279442467
-0.10359264 -0.017967587 1.22 4279376674
-0.10009219 -0.017938133 1.2180001 4279442467
-0.096682109 -0.017923405 1.217 4279442467
-0.09335421 -0.017923405 1.217 4279244575
-0.090174258 -0.017952859 1.2190001 4279310883
-0.086769655 -0.017938133 1.2180001 4279442469
-0.083439022 -0.017938133 1.2180001 4279574313
-0.080042623 -0.017923405 1.217 4279838003
-0.076714724 -0.017923405 1.217 4279970102
-0.073447123 -0.017938133 1.2180001 4280298814
-0.070174053 -0.017952859 1.2190001 4280496195
-0.066840686 -0.017952859 1.2190001 4280562506
-0.06340313 -0.017923405 1.217 4280365127
-0.059828412 -0.017849769 1.212 4280035908
-0.056420926 -0.017820312 1.21 4279640636
-0.053068276 -0.017805586 1.2090001 4280627531
-0.049803413 -0.017820312 1.21 4280693838
-0.046494655 -0.017820312 1.21 4280562506
-0.043221593 -0.01783504 1.2110001 4280759883
-0.040074881 -0.017908677 1.2160001 4280694090
-0.037203044 -0.018129591 1.2310001 4281088848
-0.03457902 -0.018527234 1.258 4279904574
-0.032129116 -0.019116335 1.2980001 4279377199
-0.24471508 -0.015542956 1.296 4281087290
-0.23968245 -0.015447012 1.2880001 4281745222
-0.23506027 -0.015375054 1.2820001 4278190080
-0.23010968 -0.01527911 1.274 4278190080
-0.22449128 -0.015135193 1.2620001 4290891229
-0.21753731 -0.014895332 1.2420001 4281352282
-0.21310656 -0.014823374 1.2360001 4281943403
-0.20904797 -0.014775403 1.2320001 4281219666
-0.20567906 -0.014775403 1.2320001 4289050036
-0.20214593 -0.01476341 1.2310001 4287865501
-0.19877976 -0.01476341 1.2310001 4286746001
-0.1955723 -0.014775403 1.2320001 4278190080
-0.19157937 -0.014727431 1.228 4278190080
-0.18454279 -0.014439598 1.2040001 4280693574
-0.17703532 -0.014103794 1.176 4282206563
-0.17248929 -0.013995856 1.1670001 4281088605
-0.16871782 -0.013947884 1.1630001 4281220444
-0.16582227 -0.013971871 1.1650001 4280562773
-0.16263656 -0.013971871 1.1650001 4280563025
-0.15972459 -0.013995856 1.1670001 4280562512
-0.15720408 -0.014055821 1.1720001 4280299080
-0.15465623 -0.014115786 1.177 4279970115
-0.15246703 -0.01421173 1.1850001 4279838781
-0.14935257 -0.014223724 1.1860001 4279838263
-0.14598623 -0.01421173 1.1850001 4279706676
-0.14250493 -0.014187745 1.1830001 4279838005
-0.1397409 -0.014235716 1.187 4279837233
-0.13729998 -0.014319668 1.194 4279508520
-0.13538206 -0.014463584 1.2060001 4279574053
-0.13296042 -0.014559529 1.2140001 4279441952
-0.12996109 -0.014595507 1.217 4279507999
-0.12694535 -0.014631486 1.22 4279507745
-0.12371058 -0.01464348 1.2210001 4279442465
-0.12047032 -0.014655473 1.222 4279508258
-0.11693705 -0.014631486 1.22 4279574053
-0.11341472 -0.0146075 1.2180001 4279574055
-0.10990332 -0.014583514 1.2160001 4279573542
-0.10675345 -0.0146075 1.2180001 4279507749
-0.10342282 -0.0146075 1.2180001 4279573800
-0.10009219 -0.0146075 1.2180001 4279639593
-0.096523225 -0.014571521 1.215 4279442216
-0.093200795 -0.014571521 1.215 4279441962
-0.089878365 -0.014571521 1.215 4279771440
-0.086413458 -0.014547536 1.2130001 4279903798
-0.083096497 -0.014547536 1.2130001 4279772212
-0.079779536 -0.014547536 1.2130001 4279969851
-0.076462574 -0.014547536 1.2130001 4280101953
-0.073145613 -0.014547536 1.2130001 4280628299
-0.069886222 -0.014559529 1.2140001 4280365127
-0.066566527 -0.014559529 1.2140001 4280496459
-0.063194737 -0.014547536 1.2130001 4280496459
-0.059779048 -0.014523549 1.2110001 4279772736
-0.056327671 -0.01448757 1.2080001 4280562252
-0.052980486 -0.014475578 1.207 4280759631
-0.049762256 -0.014499563 1.2090001 4280364873
-0.046494655 -0.014511555 1.21 4280891217
-0.043185897 -0.014511555 1.21 4280957010
-0.039976012 -0.014547536 1.2130001 4280825678
-0.037021711 -0.014691452 1.225 4280957262
-0.034661479 -0.015123201 1.261 4279772472
-0.24509273 -0.012017548 1.2980001 4282731856
-0.23968245 -0.011924963 1.2880001 4281744961
-0.23487693 -0.011860154 1.281 4280099116
-0.22974844 -0.011776827 1.2720001 4278190080
-0.22360186 -0.011637949 1.2570001 4293062129
-0.21753731 -0.011499071 1.2420001 4291221730
-0.21310656 -0.01144352 1.2360001 4281089117
-0.20870861 -0.01138797 1.23 4281812332
-0.20501128 -0.011369453 1.228 4281219934
-0.20099644 -0.011332419 1.2240001 4287074980
-0.19748794 -0.01132316 1.223 4287863969
-0.1936674 -0.011295384 1.22 4278190080
-0.19001926 -0.011276867 1.2180001 4278190080
-0.18469608 -0.011156507 1.205 4291746010
-0.17778802 -0.010934303 1.1810001 4291219676
-0.17248929 -0.010804684 1.1670001 4280496713
-0.16857275 -0.010758391 1.1620001 4281023065
-0.16539524 -0.010758391 1.1620001 4280759893
-0.16263656 -0.010786166 1.1650001 4280826195
-0.15999833 -0.0108232 1.169 4280233801
-0.15760648 -0.010878752 1.1750001 4279904576
-0.15505043 -0.010925044 1.1800001 4279772988
-0.15246703 -0.010971337 1.1850001 4279839033
-0.14910071 -0.010962078 1.184 4279904055
-0.14610943 -0.010980595 1.1860001 4279706930
-0.14310722 -0.010999112 1.1880001 4279903796
-0.14068271 -0.011063922 1.1950001 4279639593
-0.1383349 -0.01113799 1.2030001 4279770921
-0.13594334 -0.011212057 1.2110001 4279310366
-0.13306995 -0.011249092 1.215 4279376413
-0.12985431 -0.011258351 1.2160001 4279573792
-0.1266332 -0.011267609 1.217 4279507745
-0.12330529 -0.011267609 1.217 4279639846
-0.12007599 -0.011276867 1.2180001 4279639846
-0.11645781 -0.011249092 1.215 4279574055
-0.11276291 -0.011212057 1.2110001 4279508262
-0.10918028 -0.011184283 1.2080001 4279441956
-0.10596463 -0.011193541 1.2090001 4279507494
-0.10274352 -0.011202799 1.21 4279508009
-0.099434763 -0.011202799 1.21 4279574061
-0.095967129 -0.011184283 1.2080001 4279771442
-0.092817247 -0.011202799 1.21 4279837750
-0.089286573 -0.011175024 1.207 4280298301
-0.085843541 -0.011156507 1.205 4280233023
-0.082616962 -0.011165766 1.2060001 4280167746
-0.079319142 -0.011165766 1.2060001 4280365127
-0.07608436 -0.011175024 1.207 4280430920
-0.072783805 -0.011175024 1.207 4280562252
-0.06948325 -0.011175024 1.207 4280628046
-0.066182695 -0.011175024 1.207 4280957011
-0.062830053 -0.011165766 1.2060001 4279970115
-0.059482865 -0.011156507 1.205 4280167495
-0.056047894 -0.011128731 1.202 4280693838
-0.05280491 -0.01113799 1.2030001 4280364873
-0.049638774 -0.011165766 1.2060001 4280628045
-0.046533082 -0.011212057 1.2110001 4280693838
-0.043328665 -0.011239834 1.2140001 4280825424
-0.040140793 -0.011276867 1.2180001 4281088596
-0.037263487 -0.011415745 1.233 4280628297
-0.034963842 -0.011776827 1.2720001 4280956231
-0.23986855 -0.0084094387 1.289 4284245095
-0.23561034 -0.008383343 1.2850001 4278190080
-0.23101278 -0.0083441986 1.279 4278190080
-0.22502494 -0.0082528628 1.2650001 4282928213
-0.21823794 -0.0081289066 1.2460001 4292536301
-0.21345139 -0.0080767153 1.238 4285496463
-0.20870861 -0.008024523 1.23 4281285727
-0.20434348 -0.0079853786 1.2240001 4281680744
-0.20017539 -0.007952759 1.2190001 4280627278
-0.19651906 -0.0079397103 1.217 4285495685
-0.19287367 -0.0079266625 1.215 4278190080
-0.18970725 -0.0079331864 1.2160001 4278190080
-0.18607555 -0.0079201385 1.2140001 4278190080
-0.1806483 -0.0078288028 1.2 4289772477
-0.17426294 -0.0076917987 1.179 4286680475
-0.16973333 -0.0076330821 1.1700001 4280890452
-0.16624928 -0.0076200343 1.1680001 4280956759
-0.16347417 -0.0076396065 1.171 4280365386
-0.16068266 -0.0076591787 1.174 4280036162
-0.15814301 -0.0076917987 1.179 4279772988
-0.15531322 -0.0077113709 1.182 4279641654
-0.1525957 -0.0077374661 1.1860001 4279772723
-0.14935257 -0.0077374661 1.1860001 4279706417
-0.1467254 -0.0077700866 1.1910001 4279969073
-0.14407091 -0.0078027067 1.1960001 4279705899
-0.14185998 -0.0078614224 1.205 4279639333
-0.13913985 -0.0078940419 1.21 4279638814
-0.13628012 -0.0079201385 1.2140001 4279705377
-0.13317947 -0.0079331864 1.2160001 4279508512
-0.12985431 -0.0079331864 1.2160001 4279508512
-0.12652914 -0.0079331864 1.2160001 4279574051
-0.12310266 -0.0079266625 1.215 4279574053
-0.11978023 -0.0079266625 1.215 4279574053
-0.1162661 -0.0079136146 1.2130001 4279639846
-0.11257668 -0.007887518 1.2090001 4279574055
-0.10899951 -0.0078679472 1.2060001 4279442214
-0.10578933 -0.0078744711 1.207 4279442214
-0.10248879 -0.0078744711 1.207 4279573802
-0.099270418 -0.0078809941 1.2080001 4279639854
-0.0957288 -0.0078614224 1.205 4279837235
-0.092510417 -0.0078679472 1.2060001 4280430150
-0.08906465 -0.0078548985 1.2040001 4280628299
-0.085558586 -0.0078353267 1.2010001 4280628045
-0.082274437 -0.0078353267 1.2010001 4280562253
-0.079056062 -0.0078418506 1.202 4280825938
-0.07589525 -0.0078548985 1.2040001 4280825684
-0.072663203 -0.0078614224 1.205 4280957270
