# .PCD v0.7 - Point Cloud Data file format
VERSION 0.7
FIELDS x y z rgba
SIZE 4 4 4 4
TYPE F F F U
COUNT 1 1 1 1
WIDTH 1091
HEIGHT 1
VIEWPOINT 0 0 0 1 0 0 0
POINTS 1091
DATA ascii
-0.2493619 -0.13531637 1.36 4286545001
-0.24708796 -0.13611235 1.368 4285623384
-0.2449481 -0.13700782 1.3770001 4286017629
-0.24310935 -0.13810231 1.388 4285688664
-0.24121042 -0.13919677 1.399 4285819740
-0.23908167 -0.14019175 1.409 4285491036
-0.23639736 -0.14088823 1.416 4285951847
-0.23482427 -0.14228119 1.4300001 4286807926
-0.23414351 -0.14427114 1.45 4278190080
-0.22811478 -0.14297767 1.437 4285228892
-0.21981704 -0.14019175 1.409 4285360477
-0.21366499 -0.13869928 1.3940001 4285359959
-0.20894985 -0.13810231 1.388 4285228114
-0.20485875 -0.1379033 1.386 4285820250
-0.20135885 -0.13810231 1.388 4285885786
-0.19813271 -0.13850029 1.3920001 4286609509
-0.19544308 -0.13929626 1.4000001 4288780684
-0.1922991 -0.13979375 1.4050001 4288649611
-0.18885951 -0.14009224 1.4080001 4287729279
-0.18356395 -0.13899778 1.3970001 4285689696
-0.17807119 -0.13770431 1.3840001 4285821280
-0.17340513 -0.13700782 1.3770001 4286083425
-0.16976291 -0.13710733 1.378 4286017119
-0.16611521 -0.13720682 1.3790001 4286214496
-0.1622266 -0.13710733 1.378 4286214498
-0.15822846 -0.13690834 1.376 4286214498
-0.15435351 -0.13680884 1.3750001 4285557081
-0.15059356 -0.13680884 1.3750001 4285754717
-0.14704718 -0.13700782 1.3770001 4285754717
-0.14348987 -0.13720682 1.3790001 4285688665
-0.14002295 -0.13750531 1.3820001 4285622872
-0.13624385 -0.13750531 1.3820001 4285688665
-0.13256061 -0.13760482 1.383 4285886046
-0.12868567 -0.13750531 1.3820001 4285491288
-0.12490657 -0.13750531 1.3820001 4286017632
-0.12103984 -0.13740581 1.381 4285820253
-0.11726348 -0.13740581 1.381 4285688924
-0.11332276 -0.13720682 1.3790001 4285623131
-0.10939299 -0.13700782 1.3770001 4285623131
-0.10555086 -0.13690834 1.376 4285623901
-0.1017142 -0.13680884 1.3750001 4285558108
-0.097740531 -0.13651034 1.3720001 4285821280
-0.093714766 -0.13611235 1.368 4285887073
-0.089710869 -0.13571435 1.3640001 4285952866
-0.085917965 -0.13561487 1.363 4285887073
-0.082251124 -0.13571435 1.3640001 4285755487
-0.078521252 -0.13571435 1.3640001 4286018661
-0.074791387 -0.13571435 1.3640001 4286281833
-0.07100942 -0.13561487 1.363 4286676337
-0.067381009 -0.13581386 1.365 4287202682
-0.063881546 -0.13631135 1.3700001 4287664011
-0.06044253 -0.13700782 1.3770001 4286282617
-0.057294507 -0.13850029 1.3920001 4293323759
-0.2828868 -0.13517767 1.3970001 4290230191
-0.27147576 -0.13150068 1.3590001 4290361258
-0.26539522 -0.13033952 1.3470001 4290492583
-0.26112896 -0.13004923 1.3440001 4290360995
-0.25726223 -0.12995248 1.3430001 4289703067
-0.25453392 -0.13043629 1.348 4286347626
-0.25159213 -0.13082333 1.3520001 4286281831
-0.24954528 -0.1316942 1.3610001 4285229141
-0.24726856 -0.1324683 1.3690001 4286149729
-0.24530387 -0.13343593 1.3790001 4286017630
-0.24310935 -0.1343068 1.388 4285820251
-0.24086559 -0.13517767 1.3970001 4285622361
-0.23857263 -0.13604853 1.406 4285622361
-0.23589651 -0.13672587 1.4130001 4286214757
-0.23351057 -0.13759674 1.4220001 4288123269
-0.23155984 -0.13875788 1.434 4291281847
-0.22620986 -0.13788702 1.4250001 4285952868
-0.21934901 -0.13604853 1.406 4285031766
-0.21366499 -0.13488737 1.3940001 4285557081
-0.2091004 -0.13440356 1.3890001 4285228114
-0.20441532 -0.13382299 1.383 4289175181
-0.19976307 -0.1332424 1.3770001 4289964697
-0.1958553 -0.13314565 1.376 4289833366
-0.19265103 -0.1335327 1.3800001 4289504401
-0.18928802 -0.13382299 1.383 4288780935
-0.18550619 -0.13382299 1.383 4287991419
-0.18133017 -0.1335327 1.3800001 4285886044
-0.17717054 -0.1332424 1.3770001 4286149729
-0.17340513 -0.1332424 1.3770001 4286214496
-0.16976291 -0.13333917 1.378 4286345312
-0.16611521 -0.13343593 1.3790001 4286411105
-0.1622266 -0.13333917 1.378 4286740070
-0.15822846 -0.13314565 1.376 4286477416
-0.15435351 -0.13304889 1.3750001 4286280804
-0.15048404 -0.13295212 1.3740001 4286083425
-0.14715397 -0.13333917 1.378 4286017632
-0.14359392 -0.1335327 1.3800001 4285688667
-0.14012426 -0.13382299 1.383 4285557338
-0.13634244 -0.13382299 1.383 4285294166
-0.13236891 -0.13362946 1.381 4285886303
-0.12840632 -0.13343593 1.3790001 4285754717
-0.1247258 -0.1335327 1.3800001 4285754717
-0.12095218 -0.1335327 1.3800001 4285820510
-0.11709365 -0.13343593 1.3790001 4285688924
-0.11299405 -0.13304889 1.3750001 4285622874
-0.10915466 -0.13295212 1.3740001 4285557338
-0.10532073 -0.13285536 1.373 4285623901
-0.10164022 -0.13295212 1.3740001 4285755487
-0.097811766 -0.13285536 1.373 4285689694
-0.093783267 -0.1324683 1.3690001 4285821280
-0.08977665 -0.13208126 1.365 4286150245
-0.086044036 -0.13208126 1.365 4285821282
-0.082371734 -0.13217802 1.3660001 4285952868
-0.078636393 -0.13217802 1.3660001 4286413419
-0.074846216 -0.13208126 1.365 4286479212
-0.071113609 -0.13208126 1.365 4286742384
-0.067381009 -0.13208126 1.365 4287268474
-0.063881546 -0.13256507 1.3700001 4287992461
-0.060398635 -0.13314565 1.376 4286019445
-0.28629643 -0.1311695 1.3950001 4290098856
-0.27316698 -0.1268442 1.3490001 4290624169
-0.26708099 -0.12571585 1.337 4290492581
-0.26263687 -0.12533975 1.3330001 4290426788
-0.25938034 -0.1255278 1.335 4290295202
-0.25630444 -0.12580988 1.3380001 4287926656
-0.25453392 -0.12675017 1.348 4286150245
-0.25215042 -0.12740836 1.355 4285821280
-0.25027868 -0.12834865 1.365 4285162580
-0.24817167 -0.1291949 1.3740001 4285491286
-0.24619329 -0.13013519 1.3840001 4285886044
-0.24380995 -0.13088742 1.3920001 4285425493
-0.24138284 -0.13163964 1.4000001 4285359189
-0.23891199 -0.13239187 1.4080001 4285359189
-0.23589651 -0.132862 1.4130001 4287333492
-0.23301794 -0.13342617 1.419 4287925886
-0.22978359 -0.13380228 1.4230001 4286807405
-0.22509867 -0.13333215 1.4180001 4285623131
-0.21934901 -0.1322038 1.406 4278190080
-0.21397154 -0.13126352 1.396 4285491288
-0.2087993 -0.13041727 1.3870001 4278190080
-0.20367628 -0.12957102 1.378 4290162076
-0.19787714 -0.12825462 1.3640001 4290359968
-0.19286624 -0.12740836 1.355 4290425761
-0.18888177 -0.1272203 1.353 4290557347
-0.18545571 -0.12740836 1.355 4290359967
-0.18215285 -0.12769045 1.358 4289768343
-0.17922778 -0.12825462 1.3640001 4286544486
-0.17652723 -0.12900685 1.3720001 4286478693
-0.17378291 -0.12975907 1.3800001 4286675047
-0.17013249 -0.1298531 1.381 4286608484
-0.16635613 -0.1298531 1.381 4286608739
-0.16234432 -0.12966505 1.3790001 4286806118
-0.15845844 -0.12957102 1.378 4286542691
-0.15457802 -0.12947698 1.3770001 4286148703
-0.15092213 -0.12957102 1.378 4285820253
-0.14758113 -0.12994713 1.3820001 4285622874
-0.1441142 -0.1302292 1.3850001 4285557081
-0.14052953 -0.13041727 1.3870001 4285359702
-0.13653961 -0.1302292 1.3850001 4286675562
-0.1321772 -0.12966505 1.3790001 4288452230
-0.12784763 -0.12910087 1.373 4290031262
-0.12391237 -0.12891282 1.3710001 4289570711
-0.12016336 -0.12891282 1.3710001 4289636504
-0.11649927 -0.12900685 1.3720001 4287465335
-0.11266534 -0.12891282 1.3710001 4285426522
-0.10915466 -0.1291949 1.3740001 4285229143
-0.10539744 -0.1291949 1.3740001 4285558108
-0.10178817 -0.12938297 1.376 4285821280
-0.097811766 -0.12910087 1.373 4285623903
-0.093920276 -0.12891282 1.3710001 4285821282
-0.090039723 -0.12872475 1.3690001 4285952868
-0.08642225 -0.12891282 1.3710001 4286084200
-0.082793839 -0.12910087 1.373 4286018407
-0.078924224 -0.12891282 1.3710001 4286084200
-0.075065553 -0.12872475 1.3690001 4286413419
-0.071217805 -0.12853672 1.3670001 4286610798
-0.067529097 -0.12863073 1.368 4287400060
-0.063974805 -0.12900685 1.3720001 4287729287
-0.060574207 -0.12975907 1.3800001 4286150774
-0.29239872 -0.12835908 1.406 4290295982
-0.27706107 -0.12324664 1.35 4290163620
-0.26972458 -0.12160335 1.332 4290228895
-0.26488364 -0.12105558 1.3260001 4290228894
-0.26106066 -0.12096429 1.325 4290228894
-0.25802031 -0.12123817 1.3280001 4289374355
-0.2555382 -0.12178593 1.3340001 4285821278
-0.25434509 -0.12297275 1.3470001 4285887073
-0.2523365 -0.1237944 1.3560001 4285887073
-0.25027868 -0.12461604 1.365 4285689694
-0.24762981 -0.12516381 1.3710001 4285886303
-0.24565963 -0.12607674 1.381 4285425493
-0.24363481 -0.12698968 1.391 4285228114
-0.24138284 -0.12781133 1.4000001 4285293907
-0.23908167 -0.12863298 1.409 4285228114
-0.23589651 -0.12899815 1.4130001 4287070831
-0.23219688 -0.12908944 1.414 4287334003
-0.22833028 -0.12908944 1.414 4286610280
-0.2241462 -0.12890685 1.4120001 4285820253
-0.219193 -0.12826779 1.4050001 4278190080
-0.21366499 -0.12726356 1.3940001 4278190080
-0.20774554 -0.12598546 1.3800001 4290425248
-0.2014592 -0.12443346 1.363 4290688420
-0.19483064 -0.12260757 1.3430001 4290425761
-0.18987715 -0.12178593 1.3340001 4290557347
-0.18553132 -0.12132947 1.3290001 4290425761
-0.18217088 -0.12151206 1.3310001 4290163101
-0.17906779 -0.12187723 1.335 4289373585
-0.17686261 -0.12288146 1.3460001 4286939244
-0.1754979 -0.12452474 1.3640001 4287925626
-0.17340513 -0.12571156 1.3770001 4288188286
-0.17025568 -0.12616804 1.3820001 4288253309
-0.16635613 -0.12607674 1.381 4288121978
-0.16234432 -0.12589416 1.3790001 4287924599
-0.15822846 -0.12562028 1.376 4287596149
-0.15435351 -0.12552898 1.3750001 4287596149
-0.1508126 -0.12571156 1.3770001 4286675562
-0.14747435 -0.12607674 1.381 4285886046
-0.14401014 -0.12635063 1.3840001 4285425495
-0.1403269 -0.12644191 1.3850001 4278190080
-0.13604668 -0.12598546 1.3800001 4291017898
-0.13112286 -0.12488992 1.368 4290623653
-0.12626466 -0.1237944 1.3560001 4290557860
-0.12210476 -0.12333792 1.3510001 4290557860
-0.11841044 -0.12333792 1.3510001 4290295202
-0.11463121 -0.12324664 1.35 4290097825
-0.11126832 -0.12361182 1.3540001 4287531898
-0.10836022 -0.12452474 1.3640001 4284965971
-0.10524403 -0.12525509 1.3720001 4285426522
-0.10186214 -0.12571156 1.3770001 4285887073
-0.097954251 -0.12552898 1.3750001 4285558108
-0.094057284 -0.12534639 1.373 4285887073
-0.090171263 -0.12516381 1.3710001 4285820512
-0.08642225 -0.12516381 1.3710001 4286083686
-0.082733542 -0.12525509 1.3720001 4286412651
-0.078809097 -0.12498122 1.3690001 4285952614
-0.075065553 -0.12498122 1.3690001 4286149993
-0.071217805 -0.12479863 1.3670001 4286808177
-0.067529097 -0.12488992 1.368 4287334267
-0.063928172 -0.12516381 1.3710001 4287992459
-0.06237388 -0.1297285 1.4210001 4286940288
-0.3017216 -0.1268169 1.432 4278190080
-0.28345621 -0.12070632 1.363 4289834661
-0.27439308 -0.11840378 1.337 4289768860
-0.26891458 -0.11760674 1.3280001 4289702038
-0.26468387 -0.11734106 1.325 4289439379
-0.26086363 -0.11725251 1.3240001 4289439893
-0.25802031 -0.11760674 1.3280001 4287202931
-0.25649601 -0.11858089 1.3390001 4286216038
-0.25491154 -0.11955505 1.35 4285294936
-0.25308084 -0.12044064 1.36 4285492315
-0.25046203 -0.120972 1.3660001 4285952866
-0.24817167 -0.12168047 1.3740001 4285688924
-0.24601543 -0.12247751 1.383 4285688924
-0.24416025 -0.12345165 1.3940001 4285294166
-0.24190009 -0.12424869 1.4030001 4285425752
-0.23942102 -0.12495716 1.411 4285228373
-0.23589651 -0.12513429 1.4130001 4285294936
-0.23203266 -0.12513429 1.4130001 4285426520
-0.2281688 -0.12513429 1.4130001 4285820764
-0.22398745 -0.12495716 1.411 4278190080
-0.219193 -0.12442581 1.4050001 4278190080
-0.21320517 -0.12318598 1.391 4288188798
-0.20624012 -0.12132623 1.3700001 4290228124
-0.19894651 -0.11920082 1.3460001 4290688675
-0.19294472 -0.11778386 1.33 4290754725
-0.18859614 -0.11734106 1.325 4290491553
-0.18441451 -0.11698683 1.3210001 4290426273
-0.18107595 -0.11716395 1.3230001 4290623652
-0.17812885 -0.11760674 1.3280001 4288057725
-0.17581141 -0.11849233 1.3380001 4287004524
-0.17459726 -0.12017496 1.3570001 4289109901
-0.17302734 -0.12168047 1.3740001 4289044108
-0.17025568 -0.12238894 1.3820001 4289175181
-0.16635613 -0.12230038 1.381 4289438353
-0.16246204 -0.12221183 1.3800001 4289569939
-0.15845844 -0.12203471 1.378 4289965209
-0.15457802 -0.12194615 1.3770001 4290688933
-0.15103166 -0.12212327 1.3790001 4288649352
-0.14768791 -0.12247751 1.383 4286017632
-0.14421825 -0.12274318 1.386 4284898897
-0.14022557 -0.12256607 1.3840001 4278190080
-0.13555376 -0.12176903 1.3750001 4278190080
-0.12997265 -0.1200864 1.3560001 4290623140
-0.12458858 -0.11849233 1.3380001 4290754726
-0.12038752 -0.11796098 1.332 4290623653
-0.11674515 -0.11796098 1.332 4290097823
-0.11301787 -0.11787242 1.3310001 4289966239
-0.10987131 -0.11840378 1.337 4288518793
-0.1075658 -0.11990929 1.3540001 4284176455
-0.10516731 -0.1214148 1.3710001 4284439627
-0.10215805 -0.12230038 1.381 4284702799
-0.098239206 -0.12212327 1.3790001 4285359959
-0.094262801 -0.12185759 1.376 4285754717
-0.09043435 -0.12176903 1.3750001 4286215270
-0.08661136 -0.12168047 1.3740001 4286281065
-0.082854144 -0.12168047 1.3740001 4286412396
-0.078981794 -0.12150335 1.3720001 4286543982
-0.075230047 -0.12150335 1.3720001 4286347372
-0.071426198 -0.1214148 1.3710001 4286545005
-0.067775913 -0.12159191 1.373 4287071095
-0.06411469 -0.12176903 1.3750001 4287926153
-0.062417775 -0.12593132 1.4220001 4287202945
-0.29645413 -0.12075547 1.4070001 4278190080
-0.28116858 -0.1160351 1.3520001 4287926664
-0.27316168 -0.11423279 1.3310001 4288321414
-0.2685096 -0.11380366 1.3260001 4289176207
-0.26468387 -0.11371783 1.325 4288715402
-0.26125768 -0.11380366 1.3260001 4287728761
-0.25840887 -0.11414696 1.33 4286545001
-0.25649601 -0.11491939 1.3390001 4285952864
-0.25453392 -0.11569181 1.348 4285952866
-0.25270867 -0.11655006 1.358 4285887073
-0.25046203 -0.11723666 1.3660001 4285755487
-0.24835227 -0.11800908 1.3750001 4286215268
-0.24619329 -0.11878151 1.3840001 4286083682
-0.24380995 -0.1194681 1.3920001 4285096787
-0.24138284 -0.1201547 1.4000001 4284834385
-0.23908167 -0.12092713 1.409 4284044869
-0.23589651 -0.12127043 1.4130001 4283979076
-0.23203266 -0.12127043 1.4130001 4284439627
-0.22800733 -0.12118459 1.4120001 4278190080
-0.22351122 -0.12084129 1.4080001 4278190080
-0.21810094 -0.11998305 1.3980001 4278190080
-0.21105933 -0.11818072 1.3770001 4278190080
-0.20262715 -0.11552016 1.3460001 4290359968
-0.19584259 -0.11371783 1.325 4290425760
-0.19105878 -0.11303124 1.317 4290557346
-0.18731511 -0.11294542 1.3160001 4290623139
-0.18343727 -0.11277377 1.314 4290228894
-0.18025474 -0.11303124 1.317 4289373585
-0.17772646 -0.11371783 1.325 4287465075
-0.17515443 -0.11440444 1.3330001 4287136111
-0.17343928 -0.11569181 1.348 4288912522
-0.17113839 -0.11663587 1.3590001 4290162589
-0.16853096 -0.1174083 1.368 4290031003
-0.16503106 -0.11757996 1.3700001 4289833624
-0.16163796 -0.11783743 1.373 4290294174
-0.15788348 -0.11783743 1.373 4290557346
-0.15424125 -0.11792325 1.3740001 4290623652
-0.1508126 -0.11818072 1.3770001 4289834137
-0.14747435 -0.11852402 1.381 4286675819
-0.14390609 -0.11869568 1.383 4278190080
-0.13951634 -0.11818072 1.3770001 4278190080
-0.13417357 -0.11680753 1.3610001 4290623140
-0.12805566 -0.11466192 1.3360001 4290623140
-0.12309873 -0.11346036 1.322 4290426274
-0.11921257 -0.11320289 1.319 4290097823
-0.11560575 -0.11320289 1.319 4290097823
-0.11199893 -0.11320289 1.319 4288979344
-0.10888518 -0.11371783 1.325 4287531898
-0.10661248 -0.11517686 1.342 4283781697
-0.10478377 -0.11723666 1.3660001 4284044869
-0.10215805 -0.11852402 1.381 4284768592
-0.098452926 -0.11860985 1.3820001 4285097557
-0.094468318 -0.11835238 1.3790001 4285294166
-0.090500116 -0.11809491 1.376 4285952098
-0.086674392 -0.11800908 1.3750001 4286083171
-0.082854144 -0.11792325 1.3740001 4286214757
-0.078924224 -0.11766578 1.3710001 4286412136
-0.075230047 -0.1177516 1.3720001 4286280550
-0.071426198 -0.11766578 1.3710001 4286346856
-0.067775913 -0.11783743 1.373 4287071095
-0.064860746 -0.11938228 1.391 4287992459
-0.062242195 -0.12169955 1.4180001 4287532424
-0.29455781 -0.1161602 1.3980001 4278190080
-0.28116858 -0.11233805 1.3520001 4287729287
-0.27336693 -0.11067625 1.332 4287400314
-0.26911709 -0.11042698 1.3290001 4287334519
-0.2654829 -0.11042698 1.3290001 4287400312
-0.26204577 -0.11051006 1.33 4287267956
-0.25918603 -0.11084242 1.3340001 4286544233
-0.25687912 -0.11142406 1.3410001 4286347624
-0.25453392 -0.11200569 1.348 4286150245
-0.25270867 -0.1128366 1.358 4286084452
-0.25046203 -0.11350132 1.3660001 4286083682
-0.24889414 -0.1144984 1.378 4285886046
-0.24637119 -0.11508003 1.3850001 4285491288
-0.24398509 -0.11574475 1.393 4285096787
-0.24155524 -0.11640948 1.401 4284834385
-0.23908167 -0.1170742 1.409 4284308041
-0.23656432 -0.11773892 1.4170001 4283781697
-0.23285374 -0.11782201 1.4180001 4284175685
-0.22881472 -0.11773892 1.4170001 4278190080
-0.2238287 -0.1171573 1.4100001 4278190080
-0.21716489 -0.11566167 1.3920001 4278190080
-0.20830038 -0.11291968 1.3590001 4290031262
-0.20006797 -0.11042698 1.3290001 4290360227
-0.19436453 -0.10926371 1.3150001 4290492067
-0.19033344 -0.10901444 1.312 4290492066
-0.18674576 -0.10901444 1.312 4290163101
-0.18329769 -0.10909753 1.3130001 4289504658
-0.18025474 -0.10942989 1.317 4288320384
-0.17786059 -0.1101777 1.3260001 4287661942
-0.17515443 -0.11075934 1.3330001 4287267697
-0.17266729 -0.11150714 1.342 4289504659
-0.1695013 -0.11183952 1.3460001 4289636245
-0.16631344 -0.11217187 1.35 4290228381
-0.16310368 -0.11250424 1.3540001 4290425760
-0.15987207 -0.1128366 1.358 4290294687
-0.15661858 -0.11316895 1.3620001 4290097308
-0.15323095 -0.11341822 1.365 4289702551
-0.15015547 -0.11391677 1.3710001 4289242000
-0.14683361 -0.11424913 1.3750001 4278190080
-0.14307366 -0.11424913 1.3750001 4278190080
-0.13789524 -0.11308587 1.3610001 4290426274
-0.13200471 -0.11125787 1.3390001 4290623140
-0.12661791 -0.10976225 1.3210001 4290623140
-0.12226069 -0.10909753 1.3130001 4290492067
-0.11867028 -0.10909753 1.3130001 4290294688
-0.11507986 -0.10909753 1.3130001 4290163616
-0.11191402 -0.10951298 1.3180001 4288189828
-0.10888518 -0.11009461 1.325 4287400312
-0.10653304 -0.11142406 1.3410001 4284110662
-0.10455365 -0.11325205 1.363 4284637006
-0.10208406 -0.11466458 1.3800001 4284834385
-0.098524161 -0.11491385 1.383 4284768592
-0.094468318 -0.11458149 1.3790001 4284900178
-0.090631664 -0.1144984 1.378 4285688924
-0.086863503 -0.1144984 1.378 4286149475
-0.083095349 -0.1144984 1.378 4286478183
-0.079154491 -0.11424913 1.3750001 4286346597
-0.075394541 -0.11424913 1.3750001 4286544233
-0.071582496 -0.11416604 1.3740001 4286741612
-0.067924008 -0.11433222 1.376 4287202165
-0.064954013 -0.11574475 1.393 4288189579
-0.062198304 -0.11773892 1.4170001 4288716184
-0.29371503 -0.11201593 1.3940001 4278190080
-0.28096065 -0.10856064 1.3510001 4287860873
-0.27336693 -0.10703388 1.332 4287860611
-0.26911709 -0.10679282 1.3290001 4287597693
-0.26528317 -0.10671246 1.3280001 4287202935
-0.26184875 -0.10679282 1.3290001 4287596921
-0.25899175 -0.10711424 1.3330001 4287202163
-0.25630444 -0.10751601 1.3380001 4288123265
-0.25396743 -0.10807851 1.345 4286281061
-0.25177824 -0.10872135 1.353 4286149729
-0.24972863 -0.10944455 1.3620001 4286215009
-0.24835227 -0.11048918 1.3750001 4285622874
-0.24601543 -0.11113203 1.383 4285425495
-0.24380995 -0.11185523 1.3920001 4285557338
-0.24121042 -0.11241771 1.399 4284768594
-0.23908167 -0.11322127 1.409 4284044871
-0.2368982 -0.11402483 1.419 4283847492
-0.23301794 -0.11402483 1.419 4283978308
-0.22913766 -0.11402483 1.419 4284175687
-0.2238287 -0.11330163 1.4100001 4278190080
-0.21638483 -0.11145344 1.3870001 4278190080
-0.20600125 -0.10799815 1.3440001 4288912270
-0.19856258 -0.10598926 1.319 4289636504
-0.1937733 -0.10534641 1.3110001 4289176207
-0.19018836 -0.10534641 1.3110001 4289044621
-0.18646109 -0.10526605 1.3100001 4289570965
-0.18287888 -0.10526605 1.3100001 4288320384
-0.17984413 -0.10558748 1.314 4287662197
-0.17759232 -0.10639104 1.3240001 4287858806
-0.17476024 -0.10687316 1.33 4288714885
-0.17176665 -0.10727494 1.335 4289701780
-0.16786422 -0.10711424 1.3330001 4289833623
-0.1645887 -0.1073553 1.3360001 4290425760
-0.1609354 -0.1073553 1.3360001 4290492064
-0.15775301 -0.10767672 1.34 4290360480
-0.15431874 -0.10783743 1.342 4290492064
-0.15109806 -0.10815886 1.3460001 4290163102
-0.14807454 -0.10864099 1.3520001 4290097309
-0.14469784 -0.10888205 1.355 4289702297
-0.14047232 -0.10848029 1.35 4290360227
-0.13495699 -0.10703388 1.332 4290557606
-0.12973727 -0.10574819 1.3160001 4290557860
-0.12537186 -0.10510533 1.3080001 4290491554
-0.12151577 -0.10486427 1.3050001 4290097309
-0.11785686 -0.10478391 1.304 4290228895
-0.11446634 -0.10494463 1.3060001 4289242514
-0.11148945 -0.10550711 1.3130001 4287400312
-0.10872082 -0.10631068 1.3230001 4287400312
-0.10613583 -0.1073553 1.3360001 4288387207
-0.10393997 -0.10888205 1.355 4283386941
-0.10127036 -0.11000704 1.3690001 4284768594
-0.097954251 -0.11048918 1.3750001 4284439629
-0.094125785 -0.11040882 1.3740001 4284900180
-0.090368569 -0.11040882 1.3740001 4285360731
-0.086674392 -0.11048918 1.3750001 4286215268
-0.083035052 -0.11064988 1.3770001 4286149218
-0.079154491 -0.11048918 1.3750001 4286346597
-0.075339712 -0.11040882 1.3740001 4286544233
-0.071530394 -0.11032847 1.373 4286479210
-0.068220183 -0.11105166 1.3820001 4286939763
-0.064907379 -0.11185523 1.3920001 4288057993
-0.062066618 -0.11362305 1.414 4289044637
-0.29434714 -0.1084369 1.3970001 4278190080
-0.28158453 -0.10509919 1.3540001 4287992459
-0.27439308 -0.10377962 1.337 4288057991
-0.26992705 -0.10346914 1.3330001 4287596923
-0.26588243 -0.10331389 1.3310001 4287596923
-0.26204577 -0.10323627 1.33 4287662457
-0.25918603 -0.10354675 1.3340001 4287530871
-0.25611287 -0.10377962 1.337 4289438866
-0.25358978 -0.10424534 1.3430001 4289373072
-0.25084779 -0.10463345 1.348 4288978568
-0.24844514 -0.1051768 1.355 4288385920
-0.24600422 -0.10572015 1.3620001 4287859321
-0.2437029 -0.10634112 1.3700001 4285951839
-0.24135783 -0.10696209 1.378 4285294166
-0.23896901 -0.10758306 1.386 4284373066
-0.23704548 -0.1084369 1.3970001 4283978308
-0.23489484 -0.10921311 1.4070001 4283188792
-0.23186846 -0.10960121 1.4120001 4283386173
-0.22849177 -0.10983407 1.4150001 4278190080
-0.22366998 -0.10936835 1.409 4278190080
-0.2159168 -0.10742782 1.3840001 4287596923
-0.20554143 -0.10409011 1.3410001 4287662714
-0.1990142 -0.1026153 1.322 4287333749
-0.19466013 -0.10222719 1.317 4287662714
-0.19105878 -0.10222719 1.317 4288057472
-0.18703042 -0.10199433 1.314 4288123265
-0.18343727 -0.10199433 1.314 4287794041
-0.18025474 -0.10222719 1.317 4287465075
-0.17759232 -0.10277054 1.3240001 4288385920
-0.17436604 -0.10300341 1.327 4289899159
-0.17112334 -0.10323627 1.33 4289767573
-0.1673605 -0.10315865 1.3290001 4290162331
-0.16409592 -0.10339151 1.332 4290688420
-0.16045356 -0.10339151 1.332 4290425760
-0.15716437 -0.10362437 1.335 4290360481
-0.15351379 -0.10362437 1.335 4290426273
-0.14997549 -0.103702 1.3360001 4290294175
-0.14621265 -0.10362437 1.335 4289833626
-0.14224172 -0.10339151 1.332 4289570454
-0.13755882 -0.1026153 1.322 4290294434
-0.13293061 -0.10183908 1.312 4290294434
-0.12865284 -0.10129574 1.3050001 4290294688
-0.12498846 -0.10121811 1.304 4290492067
-0.12123642 -0.10106288 1.302 4290163102
-0.11758571 -0.10098525 1.3010001 4289965722
-0.1142034 -0.1011405 1.3030001 4288057726
-0.11140455 -0.10183908 1.312 4286939761
-0.10872082 -0.10269292 1.3230001 4288781965
-0.1058975 -0.10346914 1.3330001 4289899676
-0.10301948 -0.10424534 1.3430001 4290032032
-0.10008677 -0.10502156 1.353 4290558378
-0.096814416 -0.10548728 1.3590001 4289966241
-0.093166724 -0.10556491 1.36 4289966241
-0.089645103 -0.10579778 1.363 4288650381
-0.086170107 -0.10610826 1.3670001 4286873968
-0.082854144 -0.1066516 1.3740001 4286018659
-0.079269633 -0.10688446 1.3770001 4286347624
-0.075613871 -0.10703971 1.3790001 4286281831
-0.071842983 -0.10703971 1.3790001 4286281831
-0.068417639 -0.10758306 1.386 4286808177
-0.06509389 -0.10835928 1.396 4287860612
-0.29497924 -0.10484145 1.4000001 4278190080
-0.28220844 -0.10162131 1.3570001 4288124047
-0.27480355 -0.10027335 1.3390001 4287926404
-0.27012956 -0.099898912 1.3340001 4287531130
-0.2660822 -0.099749148 1.332 4287465337
-0.26224279 -0.099674255 1.3310001 4288518023
-0.25899175 -0.099824034 1.3330001 4289241489
-0.25534666 -0.099824034 1.3330001 4289504659
-0.25226802 -0.10004869 1.3360001 4289570194
-0.2489869 -0.10019846 1.3380001 4289965463
-0.24606155 -0.10049801 1.342 4290294174
-0.24293369 -0.10072268 1.345 4290557346
-0.23961155 -0.10087244 1.3470001 4290294688
-0.23697907 -0.10132176 1.353 4290097055
-0.23414135 -0.1016962 1.358 4289571483
-0.23178533 -0.10229529 1.3660001 4290360229
-0.22988643 -0.10311905 1.3770001 4290097057
-0.22727048 -0.10364326 1.3840001 4290228643
-0.22461629 -0.10416746 1.391 4289636506
-0.2204951 -0.10401768 1.3890001 4289307541
-0.21326464 -0.10237019 1.3670001 4287728509
-0.20477507 -0.10004869 1.3360001 4287662716
-0.19916473 -0.099075168 1.3230001 4287267956
-0.19495577 -0.098775618 1.319 4287596921
-0.19134894 -0.098775618 1.319 4287531128
-0.18731511 -0.09855096 1.3160001 4287596921
-0.18357688 -0.098476075 1.3150001 4287399796
-0.18025474 -0.098625839 1.317 4287596661
-0.17732406 -0.099000275 1.322 4288517504
-0.17384043 -0.099075168 1.3230001 4289175434
-0.17022267 -0.099075168 1.3230001 4289043850
-0.16647899 -0.099000275 1.322 4289965209
-0.16311036 -0.099150054 1.3240001 4290162591
-0.15961033 -0.099224932 1.325 4290359968
-0.15634029 -0.099449597 1.3280001 4290623399
-0.15270886 -0.099449597 1.3280001 4290294174
-0.14896518 -0.099374712 1.327 4290228381
-0.14511743 -0.099224932 1.325 4289570452
-0.14096026 -0.098850511 1.3200001 4288451973
-0.13651828 -0.098251402 1.312 4289175953
-0.13222137 -0.097727202 1.3050001 4289637274
-0.12845567 -0.09757743 1.3030001 4289374102
-0.12479676 -0.097502545 1.302 4289703067
-0.12114331 -0.097427659 1.3010001 4289899676
-0.11749533 -0.097352766 1.3000001 4289504659
-0.11411576 -0.097502545 1.302 4287333490
-0.11131964 -0.098176524 1.3110001 4288057215
-0.10847428 -0.098850511 1.3200001 4289964958
-0.10534139 -0.099299826 1.3260001 4289899419
-0.10194556 -0.099524491 1.3290001 4290228641
-0.098533317 -0.099749148 1.332 4290623399
-0.095175914 -0.10004869 1.3360001 4290295204
-0.091796629 -0.10034824 1.34 4290097825
-0.088395461 -0.10064778 1.3440001 4290360997
-0.085161529 -0.10117199 1.3510001 4289176725
-0.082190827 -0.10207064 1.363 4285755489
-0.079096928 -0.10289439 1.3740001 4286150247
-0.075613871 -0.10326882 1.3790001 4286018661
-0.071790881 -0.10319393 1.378 4286347626
-0.068318911 -0.10364326 1.3840001 4286742130
-0.06509389 -0.1045419 1.396 4287531647
-0.29540062 -0.10115743 1.4020001 4278190080
-0.28324825 -0.098271348 1.3620001 4287926153
-0.2758297 -0.096972607 1.3440001 4287992197
-0.27114204 -0.096611843 1.3390001 4287991679
-0.26748052 -0.096611843 1.3390001 4287465335
-0.26342496 -0.09646754 1.337 4287728507
-0.25957465 -0.096395388 1.3360001 4288123265
-0.2555382 -0.096251078 1.3340001 4288584070
-0.25189036 -0.096251078 1.3340001 4289307279
-0.24805646 -0.096178934 1.3330001 4289504912
-0.24459469 -0.096251078 1.3340001 4289834136
-0.24058563 -0.096106783 1.332 4289899929
-0.23694326 -0.096106783 1.332 4289571479
-0.23365119 -0.096251078 1.3340001 4289834653
-0.23052061 -0.09646754 1.337 4289966239
-0.22737361 -0.096683994 1.34 4289702297
-0.22437716 -0.096972607 1.3440001 4289833883
-0.22152305 -0.097333364 1.3490001 4289899678
-0.21848011 -0.097621977 1.353 4289965469
-0.21493907 -0.097694129 1.3540001 4289110160
-0.20983246 -0.097044758 1.345 4287925888
-0.20431525 -0.096178934 1.3330001 4287531128
-0.19976689 -0.095746018 1.327 4287596921
-0.19569479 -0.095529564 1.3240001 4287531128
-0.19192922 -0.095457412 1.3230001 4287531128
-0.18802679 -0.095313102 1.3210001 4287333749
-0.18441451 -0.095313102 1.3210001 4287465589
-0.18080221 -0.095313102 1.3210001 4287596662
-0.17732406 -0.095385253 1.322 4289899159
-0.17370903 -0.095385253 1.322 4289570194
-0.17009401 -0.095385253 1.322 4288780678
-0.16647899 -0.095385253 1.322 4289438866
-0.16286397 -0.095385253 1.322 4289109901
-0.15948987 -0.095529564 1.3240001 4288846729
-0.15598711 -0.095601708 1.325 4289110414
-0.15247887 -0.095673859 1.3260001 4289110413
-0.14874065 -0.095601708 1.325 4289439378
-0.14489838 -0.095457412 1.3230001 4289241746
-0.14096026 -0.095240958 1.3200001 4288057472
-0.13662234 -0.094735883 1.3130001 4287795072
-0.13252534 -0.094375119 1.3080001 4287597693
-0.12875143 -0.094230823 1.3060001 4287926658
-0.1248926 -0.094014369 1.3030001 4288057472
-0.12132953 -0.094014369 1.3030001 4287662714
-0.11776647 -0.094014369 1.3030001 4287794300
-0.11455399 -0.094302975 1.307 4287596664
-0.11148945 -0.094735883 1.3130001 4288517766
-0.10839211 -0.095168799 1.319 4290162591
-0.10502362 -0.095385253 1.322 4289965210
-0.1013319 -0.095313102 1.3210001 4290491554
-0.097867548 -0.095457412 1.3230001 4290557860
-0.094178557 -0.095385253 1.322 4290623653
-0.090700544 -0.095529564 1.3240001 4290163618
-0.087211594 -0.095673859 1.3260001 4289571481
-0.08408992 -0.096251078 1.3340001 4288650379
-0.081346609 -0.097333364 1.3490001 4284637008
-0.078866661 -0.098848566 1.3700001 4285229145
-0.075723536 -0.099642232 1.381 4285492317
-0.071999282 -0.099714391 1.3820001 4285886307
-0.068466999 -0.10007516 1.3870001 4286412649
-0.065233782 -0.10094098 1.399 4287202681
-0.28262436 -0.094338685 1.3590001 4287926666
-0.27541924 -0.09315858 1.342 4288057990
-0.27134451 -0.093019754 1.34 4288057472
-0.26768029 -0.093019754 1.34 4287794300
-0.26381904 -0.092950337 1.3390001 4287860093
-0.25957465 -0.092742085 1.3360001 4288452230
-0.25572976 -0.092672661 1.335 4288255105
-0.25170156 -0.092533834 1.3330001 4288584070
-0.24805646 -0.092533834 1.3330001 4288781448
-0.24404463 -0.092394993 1.3310001 4289111183
-0.24022439 -0.092325576 1.33 4289045135
-0.23623173 -0.092186742 1.3280001 4288453000
-0.2326003 -0.092186742 1.3280001 4289110930
-0.22879645 -0.092117324 1.327 4289045137
-0.22550711 -0.092256166 1.3290001 4288847758
-0.22203991 -0.092325576 1.33 4288716172
-0.21823879 -0.092256166 1.3290001 4289110160
-0.21460462 -0.092256166 1.3290001 4289044367
-0.21097046 -0.092256166 1.3290001 4288649609
-0.20764831 -0.092394993 1.3310001 4287991679
-0.20354888 -0.092186742 1.3280001 4287860863
-0.19946583 -0.091978483 1.325 4287334519
-0.19554697 -0.091839649 1.3230001 4287400312
-0.19178416 -0.091770232 1.322 4287531128
-0.18802679 -0.091700815 1.3210001 4287465335
-0.1842749 -0.091631405 1.3200001 4287333749
-0.18080221 -0.091700815 1.3210001 4288649863
-0.17732406 -0.091770232 1.322 4290096796
-0.17370903 -0.091770232 1.322 4290031002
-0.16996536 -0.091700815 1.3210001 4290228381
-0.16635306 -0.091700815 1.3210001 4290623139
-0.16261758 -0.091631405 1.3200001 4290754725
-0.15924895 -0.091770232 1.322 4290492066
-0.15563393 -0.091770232 1.322 4290426273
-0.1521339 -0.091839649 1.3230001 4290360480
-0.14840388 -0.091770232 1.322 4290754726
-0.14467934 -0.091700815 1.3210001 4289439125
-0.14085348 -0.091561981 1.319 4288189058
-0.13672639 -0.091214895 1.314 4287728509
-0.13262665 -0.090867803 1.309 4287729279
-0.1289486 -0.090798378 1.3080001 4287662716
-0.12508431 -0.090590134 1.3050001 4287465337
-0.12142266 -0.09052071 1.304 4287333751
-0.11785686 -0.09052071 1.304 4287333751
-0.11464164 -0.090798378 1.3080001 4287267958
-0.11148945 -0.091145471 1.3130001 4287596921
-0.10798123 -0.091214895 1.314 4288912524
-0.10438808 -0.091214895 1.314 4289109901
-0.10071822 -0.091145471 1.3130001 4289899417
-0.097053841 -0.091076054 1.312 4290228381
-0.093466163 -0.091076054 1.312 4289965723
-0.089946985 -0.091145471 1.3130001 4289965723
-0.08648812 -0.091284312 1.3150001 4289505688
-0.083333492 -0.091770232 1.322 4287926656
-0.080622993 -0.092811503 1.337 4285229145
-0.078463688 -0.094616368 1.363 4285031512
-0.075833201 -0.096004717 1.383 4284965205
-0.072051376 -0.096004717 1.383 4285294170
-0.068466999 -0.096282385 1.3870001 4286017893
-0.28345621 -0.09088923 1.363 4287992461
-0.27624014 -0.089755617 1.3460001 4288123784
-0.271952 -0.089555554 1.3430001 4288124037
-0.26807982 -0.089488879 1.342 4287597693
-0.26421309 -0.089422189 1.3410001 4287795070
-0.26015753 -0.089288823 1.3390001 4287860863
-0.25649601 -0.089288823 1.3390001 4287926656
-0.2528345 -0.089288823 1.3390001 4287663484
-0.2489869 -0.089222148 1.3380001 4287729277
-0.24514475 -0.089155458 1.337 4287729277
-0.24130811 -0.089088775 1.3360001 4287860863
-0.23729903 -0.08895541 1.3340001 4287926656
-0.23347606 -0.088888727 1.3330001 4287531898
-0.22948611 -0.088755362 1.3310001 4287597691
-0.22584647 -0.088755362 1.3310001 4288124035
-0.22203991 -0.088688679 1.33 4287926656
-0.21840301 -0.088688679 1.33 4288584586
-0.21476611 -0.088688679 1.33 4288387207
-0.21128795 -0.088755362 1.3310001 4287794043
-0.20764831 -0.088755362 1.3310001 4287991681
-0.20385541 -0.088688679 1.33 4287860093
-0.20006797 -0.088621996 1.3290001 4287531128
-0.19628601 -0.088555314 1.3280001 4287728507
-0.19236442 -0.088421941 1.3260001 4287465335
-0.18859614 -0.088355266 1.325 4287596923
-0.18469369 -0.088221893 1.3230001 4287663484
-0.18093909 -0.08815521 1.322 4288518793
-0.17718993 -0.088088527 1.3210001 4288978574
-0.17370903 -0.08815521 1.322 4289636758
-0.16996536 -0.088088527 1.3210001 4289899930
-0.16635306 -0.088088527 1.3210001 4290097308
-0.16261758 -0.088021845 1.3200001 4289899929
-0.15888757 -0.087955162 1.319 4290360480
-0.15539847 -0.088021845 1.3200001 4290031515
-0.1520189 -0.08815521 1.322 4290228381
-0.14851613 -0.088221893 1.3230001 4290096795
-0.14467934 -0.088088527 1.3210001 4289110160
-0.14085348 -0.087955162 1.319 4287860863
-0.13683045 -0.087688431 1.3150001 4287597693
-0.13303192 -0.087555066 1.3130001 4287728509
-0.12924434 -0.087421693 1.3110001 4287794304
-0.1254677 -0.087288328 1.309 4287531130
-0.12179512 -0.087221645 1.3080001 4287070579
-0.11821838 -0.087221645 1.3080001 4287070579
-0.11499222 -0.087488383 1.312 4287662716
-0.11157437 -0.087621748 1.314 4289965471
-0.1080634 -0.087688431 1.3150001 4289833626
-0.10438808 -0.087621748 1.314 4289570454
-0.10064152 -0.087488383 1.312 4290228381
-0.096979871 -0.087421693 1.3110001 4289965209
-0.093252443 -0.087288328 1.309 4288912781
-0.089741468 -0.08735501 1.3100001 4287925886
-0.086290807 -0.087488383 1.312 4288255623
-0.08327046 -0.088088527 1.3210001 4288189830
-0.080622993 -0.089155458 1.337 4285821028
-0.079845294 -0.092489623 1.3870001 4284702547
-0.076107368 -0.092556305 1.388 4285162071
-0.072311863 -0.092556305 1.388 4285359195
-0.28345621 -0.087162085 1.363 4288058254
-0.27603492 -0.086011015 1.345 4288123786
-0.27174953 -0.085819162 1.342 4288057476
-0.26788005 -0.085755214 1.3410001 4288057474
-0.26421309 -0.085755214 1.3410001 4287663486
-0.26035181 -0.085691266 1.34 4287531900
-0.25707069 -0.085819162 1.342 4288124037
-0.25321215 -0.085755214 1.3410001 4287860865
-0.24954516 -0.085755214 1.3410001 4287729279
-0.24569483 -0.085691266 1.34 4287860865
-0.24203058 -0.085691266 1.34 4287729279
-0.23783268 -0.085499421 1.337 4287663484
-0.23382634 -0.085371524 1.335 4287729277
-0.22983095 -0.085243627 1.3330001 4287729277
-0.22601616 -0.085179679 1.332 4287860863
-0.22203991 -0.085051782 1.33 4287729277
-0.21840301 -0.085051782 1.33 4287795070
-0.21476611 -0.085051782 1.33 4287795070
-0.21144669 -0.085179679 1.332 4287860095
-0.20780432 -0.085179679 1.332 4288057474
-0.20385541 -0.085051782 1.33 4287860093
-0.19991745 -0.084923886 1.3280001 4287399542
-0.19599038 -0.084795982 1.3260001 4287925886
-0.19236442 -0.084795982 1.3260001 4287925886
-0.18859614 -0.084732033 1.325 4287663484
-0.18469369 -0.084604137 1.3230001 4287597691
-0.18080221 -0.08447624 1.3210001 4288518793
-0.17718993 -0.08447624 1.3210001 4288387207
-0.17370903 -0.084540188 1.322 4289571481
-0.16983669 -0.084412292 1.3200001 4289505688
-0.16597527 -0.084284395 1.3180001 4289307793
-0.162248 -0.084220447 1.317 4289505172
-0.15852618 -0.084156498 1.3160001 4289570965
-0.15516302 -0.084284395 1.3180001 4289176207
-0.15155894 -0.084284395 1.3180001 4289636504
-0.14795485 -0.084284395 1.3180001 4290360227
-0.14413172 -0.084156498 1.3160001 4288387207
-0.1406399 -0.084220447 1.317 4287926656
-0.13683045 -0.08409255 1.3150001 4287795072
-0.13303192 -0.083964653 1.3130001 4287531646
-0.12924434 -0.083836749 1.3110001 4287596925
-0.12556355 -0.083772808 1.3100001 4287465337
-0.12188823 -0.083708853 1.309 4287267958
-0.11830875 -0.083708853 1.309 4287662716
-0.11472929 -0.083708853 1.309 4288452230
-0.11140455 -0.083900705 1.312 4290294177
-0.10781687 -0.083900705 1.312 4289899417
-0.10422919 -0.083900705 1.312 4290228384
-0.10041139 -0.083708853 1.309 4290688935
-0.096757948 -0.083644912 1.3080001 4290557349
-0.093181208 -0.083644912 1.3080001 4290623399
-0.089741468 -0.083772808 1.3100001 4286873200
-0.08635658 -0.083964653 1.3130001 4287860611
-0.083333492 -0.084540188 1.322 4288584334
-0.080622993 -0.085499421 1.337 4287202681
-0.28408009 -0.083618596 1.3660001 4288123792
-0.27706107 -0.082639165 1.35 4288057993
-0.27255949 -0.082394309 1.3460001 4288057990
-0.26847935 -0.082271881 1.3440001 4287794818
-0.26460713 -0.082210667 1.3430001 4287728511
-0.26093468 -0.082210667 1.3430001 4287860097
-0.25764537 -0.082333095 1.345 4287860097
-0.25377861 -0.082271881 1.3440001 4288057476
-0.25010344 -0.082271881 1.3440001 4288123267
-0.24642825 -0.082271881 1.3440001 4287860611
-0.24257244 -0.082210667 1.3430001 4287794818
-0.23854423 -0.082088239 1.3410001 4287794818
-0.23452696 -0.081965804 1.3390001 4287992451
-0.23069303 -0.081904598 1.3380001 4287860865
-0.22703426 -0.081904598 1.3380001 4287926658
-0.22304159 -0.08178217 1.3360001 4287597693
-0.21922407 -0.081720948 1.335 4287926658
-0.21557349 -0.081720948 1.335 4287663486
-0.2122404 -0.081843376 1.337 4287925888
-0.20842837 -0.08178217 1.3360001 4288123267
-0.2044685 -0.081659742 1.3340001 4287860095
-0.20036905 -0.081476092 1.3310001 4287333751
-0.19672941 -0.081476092 1.3310001 4287531130
-0.19308978 -0.081476092 1.3310001 4287991679
-0.18916547 -0.081353664 1.3290001 4287400312
-0.18525212 -0.081231236 1.327 4287268726
-0.18134969 -0.081108809 1.325 4287531898
-0.17772646 -0.081108809 1.325 4287992449
-0.17410323 -0.081108809 1.325 4287663484
-0.17022267 -0.080986381 1.3230001 4288189828
-0.16635306 -0.080863953 1.3210001 4288189828
-0.16261758 -0.080802739 1.3200001 4288321414
-0.15900803 -0.080802739 1.3200001 4288254851
-0.15539847 -0.080802739 1.3200001 4288846988
-0.15167393 -0.080741525 1.319 4288649609
-0.14806712 -0.080741525 1.319 4288254851
-0.14424126 -0.080619097 1.317 4288124035
-0.1406399 -0.080619097 1.317 4287926658
-0.13703856 -0.080619097 1.317 4287663486
-0.13333587 -0.080557883 1.3160001 4287597439
-0.1295401 -0.080435455 1.314 4287597439
-0.12585109 -0.080374241 1.3130001 4287268728
-0.12226069 -0.080374241 1.3130001 4287268728
-0.11848952 -0.080251813 1.3110001 4287992449
-0.11472929 -0.080129385 1.309 4289834653
-0.11123472 -0.080190599 1.3100001 4289834137
-0.1077347 -0.080251813 1.3110001 4290360481
-0.10414975 -0.080251813 1.3110001 4290688933
-0.10033468 -0.080068171 1.3080001 4290820521
-0.096757948 -0.080068171 1.3080001 4290097055
-0.093252443 -0.080129385 1.309 4288979344
-0.089946985 -0.080374241 1.3130001 4287663486
-0.0867512 -0.080741525 1.319 4287531646
-0.083711706 -0.081292458 1.3280001 4288386955
-0.28366417 -0.079766296 1.3640001 4287926666
-0.27706107 -0.078947574 1.35 4288123784
-0.272762 -0.078772143 1.3470001 4288123783
-0.26867911 -0.078655183 1.345 4288057990
-0.26480415 -0.078596696 1.3440001 4287465853
-0.26093468 -0.078538217 1.3430001 4287991683
-0.2574538 -0.078596696 1.3440001 4288122756
-0.25377861 -0.078596696 1.3440001 4288056963
-0.25010344 -0.078596696 1.3440001 4288057474
-0.24642825 -0.078596696 1.3440001 4287794302
-0.24275307 -0.078596696 1.3440001 4287794304
-0.23854423 -0.078421257 1.3410001 4287663232
-0.23452696 -0.078304298 1.3390001 4287794819
-0.23069303 -0.078245826 1.3380001 4287860612
-0.22737361 -0.078362778 1.34 4287794819
-0.22337548 -0.078245826 1.3380001 4288123784
-0.21955249 -0.078187339 1.337 4287860611
-0.21573497 -0.078128867 1.3360001 4287597439
-0.2122404 -0.078187339 1.337 4287925888
-0.20858437 -0.078187339 1.337 4288320135
-0.2044685 -0.078011908 1.3340001 4287925890
-0.20036905 -0.077836461 1.3310001 4287596923
-0.19658162 -0.077777989 1.33 4287465337
-0.19308978 -0.077836461 1.3310001 4287860093
-0.18930782 -0.077777989 1.33 4287794300
-0.18553132 -0.077719502 1.3290001 4287794300
-0.1817603 -0.07766103 1.3280001 4287795070
-0.17812885 -0.07766103 1.3280001 4287992451
-0.17436604 -0.077602543 1.327 4287860865
-0.17048001 -0.077485584 1.325 4287794818
-0.16673085 -0.077427104 1.3240001 4287926658
-0.16311036 -0.077427104 1.3240001 4287531900
-0.15936941 -0.077368625 1.3230001 4287860093
-0.15563393 -0.077310145 1.322 4287728507
-0.15167393 -0.077134706 1.319 4287662714
-0.14795485 -0.077076226 1.3180001 4287860093
-0.14424126 -0.077017747 1.317 4287926656
-0.14074668 -0.077076226 1.3180001 4287860865
-0.13714261 -0.077076226 1.3180001 4287860865
-0.13333587 -0.076959267 1.3160001 4287729025
-0.12963869 -0.076900788 1.3150001 4287663232
-0.12585109 -0.076783828 1.3130001 4287663232
-0.12216758 -0.076725349 1.312 4287729279
-0.11830875 -0.07654991 1.309 4287663486
-0.11446634 -0.076374471 1.3060001 4288913551
-0.11097998 -0.076432951 1.307 4288584584
-0.10740598 -0.076432951 1.307 4288584586
-0.10383198 -0.076432951 1.307 4288320385
-0.10002785 -0.076257512 1.304 4288518023
-0.096536025 -0.076315992 1.3050001 4289044367
-0.093252443 -0.07654991 1.309 4288847760
-0.090152502 -0.076959267 1.3160001 4287926658
-0.087014288 -0.077368625 1.3230001 4287597439
-0.083711706 -0.07766103 1.3280001 4288386955
-0.28428808 -0.076203659 1.3670001 4287927436
-0.27788201 -0.075478971 1.3540001 4287861125
-0.27336949 -0.07525599 1.35 4288386955
-0.26927838 -0.0751445 1.348 4288123783
-0.26539522 -0.075088754 1.3470001 4287400060
-0.26151755 -0.075033009 1.3460001 4287860611
-0.25802848 -0.075088754 1.3470001 4287991683
-0.25415626 -0.075033009 1.3460001 4288057474
-0.25047562 -0.075033009 1.3460001 4287925888
-0.24697831 -0.075088754 1.3470001 4288057474
-0.24329492 -0.075088754 1.3470001 4287860865
-0.23925579 -0.074977264 1.345 4287860611
-0.23522756 -0.074865773 1.3430001 4287729026
-0.2315551 -0.074865773 1.3430001 4287794819
-0.22839171 -0.075033009 1.3460001 4287663233
-0.22437716 -0.074921519 1.3440001 4287860611
-0.22020935 -0.074754283 1.3410001 4287729025
-0.21605793 -0.074587047 1.3380001 4287795072
-0.21255791 -0.074642792 1.3390001 4288057474
-0.2090524 -0.074698538 1.34 4288320646
-0.20508161 -0.074587047 1.3380001 4287597693
-0.20097122 -0.074419811 1.335 4287334521
-0.19702503 -0.074308321 1.3330001 4287399544
-0.19367006 -0.074419811 1.335 4287925888
-0.18987715 -0.074364066 1.3340001 4287860095
-0.18622932 -0.074364066 1.3340001 4287531130
-0.18230775 -0.074252576 1.332 4287728511
-0.17879952 -0.074308321 1.3330001 4287729025
-0.17502302 -0.074252576 1.332 4288057990
-0.17112334 -0.074141085 1.33 4287860611
-0.1673605 -0.07408534 1.3290001 4287926404
-0.16360314 -0.074029595 1.3280001 4287729025
-0.15985125 -0.073973849 1.327 4288057474
-0.15610483 -0.073918104 1.3260001 4287925886
-0.15224889 -0.073806614 1.3240001 4287991679
-0.1486284 -0.073806614 1.3240001 4287925886
-0.14489838 -0.073750868 1.3230001 4287860093
-0.14117384 -0.073695123 1.322 4287860865
-0.13755882 -0.073695123 1.322 4287860865
-0.13384248 -0.073639378 1.3210001 4287860865
-0.12993445 -0.073472142 1.3180001 4287597693
-0.12613866 -0.073360652 1.3160001 4287795070
-0.12235381 -0.073249161 1.314 4287531898
-0.1185799 -0.073137671 1.312 4287729277
-0.11472929 -0.072970435 1.309 4287663484
-0.11114981 -0.072970435 1.309 4287729277
-0.10765251 -0.07302618 1.3100001 4287926656
-0.10407031 -0.07302618 1.3100001 4287860093
-0.10033468 -0.07291469 1.3080001 4287729277
-0.096609995 -0.072803199 1.3060001 4287729277
-0.093679883 -0.073304914 1.3150001 4288321416
-0.090289518 -0.073472142 1.3180001 4287465853
-0.086948514 -0.073695123 1.322 4287597439
-0.08535064 -0.075478971 1.3540001 4288386955
-0.27808723 -0.071829453 1.355 4287992198
-0.27336949 -0.071564399 1.35 4287992197
-0.26927838 -0.071458377 1.348 4287992197
-0.26559228 -0.071458377 1.348 4287597439
-0.26171187 -0.071405374 1.3470001 4287465853
-0.25802848 -0.071405374 1.3470001 4287860865
-0.25415626 -0.071352355 1.3460001 4287992451
-0.25047562 -0.071352355 1.3460001 4287860865
-0.24697831 -0.071405374 1.3470001 4287992451
-0.24329492 -0.071405374 1.3470001 4287926658
-0.23943365 -0.071352355 1.3460001 4287926658
-0.23557787 -0.071299352 1.345 4287860611
-0.23189995 -0.071299352 1.345 4287860611
-0.22856139 -0.071405374 1.3470001 4287663232
-0.22471105 -0.071352355 1.3460001 4287860611
-0.22037356 -0.071140319 1.342 4287794818
-0.21621941 -0.070981279 1.3390001 4287991681
-0.21239915 -0.070928276 1.3380001 4287991168
-0.2090524 -0.071034297 1.34 4287991681
-0.20523489 -0.070981279 1.3390001 4287663484
-0.20112176 -0.070822254 1.3360001 4287466105
-0.19702503 -0.070663221 1.3330001 4287531128
-0.19337994 -0.070663221 1.3330001 4287991679
-0.18987715 -0.070716232 1.3340001 4287794300
-0.18622932 -0.070716232 1.3340001 4287662716
-0.18230775 -0.07061021 1.332 4287729025
-0.17866538 -0.07061021 1.332 4287926405
-0.17489162 -0.070557199 1.3310001 4287860612
-0.17112334 -0.070504189 1.33 4287926405
-0.16723457 -0.070398167 1.3280001 4287729026
-0.16360314 -0.070398167 1.3280001 4287926404
-0.15985125 -0.070345156 1.327 4288057476
-0.15610483 -0.070292145 1.3260001 4287860095
-0.15247887 -0.070292145 1.3260001 4287991683
-0.14874065 -0.070239134 1.325 4287860097
-0.14511743 -0.070239134 1.325 4287860095
-0.1414942 -0.070239134 1.325 4288189060
-0.13787098 -0.070239134 1.325 4288320646
-0.1339438 -0.070080101 1.322 4287925888
-0.12993445 -0.069868058 1.3180001 4287728509
-0.1260428 -0.069709033 1.3150001 4287860095
-0.12235381 -0.069656014 1.314 4287860095
-0.11867028 -0.069603011 1.3130001 4287729279
-0.11490458 -0.069496982 1.3110001 4287663486
-0.11131964 -0.069496982 1.3110001 4287663486
-0.1077347 -0.069496982 1.3110001 4287860865
-0.10422919 -0.069549993 1.312 4287729279
-0.10056481 -0.069496982 1.3110001 4287795070
-0.097275764 -0.069709033 1.3150001 4287795070
-0.093822367 -0.069815055 1.317 4287795072
-0.090289518 -0.069868058 1.3180001 4287795072
-0.086882748 -0.070027091 1.3210001 4287202682
-0.085035458 -0.071511395 1.3490001 4288386956
-0.27870291 -0.06827502 1.358 4287992200
-0.27417949 -0.068073913 1.3540001 4287992197
-0.27007741 -0.067973368 1.3520001 4287794818
-0.26638037 -0.067973368 1.3520001 4287597439
-0.26248902 -0.067923091 1.3510001 4287663232
-0.2587947 -0.067923091 1.3510001 4287926404
-0.25510037 -0.067923091 1.3510001 4287794818
-0.25121996 -0.067872815 1.35 4287992451
-0.24752837 -0.067872815 1.35 4287729279
-0.24383679 -0.067872815 1.35 4287992451
-0.2399673 -0.067822538 1.3490001 4287860865
-0.23610331 -0.067772262 1.348 4287729279
-0.23224477 -0.067721985 1.3470001 4287794818
-0.22873108 -0.067772262 1.348 4287729025
-0.22521189 -0.067822538 1.3490001 4287795072
-0.2210304 -0.067671709 1.3460001 4287728509
-0.21670385 -0.067470603 1.342 4288057474
-0.21271664 -0.06737005 1.34 4288057474
-0.20920841 -0.067420326 1.3410001 4288057474
-0.20554143 -0.067420326 1.3410001 4287860863
-0.20142284 -0.067269497 1.3380001 4287860863
-0.19791187 -0.067319773 1.3390001 4287992449
-0.19425036 -0.067319773 1.3390001 4287795070
-0.19058886 -0.067319773 1.3390001 4287729277
-0.18636893 -0.067118667 1.335 4287202935
-0.18258148 -0.067068398 1.3340001 4287729279
-0.17906779 -0.067118667 1.335 4287794818
-0.17541721 -0.067118667 1.335 4287729025
-0.17163798 -0.067068398 1.3340001 4287926404
-0.16773829 -0.066967845 1.332 4287860611
-0.16397274 -0.066917568 1.3310001 4287860611
-0.16021264 -0.066867292 1.33 4287926404
-0.15669346 -0.066917568 1.3310001 4287794818
-0.15293884 -0.066867292 1.33 4288057476
-0.14930195 -0.066867292 1.33 4288057476
-0.14555551 -0.066817015 1.3290001 4287925890
-0.14181457 -0.066766739 1.3280001 4288123783
-0.13807909 -0.066716462 1.327 4288386955
-0.13414644 -0.066565633 1.3240001 4288058244
-0.13023019 -0.066414803 1.3210001 4287860865
