# .PCD v0.7 - Point Cloud Data file format
VERSION 0.7
FIELDS x y z rgba
SIZE 4 4 4 4
TYPE F F F U
COUNT 1 1 1 1
WIDTH 1094
HEIGHT 1
VIEWPOINT 0 0 0 1 0 0 0
POINTS 1094
DATA ascii
-0.28086182 -0.14179556 1.3870001 4288517764
-0.27826765 -0.14240897 1.393 4286412388
-0.27544358 -0.14292011 1.3980001 4286215521
-0.27200934 -0.14312458 1.4000001 4285952347
-0.2687557 -0.14343128 1.4030001 4286215773
-0.26605213 -0.14404467 1.409 4285820761
-0.26331574 -0.14465806 1.4150001 4286018142
-0.25999647 -0.14496475 1.4180001 4285689177
-0.25611895 -0.14496475 1.4180001 4278190080
-0.25135198 -0.1444536 1.4130001 4278190080
-0.24556145 -0.14332904 1.4020001 4290360481
-0.23896901 -0.14169334 1.386 4290426274
-0.23229438 -0.13995539 1.3690001 4290492067
-0.22688137 -0.13893306 1.3590001 4290228895
-0.22201568 -0.13821745 1.3520001 4290426274
-0.21831863 -0.13821745 1.3520001 4290557346
-0.21446283 -0.13811521 1.3510001 4289570451
-0.21139254 -0.13852414 1.355 4288846728
-0.20845364 -0.1390353 1.36 4287794040
-0.20759499 -0.14097771 1.3790001 4284833356
-0.20707582 -0.14322682 1.401 4285623131
-0.20542084 -0.14476028 1.416 4288386437
-0.20169112 -0.14486252 1.4170001 4288518277
-0.19781631 -0.14486252 1.4170001 4286807659
-0.19325718 -0.14435136 1.4120001 4286873452
-0.18872537 -0.14384019 1.4070001 4286609767
-0.18408953 -0.14322682 1.401 4286412388
-0.17974383 -0.14281788 1.3970001 4286609254
-0.17554593 -0.14251119 1.3940001 4286543461
-0.17136444 -0.14220449 1.391 4286411105
-0.16731982 -0.14200002 1.3890001 4286214496
-0.16363931 -0.14210226 1.3900001 4286215009
-0.16006832 -0.14230673 1.3920001 4285688665
-0.15659866 -0.14261343 1.3950001 4285491545
-0.15245545 -0.14230673 1.3920001 4286017889
-0.14843543 -0.14210226 1.3900001 4285820510
-0.14432229 -0.14179556 1.3870001 4285491545
-0.1403269 -0.1415911 1.3850001 4286149475
-0.13634244 -0.14138664 1.383 4286149475
-0.13236891 -0.14118217 1.381 4286149218
-0.12840632 -0.14097771 1.3790001 4286149218
-0.12409314 -0.14036432 1.373 4286478183
-0.11963749 -0.13954647 1.365 4287333492
-0.11522558 -0.13872862 1.3570001 4288846988
-0.11118615 -0.13831969 1.353 4289833883
-0.10740691 -0.13821745 1.3520001 4290491813
-0.10370985 -0.13821745 1.3520001 4290557860
-0.099938825 -0.13811521 1.3510001 4290557860
-0.096173264 -0.13801299 1.35 4290426274
-0.092481673 -0.13801299 1.35 4290360227
-0.088987395 -0.13831969 1.353 4289966239
-0.085476719 -0.13862638 1.3560001 4288255629
-0.082070224 -0.13913754 1.3610001 4288387734
-0.078866661 -0.14005762 1.3700001 4294046452
-0.077149175 -0.14384019 1.4070001 4278190080
-0.31649834 -0.14208218 1.4280001 4287532424
-0.30602637 -0.13909727 1.3980001 4287597699
-0.29960951 -0.1379033 1.386 4286807924
-0.29517919 -0.13760482 1.383 4287728509
-0.29118663 -0.13750531 1.3820001 4287399285
-0.28740755 -0.13750531 1.3820001 4289373073
-0.28383368 -0.13760482 1.383 4290031003
-0.28065935 -0.1379033 1.386 4289636245
-0.27766836 -0.1383013 1.3900001 4288912522
-0.27504954 -0.13889828 1.396 4286280802
-0.27181506 -0.13919677 1.399 4285754970
-0.26913881 -0.13979375 1.4050001 4285689175
-0.26605213 -0.14019175 1.409 4285820761
-0.26312965 -0.14068924 1.414 4286083933
-0.25907969 -0.14058973 1.4130001 4278190080
-0.25377089 -0.13979375 1.4050001 4290360480
-0.24690485 -0.13810231 1.388 4290426273
-0.24013178 -0.13641085 1.3710001 4290557859
-0.23345169 -0.13471939 1.3540001 4290360481
-0.22873108 -0.1341224 1.348 4290492067
-0.22437716 -0.13372442 1.3440001 4290228895
-0.2208662 -0.13382392 1.345 4290228894
-0.21734975 -0.13392341 1.3460001 4288912775
-0.21366911 -0.13392341 1.3460001 4287860087
-0.21061249 -0.13432141 1.35 4287399536
-0.20753402 -0.13471939 1.3540001 4286807145
-0.20608957 -0.13621184 1.3690001 4286017630
-0.20589337 -0.13859978 1.393 4284307014
-0.20498562 -0.14058973 1.4130001 4284833358
-0.20183346 -0.14108722 1.4180001 4284439111
-0.19795592 -0.14108722 1.4180001 4285294420
-0.19339404 -0.14058973 1.4130001 4288123518
-0.18872537 -0.13999274 1.4070001 4288912522
-0.18422092 -0.13949525 1.4020001 4288056700
-0.17974383 -0.13899778 1.3970001 4287135598
-0.17579779 -0.13889828 1.396 4287003242
-0.17148763 -0.13850029 1.3920001 4286609767
-0.16744027 -0.1383013 1.3900001 4286083425
-0.16363931 -0.1383013 1.3900001 4286017630
-0.16018331 -0.13859978 1.393 4285360213
-0.15671091 -0.13889828 1.396 4284964942
-0.1526745 -0.13869928 1.3940001 4285952096
-0.14854223 -0.13840079 1.391 4286084452
-0.1445304 -0.13820179 1.3890001 4286084452
-0.14052953 -0.1380028 1.3870001 4285886303
-0.13673677 -0.1380028 1.3870001 4285820510
-0.13265646 -0.13770431 1.3840001 4285820253
-0.12868567 -0.13750531 1.3820001 4286017632
-0.1242739 -0.13680884 1.3750001 4285951839
-0.11981278 -0.13601285 1.3670001 4285886046
-0.11548032 -0.13531637 1.36 4286412390
-0.11151486 -0.13501789 1.3570001 4286346597
-0.10764524 -0.13481888 1.355 4287004527
-0.10386327 -0.13471939 1.3540001 4289175953
-0.10001279 -0.1345204 1.3520001 4289965469
-0.096173264 -0.13432141 1.35 4290294434
-0.092413172 -0.13422191 1.3490001 4289965469
-0.088921629 -0.1345204 1.3520001 4287925886
-0.085476719 -0.13491838 1.3560001 4287202684
-0.082070224 -0.13541587 1.3610001 4287992461
-0.078751527 -0.13611235 1.368 4293717487
-0.076326691 -0.13850029 1.3920001 4293324277
-0.31716323 -0.13846761 1.4310001 4287598218
-0.30668306 -0.13556471 1.401 4287860875
-0.30025801 -0.13440356 1.3890001 4287071609
-0.2953926 -0.13391975 1.3840001 4288189060
-0.29118663 -0.13372622 1.3820001 4290097055
-0.28719959 -0.13362946 1.381 4289768090
-0.28362846 -0.13372622 1.3820001 4289965723
-0.28005186 -0.13382299 1.383 4290359968
-0.27666956 -0.1340165 1.3850001 4290425761
-0.2732763 -0.13421004 1.3870001 4289767831
-0.27026072 -0.13459709 1.391 4289965722
-0.26760638 -0.13517767 1.3970001 4287794551
-0.26548567 -0.13604853 1.406 4285820761
-0.26238528 -0.13643558 1.4100001 4278190080
-0.25706279 -0.13566147 1.4020001 4287465586
-0.24961662 -0.13372622 1.3820001 4290097306
-0.24174617 -0.13150068 1.3590001 4289768343
-0.23592816 -0.13033952 1.3470001 4290031515
-0.23086545 -0.12956542 1.3390001 4290228894
-0.22686456 -0.1293719 1.337 4290228894
-0.22320852 -0.1293719 1.337 4289571734
-0.21988092 -0.12956542 1.3390001 4287794553
-0.21670385 -0.12985571 1.342 4287399536
-0.21351036 -0.130146 1.345 4287596915
-0.21061249 -0.13062982 1.35 4287004265
-0.20753402 -0.13101687 1.3540001 4287267437
-0.20518634 -0.13188773 1.363 4288057213
-0.20367628 -0.13333917 1.378 4289505172
-0.20251942 -0.1350809 1.396 4288320898
-0.20012541 -0.13604853 1.406 4284241732
-0.19642028 -0.13614529 1.4070001 4289636757
-0.1922991 -0.13595177 1.4050001 4289438865
-0.18792057 -0.13556471 1.401 4289109901
-0.18369533 -0.13527443 1.3980001 4289241487
-0.17910051 -0.13469385 1.3920001 4288978315
-0.17479035 -0.1343068 1.388 4289373075
-0.17037888 -0.13382299 1.383 4290294177
-0.16611521 -0.13343593 1.3790001 4290557349
-0.1622266 -0.13333917 1.378 4290031262
-0.15891841 -0.13372622 1.3820001 4287991679
-0.15581286 -0.1343068 1.388 4284833869
-0.15201735 -0.1343068 1.388 4285491799
-0.14843543 -0.13450032 1.3900001 4285952350
-0.14442636 -0.1343068 1.388 4285754971
-0.14063086 -0.1343068 1.388 4285689178
-0.13663818 -0.13411327 1.386 4285886557
-0.13275231 -0.1340165 1.3850001 4285886557
-0.12868567 -0.13372622 1.3820001 4286017630
-0.12436429 -0.13314565 1.376 4286017632
-0.11990044 -0.13237154 1.368 4286346084
-0.11565015 -0.13179097 1.3620001 4286411877
-0.11167921 -0.13150068 1.3590001 4286017378
-0.10788357 -0.13140392 1.358 4286610028
-0.10393997 -0.13111362 1.355 4286675819
-0.10001279 -0.13082333 1.3520001 4286610026
-0.096173264 -0.13062982 1.35 4287267956
-0.092550173 -0.13072658 1.3510001 4287795072
-0.089053169 -0.13101687 1.3540001 4287991681
-0.085602783 -0.13140392 1.358 4287400063
-0.082190827 -0.13188773 1.363 4288190357
-0.078809097 -0.1324683 1.3690001 4293520110
-0.075997695 -0.13411327 1.386 4293389302
-0.31782815 -0.1348366 1.434 4287927696
-0.30777758 -0.1322038 1.406 4287663494
-0.30112267 -0.13098145 1.393 4287729026
-0.29645979 -0.13060533 1.3890001 4287794302
-0.29202944 -0.13032325 1.386 4288781195
-0.28823942 -0.13032325 1.386 4289307539
-0.28383368 -0.13004115 1.383 4289505172
-0.27964687 -0.1298531 1.381 4290031262
-0.27507147 -0.12947698 1.3770001 4290294688
-0.27150306 -0.12957102 1.378 4290426274
-0.26831779 -0.1298531 1.381 4290426273
-0.26549923 -0.13032325 1.386 4289702550
-0.26284215 -0.13088742 1.3920001 4289439378
-0.25978005 -0.13126352 1.396 4278190080
-0.25449583 -0.1305113 1.388 4287465588
-0.24708796 -0.12863073 1.368 4288518276
-0.24050097 -0.12712628 1.3520001 4288715655
-0.23557787 -0.12646808 1.345 4289044620
-0.23103786 -0.12599795 1.34 4290096795
-0.22703426 -0.12580988 1.3380001 4288649349
-0.22304159 -0.12562183 1.3360001 4287334002
-0.22020935 -0.12609197 1.3410001 4287202416
-0.2170268 -0.12637405 1.3440001 4287267950
-0.21398661 -0.12675017 1.348 4287136364
-0.21092451 -0.12712628 1.3520001 4287070060
-0.20799384 -0.12759642 1.3570001 4289043850
-0.20488526 -0.12797253 1.3610001 4289569939
-0.20190261 -0.12844267 1.3660001 4289767831
-0.199618 -0.12938297 1.376 4290031003
-0.19756335 -0.1305113 1.388 4290163102
-0.19432627 -0.13088742 1.3920001 4289768343
-0.19079356 -0.13107547 1.3940001 4289899416
-0.18698165 -0.13107547 1.3940001 4290359967
-0.18290696 -0.13088742 1.3920001 4289965209
-0.17819986 -0.1302292 1.3850001 4290228382
-0.17340513 -0.12947698 1.3770001 4290820006
-0.16828457 -0.12844267 1.3660001 4290491554
-0.16358553 -0.12769045 1.358 4290688935
-0.15940116 -0.12731434 1.3540001 4290360227
-0.1561586 -0.12769045 1.358 4290360227
-0.15323095 -0.12834865 1.365 4290492067
-0.15059356 -0.12928893 1.3750001 4285097041
-0.14800827 -0.13032325 1.386 4285952350
-0.14473853 -0.13079338 1.391 4285689178
-0.14113745 -0.13098145 1.393 4285491545
-0.13713111 -0.13079338 1.391 4285754717
-0.13313571 -0.13060533 1.3890001 4285623131
-0.12905812 -0.13032325 1.386 4285951839
-0.12481619 -0.1298531 1.381 4285886046
-0.12025101 -0.12900685 1.3720001 4286280804
-0.1160747 -0.12853672 1.3670001 4286281061
-0.11217228 -0.12834865 1.365 4286017889
-0.10843968 -0.12834865 1.365 4286544233
-0.10440022 -0.12797253 1.3610001 4286610796
-0.10038266 -0.12759642 1.3570001 4286742382
-0.096386984 -0.1272203 1.353 4286939761
-0.09275569 -0.12731434 1.3540001 4287860865
-0.089184709 -0.1275024 1.3560001 4288386955
-0.085917965 -0.1281606 1.363 4286939512
-0.082492337 -0.12863073 1.368 4287861392
-0.079096928 -0.1291949 1.3740001 4292401627
-0.076217033 -0.13069935 1.3900001 4293389554
-0.31782815 -0.13091531 1.434 4287796110
-0.30821538 -0.12854168 1.4080001 4288124045
-0.30133885 -0.12726356 1.3940001 4287729026
-0.29688665 -0.12698968 1.391 4287729279
-0.29266155 -0.12680709 1.3890001 4287860865
-0.28865534 -0.12671581 1.388 4287925886
-0.28383368 -0.12625933 1.383 4288452230
-0.27883688 -0.12571156 1.3770001 4288978574
-0.27427241 -0.12534639 1.373 4289044367
-0.2701239 -0.12516381 1.3710001 4289373332
-0.26618057 -0.12507251 1.3700001 4290097309
-0.2624343 -0.12507251 1.3700001 4290097309
-0.25944331 -0.12543769 1.3740001 4290097309
-0.25624436 -0.12571156 1.3770001 4289965723
-0.25211224 -0.12552898 1.3750001 4288649863
-0.24582361 -0.12425087 1.3610001 4287531382
-0.2403231 -0.12333792 1.3510001 4287531381
-0.235753 -0.12288146 1.3460001 4287991932
-0.2315551 -0.12260757 1.3430001 4288255104
-0.22737361 -0.1223337 1.34 4287202416
-0.22354244 -0.1222424 1.3390001 4287202416
-0.22020935 -0.122425 1.3410001 4287662454
-0.21718828 -0.12279017 1.345 4287136364
-0.21398661 -0.12306405 1.348 4287136364
-0.21092451 -0.12342922 1.3520001 4289109643
-0.20753402 -0.12361182 1.3540001 4289767318
-0.20398201 -0.1237031 1.355 4290030490
-0.20042457 -0.1237944 1.3560001 4290359968
-0.19729684 -0.12415957 1.36 4290557347
-0.19443193 -0.12470734 1.3660001 4290294174
-0.19111539 -0.12498122 1.3690001 4290031002
-0.18791933 -0.12534639 1.373 4290162588
-0.18429899 -0.12543769 1.3740001 4290096796
-0.18027896 -0.12525509 1.3720001 4290557347
-0.17536925 -0.12443346 1.363 4290623653
-0.17013095 -0.12333792 1.3510001 4290492067
-0.16508149 -0.1223337 1.34 4290557860
-0.16081494 -0.12187723 1.335 4290360227
-0.15657574 -0.12142076 1.33 4290162848
-0.15328382 -0.12169465 1.3330001 4289703067
-0.15031224 -0.1222424 1.3390001 4288649609
-0.14807454 -0.12342922 1.3520001 4286281315
-0.14640646 -0.12516381 1.3710001 4285031248
-0.14432229 -0.12662451 1.3870001 4284833869
-0.14113745 -0.12717228 1.393 4285162580
-0.13713111 -0.12698968 1.391 4285294166
-0.13313571 -0.12680709 1.3890001 4285359959
-0.12896501 -0.12644191 1.3850001 4285820253
-0.12481619 -0.12607674 1.381 4285622874
-0.12033866 -0.12534639 1.373 4286017632
-0.11615963 -0.12488992 1.368 4286281061
-0.11225446 -0.12470734 1.3660001 4286478440
-0.10859855 -0.12479863 1.3670001 4286478440
-0.10455365 -0.12443346 1.363 4286545005
-0.10053062 -0.12406828 1.3590001 4287071349
-0.096458219 -0.12361182 1.3540001 4287071349
-0.09275569 -0.12361182 1.3540001 4287531900
-0.089316249 -0.12397699 1.358 4287860611
-0.086044036 -0.12461604 1.365 4286347375
-0.082612939 -0.12507251 1.3700001 4287992976
-0.079212062 -0.12562028 1.376 4291019974
-0.076271862 -0.12698968 1.391 4293389552
-0.31827143 -0.12717114 1.4360001 4287730317
-0.30865321 -0.12486861 1.4100001 4287926666
-0.30220351 -0.12380589 1.3980001 4287860612
-0.29795381 -0.12362878 1.396 4287795072
-0.29371503 -0.12345165 1.3940001 4287992451
-0.28927922 -0.12318598 1.391 4287729279
-0.28465459 -0.12283174 1.3870001 4287729279
-0.27964687 -0.12230038 1.381 4287860865
-0.27487171 -0.12185759 1.376 4288321414
-0.27071497 -0.12168047 1.3740001 4288715402
-0.26637489 -0.1214148 1.3710001 4288979344
-0.26185963 -0.12106056 1.3670001 4288716172
-0.25793272 -0.120972 1.3660001 4289636504
-0.25438347 -0.12106056 1.3670001 4289702297
-0.2506454 -0.12106056 1.3670001 4288649609
-0.24582361 -0.1205292 1.3610001 4287663482
-0.24121252 -0.1200864 1.3560001 4287334517
-0.23662877 -0.11964361 1.3510001 4287794554
-0.2324172 -0.11937793 1.348 4287466103
-0.22805235 -0.11902369 1.3440001 4287399796
-0.2242102 -0.11893513 1.3430001 4287201903
-0.2208662 -0.11911225 1.345 4287070317
-0.21751124 -0.11928937 1.3470001 4287399282
-0.21430409 -0.11955505 1.35 4290031002
-0.21092451 -0.11973216 1.3520001 4290096283
-0.20753402 -0.11990929 1.3540001 4290096283
-0.20383149 -0.11990929 1.3540001 4290227869
-0.20012896 -0.11990929 1.3540001 4290688933
-0.19628136 -0.11982073 1.353 4290491554
-0.19272391 -0.11990929 1.3540001 4290425760
-0.18902138 -0.11990929 1.3540001 4290162588
-0.18531886 -0.11990929 1.3540001 4290294174
-0.18134806 -0.11973216 1.3520001 4290492066
-0.17725681 -0.11946649 1.3490001 4290623652
-0.17240997 -0.11866946 1.34 4290557859
-0.16799015 -0.1181381 1.3340001 4290623653
-0.16347995 -0.11751819 1.327 4290031516
-0.15961033 -0.11734106 1.325 4290426020
-0.15575165 -0.11716395 1.3230001 4289833883
-0.15259387 -0.11751819 1.327 4287597691
-0.14963871 -0.11804955 1.3330001 4287400312
-0.14708884 -0.11893513 1.3430001 4286478440
-0.14523178 -0.12044064 1.36 4284439111
-0.14390609 -0.12247751 1.383 4284109892
-0.14134009 -0.12354022 1.3950001 4284702029
-0.13742687 -0.12345165 1.3940001 4284702029
-0.13332741 -0.12318598 1.391 4285359959
-0.12924436 -0.1229203 1.388 4285623131
-0.12508732 -0.12256607 1.3840001 4285886046
-0.12068924 -0.12194615 1.3770001 4286280804
-0.11641435 -0.1214148 1.3710001 4286346597
-0.11250099 -0.12123767 1.3690001 4286281061
-0.10867801 -0.12114911 1.368 4286215268
-0.10478377 -0.120972 1.3660001 4286675819
-0.10075254 -0.12061776 1.3620001 4286742382
-0.096671939 -0.12017496 1.3570001 4287005556
-0.092961207 -0.12017496 1.3570001 4287466107
-0.089513563 -0.1205292 1.3610001 4287926404
-0.086233146 -0.12114911 1.368 4286084203
-0.082793839 -0.12159191 1.373 4287927183
-0.079327196 -0.12203471 1.378 4288256922
-0.076326691 -0.12327454 1.3920001 4293389552
-0.31804979 -0.12315857 1.4350001 4287664524
-0.30821538 -0.12084129 1.4080001 4288123786
-0.30198735 -0.11989723 1.3970001 4287992198
-0.29752696 -0.11963975 1.3940001 4287795072
-0.29371503 -0.11963975 1.3940001 4288058244
-0.28948721 -0.1194681 1.3920001 4287992451
-0.28485984 -0.11912481 1.388 4287926658
-0.28025433 -0.11878151 1.3840001 4288058244
-0.27567077 -0.11843821 1.3800001 4287795070
-0.27150306 -0.11826655 1.378 4287728507
-0.26695776 -0.11792325 1.3740001 4287925886
-0.2624343 -0.11757996 1.3700001 4288320644
-0.25812155 -0.11732248 1.3670001 4288649352
-0.25419739 -0.11723666 1.3660001 4288979344
-0.25009534 -0.11706501 1.3640001 4287926656
-0.24564297 -0.1167217 1.36 4287663484
-0.24139041 -0.11646423 1.3570001 4287531898
-0.23697907 -0.11612093 1.353 4287663484
-0.2325896 -0.11577763 1.3490001 4287465335
-0.22822203 -0.11543434 1.345 4287202163
-0.22454412 -0.11543434 1.345 4287004525
-0.22070198 -0.11534851 1.3440001 4287596662
-0.21734975 -0.11552016 1.3460001 4288451971
-0.21398661 -0.11569181 1.348 4288451971
-0.21030049 -0.11569181 1.348 4289899417
-0.20646109 -0.11560598 1.3470001 4290425761
-0.20247662 -0.11543434 1.345 4290557349
-0.1987987 -0.11543434 1.345 4290426020
-0.19483064 -0.11526268 1.3430001 4290097055
-0.19115819 -0.11526268 1.3430001 4290360481
-0.18678774 -0.11483356 1.3380001 4290492067
-0.18258148 -0.11449026 1.3340001 4290689446
-0.17812885 -0.11397532 1.3280001 4290360481
-0.17410323 -0.11371783 1.325 4290228895
-0.16970803 -0.11320289 1.319 4290294688
-0.16597527 -0.11311706 1.3180001 4290097823
-0.162248 -0.11303124 1.317 4290229409
-0.15912849 -0.11337454 1.3210001 4289570711
-0.15575165 -0.11354619 1.3230001 4287333749
-0.15259387 -0.11388949 1.327 4287136370
-0.1494142 -0.11423279 1.3310001 4287202163
-0.14654122 -0.11483356 1.3380001 4286412647
-0.14448427 -0.11612093 1.353 4284702029
-0.14328176 -0.11818072 1.3770001 4284702029
-0.14113745 -0.11955393 1.393 4284307271
-0.13742687 -0.11963975 1.3940001 4284373834
-0.13313571 -0.11921062 1.3890001 4284637006
-0.12905812 -0.11895315 1.386 4285294166
-0.12499695 -0.11869568 1.383 4285952096
-0.1207769 -0.11826655 1.378 4285952096
-0.11632944 -0.11757996 1.3700001 4286215268
-0.11241882 -0.1174083 1.368 4286544233
-0.10851911 -0.11723666 1.3660001 4286741612
-0.10470707 -0.11715083 1.365 4286675562
-0.10075254 -0.11689336 1.3620001 4287070577
-0.096814416 -0.11663587 1.3590001 4287334519
-0.093098223 -0.11663587 1.3590001 4287795070
-0.089579329 -0.11689336 1.3620001 4288189576
-0.086170107 -0.11732248 1.3670001 4285821031
-0.082673237 -0.11766578 1.3710001 4287861390
-0.079212062 -0.11809491 1.376 4288256409
-0.076052532 -0.11903898 1.3870001 4293454832
-0.074343681 -0.12247197 1.427 4293258484
-0.3093099 -0.11740656 1.4130001 4287927436
-0.302852 -0.11640948 1.401 4288189836
-0.29816726 -0.11607712 1.3970001 4287663232
-0.29413643 -0.11599403 1.396 4287926404
-0.29011109 -0.11591093 1.3950001 4287992451
-0.28588599 -0.11574475 1.393 4288124037
-0.28146932 -0.11549548 1.3900001 4287992449
-0.27686933 -0.11516312 1.386 4287926656
-0.27288225 -0.11508003 1.3850001 4288320646
-0.2685121 -0.11483076 1.3820001 4288123783
-0.26396674 -0.1144984 1.378 4287860611
-0.25906566 -0.11399985 1.3720001 4287860097
-0.25475565 -0.11375058 1.3690001 4287729279
-0.2506454 -0.11358441 1.3670001 4288058244
-0.24654609 -0.11341822 1.365 4287531898
-0.2424577 -0.11325205 1.363 4287663484
-0.23785481 -0.1128366 1.358 4287795070
-0.23327927 -0.11242114 1.353 4287333749
-0.22873108 -0.11200569 1.348 4287399542
-0.224878 -0.1119226 1.3470001 4287202163
-0.2210304 -0.11183952 1.3460001 4289241746
-0.21767272 -0.11200569 1.348 4290425761
-0.21382785 -0.1119226 1.3470001 4288780936
-0.20998845 -0.11183952 1.3460001 4288847242
-0.2063078 -0.11183952 1.3460001 4289439125
-0.20232607 -0.11167333 1.3440001 4290031262
-0.19850308 -0.11159024 1.3430001 4290162848
-0.19410528 -0.11117478 1.3380001 4289768090
-0.18973483 -0.11075934 1.3330001 4289899676
-0.18525212 -0.11026079 1.327 4290228895
-0.18080221 -0.10976225 1.3210001 4290294688
-0.1766534 -0.10942989 1.317 4290426274
-0.17265785 -0.10918062 1.314 4289966237
-0.16867872 -0.10893136 1.3110001 4290097825
-0.16521969 -0.10901444 1.312 4289703580
-0.16187842 -0.10918062 1.314 4288518793
-0.15900803 -0.10967917 1.3200001 4287071347
-0.15586938 -0.11001153 1.3240001 4287004784
-0.15282385 -0.11042698 1.3290001 4286807405
-0.14975098 -0.11084242 1.3340001 4287267956
-0.14676027 -0.11134097 1.34 4287070577
-0.14448427 -0.11242114 1.353 4284175685
-0.14328176 -0.1144153 1.3770001 4284373834
-0.14134009 -0.11591093 1.3950001 4284505420
-0.1378212 -0.1161602 1.3980001 4284637006
-0.1335191 -0.11574475 1.393 4284834385
-0.12952371 -0.11557857 1.391 4285229143
-0.12535848 -0.11524621 1.3870001 4286281061
-0.12112748 -0.11483076 1.3820001 4285886303
-0.11666909 -0.11416604 1.3740001 4286281061
-0.11266534 -0.11391677 1.3710001 4286543974
-0.10875744 -0.11375058 1.3690001 4286741353
-0.10486048 -0.11358441 1.3670001 4286938219
-0.10082651 -0.11325205 1.363 4287070320
-0.096885659 -0.11300277 1.36 4287202933
-0.093235224 -0.11308587 1.3610001 4287531900
-0.089710869 -0.11333513 1.3640001 4288123784
-0.086359218 -0.11383368 1.3700001 4285886824
-0.082854144 -0.11416604 1.3740001 4287861389
-0.079327196 -0.1144984 1.378 4287795856
-0.076052532 -0.11524621 1.3870001 4293980661
-0.074031092 -0.11807128 1.4210001 4293389300
-0.3093099 -0.1135427 1.4130001 4288058768
-0.302852 -0.11257843 1.401 4288124043
-0.29795381 -0.11217665 1.396 4287729025
-0.29392573 -0.11209629 1.3950001 4287794818
-0.29011109 -0.11209629 1.3950001 4288124037
-0.28588599 -0.11193559 1.393 4287925888
-0.28146932 -0.11169451 1.3900001 4287926656
-0.27726883 -0.11153381 1.388 4287795072
-0.2732763 -0.11145344 1.3870001 4287992451
-0.26890066 -0.11121238 1.3840001 4287794818
-0.26434988 -0.11089096 1.3800001 4287926404
-0.25944331 -0.11040882 1.3740001 4288189576
-0.25512785 -0.11016776 1.3710001 4288057990
-0.25119546 -0.1100874 1.3700001 4288124037
-0.24672669 -0.10976598 1.3660001 4287466105
-0.24263559 -0.10960526 1.3640001 4287597691
-0.23802997 -0.10920348 1.3590001 4287991679
-0.23345169 -0.10880171 1.3540001 4287400312
-0.22873108 -0.10831957 1.348 4287400312
-0.22454412 -0.10807851 1.345 4289965469
-0.22070198 -0.10799815 1.3440001 4290294434
-0.21718828 -0.10807851 1.345 4290426274
-0.21335162 -0.10799815 1.3440001 4290623653
-0.20936443 -0.10783743 1.342 4290623653
-0.20554143 -0.10775708 1.3410001 4290294434
-0.20157339 -0.10759637 1.3390001 4289439125
-0.19776405 -0.10751601 1.3380001 4288584586
-0.19352499 -0.10719459 1.3340001 4288255621
-0.18902315 -0.10671246 1.3280001 4289176723
-0.1841353 -0.10598926 1.319 4289176721
-0.17957041 -0.10542676 1.312 4289900444
-0.17558032 -0.10518569 1.309 4289703065
-0.17186946 -0.10510533 1.3080001 4289768860
-0.16829272 -0.10510533 1.3080001 4288979344
-0.16496783 -0.10526605 1.3100001 4287926654
-0.16187842 -0.10558748 1.314 4286545001
-0.15888757 -0.10598926 1.319 4286938732
-0.15586938 -0.10639104 1.3240001 4286938732
-0.15282385 -0.10679282 1.3290001 4287794043
-0.1494142 -0.10695352 1.3310001 4289767833
-0.14632219 -0.1073553 1.3360001 4289504918
-0.14373676 -0.10815886 1.3460001 4283584318
-0.14244933 -0.11000704 1.3690001 4283847490
-0.14073217 -0.11161415 1.3890001 4284439627
-0.13762403 -0.11217665 1.396 4284439627
-0.1335191 -0.11193559 1.393 4284834385
-0.12952371 -0.11177487 1.391 4284965971
-0.12544885 -0.11153381 1.388 4285821280
-0.12121512 -0.11113203 1.383 4285623901
-0.11683892 -0.11056954 1.376 4286083682
-0.11266534 -0.11016776 1.3710001 4286543974
-0.10875744 -0.11000704 1.3690001 4286543974
-0.10486048 -0.10984634 1.3670001 4286412388
-0.10090049 -0.10960526 1.3640001 4286938732
-0.097028136 -0.10944455 1.3620001 4287136372
-0.09330374 -0.10944455 1.3620001 4287531900
-0.08977665 -0.10968561 1.365 4288057991
-0.086296178 -0.11000704 1.3690001 4286018410
-0.082854144 -0.11040882 1.3740001 4288123792
-0.079384759 -0.1108106 1.3790001 4287466893
-0.075997695 -0.11137309 1.386 4293718004
-0.073770605 -0.11378376 1.416 4293455347
-0.30952883 -0.10975646 1.414 4287992975
-0.30393288 -0.10913548 1.406 4287795848
-0.29923442 -0.108825 1.4020001 4287597439
-0.29497924 -0.10866976 1.4000001 4287663232
-0.29073498 -0.10851451 1.3980001 4288189830
-0.28650168 -0.10835928 1.396 4287992451
-0.28207681 -0.10812642 1.393 4287926658
-0.27786812 -0.10797117 1.391 4287729279
-0.2738674 -0.10789354 1.3900001 4287926658
-0.26967785 -0.10773831 1.388 4288124037
-0.2651161 -0.10742782 1.3840001 4287992451
-0.26019859 -0.10696209 1.378 4287992197
-0.2556861 -0.1066516 1.3740001 4287860611
-0.25174552 -0.10657398 1.373 4288189830
-0.24744919 -0.10634112 1.3700001 4287729279
-0.24316925 -0.10610826 1.3670001 4287597691
-0.23855543 -0.10572015 1.3620001 4287992451
-0.23414135 -0.10540967 1.358 4287466105
-0.2294098 -0.10494394 1.3520001 4288189828
-0.22521189 -0.10471108 1.3490001 4289374102
-0.22119462 -0.10455583 1.3470001 4289834653
-0.21734975 -0.10447822 1.3460001 4290031516
-0.21351036 -0.10440059 1.345 4290097309
-0.20920841 -0.10409011 1.3410001 4290294688
-0.20569472 -0.10416772 1.342 4290360481
-0.20187445 -0.10409011 1.3410001 4290426020
-0.19820748 -0.10409011 1.3410001 4290163618
-0.19381516 -0.103702 1.3360001 4288453000
-0.18916547 -0.10315865 1.3290001 4288058242
-0.18455411 -0.1026153 1.322 4288124035
-0.18011789 -0.10214958 1.3160001 4288189828
-0.17598273 -0.10183908 1.312 4287992449
-0.17226365 -0.10176147 1.3110001 4288781965
-0.16880737 -0.10183908 1.312 4286610796
-0.16559748 -0.10207196 1.3150001 4286939245
-0.16249439 -0.10238244 1.319 4286610280
-0.15912849 -0.10253768 1.3210001 4286807145
-0.15575165 -0.10269292 1.3230001 4288780936
-0.15247887 -0.10292578 1.3260001 4290030492
-0.14918968 -0.10315865 1.3290001 4290294177
-0.14610313 -0.10354675 1.3340001 4290360227
-0.14298923 -0.10393486 1.3390001 4290820778
-0.14068042 -0.10494394 1.3520001 4288058242
-0.13890843 -0.10641874 1.3710001 4283847490
-0.13663818 -0.10758306 1.386 4284242248
-0.13342325 -0.10804879 1.3920001 4284637006
-0.12980305 -0.10820403 1.3940001 4285031764
-0.12581038 -0.10804879 1.3920001 4285886303
-0.12147807 -0.10758306 1.386 4286083682
-0.11709365 -0.10703971 1.3790001 4286412647
-0.11291187 -0.1066516 1.3740001 4286543974
-0.10891633 -0.10641874 1.3710001 4286478181
-0.10516731 -0.10641874 1.3710001 4286741353
-0.10104843 -0.10603064 1.3660001 4287136113
-0.097241856 -0.10595302 1.365 4287399544
-0.093509249 -0.10595302 1.365 4287795072
-0.090039723 -0.1062635 1.3690001 4288321163
-0.08661136 -0.1066516 1.3740001 4285031515
-0.083155647 -0.10703971 1.3790001 4287663496
-0.079672597 -0.10742782 1.3840001 4288190614
-0.076217033 -0.10789354 1.3900001 4293520880
-0.309091 -0.10574009 1.4120001 4287598217
-0.30393288 -0.10529076 1.406 4287794821
-0.29923442 -0.10499121 1.4020001 4287926404
-0.29518992 -0.10491633 1.401 4287729025
-0.29073498 -0.10469167 1.3980001 4287992197
-0.28629643 -0.10446701 1.3950001 4287926404
-0.28187433 -0.10424235 1.3920001 4287991681
-0.27786812 -0.10416746 1.391 4288123267
-0.27406442 -0.10416746 1.391 4288123267
-0.26987213 -0.10401768 1.3890001 4287860865
-0.2651161 -0.10364326 1.3840001 4287992451
-0.26057625 -0.10334371 1.3800001 4288124035
-0.25624436 -0.10311905 1.3770001 4287992449
-0.25211224 -0.10296928 1.3750001 4288124035
-0.24781041 -0.10274461 1.3720001 4287991681
-0.24316925 -0.10237019 1.3670001 4287596923
-0.23855543 -0.10199575 1.3620001 4288057474
-0.23396894 -0.10162131 1.3570001 4287663486
-0.2294098 -0.10124688 1.3520001 4287860865
-0.22537884 -0.10109711 1.35 4288189828
-0.22135884 -0.10094734 1.348 4288716172
-0.21734975 -0.10079756 1.3460001 4289176723
-0.21335162 -0.10064778 1.3440001 4289308309
-0.2090524 -0.10034824 1.34 4289834137
-0.20523489 -0.10027335 1.3390001 4290228895
-0.20142284 -0.10019846 1.3380001 4290228895
-0.19761625 -0.10012358 1.337 4289703065
-0.19337994 -0.099824034 1.3330001 4287926654
-0.18902315 -0.099449597 1.3280001 4287860863
-0.18483332 -0.099150054 1.3240001 4287860863
-0.18052849 -0.098775618 1.319 4287335032
-0.17625099 -0.098401181 1.314 4286939761
-0.17252645 -0.098326296 1.3130001 4287137138
-0.1690647 -0.098401181 1.314 4286939245
-0.16572341 -0.09855096 1.3160001 4287136111
-0.16249439 -0.098775618 1.319 4288123006
-0.15888757 -0.098775618 1.319 4289767830
-0.15551621 -0.098925389 1.3210001 4290096538
-0.15190391 -0.098925389 1.3210001 4290162076
-0.14851613 -0.099075168 1.3230001 4290754213
-0.14511743 -0.099224932 1.325 4290491554
-0.14170778 -0.099374712 1.327 4290360227
-0.13870341 -0.099824034 1.3330001 4290426790
-0.13597018 -0.10049801 1.342 4290953134
-0.13387781 -0.1016962 1.358 4289966239
-0.13160211 -0.1028195 1.373 4284505422
-0.12887189 -0.10364326 1.3840001 4284505422
-0.12553924 -0.10401768 1.3890001 4285688924
-0.12147807 -0.10379303 1.386 4286083682
-0.11709365 -0.10326882 1.3790001 4286610026
-0.11291187 -0.10289439 1.3740001 4286609769
-0.10891633 -0.10266973 1.3710001 4286280804
-0.1050906 -0.10259484 1.3700001 4286741355
-0.1011224 -0.10237019 1.3670001 4286675562
-0.097241856 -0.10222041 1.365 4287399542
-0.093509249 -0.10222041 1.365 4287663486
-0.089973956 -0.10244507 1.368 4288321162
-0.086485289 -0.10274461 1.3720001 4288189577
-0.083035052 -0.10311905 1.3770001 4288321424
-0.079557464 -0.10349348 1.3820001 4288256148
-0.076162197 -0.10401768 1.3890001 4293585390
-0.30008817 -0.10144604 1.406 4287926404
-0.29582202 -0.10130174 1.404 4287729025
-0.29135886 -0.10108528 1.401 4287860611
-0.28732261 -0.10101313 1.4000001 4288123783
-0.2828868 -0.10079668 1.3970001 4287992451
-0.27846742 -0.10058022 1.3940001 4287926658
-0.27426144 -0.10043591 1.3920001 4287925890
-0.27006641 -0.1002916 1.3900001 4288189058
-0.26569077 -0.10007516 1.3870001 4288123265
-0.26133153 -0.099858701 1.3840001 4288124037
-0.2569887 -0.099642232 1.381 4288058244
-0.25284564 -0.099497937 1.3790001 4288189830
-0.24853291 -0.099281482 1.376 4287728509
-0.24352501 -0.098776408 1.3690001 4287794302
-0.23890571 -0.098415643 1.3640001 4288058244
-0.23448618 -0.098127037 1.36 4287729279
-0.23042789 -0.097982742 1.358 4287795072
-0.22654749 -0.097910583 1.3570001 4288321414
-0.22234412 -0.097694129 1.3540001 4288189828
-0.21799567 -0.097405523 1.35 4288058242
-0.21382785 -0.097189061 1.3470001 4288387207
-0.20936443 -0.096828297 1.342 4288518791
-0.20538814 -0.096683994 1.34 4288847758
-0.20142284 -0.096539684 1.3380001 4289308309
-0.19761625 -0.09646754 1.337 4289571481
-0.19352499 -0.096251078 1.3340001 4288124035
-0.18945014 -0.096034624 1.3310001 4287729277
-0.18539172 -0.095818169 1.3280001 4287992449
-0.18121281 -0.095529564 1.3240001 4287795070
-0.17692167 -0.095168799 1.319 4286939761
-0.17292064 -0.094952345 1.3160001 4287004784
-0.16932203 -0.094952345 1.3160001 4287202417
-0.16584936 -0.095024489 1.317 4286938732
-0.16237119 -0.095096648 1.3180001 4288188286
-0.15864666 -0.095024489 1.317 4289175181
-0.1550453 -0.095024489 1.317 4290293662
-0.15144396 -0.095024489 1.317 4290491554
-0.14829163 -0.095313102 1.3210001 4290623140
-0.14478886 -0.095385253 1.322 4290557347
-0.14117384 -0.095385253 1.322 4290228641
-0.13745476 -0.095313102 1.3210001 4290491813
-0.13424775 -0.095601708 1.325 4289637274
-0.13151179 -0.096251078 1.3340001 4288913551
-0.12920585 -0.097261213 1.348 4285097559
-0.12756827 -0.098848566 1.3700001 4284571215
-0.12517771 -0.099930845 1.3850001 4284899408
-0.121741 -0.10021945 1.3890001 4285425752
-0.11743329 -0.099786542 1.383 4286149475
-0.11340494 -0.099570088 1.3800001 4286083425
-0.10931354 -0.099281482 1.376 4286543976
-0.10539744 -0.099137172 1.3740001 4286741355
-0.1014183 -0.098920718 1.3710001 4286478183
-0.097455576 -0.098704256 1.368 4287136372
-0.093646258 -0.098632112 1.3670001 4287663486
-0.090039723 -0.098776408 1.3690001 4288255369
-0.086548321 -0.099065021 1.373 4288584334
-0.083155647 -0.099497937 1.3790001 4288518290
-0.079672597 -0.099858701 1.3840001 4288190355
-0.28329179 -0.097115397 1.399 4287992451
-0.27886692 -0.096907146 1.396 4287926658
-0.27426144 -0.096629478 1.3920001 4288057476
-0.27006641 -0.096490636 1.3900001 4287991681
-0.26549923 -0.096212968 1.386 4288057472
-0.26152039 -0.096143544 1.3850001 4287926658
-0.25717482 -0.0959353 1.3820001 4287992451
-0.25302902 -0.095796466 1.3800001 4288124035
-0.24835227 -0.095449373 1.3750001 4288123265
-0.24334714 -0.094963446 1.368 4287860095
-0.23890571 -0.094685778 1.3640001 4287926658
-0.23448618 -0.094408102 1.36 4287729279
-0.23059757 -0.094338685 1.3590001 4288058244
-0.22688137 -0.094338685 1.3590001 4287926658
-0.22267254 -0.094130434 1.3560001 4288124035
-0.21848011 -0.093922183 1.353 4288189828
-0.21414533 -0.093644515 1.3490001 4288058242
-0.21014446 -0.093505673 1.3470001 4287992449
-0.20569472 -0.09315858 1.342 4288058242
-0.20157339 -0.092950337 1.3390001 4288058242
-0.19732064 -0.092672661 1.335 4287926658
-0.19337994 -0.092533834 1.3330001 4287860863
-0.18916547 -0.092256166 1.3290001 4287663484
-0.18525212 -0.092117324 1.327 4287729277
-0.18107595 -0.091839649 1.3230001 4287466105
-0.17705579 -0.091631405 1.3200001 4287334519
-0.17305204 -0.091423139 1.317 4286807405
-0.16919337 -0.091284312 1.3150001 4287202163
-0.16572341 -0.091353729 1.3160001 4288846729
-0.16200161 -0.091284312 1.3150001 4290096796
-0.1581648 -0.091145471 1.3130001 4288254079
-0.15457439 -0.091145471 1.3130001 4289438866
-0.15109898 -0.091214895 1.314 4289702040
-0.1478426 -0.091423139 1.317 4289833883
-0.14402221 -0.091284312 1.3150001 4290031262
-0.14042632 -0.091284312 1.3150001 4290097825
-0.13683045 -0.091284312 1.3150001 4288518793
-0.13363984 -0.091561981 1.319 4288058242
-0.1307231 -0.0920479 1.3260001 4288189828
-0.1279598 -0.092672661 1.335 4286742382
-0.12617154 -0.094061017 1.355 4284242248
-0.1247258 -0.095796466 1.3800001 4284767822
-0.12182865 -0.096490636 1.3900001 4284965201
-0.11768803 -0.096212968 1.386 4285557081
-0.11365147 -0.096004717 1.383 4285886303
-0.10963131 -0.095796466 1.3800001 4286215011
-0.10555086 -0.095518798 1.376 4286346597
-0.10156625 -0.095310539 1.373 4287070320
-0.097526811 -0.095032863 1.3690001 4287137142
-0.093714766 -0.094963446 1.368 4287334521
-0.089973956 -0.094963446 1.368 4288255369
-0.086485289 -0.095241114 1.3720001 4288189830
-0.082974747 -0.095518798 1.376 4288386704
-0.079557464 -0.0959353 1.3820001 4288255633
-0.27045503 -0.092823043 1.3920001 4287925890
-0.26607391 -0.09262298 1.3890001 4288057472
-0.26189801 -0.092489623 1.3870001 4288124037
-0.25791916 -0.09242294 1.386 4287992449
-0.25357908 -0.092222892 1.383 4287992449
-0.24907476 -0.091956161 1.3790001 4288189058
-0.24388079 -0.091422692 1.3710001 4287860093
-0.23925601 -0.091089278 1.3660001 4287926658
-0.23483102 -0.09082254 1.3620001 4287663484
-0.23127629 -0.09088923 1.363 4287729277
-0.22754915 -0.09088923 1.363 4288189830
-0.22349359 -0.090755858 1.3610001 4288189828
-0.21912603 -0.090489127 1.3570001 4288124035
-0.21493907 -0.090289079 1.3540001 4288321414
-0.21092451 -0.090155706 1.3520001 4288189828
-0.20676762 -0.089955658 1.3490001 4287992451
-0.20247662 -0.089688927 1.345 4288123783
-0.19835529 -0.089488879 1.342 4287926404
-0.19410528 -0.089222148 1.3380001 4287926404
-0.18973483 -0.088888727 1.3330001 4287860611
-0.18553132 -0.088621996 1.3290001 4287926658
-0.18134969 -0.088355266 1.325 4287795070
-0.17718993 -0.088088527 1.3210001 4287662714
-0.17318344 -0.087888479 1.3180001 4288452230
-0.1694507 -0.087821797 1.317 4289570454
-0.16597527 -0.087888479 1.3180001 4290491554
-0.1621248 -0.087755114 1.3160001 4290228382
-0.15828528 -0.087621748 1.314 4290688933
-0.15457439 -0.087555066 1.3130001 4290886312
-0.15098397 -0.087555066 1.3130001 4290162848
-0.14773034 -0.087755114 1.3160001 4288979346
-0.14391269 -0.087621748 1.314 4288650379
-0.14042632 -0.087688431 1.3150001 4288124037
-0.13693449 -0.087755114 1.3160001 4287795072
-0.1339438 -0.08815521 1.322 4287531900
-0.13111746 -0.088688679 1.33 4287004784
-0.12815151 -0.089155458 1.337 4287860865
-0.12607843 -0.090289079 1.3540001 4284373834
-0.12463543 -0.091956161 1.3790001 4284702029
-0.11794277 -0.09262298 1.3890001 4285228373
-0.113898 -0.09242294 1.386 4285491545
-0.10979021 -0.092156202 1.3820001 4285952096
-0.10585769 -0.092022844 1.3800001 4286478440
-0.10178817 -0.091756113 1.376 4286610026
-0.097811766 -0.091556057 1.373 4286676591
-0.093920276 -0.091422692 1.3710001 4287071606
-0.090237036 -0.091489367 1.3720001 4288057990
-0.086737432 -0.091756113 1.376 4288255369
-0.083336554 -0.092156202 1.3820001 4288321165
-0.26189801 -0.08869686 1.3870001 4287992451
-0.25791916 -0.088632904 1.386 4288058242
-0.25357908 -0.088441059 1.383 4288123265
-0.24907476 -0.088185266 1.3790001 4288320644
-0.24405867 -0.087737627 1.3720001 4288254853
-0.23960634 -0.087481834 1.368 4287926658
-0.23534827 -0.087289982 1.365 4287729279
-0.23161566 -0.087289982 1.365 4287663486
-0.22788306 -0.087289982 1.365 4288124037
-0.22382201 -0.087162085 1.363 4288255621
-0.21977192 -0.087034188 1.3610001 4287992449
-0.21525654 -0.086714447 1.3560001 4288189828
-0.21123654 -0.08658655 1.3540001 4288189830
-0.2070742 -0.086394705 1.3510001 4287926658
-0.20307878 -0.086266808 1.3490001 4288057990
-0.1986509 -0.085947059 1.3440001 4287860612
-0.1945405 -0.085755214 1.3410001 4287860612
-0.18987715 -0.085307576 1.3340001 4287860612
-0.18567093 -0.085051782 1.33 4287663486
-0.18134969 -0.084732033 1.325 4287992451
-0.17718993 -0.08447624 1.3210001 4288124035
-0.17305204 -0.084220447 1.317 4289176723
-0.16919337 -0.08409255 1.3150001 4289965469
-0.16547155 -0.084028602 1.314 4290557860
-0.16163202 -0.083900705 1.312 4290623653
-0.15780342 -0.083772808 1.3100001 4290623653
-0.15410349 -0.083708853 1.309 4290492067
-0.150639 -0.083772808 1.3100001 4290360997
-0.14716905 -0.083836749 1.3110001 4288716172
-0.14358412 -0.083836749 1.3110001 4287531900
-0.14021274 -0.083964653 1.3130001 4287860865
-0.13714261 -0.084284395 1.3180001 4288058244
-0.13404511 -0.084604137 1.3230001 4288255623
-0.13111746 -0.085051782 1.33 4287663743
-0.12815151 -0.085499421 1.337 4287268728
-0.12598531 -0.086522602 1.353 4284702029
-0.12436429 -0.087993421 1.376 4284702029
-0.11381583 -0.088568963 1.3850001 4285491545
-0.10986964 -0.088441059 1.383 4285755487
-0.1059344 -0.088313162 1.381 4286017889
-0.10186214 -0.088057369 1.3770001 4286215268
-0.097811766 -0.087801576 1.373 4286742384
-0.093988784 -0.087737627 1.3720001 4286742384
-0.090302803 -0.087801576 1.373 4287992197
-0.086800471 -0.088057369 1.3770001 4288321162
-0.083336554 -0.088377111 1.3820001 4288321165
-0.24477021 -0.084230736 1.376 4288254853
-0.24030691 -0.08398588 1.3720001 4288058244
-0.23603792 -0.083802231 1.3690001 4288057990
-0.23212472 -0.083741024 1.368 4287597439
-0.22821695 -0.083679803 1.3670001 4287926658
-0.22415045 -0.083557375 1.365 4288124037
-0.22009487 -0.083434947 1.363 4288124037
-0.21573278 -0.083190091 1.3590001 4288124037
-0.21139254 -0.082945235 1.355 4287992451
-0.20738073 -0.082822807 1.353 4287992197
-0.20353039 -0.082761593 1.3520001 4288123783
-0.19938992 -0.082577951 1.3490001 4287926405
-0.1951208 -0.082333095 1.345 4288123784
-0.19058886 -0.081965804 1.3390001 4288189577
-0.18608974 -0.08159852 1.3330001 4287992197
-0.18162343 -0.081231236 1.327 4288123783
-0.17772646 -0.081108809 1.325 4288058242
-0.17357764 -0.080863953 1.3210001 4288321414
-0.16957936 -0.080680311 1.3180001 4288979344
-0.16547155 -0.080435455 1.314 4289439893
-0.16150883 -0.080251813 1.3110001 4290294688
-0.15768296 -0.080129385 1.309 4290492067
-0.15410349 -0.080129385 1.309 4289833883
-0.150754 -0.080251813 1.3110001 4289176723
-0.14739357 -0.080374241 1.3130001 4288321414
-0.14391269 -0.080435455 1.314 4287005556
-0.1406399 -0.080619097 1.317 4287926658
-0.13745476 -0.080863953 1.3210001 4288057990
-0.13434906 -0.081170022 1.3260001 4288123783
-0.13131462 -0.081537314 1.332 4287663745
-0.12834319 -0.081965804 1.3390001 4287860611
-0.12598531 -0.082822807 1.353 4284702801
-0.12418352 -0.084108308 1.3740001 4284636236
-0.10193612 -0.084353164 1.378 4286544233
-0.098025486 -0.084230736 1.376 4286807405
-0.094125785 -0.084108308 1.3740001 4287268728
-0.09043435 -0.084169514 1.3750001 4287860611
-0.24083237 -0.080409564 1.3750001 4287992197
-0.23655517 -0.080234133 1.3720001 4288057991
-0.23229438 -0.080058686 1.3690001 4287663232
-0.22821695 -0.079941735 1.3670001 4287795072
-0.22431466 -0.079883255 1.3660001 4288189830
-0.22025636 -0.079766296 1.3640001 4288189060
-0.21557403 -0.079415411 1.358 4288057474
-0.21139254 -0.079239979 1.355 4288124037
-0.20722745 -0.079064533 1.3520001 4288320646
-0.20353039 -0.079064533 1.3520001 4288123269
-0.19938992 -0.078889102 1.3490001 4288189576
-0.19526584 -0.078713655 1.3460001 4288321162
-0.19073118 -0.078362778 1.34 4288255369
-0.18622932 -0.078011908 1.3340001 4287860611
-0.1817603 -0.07766103 1.3280001 4287926658
-0.17786059 -0.077544063 1.3260001 4287926658
-0.17357764 -0.077251665 1.3210001 4288124035
-0.16957936 -0.077076226 1.3180001 4288255621
-0.16547155 -0.076842308 1.314 4288058242
-0.16163202 -0.076725349 1.312 4288124035
-0.15756251 -0.07649143 1.3080001 4288846988
-0.15386803 -0.076432951 1.307 4289307539
-0.15052402 -0.07654991 1.309 4288649609
-0.14750583 -0.076842308 1.314 4287794300
-0.14424126 -0.077017747 1.317 4286873970
-0.14085348 -0.077134706 1.319 4287334521
-0.13745476 -0.077251665 1.3210001 4287794818
-0.13424775 -0.077485584 1.325 4287992197
-0.13111746 -0.077777989 1.33 4288057474
-0.12805566 -0.078128867 1.3360001 4288057990
-0.1253335 -0.078713655 1.3460001 4285360731
-0.12364125 -0.080000214 1.368 4284965201
-0.094057284 -0.080292605 1.373 4287202165
-0.22855084 -0.07631515 1.3690001 4287926658
-0.22447887 -0.076203659 1.3670001 4288057474
-0.22041784 -0.076092169 1.365 4287991681
-0.21605027 -0.075869188 1.3610001 4288254853
-0.21201658 -0.075757697 1.3590001 4288452234
-0.20784056 -0.075590461 1.3560001 4287991681
-0.20383149 -0.075478971 1.3540001 4288386439
-0.19968554 -0.075311735 1.3510001 4288123267
-0.19570106 -0.075200245 1.3490001 4288386439
-0.19130053 -0.074921519 1.3440001 4288254853
-0.18664813 -0.074531302 1.337 4288058244
-0.18230775 -0.074252576 1.332 4288189830
-0.17839713 -0.074141085 1.33 4288189830
-0.17423463 -0.073918104 1.3260001 4287795070
-0.17035134 -0.073806614 1.3240001 4288058242
-0.16622713 -0.073583633 1.3200001 4288189828
-0.162248 -0.073416397 1.317 4288058242
-0.15804434 -0.073137671 1.312 4287728507
-0.15433894 -0.073081926 1.3110001 4287333749
-0.15109898 -0.073249161 1.314 4287794300
-0.14806712 -0.073527887 1.319 4287267956
-0.14478886 -0.073695123 1.322 4286939763
-0.14128062 -0.073750868 1.3230001 4287268728
-0.13776693 -0.073806614 1.3240001 4287992197
-0.13465303 -0.07408534 1.3290001 4287992197
-0.13161038 -0.074419811 1.335 4288123784
-0.1285349 -0.074754283 1.3410001 4288123783
-0.12542662 -0.075088754 1.3470001 4287400314
-0.12346048 -0.076147914 1.3660001 4284900180
-0.21620901 -0.072200529 1.3620001 4288189062
-0.21217258 -0.072094508 1.36 4287926404
-0.20784056 -0.071882464 1.3560001 4288189576
-0.20383149 -0.071776442 1.3540001 4288124037
-0.19953772 -0.071564399 1.35 4287926658
-0.195556 -0.071458377 1.348 4288123783
-0.19144288 -0.071299352 1.345 4287992197
-0.18692735 -0.070981279 1.3390001 4288123783
-0.18244463 -0.070663221 1.3330001 4288123783
-0.17839713 -0.070504189 1.33 4288057990
-0.17423463 -0.070292145 1.3260001 4287795072
-0.17035134 -0.070186123 1.3240001 4288124035
-0.16635306 -0.070027091 1.3210001 4287992708
-0.16261758 -0.06997408 1.3200001 4287992451
-0.1581648 -0.069603011 1.3130001 4287860097
-0.15433894 -0.069496982 1.3110001 4287662718
-0.150869 -0.069549993 1.312 4287728509
-0.14806712 -0.069921069 1.319 4287860095
-0.14478886 -0.070080101 1.322 4287070577
-0.14128062 -0.070133112 1.3230001 4287399542
-0.13776693 -0.070186123 1.3240001 4288123267
-0.13475436 -0.070504189 1.33 4287992197
-0.13170896 -0.070822254 1.3360001 4288189577
-0.1285349 -0.071087301 1.3410001 4288057990
-0.12524039 -0.071299352 1.345 4287860611
-0.20413256 -0.068174466 1.3560001 4288124037
-0.19998115 -0.068023644 1.353 4287992197
-0.19613628 -0.067973368 1.3520001 4288255369
-0.19215456 -0.067872815 1.35 4287926405
-0.18762535 -0.067571156 1.3440001 4288057991
-0.18312897 -0.067269497 1.3380001 4287992197
-0.17879952 -0.067018114 1.3330001 4287926404
-0.17489162 -0.066917568 1.3310001 4287861122
-0.170866 -0.066766739 1.3280001 4287926915
-0.16673085 -0.066565633 1.3240001 4287926404
-0.16286397 -0.06646508 1.322 4288255369
-0.15864666 -0.066213705 1.317 4287926404
-0.15480985 -0.066113152 1.3150001 4287860611
-0.15132895 -0.066163421 1.3160001 4287728509
-0.14829163 -0.066414803 1.3210001 4287728507
-0.14489838 -0.066515356 1.3230001 4286938991
-0.14128062 -0.066515356 1.3230001 4286938991
-0.13787098 -0.066615909 1.325 4287794302
-0.13485567 -0.066917568 1.3310001 4288254853
-0.13170896 -0.067168951 1.3360001 4287926404
-0.1287266 -0.067520879 1.3430001 4287926658
-0.12551974 -0.067772262 1.348 4287729279
-0.19613628 -0.064276308 1.3520001 4288057990
-0.19215456 -0.064181224 1.35 4288386956
-0.18776496 -0.06394352 1.345 4288057991
-0.18326584 -0.063658267 1.3390001 4288189577
-0.17893367 -0.063420564 1.3340001 4288189577
-0.17476024 -0.063230395 1.33 4287531646
-0.17073734 -0.063087769 1.327 4288189830
-0.16685678 -0.062992685 1.325 4287926658
-0.16311036 -0.062945142 1.3240001 4288386955
-0.15888757 -0.062707439 1.319 4287860611
-0.15492757 -0.062564805 1.3160001 4287400060
-0.15109898 -0.062469725 1.314 4287597693
-0.14795485 -0.062659889 1.3180001 4287663484
-0.14446029 -0.062707439 1.319 4288387207
-0.14106706 -0.062802516 1.3210001 4288584586
-0.13766287 -0.0628976 1.3230001 4288847758
-0.13455172 -0.063135311 1.3280001 4287992449
-0.13151179 -0.063420564 1.3340001 4288189830
-0.12834319 -0.063658267 1.3390001 4287860865
-0.1253335 -0.063991055 1.3460001 4287729279
-0.18381329 -0.060175985 1.3430001 4288189576
-0.1794702 -0.059951954 1.3380001 4287663232
-0.17515443 -0.059727915 1.3330001 4288189576
-0.171252 -0.059638299 1.3310001 4288255623
-0.16723457 -0.059503883 1.3280001 4288387209
-0.16360314 -0.059503883 1.3280001 4288321416
-0.15961033 -0.05936946 1.325 4287926658
-0.15563393 -0.059235036 1.322 4287729279
-0.15155894 -0.059055809 1.3180001 4288387207
-0.14795485 -0.059055809 1.3180001 4289439895
-0.14435077 -0.059055809 1.3180001 4290360997
-0.14096026 -0.059145421 1.3200001 4289834653
-0.13755882 -0.059235036 1.322 4289439895
-0.13455172 -0.059503883 1.3280001 4287926656
-0.13180755 -0.059907142 1.337 4287795072
-0.1287266 -0.060175985 1.3430001 4287795070
-0.1794702 -0.056293178 1.3380001 4288058244
-0.17528582 -0.056124888 1.3340001 4288189830
-0.171252 -0.055998668 1.3310001 4288387209
-0.16748643 -0.055956598 1.33 4288189830
-0.16360314 -0.055872455 1.3280001 4288387209
-0.15948987 -0.055704158 1.3240001 4287992451
-0.15539847 -0.055535868 1.3200001 4288584588
-0.15132895 -0.055367578 1.3160001 4290689962
-0.14761809 -0.055325508 1.3150001 4290755755
-0.14391269 -0.055283435 1.314 4290360997
-0.1405331 -0.055367578 1.3160001 4289703067
-0.13735071 -0.055535868 1.3200001 4288584586
-0.13445039 -0.055830378 1.327 4287992449
-0.13190612 -0.056293178 1.3380001 4288058242
-0.17189533 -0.052555729 1.3360001 4288255369
-0.16786422 -0.052437712 1.3330001 4288453002
-0.16384953 -0.052319702 1.33 4287992451
-0.15985125 -0.052201685 1.327 4288255623
-0.15575165 -0.052044332 1.3230001 4288124037
-0.15167393 -0.051886979 1.319 4288979344
-0.14761809 -0.051729627 1.3150001 4288979344
-0.14391269 -0.051690288 1.314 4288584586
-0.1405331 -0.051768962 1.3160001 4288255621
-0.13755882 -0.052004993 1.322 4288387209
-0.13485567 -0.052359037 1.3310001 4288058244
-0.16384953 -0.048682801 1.33 4288189576
-0.15985125 -0.048572991 1.327 4288386955
-0.15575165 -0.048426576 1.3230001 4287795072
-0.15167393 -0.048280161 1.319 4287597691
-0.14761809 -0.04813375 1.3150001 4288058242
-0.14380315 -0.04806054 1.3130001 4287663484
