# .PCD v0.7 - Point Cloud Data file format
VERSION 0.7
FIELDS x y z rgba
SIZE 4 4 4 4
TYPE F F F U
COUNT 1 1 1 1
WIDTH 1113
HEIGHT 1
VIEWPOINT 0 0 0 1 0 0 0
POINTS 1113
DATA ascii
-0.23009603 0.070151769 1.2880001 4290823373
-0.226799 0.069824971 1.2820001 4292533991
-0.22422348 0.069716036 1.2800001 4293257968
-0.22130804 0.069498181 1.276 4293389554
-0.21874987 0.069389246 1.274 4293389554
-0.21602869 0.069225848 1.271 4293455347
-0.21382262 0.069225848 1.271 4293389298
-0.21145006 0.069171384 1.2700001 4293389554
-0.20908095 0.06911692 1.2690001 4293192178
-0.20687835 0.06911692 1.2690001 4293716727
-0.20451446 0.069062456 1.268 4294765823
-0.20231359 0.069062456 1.268 4290549681
-0.20011273 0.069062456 1.268 4288641940
-0.19791186 0.069062456 1.268 4289172647
-0.19555666 0.069007985 1.2670001 4291479507
-0.19335753 0.069007985 1.2670001 4293256944
-0.19130927 0.069062456 1.268 4293454835
-0.18925753 0.06911692 1.2690001 4293455089
-0.18690753 0.069062456 1.268 4293389552
-0.18470667 0.069062456 1.268 4293323759
-0.1825058 0.069062456 1.268 4293389553
-0.18030494 0.069062456 1.268 4293389554
-0.17810407 0.069062456 1.268 4293389554
-0.17590322 0.069062456 1.268 4293389554
-0.17370234 0.069062456 1.268 4293389554
-0.17150147 0.069062456 1.268 4293389554
-0.16930062 0.069062456 1.268 4293389554
-0.16696797 0.069007985 1.2670001 4293389554
-0.16489889 0.069062456 1.268 4293389553
-0.16269802 0.069062456 1.268 4293323759
-0.16049714 0.069062456 1.268 4293257968
-0.15842111 0.06911692 1.2690001 4293389554
-0.15621851 0.06911692 1.2690001 4293389554
-0.15389456 0.069062456 1.268 4293323761
-0.15157406 0.069007985 1.2670001 4293323761
-0.14937493 0.069007985 1.2670001 4293389554
-0.14705963 0.068953522 1.266 4293455346
-0.14486223 0.068953522 1.266 4293389553
-0.14277755 0.069007985 1.2670001 4293455345
-0.14068936 0.069062456 1.268 4293389552
-0.13859771 0.06911692 1.2690001 4293455345
-0.13661008 0.069225848 1.271 4293521138
-0.1346155 0.069334783 1.273 4293521138
-0.132718 0.069498181 1.276 4293981688
-0.13040096 0.06944371 1.2750001 4294310654
-0.12570328 0.070533022 1.2950001 4282862672
-0.12374154 0.070696421 1.2980001 4283191637
-0.12176939 0.07085982 1.3010001 4283586395
-0.11997056 0.071132146 1.3060001 4282402121
-0.117884 0.071241081 1.3080001 4281612605
-0.11570209 0.071295545 1.309 4281415740
-0.11369002 0.071458943 1.312 4281415740
-0.11175246 0.071676806 1.3160001 4281481019
-0.10955145 0.071731269 1.317 4281612605
-0.10750989 0.071894668 1.3200001 4281546812
-0.10553761 0.07211253 1.3240001 4281678398
-0.10331752 0.072166994 1.325 4281678398
-0.10132268 0.072384857 1.3290001 4281613375
-0.099239446 0.072548255 1.332 4281547582
-0.096854724 0.072493792 1.3310001 4281679168
-0.094615549 0.072548255 1.332 4281679168
-0.092372887 0.072602719 1.3330001 4281744963
-0.090059206 0.072602719 1.3330001 4281744709
-0.087284744 0.072221458 1.3260001 4281942089
-0.085111387 0.072330393 1.3280001 4281942088
-0.081107557 0.072875045 1.3380001 4288455341
-0.2653653 0.075406052 1.342 4291086547
-0.26225197 0.075181291 1.3380001 4291349719
-0.25954109 0.075068913 1.3360001 4291415512
-0.25645205 0.074844159 1.332 4291349719
-0.25337693 0.074619405 1.3280001 4290757582
-0.2506938 0.07450702 1.3260001 4290494410
-0.24745564 0.074226074 1.3210001 4290757580
-0.24442041 0.07400132 1.317 4290691787
-0.24195065 0.073945127 1.3160001 4291020752
-0.23748107 0.073270857 1.304 4291349717
-0.23449618 0.073046096 1.3000001 4291283924
-0.23081061 0.07259658 1.2920001 4290362822
-0.22750664 0.072259448 1.286 4291020752
-0.224749 0.072090879 1.2830001 4292073440
-0.22165491 0.071809933 1.2780001 4293257714
-0.21909328 0.071697555 1.276 4293389554
-0.21585873 0.071360424 1.2700001 4293455347
-0.21365438 0.071360424 1.2700001 4293455604
-0.21128355 0.071304232 1.2690001 4293258482
-0.20891619 0.07124804 1.268 4293389554
-0.20671533 0.07124804 1.268 4293389044
-0.20451446 0.07124804 1.268 4293520118
-0.20215404 0.071191847 1.2670001 4293782263
-0.19995491 0.071191847 1.2670001 4294176251
-0.19775578 0.071191847 1.2670001 4294176764
-0.19540229 0.071135662 1.266 4293717239
-0.19320491 0.071135662 1.266 4293389045
-0.19100751 0.071135662 1.266 4293389555
-0.18895927 0.071191847 1.2670001 4293455346
-0.18676014 0.071191847 1.2670001 4293455345
-0.18470667 0.07124804 1.268 4293323759
-0.18236187 0.071191847 1.2670001 4293323760
-0.18016274 0.071191847 1.2670001 4293389554
-0.17796361 0.071191847 1.2670001 4293389554
-0.17590322 0.07124804 1.268 4293455347
-0.17370234 0.07124804 1.268 4293389554
-0.17136623 0.071191847 1.2670001 4293323761
-0.1691671 0.071191847 1.2670001 4293389554
-0.16683617 0.071135662 1.266 4293455347
-0.16463879 0.071135662 1.266 4293389554
-0.16256972 0.071191847 1.2670001 4293389554
-0.16037057 0.071191847 1.2670001 4293389554
-0.15817145 0.071191847 1.2670001 4293455347
-0.15609542 0.07124804 1.268 4293389554
-0.15389456 0.07124804 1.268 4293389554
-0.15145442 0.071135662 1.266 4293389553
-0.14925702 0.071135662 1.266 4293389552
-0.14705963 0.071135662 1.266 4293389552
-0.14497668 0.071191847 1.2670001 4293455345
-0.14277755 0.071191847 1.2670001 4293389552
-0.14080031 0.071304232 1.2690001 4293389552
-0.13881615 0.071416609 1.271 4293850103
-0.13671756 0.071472794 1.2720001 4294113275
-0.13493274 0.071697555 1.276 4293915896
-0.13303003 0.071866125 1.279 4290955210
-0.13070779 0.071809933 1.2780001 4286020736
-0.12618862 0.073046096 1.3000001 4283652188
-0.12402754 0.073102288 1.3010001 4282402634
-0.12195659 0.073214665 1.3030001 4281547582
-0.11997056 0.073383234 1.3060001 4281350203
-0.117884 0.073495612 1.3080001 4281481789
-0.11570209 0.073551804 1.309 4281350203
-0.11377667 0.073776558 1.3130001 4281547582
-0.11183737 0.07400132 1.317 4281612605
-0.10963464 0.074057505 1.3180001 4281612605
-0.10759133 0.074226074 1.3210001 4281612605
-0.1054579 0.074338451 1.3230001 4281612605
-0.10323954 0.074394643 1.3240001 4281744191
-0.10124644 0.074619405 1.3280001 4281744961
-0.09916494 0.074787967 1.3310001 4281613375
-0.096927494 0.074844159 1.332 4281679168
-0.094686575 0.074900344 1.3330001 4281613377
-0.092372887 0.074900344 1.3330001 4281679426
-0.089721397 0.074619405 1.3280001 4281745222
-0.087284744 0.07450702 1.3260001 4281744968
-0.085111387 0.074619405 1.3280001 4281679431
-0.081107557 0.075181291 1.3380001 4287863462
-0.26225197 0.077487536 1.3380001 4291020755
-0.25973535 0.077429622 1.337 4291415512
-0.25645205 0.077140056 1.332 4291349719
-0.25337693 0.07690841 1.3280001 4291020754
-0.2506938 0.076792583 1.3260001 4290691789
-0.24764295 0.076560929 1.322 4290691787
-0.24460603 0.076329276 1.3180001 4290889166
-0.2421345 0.076271363 1.317 4291086545
-0.23802744 0.075692229 1.307 4291415510
-0.23521772 0.075518496 1.304 4291349717
-0.23188248 0.075171016 1.2980001 4290428615
-0.22839119 0.07476563 1.291 4290494408
-0.22562487 0.07459189 1.2880001 4291086545
-0.22217521 0.074186496 1.281 4292007647
-0.21892157 0.073839016 1.2750001 4293126128
-0.21568875 0.073491544 1.2690001 4293323762
-0.21331792 0.07343363 1.268 4293455347
-0.21095057 0.073375717 1.2670001 4293389554
-0.20842192 0.07325989 1.2650001 4293389554
-0.20622624 0.07325989 1.2650001 4293455347
-0.2038693 0.073201977 1.2640001 4293454836
-0.20167537 0.073201977 1.2640001 4293388786
-0.19948144 0.073201977 1.2640001 4293454579
-0.19713145 0.073144063 1.263 4293389042
-0.19478492 0.073086157 1.2620001 4293389299
-0.19274707 0.073144063 1.263 4293389300
-0.19055489 0.073144063 1.263 4293323762
-0.1883627 0.073144063 1.263 4293455346
-0.18631792 0.073201977 1.2640001 4293455345
-0.18412399 0.073201977 1.2640001 4293455345
-0.18193007 0.073201977 1.2640001 4293389552
-0.17973615 0.073201977 1.2640001 4293389552
-0.17754222 0.073201977 1.2640001 4293389553
-0.17548704 0.07325989 1.2650001 4293389554
-0.17329137 0.07325989 1.2650001 4293455347
-0.17096046 0.073201977 1.2640001 4293455347
-0.16876653 0.073201977 1.2640001 4293389554
-0.16644083 0.073144063 1.263 4293389554
-0.16424865 0.073144063 1.263 4293389554
-0.16205646 0.073144063 1.263 4293389554
-0.15986428 0.073144063 1.263 4293389554
-0.15779692 0.073201977 1.2640001 4293389554
-0.15547989 0.073144063 1.263 4293455347
-0.15328771 0.073144063 1.263 4293521138
-0.15121515 0.073201977 1.2640001 4293521138
-0.14902122 0.073201977 1.2640001 4293455345
-0.14694348 0.07325989 1.2650001 4293455345
-0.14497668 0.073375717 1.2670001 4293521138
-0.14289023 0.07343363 1.268 4293850103
-0.14113317 0.073665284 1.2720001 4294113275
-0.13936225 0.073896937 1.276 4293389552
-0.13746993 0.074070677 1.279 4288981421
-0.13556722 0.07424441 1.2820001 4284046946
-0.13511024 0.075228937 1.299 4283454809
-0.13285556 0.075228937 1.299 4283981153
-0.13070144 0.075286843 1.3000001 4283520602
-0.12864263 0.07540267 1.302 4282138949
-0.12677103 0.075634323 1.3060001 4281546812
-0.12469488 0.07575015 1.3080001 4281415996
-0.12242458 0.07575015 1.3080001 4281350203
-0.12015428 0.07575015 1.3080001 4281415996
-0.11797412 0.075808063 1.309 4281481789
-0.1156137 0.07575015 1.3080001 4281613375
-0.11377667 0.076039709 1.3130001 4281547582
-0.11183737 0.076271363 1.317 4281613119
-0.10963464 0.076329276 1.3180001 4281547326
-0.10742844 0.076387197 1.319 4281481532
-0.10529847 0.076503016 1.3210001 4281613375
-0.10308359 0.076560929 1.322 4281679168
-0.10101772 0.07673467 1.325 4281744961
-0.098792426 0.076792583 1.3260001 4281679168
-0.09649089 0.076792583 1.3260001 4281744961
-0.094331414 0.07690841 1.3280001 4281613889
-0.092095703 0.076966323 1.3290001 4281745474
-0.08958628 0.076792583 1.3260001 4281679688
-0.087284744 0.076792583 1.3260001 4281482310
-0.08504729 0.076850489 1.327 4282074195
-0.25954109 0.079674505 1.3360001 4291218134
-0.25645205 0.079435959 1.332 4291283927
-0.25337693 0.079197414 1.3280001 4291283926
-0.2506938 0.079078145 1.3260001 4291020754
-0.24764295 0.0788396 1.322 4290560201
-0.24460603 0.078601047 1.3180001 4290428615
-0.24195065 0.078481779 1.3160001 4290757580
-0.23802744 0.077945046 1.307 4291283924
-0.2353981 0.077825777 1.3050001 4291349717
-0.23206113 0.077467956 1.299 4290757580
-0.228745 0.077110134 1.2930001 4290560201
-0.22580005 0.076871589 1.289 4290691787
-0.22234866 0.076454133 1.2820001 4291283924
-0.21892157 0.076036677 1.2750001 4291876061
-0.21551879 0.075619221 1.268 4293126128
-0.2131497 0.075559579 1.2670001 4293455093
-0.21061757 0.07544031 1.2650001 4293455090
-0.20825714 0.075380668 1.2640001 4293389554
-0.20590019 0.075321034 1.263 4293455347
-0.20354673 0.075261399 1.2620001 4293389554
-0.20135628 0.075261399 1.2620001 4293323761
-0.19885018 0.075142123 1.2600001 4293323761
-0.19681928 0.075201757 1.261 4293323504
-0.19463056 0.075201757 1.261 4293323504
-0.19228925 0.075142123 1.2600001 4293323761
-0.19010226 0.075142123 1.2600001 4293389553
-0.18806443 0.075201757 1.261 4293455345
-0.1858757 0.075201757 1.261 4293521138
-0.18383266 0.075261399 1.2620001 4293455345
-0.18135434 0.075142123 1.2600001 4293389552
-0.17916736 0.075142123 1.2600001 4293455345
-0.17712083 0.075201757 1.261 4293521139
-0.17493212 0.075201757 1.261 4293455346
-0.17274341 0.075201757 1.261 4293455346
-0.1705547 0.075201757 1.261 4293455347
-0.16823247 0.075142123 1.2600001 4293389554
-0.16591372 0.075082488 1.2590001 4293455347
-0.16372846 0.075082488 1.2590001 4293389554
-0.16154322 0.075082488 1.2590001 4293389554
-0.15923139 0.075022846 1.258 4293455348
-0.15717272 0.075082488 1.2590001 4293389298
-0.15498748 0.075082488 1.2590001 4293521140
-0.15304497 0.075201757 1.261 4293455345
-0.1509759 0.075261399 1.2620001 4293455345
-0.14890334 0.075321034 1.263 4293455345
-0.14705963 0.075499944 1.266 4293915896
-0.14520551 0.075678855 1.2690001 4294310654
-0.14334098 0.075857766 1.2720001 4292731622
-0.14146604 0.076036677 1.2750001 4288323491
-0.14100051 0.076990865 1.291 4283652188
-0.1388672 0.0770505 1.2920001 4283520602
-0.13694192 0.077229403 1.2950001 4283783774
-0.13531825 0.077587225 1.3010001 4283389016
-0.13326466 0.077706501 1.3030001 4282138949
-0.13130467 0.077885412 1.3060001 4281546812
-0.12913665 0.077945046 1.307 4281349946
-0.12725636 0.078183591 1.3110001 4281547325
-0.12517153 0.07830286 1.3130001 4281482046
-0.12279896 0.078243226 1.312 4281482302
-0.12042987 0.078183591 1.3110001 4281415996
-0.11806423 0.078123957 1.3100001 4281547582
-0.11579047 0.078123957 1.3100001 4281547838
-0.11377667 0.07830286 1.3130001 4281415996
-0.11166754 0.078422137 1.3150001 4281547582
-0.10946827 0.078481779 1.3160001 4281613375
-0.10726554 0.078541413 1.317 4281481789
-0.10505934 0.078601047 1.3180001 4281679168
-0.10284966 0.078660689 1.319 4281547582
-0.10056028 0.078660689 1.319 4281679168
-0.098270893 0.078660689 1.319 4281679168
-0.095981508 0.078660689 1.319 4281679168
-0.093905218 0.0788396 1.322 4281547841
-0.091679923 0.078899235 1.3230001 4281614146
-0.089383595 0.078899235 1.3230001 4281680202
-0.087218918 0.079018511 1.325 4281745230
-0.08504729 0.07913778 1.327 4283521642
-0.25645205 0.081731863 1.332 4291415513
-0.25337693 0.081486426 1.3280001 4291283926
-0.25088286 0.081425063 1.327 4291349719
-0.24783027 0.081179619 1.3230001 4290889168
-0.24479161 0.080934182 1.319 4290757580
-0.24231838 0.080872819 1.3180001 4290757580
-0.23857377 0.080381937 1.3100001 4291020752
-0.23593925 0.080259219 1.3080001 4291349717
-0.23295437 0.080013774 1.304 4290560201
-0.22962955 0.079645611 1.2980001 4290625994
-0.22685109 0.07946153 1.2950001 4290691787
-0.22321585 0.078970648 1.2870001 4290691787
-0.21978009 0.07854113 1.2800001 4291349717
-0.21602869 0.077988885 1.271 4291876061
-0.21348615 0.077866167 1.2690001 4293060334
-0.21061757 0.07762073 1.2650001 4293257968
-0.20809239 0.077498004 1.263 4293389554
-0.20573717 0.077436648 1.2620001 4293389554
-0.20306286 0.077252567 1.2590001 4293389554
-0.20071806 0.077191204 1.258 4293389554
-0.19853455 0.077191204 1.258 4293257968
-0.19635104 0.077191204 1.258 4293323761
-0.19432189 0.077252567 1.2590001 4293389554
-0.19213665 0.077252567 1.2590001 4293389554
-0.18980052 0.077191204 1.258 4293389554
-0.187617 0.077191204 1.258 4293455346
-0.18558091 0.077252567 1.2590001 4293455345
-0.18339567 0.077252567 1.2590001 4293455345
-0.18121041 0.077252567 1.2590001 4293455345
-0.17902517 0.077252567 1.2590001 4293389552
-0.17698039 0.077313922 1.2600001 4293521138
-0.17479341 0.077313922 1.2600001 4293389552
-0.17260642 0.077313922 1.2600001 4293455345
-0.17041944 0.077313922 1.2600001 4293389554
-0.16809896 0.077252567 1.2590001 4293389554
-0.16578192 0.077191204 1.258 4293455347
-0.16346836 0.077129841 1.2570001 4293521140
-0.16128659 0.077129841 1.2570001 4293455346
-0.15923139 0.077191204 1.258 4293455090
-0.15717272 0.077252567 1.2590001 4293389297
-0.15498748 0.077252567 1.2590001 4293455089
-0.15304497 0.077375285 1.261 4293784053
-0.15109552 0.077498004 1.263 4293784053
-0.14902122 0.077559367 1.2640001 4294310654
-0.14729196 0.077804811 1.268 4291810518
-0.14566322 0.078111611 1.273 4286744459
-0.14379175 0.078295693 1.276 4283520602
-0.1417989 0.078418411 1.2780001 4283783774
-0.14121895 0.079338819 1.2930001 4284046946
-0.13908218 0.079400174 1.294 4282731086
-0.13715342 0.079584256 1.2970001 4281744191
-0.13542227 0.079891056 1.302 4281546812
-0.13326466 0.079952419 1.3030001 4281678398
-0.1314052 0.080197856 1.307 4281612605
-0.12923546 0.080259219 1.3080001 4281481789
-0.12735343 0.080504656 1.312 4281547838
-0.12517153 0.080566019 1.3130001 4281482046
-0.12289255 0.080566019 1.3130001 4281482302
-0.12052172 0.080504656 1.312 4281547582
-0.11815437 0.0804433 1.3110001 4281547582
-0.11587887 0.0804433 1.3110001 4281350716
-0.11377667 0.080566019 1.3130001 4281613118
-0.11175246 0.0807501 1.3160001 4281547582
-0.10946827 0.0807501 1.3160001 4281613375
-0.10726554 0.080811463 1.317 4281744961
-0.10497963 0.080811463 1.317 4281679168
-0.10277168 0.080872819 1.3180001 4281547582
-0.10040779 0.080811463 1.317 4281679168
-0.098121881 0.080811463 1.317 4281547582
-0.095981508 0.080934182 1.319 4281679168
-0.093905218 0.081118263 1.322 4281679683
-0.091610625 0.081118263 1.322 4281745736
-0.089451149 0.081240982 1.3240001 4281877837
-0.087218918 0.081302345 1.325 4282008918
-0.08504729 0.081425063 1.327 4283455857
-0.25337693 0.083775431 1.3280001 4290889168
-0.25088286 0.083712347 1.327 4290889168
-0.24801762 0.083523095 1.3240001 4291349719
-0.24534836 0.083396927 1.322 4291218133
-0.24286993 0.083333842 1.3210001 4291283924
-0.23912014 0.08282917 1.3130001 4291547096
-0.23648039 0.082703009 1.3110001 4291415510
-0.23349032 0.082450666 1.307 4290625994
-0.2303372 0.082135253 1.302 4290691787
-0.22772695 0.082009085 1.3000001 4290625995
-0.22425649 0.081567496 1.2930001 4290362824
-0.2206386 0.081062824 1.2850001 4291020753
-0.21789834 0.080873571 1.2820001 4291349717
-0.21399084 0.080242731 1.2720001 4291744475
-0.21095057 0.07992731 1.2670001 4292731370
-0.20792763 0.079611897 1.2620001 4293257714
-0.20541112 0.079485722 1.2600001 4293455347
-0.20290156 0.079359554 1.258 4293455347
-0.20039895 0.079233393 1.256 4293323761
-0.19821891 0.079233393 1.256 4293389554
-0.19603889 0.079233393 1.256 4293323761
-0.19385885 0.079233393 1.256 4293323761
-0.19167881 0.079233393 1.256 4293389554
-0.18949877 0.079233393 1.256 4293389554
-0.18731873 0.079233393 1.256 4293389554
-0.1851387 0.079233393 1.256 4293389554
-0.18295866 0.079233393 1.256 4293455347
-0.18077862 0.079233393 1.256 4293389554
-0.17859858 0.079233393 1.256 4293455347
-0.17641854 0.079233393 1.256 4293455347
-0.17423852 0.079233393 1.256 4293455347
-0.17205848 0.079233393 1.256 4293455347
-0.16987844 0.079233393 1.256 4293455347
-0.16756487 0.079170302 1.2550001 4293389554
-0.16538657 0.079170302 1.2550001 4293521138
-0.16320828 0.079170302 1.2550001 4293455345
-0.16102996 0.079170302 1.2550001 4293455345
-0.15897825 0.079233393 1.256 4293586418
-0.15704788 0.079359554 1.258 4293718004
-0.15498748 0.079422645 1.2590001 4294178555
-0.15316635 0.079611897 1.2620001 4293981176
-0.15145442 0.079864226 1.266 4290494147
-0.14949283 0.079990394 1.268 4285691515
-0.14798892 0.080368899 1.274 4283257430
-0.14657861 0.080810487 1.281 4283981153
-0.14458057 0.080936655 1.2830001 4284112739
-0.14301939 0.08131516 1.289 4282467914
-0.14132817 0.08163058 1.294 4281481019
-0.13918965 0.081693657 1.2950001 4281283640
-0.13725916 0.081882909 1.2980001 4281612605
-0.13531825 0.082072161 1.3010001 4281612605
-0.13326466 0.082198337 1.3030001 4281612862
-0.1314052 0.082450666 1.307 4281613118
-0.12923546 0.082513757 1.3080001 4281415996
-0.12725636 0.082703009 1.3110001 4281613375
-0.1250762 0.082766086 1.312 4281548095
-0.12270537 0.082703009 1.3110001 4281548095
-0.120338 0.082639918 1.3100001 4281481789
-0.11797412 0.082576834 1.309 4281679168
-0.11579047 0.082639918 1.3100001 4281482302
-0.11360336 0.082703009 1.3110001 4281875777
-0.11141278 0.082766086 1.312 4281613375
-0.10913555 0.082766086 1.312 4281679168
-0.10693976 0.08282917 1.3130001 4281613375
-0.10466079 0.08282917 1.3130001 4281547582
-0.10245978 0.082892254 1.314 4281613375
-0.10010284 0.08282917 1.3130001 4281679168
-0.097898372 0.082892254 1.314 4281876547
-0.095763206 0.08301843 1.3160001 4281876547
-0.093692124 0.083207682 1.319 4281942599
-0.091402732 0.083207682 1.319 4282008909
-0.089316033 0.083396927 1.322 4281812050
-0.25088286 0.08599963 1.327 4290297031
-0.24820495 0.08587002 1.325 4291218133
-0.24553394 0.085740402 1.3230001 4291415512
-0.24286993 0.085610785 1.3210001 4291349717
-0.23930225 0.085157134 1.314 4291415510
-0.23666079 0.085027516 1.312 4291415510
-0.23349032 0.084703475 1.307 4290757580
-0.23051411 0.084444247 1.3030001 4290560202
-0.22790216 0.084314629 1.3010001 4290757582
-0.22460337 0.083925791 1.2950001 4290560203
-0.22115372 0.08347214 1.2880001 4290560203
-0.21823826 0.083212905 1.284 4290889168
-0.21415909 0.082500026 1.273 4291283926
-0.21095057 0.082111172 1.2670001 4291481303
-0.20792763 0.081787139 1.2620001 4292731370
-0.20541112 0.081657521 1.2600001 4293455347
-0.20274028 0.081463099 1.2570001 4293389554
-0.20023939 0.081333488 1.2550001 4293389554
-0.19790328 0.081268683 1.2540001 4293455347
-0.1958828 0.081333488 1.2550001 4293323761
-0.19370449 0.081333488 1.2550001 4293389554
-0.19137359 0.081268683 1.2540001 4293521140
-0.18919702 0.081268683 1.2540001 4293455347
-0.18702045 0.081268683 1.2540001 4293389554
-0.18484388 0.081268683 1.2540001 4293323761
-0.18266732 0.081268683 1.2540001 4293389554
-0.18049075 0.081268683 1.2540001 4293455347
-0.17831419 0.081268683 1.2540001 4293455347
-0.17613763 0.081268683 1.2540001 4293521139
-0.17396106 0.081268683 1.2540001 4293521139
-0.1716475 0.081203878 1.253 4293455345
-0.16947268 0.081203878 1.253 4293521138
-0.16729784 0.081203878 1.253 4293521138
-0.16512302 0.081203878 1.253 4293455345
-0.16307823 0.081268683 1.2540001 4293521138
-0.16090167 0.081268683 1.2540001 4293784310
-0.15897825 0.081398293 1.256 4294376190
-0.15704788 0.081527904 1.258 4293718260
-0.15486437 0.081527904 1.258 4289968059
-0.15316635 0.081787139 1.2620001 4285099378
-0.15169369 0.082175985 1.268 4283717724
-0.14972863 0.082305603 1.2700001 4284046690
-0.14822125 0.082694449 1.276 4283915360
-0.14680746 0.083148099 1.2830001 4282731086
-0.14491864 0.083342522 1.286 4281612605
-0.14313033 0.08360175 1.2900001 4281283640
-0.14143738 0.083925791 1.2950001 4281415226
-0.13918965 0.083925791 1.2950001 4281481019
-0.13715342 0.084055401 1.2970001 4281612605
-0.13531825 0.084314629 1.3010001 4281547069
-0.13306011 0.084314629 1.3010001 4281547582
-0.13120413 0.084573865 1.3050001 4281481789
-0.12913665 0.084703475 1.307 4281547582
-0.12696517 0.084768288 1.3080001 4281809984
-0.1245042 0.08463867 1.3060001 4281613375
-0.12214379 0.084573865 1.3050001 4281482559
-0.11969498 0.084444247 1.3030001 4281679424
-0.11743336 0.084444247 1.3030001 4281679424
-0.11534853 0.084573865 1.3050001 4281548095
-0.11308344 0.084573865 1.3050001 4281744961
-0.11090327 0.08463867 1.3060001 4281679168
-0.10871963 0.084703475 1.307 4281613375
-0.10653252 0.084768288 1.3080001 4281613375
-0.10442165 0.084897898 1.3100001 4281810754
-0.10222585 0.084962711 1.3110001 4281942340
-0.10010284 0.085092321 1.3130001 4281876547
-0.097823873 0.085092321 1.3130001 4282205770
-0.095617659 0.085157134 1.314 4282337357
-0.093550049 0.085351557 1.317 4282600532
-0.091333434 0.085416362 1.3180001 4282403413
-0.089248471 0.085610785 1.3210001 4282075225
-0.24305376 0.08795426 1.322 4291415510
-0.23948435 0.08748854 1.3150001 4291415510
-0.23684116 0.087355472 1.3130001 4291415510
-0.23402624 0.087155879 1.3100001 4290823373
-0.23122177 0.086956285 1.307 4290560201
-0.22860283 0.086823232 1.3050001 4290625996
-0.22564399 0.086557105 1.3010001 4290691789
-0.22235563 0.086157918 1.2950001 4290691789
-0.21976797 0.086024858 1.2930001 4290757581
-0.21466377 0.084893823 1.276 4291218133
-0.21178304 0.084627695 1.2720001 4291020752
-0.20842192 0.084161982 1.2650001 4290954959
-0.20590019 0.084028915 1.263 4292533990
-0.20290156 0.083696261 1.258 4293257968
-0.20007984 0.083430134 1.2540001 4293455347
-0.19774547 0.083363608 1.253 4293521140
-0.19510239 0.083164014 1.25 4293389554
-0.19277841 0.08309748 1.2490001 4293389554
-0.19061053 0.08309748 1.2490001 4293455347
-0.18844263 0.08309748 1.2490001 4293455347
-0.18657303 0.08323054 1.251 4293455347
-0.18440168 0.08323054 1.251 4293389554
-0.18223032 0.08323054 1.251 4293389554
-0.18005896 0.08323054 1.251 4293455347
-0.1778876 0.08323054 1.251 4293455345
-0.17557578 0.083164014 1.25 4293455345
-0.17340617 0.083164014 1.25 4293521138
-0.17137353 0.08323054 1.251 4293521138
-0.16933742 0.083297074 1.2520001 4293521138
-0.16716433 0.083297074 1.2520001 4293521138
-0.1652548 0.083430134 1.2540001 4293850103
-0.16333832 0.083563201 1.256 4294244861
-0.16128659 0.083629727 1.2570001 4292600035
-0.15923139 0.083696261 1.258 4287665561
-0.15792176 0.084161982 1.2650001 4283717981
-0.15547989 0.084028915 1.263 4283717981
-0.15300965 0.085093416 1.279 4283191637
-0.15090758 0.08515995 1.2800001 4281875777
-0.14926669 0.085492603 1.2850001 4281612605
-0.14749402 0.085758731 1.289 4281612605
-0.14536938 0.085825257 1.2900001 4281546812
-0.14335224 0.085958324 1.2920001 4281481019
-0.14143738 0.086157918 1.2950001 4281546812
-0.13918965 0.086157918 1.2950001 4281612605
-0.13715342 0.086290978 1.2970001 4281678398
-0.13531825 0.086557105 1.3010001 4281613119
-0.13316239 0.086623639 1.302 4281481789
-0.13120413 0.086823232 1.3050001 4281613631
-0.12893905 0.086823232 1.3050001 4281547839
-0.12667397 0.086823232 1.3050001 4281744704
-0.12412288 0.086623639 1.302 4281613631
-0.12176939 0.086557105 1.3010001 4281548352
-0.11951125 0.086557105 1.3010001 4281679424
-0.11734324 0.086623639 1.302 4281613632
-0.11517175 0.086690165 1.3030001 4281547839
-0.11299678 0.086756699 1.304 4281679168
-0.11081835 0.086823232 1.3050001 4281810497
-0.10863645 0.086889759 1.3060001 4281942340
-0.10645108 0.086956285 1.307 4281942340
-0.10442165 0.087155879 1.3100001 4282205513
-0.10222585 0.08722242 1.3110001 4282337356
-0.10010284 0.087355472 1.3130001 4282468943
-0.097823873 0.087355472 1.3130001 4282666323
-0.095690429 0.08748854 1.3150001 4282534738
-0.09362109 0.087688133 1.3180001 4282205263
-0.091402732 0.087754667 1.319 4282074452
-0.23948435 0.08975514 1.3150001 4291284696
-0.23684116 0.089618631 1.3130001 4291218901
-0.23402624 0.089413866 1.3100001 4290889936
-0.23104483 0.089140847 1.3060001 4290232006
-0.22860283 0.089072593 1.3050001 4290363592
-0.22547056 0.088731319 1.3000001 4290692557
-0.22235563 0.088390045 1.2950001 4290625994
-0.21976797 0.088253535 1.2930001 4290560201
-0.21668255 0.087912261 1.2880001 4290954702
-0.21294852 0.087297969 1.279 4291086545
-0.20941047 0.08675193 1.271 4290560201
-0.20671533 0.086547166 1.268 4290691787
-0.20322414 0.086001121 1.2600001 4292336611
-0.20007984 0.085591592 1.2540001 4293389554
-0.19758764 0.085455082 1.2520001 4293455347
-0.1949463 0.085250318 1.2490001 4293389554
-0.19262408 0.085182063 1.248 4293455347
-0.19030531 0.085113816 1.2470001 4293455347
-0.1881409 0.085113816 1.2470001 4293455347
-0.18582733 0.085045554 1.2460001 4293521139
-0.18366465 0.085045554 1.2460001 4293586932
-0.18150197 0.085045554 1.2460001 4293455345
-0.17919537 0.084977299 1.245 4293455345
-0.17717661 0.085045554 1.2460001 4293521138
-0.1751544 0.085113816 1.2470001 4293586931
-0.17312871 0.085182063 1.248 4293389552
-0.17137353 0.085386828 1.251 4293652724
-0.16947268 0.085523345 1.253 4294047482
-0.16743135 0.085591592 1.2540001 4294179068
-0.16591372 0.085932873 1.2590001 4292205278
-0.1641186 0.086137637 1.2620001 4287139217
-0.16192815 0.086137637 1.2620001 4283454809
-0.16176289 0.087229706 1.2780001 4283783774
-0.15954468 0.087229706 1.2780001 4284441704
-0.15744956 0.087297969 1.279 4283389016
-0.15571508 0.087570988 1.2830001 4282138949
-0.15384707 0.087775752 1.286 4281283640
-0.15161496 0.087775752 1.286 4281481020
-0.14984749 0.088048764 1.2900001 4281612606
-0.14806615 0.08832179 1.294 4281546813
-0.14582016 0.08832179 1.294 4281546813
-0.14379607 0.0884583 1.296 4281678399
-0.14154661 0.0884583 1.296 4281612605
-0.13929714 0.0884583 1.296 4281612605
-0.13725916 0.088594809 1.2980001 4281612862
-0.13511024 0.088663064 1.299 4281547582
-0.13285556 0.088663064 1.299 4281613375
-0.13080198 0.088799573 1.3010001 4281744961
-0.12844503 0.088731319 1.3000001 4281679168
-0.12599447 0.088594809 1.2980001 4281679168
-0.12355088 0.0884583 1.296 4281744961
-0.12130142 0.0884583 1.296 4281679168
-0.11905196 0.0884583 1.296 4281547327
-0.11698273 0.088594809 1.2980001 4281744962
-0.11490658 0.088731319 1.3000001 4282007878
-0.11282348 0.088867828 1.302 4282139464
-0.11073343 0.089004338 1.304 4282073672
-0.10847008 0.089004338 1.304 4282271307
-0.10636963 0.089140847 1.3060001 4282402893
-0.10434194 0.089345612 1.309 4282600017
-0.10230383 0.089550376 1.312 4282534737
-0.10017908 0.089686885 1.314 4282271566
-0.097972877 0.08975514 1.3150001 4282139981
-0.23948435 0.092021741 1.3150001 4291284696
-0.23702154 0.091951765 1.314 4291218901
-0.23402624 0.091671847 1.3100001 4291153108
-0.23104483 0.091391936 1.3060001 4290626764
-0.22842766 0.091251977 1.304 4290363592
-0.22547056 0.090972066 1.3000001 4290889679
-0.22252734 0.090692155 1.296 4290757580
-0.22010791 0.090622172 1.2950001 4290691787
-0.21718726 0.090342261 1.291 4291152081
-0.21428047 0.090062343 1.2870001 4291020752
-0.21039903 0.089362562 1.2770001 4290625994
-0.20769347 0.089152627 1.274 4290625994
-0.20403059 0.088522814 1.2650001 4291086545
-0.2005585 0.087962985 1.2570001 4292336612
-0.19806109 0.087823026 1.2550001 4293323506
-0.19510239 0.087473139 1.25 4293455347
-0.19246973 0.087263204 1.2470001 4293455347
-0.19015269 0.087193221 1.2460001 4293521140
-0.18768828 0.087053262 1.2440001 4293521139
-0.18552907 0.087053262 1.2440001 4293521138
-0.18351726 0.087123245 1.245 4293455345
-0.18150197 0.087193221 1.2460001 4293586931
-0.17933929 0.087193221 1.2460001 4293455345
-0.17746101 0.08733318 1.248 4293455345
-0.17585669 0.087613091 1.2520001 4293784310
-0.17382234 0.087683074 1.253 4294113275
-0.17219546 0.087962985 1.2570001 4293652724
-0.17041944 0.08817292 1.2600001 4291613141
-0.1684995 0.088312879 1.2620001 4286020736
-0.16683617 0.08859279 1.266 4283652188
-0.16541906 0.089012668 1.2720001 4284178532
-0.16346788 0.089152627 1.274 4283981153
-0.16201605 0.089572497 1.2800001 4283323223
-0.16016887 0.089782432 1.2830001 4281941570
-0.15794197 0.089782432 1.2830001 4281546812
-0.15607917 0.089992367 1.286 4281612606
-0.15420596 0.090202302 1.289 4281481021
-0.15196864 0.090202302 1.289 4281612607
-0.15007982 0.090412237 1.2920001 4281612607
-0.14840943 0.090762131 1.2970001 4281612607
-0.1462709 0.090832107 1.2980001 4281744194
-0.14435083 0.091042042 1.3010001 4281678400
-0.14231113 0.091182001 1.3030001 4281612607
-0.13983454 0.091042042 1.3010001 4281547582
-0.13725916 0.090832107 1.2980001 4281547582
-0.13479821 0.090692155 1.296 4281547582
-0.13244647 0.090622172 1.2950001 4281679168
-0.13009819 0.090552196 1.294 4281744961
-0.12775339 0.09048222 1.2930001 4281679168
-0.12550913 0.09048222 1.2930001 4281679168
-0.12336022 0.090552196 1.294 4282008133
-0.12111422 0.090552196 1.294 4282008134
-0.11896008 0.090622172 1.2950001 4282205258
-0.11689261 0.090762131 1.2970001 4282139465
-0.11472979 0.090832107 1.2980001 4282271051
-0.11273682 0.091042042 1.3010001 4282402638
-0.1105636 0.091112025 1.302 4282534225
-0.10855327 0.09132196 1.3050001 4282600017
-0.10645108 0.091461912 1.307 4282534225
-0.10426223 0.091531895 1.3080001 4282271053
-0.10230383 0.091811806 1.312 4282139982
-0.23402624 0.093929827 1.3100001 4291218903
-0.23122177 0.093714722 1.307 4291284696
-0.22860283 0.09357132 1.3050001 4290824143
-0.22581744 0.093356214 1.302 4291087315
-0.22287074 0.093069404 1.2980001 4291218644
-0.22044784 0.0929977 1.2970001 4290954959
-0.21769194 0.092782594 1.294 4291283925
-0.21494646 0.092567489 1.291 4291086547
-0.21122284 0.091922171 1.2820001 4290494410
-0.2085086 0.091707066 1.279 4290494410
-0.20499833 0.091133446 1.271 4290757581
-0.20151582 0.090559825 1.263 4291481303
-0.19869237 0.090273023 1.2590001 4292139233
-0.19557063 0.089842811 1.253 4293060590
-0.19262408 0.089484297 1.248 4293521140
-0.19000009 0.089269191 1.245 4293521140
-0.18768828 0.089197487 1.2440001 4293520882
-0.18552907 0.089197487 1.2440001 4293521138
-0.18366465 0.089340888 1.2460001 4293652468
-0.18193898 0.089556001 1.2490001 4293586675
-0.18005896 0.089699402 1.251 4293586931
-0.17845638 0.089986213 1.2550001 4294179068
-0.17683993 0.090273023 1.2590001 4293389552
-0.17479341 0.09034472 1.2600001 4289113007
-0.1730174 0.090559825 1.263 4284310118
-0.17096046 0.09063153 1.2640001 4284112739
-0.16890006 0.090703234 1.2650001 4284573290
-0.16683617 0.090774938 1.266 4283981153
-0.16502893 0.090990044 1.2690001 4282665293
-0.16295464 0.091061749 1.2700001 4281415226
-0.16150975 0.09149196 1.276 4281612605
-0.15991919 0.091850467 1.281 4281744191
-0.15794197 0.091993876 1.2830001 4281678398
-0.15620054 0.092280678 1.2870001 4281744192
-0.15432559 0.092495784 1.2900001 4281678400
-0.15220444 0.092567489 1.291 4281744193
-0.15019597 0.092710897 1.2930001 4281678400
-0.14840943 0.0929977 1.2970001 4281678400
-0.1462709 0.093069404 1.2980001 4281809986
-0.1444618 0.093356214 1.302 4281547071
-0.14242034 0.093499616 1.304 4281547584
-0.13983454 0.09328451 1.3010001 4281679168
-0.13694192 0.092854299 1.2950001 4281744961
-0.13438216 0.092639193 1.2920001 4281613375
-0.13203737 0.092567489 1.291 4281744961
-0.12979658 0.092567489 1.291 4281810755
-0.12755579 0.092567489 1.291 4282008134
-0.12550913 0.092710897 1.2930001 4282139720
-0.12336022 0.092782594 1.294 4282402637
-0.12120782 0.092854299 1.2950001 4282468430
-0.11914381 0.0929977 1.2970001 4282665810
-0.11707287 0.093141109 1.299 4282665811
-0.11490658 0.093212813 1.3000001 4282468433
-0.11273682 0.09328451 1.3010001 4282402897
-0.1105636 0.093356214 1.302 4282271056
-0.1083869 0.093427919 1.3030001 4282271056
-0.10434194 0.09385813 1.309 4282073677
-0.23402624 0.096187808 1.3100001 4291021524
-0.23122177 0.095967531 1.307 4291021523
-0.22860283 0.095820688 1.3050001 4291284694
-0.22581744 0.095600411 1.302 4291284694
-0.22304246 0.095380135 1.299 4291218901
-0.22044784 0.095233276 1.2970001 4291218901
-0.21769194 0.095013 1.294 4291218645
-0.21494646 0.094792724 1.291 4291152340
-0.21138759 0.094205312 1.2830001 4290560203
-0.20867161 0.093985036 1.2800001 4290494410
-0.20532091 0.093471058 1.273 4290560203
-0.20183493 0.092883654 1.2650001 4290823374
-0.19916582 0.092663378 1.2620001 4291415509
-0.1958828 0.092149392 1.2550001 4292205280
-0.19277841 0.091708839 1.2490001 4293126126
-0.19000009 0.091415137 1.245 4293455090
-0.18768828 0.091341704 1.2440001 4293586419
-0.18552907 0.091341704 1.2440001 4293652211
-0.18381207 0.091561988 1.2470001 4294047225
-0.18237598 0.091929115 1.2520001 4294376446
-0.18049075 0.092075966 1.2540001 4293323759
-0.17888297 0.092369668 1.258 4288652457
-0.17712083 0.092589945 1.261 4284507498
-0.17507087 0.092663378 1.2620001 4284046946
-0.1730174 0.092736803 1.263 4284244325
-0.17082521 0.092736803 1.263 4284178532
-0.16876653 0.092810221 1.2640001 4282533707
-0.1667044 0.092883654 1.2650001 4281283640
-0.16476884 0.093030497 1.2670001 4280823089
-0.16282631 0.093177356 1.2690001 4281612605
-0.1612566 0.093544483 1.274 4281875777
-0.15979436 0.093985036 1.2800001 4281744191
-0.15769576 0.094058461 1.281 4281744448
-0.15607917 0.094425596 1.286 4281547070
-0.15432559 0.094719291 1.2900001 4281876035
-0.15220444 0.094792724 1.291 4281744449
-0.15019597 0.094939575 1.2930001 4281744450
-0.14818057 0.095086426 1.2950001 4281744450
-0.14615822 0.095233276 1.2970001 4281481535
-0.1444618 0.095600411 1.302 4281547583
-0.14231113 0.095673829 1.3030001 4281679169
-0.13961959 0.095380135 1.299 4281744962
-0.13673042 0.094939575 1.2930001 4281744962
-0.13417414 0.094719291 1.2900001 4281744962
-0.13183281 0.094645873 1.289 4281613378
-0.12969603 0.094719291 1.2900001 4282139466
-0.1276546 0.094866149 1.2920001 4282600017
-0.12541208 0.094866149 1.2920001 4282665810
-0.12336022 0.095013 1.294 4282731603
-0.12120782 0.095086426 1.2950001 4282665810
-0.11914381 0.095233276 1.2970001 4282600019
-0.11698273 0.095306702 1.2980001 4282665812
-0.11481819 0.095380135 1.299 4282337362
-0.11273682 0.095526978 1.3010001 4282205776
-0.1105636 0.095600411 1.302 4282205520
-0.10855327 0.095820688 1.3050001 4282139727
-0.2289532 0.098220341 1.307 4290889938
-0.22599088 0.097919747 1.3030001 4291350489
-0.22321415 0.0976943 1.3000001 4291416282
-0.22078778 0.097619154 1.299 4291350489
-0.21802841 0.097393706 1.296 4291284696
-0.21511295 0.097093105 1.2920001 4291021524
-0.21188188 0.096642211 1.286 4290560716
-0.20932372 0.096491903 1.284 4290494410
-0.20612735 0.096041009 1.2780001 4290560203
-0.2029518 0.095590115 1.2720001 4290625995
-0.20011273 0.095289521 1.268 4290823373
-0.19681928 0.094763473 1.261 4291283924
-0.19355015 0.094237424 1.2540001 4291876060
-0.19045793 0.09378653 1.248 4292994796
-0.1881409 0.093711384 1.2470001 4293915897
-0.18597649 0.093711384 1.2470001 4294113275
-0.18440168 0.094011977 1.251 4290823625
-0.18310432 0.094462872 1.2570001 4286481287
-0.18121041 0.094613172 1.2590001 4284112739
-0.17916736 0.094688319 1.2600001 4284178532
-0.17712083 0.094763473 1.261 4284375911
-0.17493212 0.094763473 1.261 4283586395
-0.17274341 0.094763473 1.261 4282007363
-0.17068996 0.094838619 1.2620001 4281612605
-0.1684995 0.094838619 1.2620001 4281152054
-0.16644083 0.094913773 1.263 4281546812
-0.16450875 0.095064074 1.2650001 4284639083
-0.16256972 0.095214367 1.2670001 4288520870
-0.16087687 0.095514968 1.271 4283060051
-0.15954468 0.096041009 1.2780001 4281612605
-0.15769576 0.096266456 1.281 4281613118
-0.15632191 0.096792512 1.2880001 4281613375
-0.15456486 0.097093105 1.2920001 4281876547
-0.15244024 0.097168259 1.2930001 4281679168
-0.15007982 0.097093105 1.2920001 4281613121
-0.14772287 0.097017959 1.291 4281678914
-0.14559478 0.097093105 1.2920001 4281547328
-0.1436851 0.097318552 1.2950001 4281613378
-0.14154661 0.097393706 1.296 4281679427
-0.13908218 0.097243406 1.294 4281679427
-0.13651894 0.097017959 1.291 4281613634
-0.13407013 0.096867658 1.289 4281613634
-0.13183281 0.096867658 1.289 4282271052
-0.12969603 0.096942805 1.2900001 4283192155
-0.1276546 0.097093105 1.2920001 4283192155
-0.12550913 0.097168259 1.2930001 4283126106
-0.12345555 0.097318552 1.2950001 4282862677
-0.12120782 0.097318552 1.2950001 4282797141
-0.11914381 0.097468853 1.2970001 4282402641
-0.11707287 0.097619154 1.299 4282336592
-0.11490658 0.0976943 1.3000001 4282468692
-0.11282348 0.097844601 1.302 4282468692
-0.22616431 0.10024253 1.304 4290889168
-0.22355756 0.1000888 1.302 4291349719
-0.22095774 0.099935047 1.3000001 4291415512
-0.21819665 0.09970443 1.2970001 4291415512
-0.21527945 0.099396937 1.2930001 4291283926
-0.21204664 0.098935694 1.2870001 4290560203
-0.20964977 0.098858826 1.286 4290494410
-0.20661122 0.098474458 1.281 4290494410
-0.20359002 0.098090097 1.276 4290494410
-0.20090182 0.097859472 1.273 4290691788
-0.19759969 0.097321361 1.266 4290889166
-0.19432189 0.096783251 1.2590001 4291283923
-0.19167881 0.096552633 1.256 4291678936
-0.18859352 0.096091397 1.25 4292665830
-0.1864239 0.096091397 1.25 4290297281
-0.18469648 0.096322015 1.253 4283060051
-0.18324998 0.096706375 1.258 4284441704
-0.18121041 0.096783251 1.2590001 4284310118
-0.17888297 0.096706375 1.258 4282862672
-0.176559 0.0966295 1.2570001 4281809986
-0.17451595 0.096706375 1.258 4280757298
-0.17246944 0.096783251 1.2590001 4280823091
-0.17041944 0.096860118 1.2600001 4281217849
-0.16836599 0.096936993 1.261 4282928467
-0.16644083 0.097090743 1.263 4288455079
-0.16450875 0.097244486 1.2650001 4288784043
-0.16244139 0.097321361 1.266 4289310386
-0.16113003 0.097859472 1.273 4284112739
-0.15979436 0.098397583 1.2800001 4281612605
-0.15806507 0.098705076 1.284 4281744191
-0.15656464 0.099166311 1.2900001 4281744704
-0.15480413 0.099473812 1.294 4281679168
-0.15255813 0.099473812 1.294 4281744961
-0.14996366 0.099243186 1.291 4281745218
-0.14715074 0.098858826 1.286 4281678914
-0.14480595 0.098781951 1.2850001 4281613634
-0.14268653 0.098858826 1.286 4281745220
-0.14078207 0.099089444 1.289 4281679427
-0.13854475 0.099089444 1.289 4281679427
-0.13641319 0.099166311 1.2900001 4281679171
-0.13417414 0.099166311 1.2900001 4281810500
-0.13193507 0.099166311 1.2900001 4283586656
-0.12979658 0.099243186 1.291 4283651936
-0.12775339 0.099396937 1.2930001 4283388764
-0.12550913 0.099396937 1.2930001 4283125592
-0.12345555 0.099550679 1.2950001 4282994007
-0.12130142 0.099627554 1.296 4282467664
-0.11923566 0.099781297 1.2980001 4282271055
-0.11716299 0.099935047 1.3000001 4282402386
-0.22095774 0.10217579 1.3000001 4291283926
-0.21819665 0.10194001 1.2970001 4291415512
-0.21527945 0.10162562 1.2930001 4291349719
-0.21188188 0.10107543 1.286 4290691789
-0.2091607 0.10083964 1.2830001 4290494410
-0.20661122 0.10068245 1.281 4290494410
-0.20359002 0.10028947 1.276 4290560203
-0.20105964 0.10013228 1.274 4290954960
-0.19791186 0.099660695 1.268 4291086545
-0.19463056 0.099110514 1.261 4291349717
-0.19198401 0.098874725 1.258 4291349716
-0.18844263 0.098167352 1.2490001 4287533978
-0.18627475 0.098167352 1.2490001 4283849569
-0.18454908 0.098403148 1.2520001 4283915361
-0.18281299 0.098638937 1.2550001 4281875777
-0.18077862 0.098717533 1.256 4281283640
-0.17859858 0.098717533 1.256 4280888883
-0.17641854 0.098717533 1.256 4280823091
-0.17423852 0.098717533 1.256 4282007365
-0.17233244 0.098874725 1.258 4285954688
-0.17041944 0.099031918 1.2600001 4286612362
-0.16823247 0.099031918 1.2600001 4282138438
-0.16644083 0.099267714 1.263 4288454822
-0.16463879 0.099503502 1.266 4288191905
-0.16269802 0.099660695 1.268 4287994526
-0.1612566 0.10013228 1.274 4283125844
-0.16004404 0.10076106 1.2820001 4281744448
-0.15818818 0.10099684 1.2850001 4281678912
-0.15668602 0.10146842 1.291 4281547582
-0.15480413 0.10170421 1.294 4281679168
-0.15244024 0.10162562 1.2930001 4281679682
-0.14973134 0.10131123 1.289 4281745219
-0.14692189 0.10091824 1.284 4281548098
-0.14458057 0.10083964 1.2830001 4281679428
-0.14246461 0.10091824 1.284 4281613634
-0.14045441 0.10107543 1.286 4281811015
-0.13843729 0.10123263 1.2880001 4281613636
-0.13630745 0.10131123 1.289 4281613122
-0.13407013 0.10131123 1.289 4282073415
-0.13193507 0.10138982 1.2900001 4283454557
-0.12969603 0.10138982 1.2900001 4283520350
-0.12755579 0.10146842 1.291 4283717731
-0.12541208 0.10154702 1.2920001 4283849317
-0.12336022 0.10170421 1.294 4283388766
-0.12130142 0.10186141 1.296 4282599507
-0.21544595 0.10393462 1.294 4291218133
-0.21188188 0.10329205 1.286 4290823375
-0.20899767 0.10297077 1.2820001 4290494666
-0.20661122 0.10289045 1.281 4290560459
-0.20390913 0.10264949 1.2780001 4290625996
-0.20137528 0.10248885 1.276 4290757581
-0.19838011 0.10208724 1.271 4291152338
-0.19524796 0.10160533 1.2650001 4291415510
-0.19244185 0.10128404 1.261 4291415510
-0.1887444 0.10048084 1.251 4291415510
-0.1864239 0.10040052 1.25 4291086800
-0.18440168 0.10048084 1.251 4290099904
-0.18252166 0.10064148 1.253 4281481021
-0.18049075 0.1007218 1.2540001 4281020214
-0.17845638 0.10080212 1.2550001 4283454555
-0.17627808 0.10080212 1.2550001 4286743948
-0.17423852 0.10088244 1.256 4289309875
-0.17233244 0.10104308 1.258 4289638840
-0.1705547 0.10128404 1.261 4289375668
-0.1684995 0.10136437 1.2620001 4287138706
-0.16683617 0.10168564 1.266 4287072913
-0.16515897 0.10200693 1.2700001 4286810252
-0.16321126 0.10216756 1.2720001 4286415494
-0.16188948 0.10272981 1.279 4282731599
-0.1605434 0.10329205 1.286 4281678912
-0.15855749 0.1034527 1.2880001 4281679168
-0.15668602 0.10369366 1.291 4281744961
-0.15456486 0.10377397 1.2920001 4281679681
-0.15220444 0.10369366 1.291 4281679427
-0.149499 0.10337237 1.2870001 4281548355
-0.14669305 0.10297077 1.2820001 4281614149
-0.14435518 0.10289045 1.281 4281679942
-0.14224271 0.10297077 1.2820001 4282139979
-0.1403452 0.10321173 1.2850001 4282008394
-0.13832979 0.10337237 1.2870001 4281613380
-0.13641319 0.10361333 1.2900001 4281744452
-0.13417414 0.10361333 1.2900001 4282073158
-0.13193507 0.10361333 1.2900001 4283651935
-0.12979658 0.10369366 1.291 4284902003
-0.12775339 0.1038543 1.2930001 4286152072
-0.12560621 0.10393462 1.294 4285691521
-0.21544595 0.10616502 1.294 4291349719
-0.21204664 0.10559071 1.2870001 4291152340
-0.20899767 0.10518049 1.2820001 4290560460
-0.20644993 0.1050164 1.2800001 4290495180
-0.20374957 0.10477027 1.2770001 4290626253
-0.20153308 0.10477027 1.2770001 4290560203
-0.19869228 0.1044421 1.273 4290823375
-0.19555666 0.10394982 1.2670001 4291218131
-0.19289969 0.10370369 1.2640001 4291283924
-0.18904614 0.10280121 1.253 4291283924
-0.18672217 0.10271917 1.2520001 4291020752
-0.18454908 0.10271917 1.2520001 4291086545
-0.18266732 0.10288326 1.2540001 4281941318
-0.18063468 0.1029653 1.2550001 4282993748
-0.17859858 0.10304735 1.256 4289309875
-0.176559 0.10312939 1.2570001 4289111983
-0.17451595 0.10321143 1.258 4288520358
-0.17288041 0.10353961 1.2620001 4288651945
-0.17123097 0.10386778 1.266 4286546825
-0.16930062 0.10403188 1.268 4287204754
-0.16749509 0.10427801 1.271 4286086529
-0.1658092 0.10460618 1.2750001 4283389016
-0.16385281 0.10477027 1.2770001 4281612605
-0.1622692 0.10518049 1.2820001 4281678398
-0.1605434 0.10550866 1.286 4281875777
-0.15843438 0.10559071 1.2870001 4281810754
-0.15632191 0.10567275 1.2880001 4281744961
-0.1539667 0.10559071 1.2870001 4281613888
-0.15173285 0.10559071 1.2870001 4281679427
-0.14926669 0.10542662 1.2850001 4281679942
-0.14680746 0.10526253 1.2830001 4281679688
-0.14458057 0.10526253 1.2830001 4282271825
-0.14246461 0.10534458 1.284 4282732117
-0.14056364 0.10559071 1.2870001 4282600531
-0.13843729 0.10567275 1.2880001 4281810502
-0.13641319 0.10583684 1.2900001 4281941318
-0.13427815 0.10591888 1.291 4281941572
-0.13203737 0.10591888 1.291 4283783775
-0.21204664 0.10780904 1.2870001 4291218133
-0.20899767 0.10739021 1.2820001 4291086547
-0.20644993 0.10722268 1.2800001 4290757582
-0.20374957 0.10697137 1.2770001 4290691789
-0.20137528 0.10688761 1.276 4290691789
-0.19869228 0.1066363 1.273 4290889168
-0.19555666 0.10613369 1.2670001 4290954960
-0.19289969 0.10588239 1.2640001 4291349717
-0.18904614 0.10496095 1.253 4291415510
-0.18672217 0.10487717 1.2520001 4290889166
-0.18469648 0.10496095 1.253 4290823373
-0.18281299 0.10512848 1.2550001 4282928211
-0.18077862 0.10521225 1.256 4285231222
-0.17874077 0.10529602 1.2570001 4286481289
-0.17683993 0.10546356 1.2590001 4288125856
-0.17479341 0.10554732 1.2600001 4287336083
-0.17329137 0.10596616 1.2650001 4286086272
-0.17190723 0.10646877 1.271 4284441704
-0.16983467 0.10655253 1.2720001 4282994258
-0.16802222 0.10680383 1.2750001 4281678398
-0.16619934 0.10705514 1.2780001 4281481019
-0.16410944 0.10713891 1.279 4281744191
-0.16214262 0.10730644 1.281 4281809984
-0.16016887 0.10747398 1.2830001 4281809984
-0.15806507 0.10755774 1.284 4281875777
-0.15583643 0.10755774 1.284 4281744962
-0.1536078 0.10755774 1.284 4281810500
-0.15137917 0.10755774 1.284 4281547843
-0.14915052 0.10755774 1.284 4281679942
-0.14703631 0.10764152 1.2850001 4281811017
-0.14480595 0.10764152 1.2850001 4282337618
-0.14257558 0.10764152 1.2850001 4282601044
-0.14067286 0.10789282 1.2880001 4282271566
-0.21204664 0.11002738 1.2870001 4291020754
-0.20899767 0.10959993 1.2820001 4291020754
-0.20644993 0.10942895 1.2800001 4291218133
-0.20359002 0.10908698 1.276 4290954961
-0.20137528 0.10908698 1.276 4291086547
-0.19869228 0.10883051 1.273 4291349719
-0.19586533 0.10848854 1.2690001 4291086547
-0.19320491 0.10823207 1.266 4291020754
-0.19010226 0.10771912 1.2600001 4291218133
-0.18716958 0.10729166 1.2550001 4290889167
-0.18499129 0.10729166 1.2550001 4290889166
-0.18310432 0.10746264 1.2570001 4285494138
-0.18121041 0.10763363 1.2590001 4285560187
-0.17973615 0.10806108 1.2640001 4285231221
-0.17782314 0.10823207 1.266 4286941838
-0.17548704 0.10814658 1.2650001 4284968048
-0.17466126 0.10900149 1.2750001 4282138949
-0.17285401 0.10925796 1.2780001 4281612605
-0.17063579 0.10925796 1.2780001 4281875777
-0.16841756 0.10925796 1.2780001 4281941570
-0.1660693 0.10917247 1.2770001 4282007363
-0.16385281 0.10917247 1.2770001 4281875777
-0.16163632 0.10917247 1.2770001 4281941572
-0.15954468 0.10925796 1.2780001 4281941572
-0.15732644 0.10925796 1.2780001 4282007365
-0.1552296 0.10934346 1.279 4281678400
-0.15324891 0.10951444 1.281 4281678657
-0.15102547 0.10951444 1.281 4282139467
-0.14915052 0.10977091 1.284 4284573808
-0.2091607 0.11189687 1.2830001 4290757582
-0.20661122 0.11172243 1.281 4291020754
-0.20374957 0.11137357 1.2770001 4291218133
-0.20137528 0.11128636 1.276 4291020754
-0.19884835 0.11111193 1.274 4291349719
-0.19601969 0.11076307 1.2700001 4291283926
-0.19351013 0.11058864 1.268 4291152340
-0.19040401 0.11006535 1.2620001 4290954961
-0.18716958 0.10945484 1.2550001 4291020754
