# .PCD v0.7 - Point Cloud Data file format
VERSION 0.7
FIELDS x y z rgba
SIZE 4 4 4 4
TYPE F F F U
COUNT 1 1 1 1
WIDTH 1108
HEIGHT 1
VIEWPOINT 0 0 0 1 0 0 0
POINTS 1108
DATA ascii
-0.1896899 0.02667019 1.3340001 4293849591
-0.18737447 0.02667019 1.3340001 4293783798
-0.18505906 0.02667019 1.3340001 4293454833
-0.18260664 0.026650198 1.3330001 4293257454
-0.18015771 0.026630204 1.332 4292665317
-0.17784575 0.026630204 1.332 4292336352
-0.17540203 0.026610212 1.3310001 4292467681
-0.17296176 0.026590221 1.33 4292664803
-0.17052497 0.026570227 1.3290001 4292664547
-0.16821823 0.026570227 1.3290001 4292796133
-0.16603632 0.026590221 1.33 4293256685
-0.16385095 0.026610212 1.3310001 4293125099
-0.1616621 0.026630204 1.332 4289769656
-0.15946978 0.026650198 1.3330001 4293125100
-0.1570382 0.026630204 1.332 4293388530
-0.15472625 0.026630204 1.332 4289375670
-0.15229988 0.026610212 1.3310001 4286678158
-0.14998966 0.026610212 1.3310001 4288191398
-0.14767945 0.026610212 1.3310001 4291481048
-0.14536923 0.026610212 1.3310001 4293191664
-0.1431665 0.026630204 1.332 4293191664
-0.14074881 0.026610212 1.3310001 4293323250
-0.1384386 0.026610212 1.3310001 4293389298
-0.13612838 0.026610212 1.3310001 4293323761
-0.1339187 0.026630204 1.332 4293323761
-0.13160674 0.026630204 1.332 4293323760
-0.12919773 0.026610212 1.3310001 4293389553
-0.12679218 0.026590221 1.33 4293323761
-0.1244837 0.026590221 1.33 4293323761
-0.12217522 0.026590221 1.33 4293323761
-0.11986674 0.026590221 1.33 4293389553
-0.11755826 0.026590221 1.33 4293389554
-0.11524978 0.026590221 1.33 4293389554
-0.11302623 0.026610212 1.3310001 4293323760
-0.11071602 0.026610212 1.3310001 4293323759
-0.10848725 0.026630204 1.332 4293389552
-0.1061753 0.026630204 1.332 4293323759
-0.10394132 0.026650198 1.3330001 4293257966
-0.10162763 0.026650198 1.3330001 4293257966
-0.099239446 0.026630204 1.332 4293389552
-0.096927494 0.026630204 1.332 4293455345
-0.094757609 0.02667019 1.3340001 4293257966
-0.092650078 0.026730169 1.337 4293586931
-0.090464577 0.026770154 1.3390001 4294244861
-0.27659899 0.029099839 1.34 4280098344
-0.27406847 0.029078122 1.3390001 4283716960
-0.27174437 0.029078122 1.3390001 4293191920
-0.26942027 0.029078122 1.3390001 4293652726
-0.26729566 0.029099839 1.34 4293323248
-0.26457435 0.029056404 1.3380001 4293257711
-0.26166394 0.028991256 1.335 4293126639
-0.25895828 0.028947825 1.3330001 4293257966
-0.25664458 0.028947825 1.3330001 4293323759
-0.2543309 0.028947825 1.3330001 4293323761
-0.25220627 0.028969541 1.3340001 4293257968
-0.24989085 0.028969541 1.3340001 4293257968
-0.24757543 0.028969541 1.3340001 4293323761
-0.24544385 0.028991256 1.335 4293126896
-0.24349095 0.029034691 1.337 4293192691
-0.2413507 0.029056404 1.3380001 4293126898
-0.23956425 0.029121554 1.3410001 4293850621
-0.23741361 0.02914327 1.342 4288192423
-0.23508431 0.02914327 1.342 4282204491
-0.23275501 0.02914327 1.342 4285033591
-0.23025396 0.029121554 1.3410001 4289310136
-0.2279264 0.029121554 1.3410001 4289441209
-0.22526237 0.029078122 1.3390001 4286217352
-0.22277178 0.029056404 1.3380001 4282467151
-0.22044942 0.029056404 1.3380001 4282928215
-0.21829008 0.029078122 1.3390001 4282401871
-0.21628855 0.029121554 1.3410001 4282599250
-0.2142801 0.029164989 1.3430001 4283059801
-0.21163341 0.029121554 1.3410001 4282994008
-0.20899367 0.029078122 1.3390001 4283191387
-0.20620653 0.029012972 1.3360001 4283454558
-0.20358244 0.028969541 1.3340001 4283125593
-0.201267 0.028969541 1.3340001 4281809733
-0.19910072 0.028991256 1.335 4281086010
-0.19693096 0.029012972 1.3360001 4281151802
-0.19446641 0.028991256 1.335 4282665297
-0.19214925 0.028991256 1.335 4284704623
-0.1896899 0.028969541 1.3340001 4288257701
-0.18737447 0.028969541 1.3340001 4291152337
-0.18492033 0.028947825 1.3330001 4292665831
-0.18246965 0.028926108 1.332 4293981435
-0.18015771 0.028926108 1.332 4293849592
-0.17784575 0.028926108 1.332 4293849592
-0.17540203 0.02890439 1.3310001 4293586420
-0.17283171 0.028860958 1.3290001 4293388783
-0.17039666 0.028839242 1.3280001 4292928232
-0.16809164 0.028839242 1.3280001 4292665061
-0.16578664 0.028839242 1.3280001 4292467426
-0.16360474 0.028860958 1.3290001 4292599268
-0.16141936 0.028882677 1.33 4293191405
-0.15923053 0.02890439 1.3310001 4293257198
-0.15692031 0.02890439 1.3310001 4293191663
-0.1546101 0.02890439 1.3310001 4292796905
-0.15218544 0.028882677 1.33 4291810010
-0.14987697 0.028882677 1.33 4290428358
-0.14745754 0.028860958 1.3290001 4291875804
-0.14482315 0.02879581 1.3260001 4293389041
-0.14273657 0.028839242 1.3280001 4293323505
-0.14032581 0.028817527 1.327 4293257968
-0.13802254 0.028817527 1.327 4293323761
-0.13571927 0.028817527 1.327 4293323761
-0.13351654 0.028839242 1.3280001 4293323761
-0.13131034 0.028860958 1.3290001 4293323761
-0.1290036 0.028860958 1.3290001 4293389554
-0.12660152 0.028839242 1.3280001 4293389554
-0.12420291 0.028817527 1.327 4293389554
-0.12180778 0.02879581 1.3260001 4293389552
-0.11950625 0.02879581 1.3260001 4293389552
-0.11720471 0.02879581 1.3260001 4293323761
-0.11490317 0.02879581 1.3260001 4293323761
-0.11268655 0.028817527 1.327 4293257966
-0.11038328 0.028817527 1.327 4293257966
-0.10816146 0.028839242 1.3280001 4293323759
-0.10585645 0.028839242 1.3280001 4293323759
-0.10347347 0.028817527 1.327 4293389552
-0.10124644 0.028839242 1.3280001 4293455345
-0.099015936 0.028860958 1.3290001 4293257966
-0.096781954 0.028882677 1.33 4293521138
-0.094828643 0.028991256 1.335 4293389552
-0.27830037 0.03133921 1.337 4279835172
-0.27556691 0.03129233 1.335 4283386967
-0.27324975 0.03129233 1.335 4293980667
-0.27093259 0.03129233 1.335 4293389554
-0.26841423 0.031268891 1.3340001 4293322991
-0.2660988 0.031268891 1.3340001 4293191916
-0.26319018 0.031198569 1.3310001 4293192173
-0.26068395 0.031175131 1.33 4293257967
-0.25818118 0.03115169 1.3290001 4293257966
-0.25587445 0.03115169 1.3290001 4293323759
-0.2535677 0.03115169 1.3290001 4293323759
-0.25126097 0.03115169 1.3290001 4293389552
-0.24895422 0.03115169 1.3290001 4293257968
-0.24664748 0.03115169 1.3290001 4293257968
-0.24452461 0.031175131 1.33 4293126898
-0.24258035 0.03122201 1.332 4293192691
-0.24044879 0.031245451 1.3330001 4293982207
-0.23884968 0.03133921 1.337 4288521390
-0.23670597 0.031362649 1.3380001 4281218367
-0.23420843 0.03133921 1.337 4282138699
-0.2318878 0.03133921 1.337 4282665044
-0.22939548 0.03131577 1.3360001 4283717731
-0.22707658 0.03131577 1.3360001 4286678416
-0.22458945 0.03129233 1.335 4287862690
-0.2221058 0.031268891 1.3340001 4288454827
-0.21979038 0.031268891 1.3340001 4289046964
-0.217801 0.03131577 1.3360001 4285099384
-0.21564341 0.03133921 1.337 4283125594
-0.21332277 0.03133921 1.337 4283125594
-0.2105287 0.031268891 1.3340001 4282731092
-0.20805718 0.031245451 1.3330001 4282730836
-0.20528045 0.031175131 1.33 4283125594
-0.20297198 0.031175131 1.33 4283322973
-0.20066351 0.031175131 1.33 4283125595
-0.19865331 0.03122201 1.332 4281743942
-0.19648875 0.031245451 1.3330001 4281283391
-0.19402941 0.03122201 1.332 4281151805
-0.19171746 0.03122201 1.332 4281086526
-0.18926331 0.031198569 1.3310001 4281086782
-0.18681262 0.031175131 1.33 4281283904
-0.18450415 0.031175131 1.33 4283257180
-0.18219568 0.031175131 1.33 4285428349
-0.17988719 0.031175131 1.33 4288586412
-0.1774452 0.03115169 1.3290001 4291349461
-0.17500667 0.031128248 1.3280001 4293191664
-0.17244157 0.031081371 1.3260001 4294310143
-0.16988342 0.031034492 1.3240001 4294113021
-0.16758534 0.031034492 1.3240001 4294112763
-0.16528729 0.031034492 1.3240001 4293718006
-0.16311231 0.03105793 1.325 4293323248
-0.1609339 0.031081371 1.3260001 4293389041
-0.15887162 0.031128248 1.3280001 4293257455
-0.1565666 0.031128248 1.3280001 4293060076
-0.15414545 0.031104812 1.327 4293125869
-0.15172775 0.031081371 1.3260001 4293125869
-0.14920083 0.031034492 1.3240001 4293323247
-0.14690277 0.031034492 1.3240001 4293257454
-0.1446047 0.031034492 1.3240001 4293257967
-0.14241412 0.03105793 1.325 4293257966
-0.14011432 0.03105793 1.325 4293323760
-0.13781452 0.03105793 1.325 4293323759
-0.13551472 0.03105793 1.325 4293323759
-0.13331546 0.031081371 1.3260001 4293323759
-0.13111272 0.031104812 1.327 4293323759
-0.12880945 0.031104812 1.327 4293389553
-0.12641086 0.031081371 1.3260001 4293389554
-0.12401571 0.03105793 1.325 4293323760
-0.12162406 0.031034492 1.3240001 4293323759
-0.119326 0.031034492 1.3240001 4293323759
-0.11702793 0.031034492 1.3240001 4293323761
-0.11472987 0.031034492 1.3240001 4293389554
-0.11251672 0.03105793 1.325 4293323759
-0.11021692 0.03105793 1.325 4293257966
-0.10783567 0.031034492 1.3240001 4293323759
-0.10561731 0.03105793 1.325 4293389552
-0.10331752 0.03105793 1.325 4293389552
-0.10109396 0.031081371 1.3260001 4293389552
-0.09894143 0.031128248 1.3280001 4293455345
-0.096709192 0.03115169 1.3290001 4293521138
-0.094899669 0.03131577 1.3360001 4294179068
-0.28230676 0.033568241 1.3340001 4280362545
-0.27978143 0.033543076 1.3330001 4280295469
-0.27705145 0.033492748 1.3310001 4286150275
-0.27453482 0.033467587 1.33 4293716725
-0.27222636 0.033467587 1.33 4293586165
-0.26971492 0.033442423 1.3290001 4293388784
-0.26740816 0.033442423 1.3290001 4293454575
-0.2647025 0.033392094 1.327 4293257966
-0.26220149 0.03336693 1.3260001 4293258223
-0.25970393 0.033341765 1.325 4293257968
-0.25740415 0.033341765 1.325 4293192173
-0.25491181 0.033316605 1.3240001 4293257966
-0.25261375 0.033316605 1.3240001 4293389552
-0.2503157 0.033316605 1.3240001 4293389552
-0.24801762 0.033316605 1.3240001 4293257968
-0.24571955 0.033316605 1.3240001 4293323761
-0.24360535 0.033341765 1.325 4293258482
-0.24148765 0.03336693 1.3260001 4293653242
-0.23918612 0.03336693 1.3260001 4286283658
-0.23742051 0.033442423 1.3290001 4281086011
-0.23529069 0.033467587 1.33 4282204493
-0.23280703 0.033442423 1.3290001 4282401872
-0.23067375 0.033467587 1.33 4282336079
-0.22836526 0.033467587 1.33 4282336079
-0.22605677 0.033467587 1.33 4282270285
-0.22358006 0.033442423 1.3290001 4282270285
-0.22127332 0.033442423 1.3290001 4282599250
-0.21880181 0.033417258 1.3280001 4283980903
-0.21665983 0.033442423 1.3290001 4283388766
-0.21451437 0.033467587 1.33 4283586145
-0.2122059 0.033467587 1.33 4282468177
-0.20958178 0.033417258 1.3280001 4282007883
-0.20712069 0.033392094 1.327 4282007883
-0.20466308 0.03336693 1.3260001 4281876297
-0.20220892 0.033341765 1.325 4282072907
-0.20006001 0.03336693 1.3260001 4283191389
-0.19790761 0.033392094 1.327 4282336338
-0.19575173 0.033417258 1.3280001 4281809994
-0.19315539 0.03336693 1.3260001 4281612616
-0.19085386 0.03336693 1.3260001 4281744715
-0.18869452 0.033392094 1.327 4281744459
-0.18625079 0.03336693 1.3260001 4281941838
-0.18408798 0.033392094 1.327 4281941837
-0.1817847 0.033392094 1.327 4281875787
-0.17948143 0.033392094 1.327 4281941580
-0.17704464 0.03336693 1.3260001 4281875529
-0.17474312 0.03336693 1.3260001 4282533458
-0.17205143 0.03329144 1.3230001 4284112488
-0.16949849 0.033241116 1.3210001 4286678415
-0.16720562 0.033241116 1.3210001 4290165186
-0.16491276 0.033241116 1.3210001 4291744474
-0.162743 0.033266276 1.322 4293652213
-0.16069116 0.033316605 1.3240001 4293981178
-0.15851271 0.033341765 1.325 4293915385
-0.15621291 0.033341765 1.325 4293718006
-0.1536808 0.03329144 1.3230001 4293520370
-0.15127005 0.033266276 1.322 4293388527
-0.14886276 0.033241116 1.3210001 4293322990
-0.14656991 0.033241116 1.3210001 4293323246
-0.14427705 0.033241116 1.3210001 4293323759
-0.14198419 0.033241116 1.3210001 4293323759
-0.1395856 0.033215951 1.3200001 4293389552
-0.13729447 0.033215951 1.3200001 4293389552
-0.13510562 0.033241116 1.3210001 4293389552
-0.13291329 0.033266276 1.322 4293323502
-0.13061871 0.033266276 1.322 4293389552
-0.12842119 0.03329144 1.3230001 4293389552
-0.12602952 0.033266276 1.322 4293323760
-0.12373492 0.033266276 1.322 4293389552
-0.12134848 0.033241116 1.3210001 4293323759
-0.11905561 0.033241116 1.3210001 4293389553
-0.11667437 0.033215951 1.3200001 4293389554
-0.11429659 0.033190787 1.319 4293389299
-0.11209213 0.033215951 1.3200001 4293389299
-0.10980101 0.033215951 1.3200001 4293389554
-0.10759133 0.033241116 1.3210001 4293389554
-0.10529847 0.033241116 1.3210001 4293455345
-0.10308359 0.033266276 1.322 4293389552
-0.10094148 0.033316605 1.3240001 4293389552
-0.09894143 0.033417258 1.3280001 4293521138
-0.096854724 0.033492748 1.3310001 4293981689
-0.28730154 0.035625603 1.325 4294245375
-0.28521684 0.035652492 1.3260001 4287336859
-0.28248858 0.035598718 1.3240001 4280164909
-0.27997887 0.035571828 1.3230001 4280099115
-0.27768254 0.035571828 1.3230001 4287533466
-0.27559438 0.035598718 1.3240001 4294310143
-0.27329633 0.035598718 1.3240001 4293520629
-0.27120295 0.035625603 1.325 4293323248
-0.26951197 0.035706263 1.3280001 4293323248
-0.26700574 0.035679381 1.327 4293323760
-0.264503 0.035652492 1.3260001 4293323761
-0.26200375 0.035625603 1.325 4293257968
-0.25950795 0.035598718 1.3240001 4293257968
-0.25720987 0.035598718 1.3240001 4293257966
-0.25471926 0.035571828 1.3230001 4293257966
-0.25242293 0.035571828 1.3230001 4293323759
-0.2501266 0.035571828 1.3230001 4293323759
-0.24783027 0.035571828 1.3230001 4293455345
-0.24553394 0.035571828 1.3230001 4293389554
-0.24342149 0.035598718 1.3240001 4293390068
-0.24112342 0.035598718 1.3240001 4292008417
-0.23864496 0.035571828 1.3230001 4281612353
-0.23670594 0.035625603 1.325 4281086011
-0.23458305 0.035652492 1.3260001 4281020218
-0.23210634 0.035625603 1.325 4280888633
-0.22997998 0.035652492 1.3260001 4282072907
-0.22767843 0.035652492 1.3260001 4282401872
-0.2253769 0.035652492 1.3260001 4282665043
-0.22324359 0.035679381 1.327 4282599250
-0.22094032 0.035679381 1.327 4282730836
-0.21863705 0.035679381 1.327 4282599250
-0.21633378 0.035679381 1.327 4283454559
-0.21419179 0.035706263 1.3280001 4283717731
-0.21188678 0.035706263 1.3280001 4283059801
-0.20942396 0.035679381 1.327 4282665299
-0.20696461 0.035652492 1.3260001 4281612868
-0.20450872 0.035625603 1.325 4281678918
-0.20205632 0.035598718 1.3240001 4282138701
-0.19975825 0.035598718 1.3240001 4282402387
-0.19746019 0.035598718 1.3240001 4282007888
-0.19516212 0.035598718 1.3240001 4281876303
-0.19286406 0.035598718 1.3240001 4281744974
-0.19056599 0.035598718 1.3240001 4281876560
-0.18841012 0.035625603 1.325 4282205268
-0.18596986 0.035598718 1.3240001 4282271318
-0.18381052 0.035625603 1.325 4282337110
-0.18164772 0.035652492 1.3260001 4282073682
-0.17934619 0.035652492 1.3260001 4282073425
-0.17704464 0.035652492 1.3260001 4282139217
-0.17474312 0.035652492 1.3260001 4281875530
-0.17205143 0.035571828 1.3230001 4281875272
-0.16949849 0.035518058 1.3210001 4282072906
-0.16720562 0.035518058 1.3210001 4282007113
-0.16491276 0.035518058 1.3210001 4282665042
-0.162743 0.035544943 1.322 4284507246
-0.16069116 0.035598718 1.3240001 4286678157
-0.15839309 0.035598718 1.3240001 4289902012
-0.15597713 0.035571828 1.3230001 4292402146
-0.1536808 0.035571828 1.3230001 4294112764
-0.15127005 0.035544943 1.322 4294178557
-0.14886276 0.035518058 1.3210001 4293915385
-0.14656991 0.035518058 1.3210001 4293718005
-0.14416784 0.035491168 1.3200001 4293389553
-0.14176922 0.035464279 1.319 4293323760
-0.13947983 0.035464279 1.319 4293389553
-0.13719045 0.035464279 1.319 4293389552
-0.13500334 0.035491168 1.3200001 4293323759
-0.13271223 0.035491168 1.3200001 4293389552
-0.13051991 0.035518058 1.3210001 4293389552
-0.12822704 0.035518058 1.3210001 4293323759
-0.12602952 0.035544943 1.322 4293389552
-0.12364133 0.035518058 1.3210001 4293323759
-0.12134848 0.035518058 1.3210001 4293323759
-0.1189655 0.035491168 1.3200001 4293389552
-0.11658598 0.035464279 1.319 4293323760
-0.11429659 0.035464279 1.319 4293389554
-0.11183737 0.035410509 1.317 4293257968
-0.10955145 0.035410509 1.317 4293323760
-0.10734699 0.035437394 1.3180001 4293389552
-0.10513905 0.035464279 1.319 4293455345
-0.10292764 0.035491168 1.3200001 4293455345
-0.10086524 0.035571828 1.3230001 4293455345
-0.28872707 0.037795 1.3210001 4294113791
-0.28621739 0.037766386 1.3200001 4285691778
-0.28371117 0.037737776 1.319 4280493874
-0.28120843 0.037709162 1.3180001 4280296238
-0.27892077 0.037709162 1.3180001 4288520107
-0.27663314 0.037709162 1.3180001 4294112511
-0.27455363 0.037737776 1.319 4293520629
-0.27226424 0.037737776 1.319 4293257457
-0.26997486 0.037737776 1.319 4293257455
-0.26748252 0.037709162 1.3180001 4293389297
-0.26519489 0.037709162 1.3180001 4293323761
-0.26250827 0.037651941 1.3160001 4293389554
-0.26022407 0.037651941 1.3160001 4293323761
-0.2579399 0.037651941 1.3160001 4293323761
-0.25565574 0.037651941 1.3160001 4293257968
-0.25337154 0.037651941 1.3160001 4293257968
-0.25108737 0.037651941 1.3160001 4293257966
-0.24880318 0.037651941 1.3160001 4293323759
-0.24651901 0.037651941 1.3160001 4293389552
-0.24423483 0.037651941 1.3160001 4293389554
-0.24195065 0.037651941 1.3160001 4293455347
-0.23948435 0.037623331 1.3150001 4293257714
-0.23702154 0.037594721 1.314 4293718265
-0.23474084 0.037594721 1.314 4294376190
-0.23263703 0.037623331 1.3150001 4292533991
-0.23035459 0.037623331 1.3150001 4287731103
-0.22789872 0.037594721 1.314 4281941320
-0.22544628 0.03756611 1.3130001 4282072906
-0.22333729 0.037594721 1.314 4281283389
-0.22105658 0.037594721 1.314 4281743941
-0.21877588 0.037594721 1.314 4282401871
-0.21633041 0.03756611 1.3130001 4282599250
-0.21405143 0.03756611 1.3130001 4282730835
-0.21290149 0.037766386 1.3200001 4283520352
-0.21076992 0.037795 1.3210001 4283191387
-0.20863487 0.037823606 1.322 4282730836
-0.20634028 0.037823606 1.322 4282270285
-0.20404568 0.037823606 1.322 4282467665
-0.20159848 0.037795 1.3210001 4282665045
-0.19930562 0.037795 1.3210001 4282599511
-0.19686364 0.037766386 1.3200001 4282073425
-0.19457251 0.037766386 1.3200001 4281744717
-0.1922814 0.037766386 1.3200001 4281811023
-0.18999027 0.037766386 1.3200001 4281745230
-0.18755695 0.037737776 1.319 4281811023
-0.18526755 0.037737776 1.319 4281745230
-0.18311691 0.037766386 1.3200001 4281876560
-0.18082578 0.037766386 1.3200001 4281876303
-0.17853466 0.037766386 1.3200001 4281942096
-0.17624354 0.037766386 1.3200001 4282205011
-0.17395242 0.037766386 1.3200001 4282468182
-0.17153125 0.037737776 1.319 4282665561
-0.16898525 0.037680555 1.317 4282797147
-0.16669933 0.037680555 1.317 4282796632
-0.16441341 0.037680555 1.317 4283059802
-0.16225059 0.037709162 1.3180001 4282994008
-0.16008431 0.037737776 1.319 4282401871
-0.15791456 0.037766386 1.3200001 4281612354
-0.15562345 0.037766386 1.3200001 4282138697
-0.15321615 0.037737776 1.319 4283717728
-0.15092677 0.037737776 1.319 4286283911
-0.14863738 0.037737776 1.319 4289836477
-0.14623705 0.037709162 1.3180001 4291810268
-0.14351253 0.037594721 1.314 4293981436
-0.14123182 0.037594721 1.314 4293652727
-0.13884535 0.03756611 1.3130001 4293323761
-0.13667041 0.037594721 1.314 4293389554
-0.13449197 0.037623331 1.3150001 4293389552
-0.13231006 0.037651941 1.3160001 4293323759
-0.13002588 0.037651941 1.3160001 4293455345
-0.12783878 0.037680555 1.317 4293257966
-0.12555286 0.037680555 1.317 4293323759
-0.12326695 0.037680555 1.317 4293389552
-0.12079731 0.037623331 1.3150001 4293389552
-0.11842474 0.037594721 1.314 4293389552
-0.11614404 0.037594721 1.314 4293323759
-0.11386333 0.037594721 1.314 4293323759
-0.11158261 0.037594721 1.314 4293323759
-0.1093851 0.037623331 1.3150001 4293323759
-0.1071841 0.037651941 1.3160001 4293389552
-0.10497963 0.037680555 1.317 4293389552
-0.10277168 0.037709162 1.3180001 4293389552
-0.10086524 0.03785222 1.3230001 4294179068
-0.28828993 0.040011272 1.319 4284836213
-0.28578374 0.039980933 1.3180001 4279967274
-0.28349608 0.039980933 1.3180001 4280493618
-0.28099504 0.039950602 1.317 4291020241
-0.27870914 0.039950602 1.317 4293981180
-0.27642322 0.039950602 1.317 4293586422
-0.27413732 0.039950602 1.317 4293323249
-0.27205783 0.039980933 1.3180001 4293323248
-0.26977018 0.039980933 1.3180001 4293323761
-0.26748252 0.039980933 1.3180001 4293192175
-0.26499364 0.039950602 1.317 4293323761
-0.26250827 0.039920267 1.3160001 4293257968
-0.26002634 0.039889932 1.3150001 4293323761
-0.2577439 0.039889932 1.3150001 4293323761
-0.25546145 0.039889932 1.3150001 4293323761
-0.25317901 0.039889932 1.3150001 4293323761
-0.25070578 0.0398596 1.314 4293389552
-0.24842508 0.0398596 1.314 4293389552
-0.24633169 0.039889932 1.3150001 4293257966
-0.24404925 0.039889932 1.3150001 4293389552
-0.24176681 0.039889932 1.3150001 4293389554
-0.23930225 0.0398596 1.314 4293257968
-0.23702154 0.0398596 1.314 4293257968
-0.23456219 0.039829265 1.3130001 4293257968
-0.23246013 0.0398596 1.314 4293586933
-0.23017941 0.0398596 1.314 4293981437
-0.22772528 0.039829265 1.3130001 4294112766
-0.22527459 0.039798927 1.312 4294047229
-0.22316732 0.039829265 1.3130001 4293191663
-0.22088835 0.039829265 1.3130001 4288191653
-0.21844289 0.039798927 1.312 4283454557
-0.21616565 0.039798927 1.312 4282796627
-0.21388841 0.039798927 1.312 4281020216
-0.21128859 0.03973826 1.3100001 4281151802
-0.20917439 0.039768595 1.3110001 4282072904
-0.2070567 0.039798927 1.312 4282072906
-0.20493554 0.039829265 1.3130001 4282270285
-0.20265657 0.039829265 1.3130001 4282533201
-0.2003776 0.039829265 1.3130001 4282336079
-0.1982495 0.0398596 1.314 4282862170
-0.19596881 0.0398596 1.314 4282796892
-0.19354068 0.039829265 1.3130001 4282139475
-0.19140738 0.0398596 1.314 4281810510
-0.1892706 0.039889932 1.3150001 4281810766
-0.18670377 0.039829265 1.3130001 4281876559
-0.1844248 0.039829265 1.3130001 4281613388
-0.1820071 0.039798927 1.312 4281744717
-0.17972986 0.039798927 1.312 4282139475
-0.17758788 0.039829265 1.3130001 4282402647
-0.17530891 0.039829265 1.3130001 4282336854
-0.17289816 0.039798927 1.312 4282600026
-0.17036082 0.03973826 1.3100001 4282665819
-0.16821538 0.039768595 1.3110001 4282928734
-0.16606645 0.039798927 1.312 4282994270
-0.16391405 0.039829265 1.3130001 4282994267
-0.16151197 0.039798927 1.312 4282994008
-0.1593561 0.039829265 1.3130001 4282928215
-0.15707713 0.039829265 1.3130001 4282467662
-0.15479816 0.039829265 1.3130001 4282072904
-0.15263537 0.0398596 1.314 4282072904
-0.15035465 0.0398596 1.314 4281612353
-0.14796124 0.039829265 1.3130001 4281349181
-0.14534941 0.03973826 1.3100001 4282007111
-0.14296643 0.039707925 1.309 4282862420
-0.14069441 0.039707925 1.309 4283717729
-0.13842237 0.039707925 1.309 4291547350
-0.13615035 0.039707925 1.309 4293389554
-0.13398059 0.03973826 1.3100001 4293389552
-0.13180737 0.039768595 1.3110001 4293323759
-0.12963067 0.039798927 1.312 4293389552
-0.12735343 0.039798927 1.312 4293389552
-0.1250762 0.039798927 1.312 4293389552
-0.12279896 0.039798927 1.312 4293389552
-0.12042987 0.039768595 1.3110001 4293455345
-0.11806423 0.03973826 1.3100001 4293389552
-0.11579047 0.03973826 1.3100001 4293389552
-0.11351671 0.03973826 1.3100001 4293389552
-0.11132786 0.039768595 1.3110001 4293323759
-0.10913555 0.039798927 1.312 4293389552
-0.1070212 0.0398596 1.314 4293389552
-0.10497963 0.039950602 1.317 4293389552
-0.10284966 0.040011272 1.319 4294047482
-0.29198056 0.042156532 1.3150001 4293455863
-0.28991842 0.042188592 1.3160001 4284046697
-0.28741568 0.042156532 1.3150001 4279835945
-0.2849164 0.042124476 1.314 4280822583
-0.28263569 0.042124476 1.314 4291743964
-0.28035498 0.042124476 1.314 4294112510
-0.27786267 0.042092416 1.3130001 4293323249
-0.27558368 0.042092416 1.3130001 4293323248
-0.2733047 0.042092416 1.3130001 4293257968
-0.27123216 0.042124476 1.314 4293257968
-0.26895145 0.042124476 1.314 4293323761
-0.26667073 0.042124476 1.314 4293323761
-0.26439002 0.042124476 1.314 4293323761
-0.26190984 0.042092416 1.3130001 4293323761
-0.25943315 0.042060357 1.312 4293323761
-0.25715593 0.042060357 1.312 4293389554
-0.25468439 0.0420283 1.3110001 4293323761
-0.25240889 0.0420283 1.3110001 4293323759
-0.2501334 0.0420283 1.3110001 4293455345
-0.24766883 0.041996241 1.3100001 4293323759
-0.24558239 0.0420283 1.3110001 4293389552
-0.2434925 0.042060357 1.312 4293389552
-0.24121526 0.042060357 1.312 4293389552
-0.23875588 0.0420283 1.3110001 4293323761
-0.23648039 0.0420283 1.3110001 4293323759
-0.23402624 0.041996241 1.3100001 4293257966
-0.23175247 0.041996241 1.3100001 4293257966
-0.22947872 0.041996241 1.3100001 4293323248
-0.22703151 0.041964184 1.309 4292204767
-0.22475949 0.041964184 1.309 4292467939
-0.22248745 0.041964184 1.309 4293849591
-0.22038364 0.041996241 1.3100001 4294441725
-0.2179434 0.041964184 1.309 4294507775
-0.21534184 0.041900069 1.307 4294310399
-0.21291026 0.041868009 1.3060001 4293191921
-0.21064344 0.041868009 1.3060001 4288717739
-0.20837662 0.041868009 1.3060001 4283125335
-0.20610979 0.041868009 1.3060001 4281941061
-0.20399906 0.041900069 1.307 4280362031
-0.20173049 0.041900069 1.307 4280822326
-0.19946194 0.041900069 1.307 4281546563
-0.19719338 0.041900069 1.307 4281677895
-0.19492482 0.041900069 1.307 4282796633
-0.19280368 0.041932125 1.3080001 4283060062
-0.19053338 0.041932125 1.3080001 4282994270
-0.18811914 0.041900069 1.307 4282928477
-0.18585059 0.041900069 1.307 4282862685
-0.18344158 0.041868009 1.3060001 4282467927
-0.18117476 0.041868009 1.3060001 4282205011
-0.17890793 0.041868009 1.3060001 4282139218
-0.17691162 0.041932125 1.3080001 4282073682
-0.17464133 0.041932125 1.3080001 4282007632
-0.17223924 0.041900069 1.307 4281876303
-0.16997069 0.041900069 1.307 4281810253
-0.16795875 0.041964184 1.309 4282533976
-0.1658133 0.041996241 1.3100001 4282731354
-0.16353953 0.041996241 1.3100001 4282402130
-0.16114266 0.041964184 1.309 4282402385
-0.15887064 0.041964184 1.309 4282731093
-0.15647899 0.041932125 1.3080001 4282665042
-0.15409078 0.041900069 1.307 4282533456
-0.15182222 0.041900069 1.307 4282336078
-0.14943925 0.041868009 1.3060001 4282270284
-0.14705974 0.041835949 1.3050001 4282138699
-0.14479466 0.041835949 1.3050001 4281875527
-0.14242034 0.041803893 1.304 4280493616
-0.14015698 0.041803893 1.304 4285033333
-0.13789363 0.041803893 1.304 4293389299
-0.13563029 0.041803893 1.304 4293389298
-0.13336694 0.041803893 1.304 4293389552
-0.13120413 0.041835949 1.3050001 4293389552
-0.12903784 0.041868009 1.3060001 4293455345
-0.12677103 0.041868009 1.3060001 4293455345
-0.1245042 0.041868009 1.3060001 4293389552
-0.12214379 0.041835949 1.3050001 4293323759
-0.1198787 0.041835949 1.3050001 4293455345
-0.11752348 0.041803893 1.304 4293455345
-0.11534853 0.041835949 1.3050001 4293323759
-0.11317009 0.041868009 1.3060001 4293389552
-0.11107311 0.041932125 1.3080001 4293323759
-0.108886 0.041964184 1.309 4293455345
-0.1070212 0.042124476 1.314 4293257966
-0.10505934 0.042252705 1.3180001 4293915896
-0.10300562 0.042348884 1.3210001 4292205278
-0.29153648 0.044355571 1.3130001 4283784039
-0.28925753 0.044355571 1.3130001 4280163627
-0.28675997 0.044321787 1.312 4282070084
-0.28448275 0.044321787 1.312 4292663781
-0.28199038 0.044288006 1.3110001 4294045948
-0.27950153 0.044254225 1.3100001 4293322994
-0.27701616 0.04422044 1.309 4293389041
-0.27453423 0.044186659 1.3080001 4293389298
-0.27226394 0.044186659 1.3080001 4293257968
-0.27040648 0.044254225 1.3100001 4293323761
-0.26813272 0.044254225 1.3100001 4293323761
-0.26585895 0.044254225 1.3100001 4293389554
-0.26358518 0.044254225 1.3100001 4293389554
-0.26111194 0.04422044 1.309 4293323761
-0.25844446 0.044152878 1.307 4293257968
-0.25617591 0.044152878 1.307 4293323761
-0.25390732 0.044152878 1.307 4293389554
-0.25163877 0.044152878 1.307 4293389554
-0.24917941 0.044119097 1.3060001 4293389554
-0.24691258 0.044119097 1.3060001 4293389552
-0.24483311 0.044152878 1.307 4293323759
-0.24256454 0.044152878 1.307 4293389552
-0.24029599 0.044152878 1.307 4293455345
-0.23802744 0.044152878 1.307 4293455345
-0.23575887 0.044152878 1.307 4293060587
-0.23331165 0.044119097 1.3060001 4292665829
-0.23086792 0.044085313 1.3050001 4293389039
-0.22860283 0.044085313 1.3050001 4293389039
-0.22633776 0.044085313 1.3050001 4291941593
-0.22407268 0.044085313 1.3050001 4290625733
-0.22197755 0.044119097 1.3060001 4290033596
-0.21971072 0.044119097 1.3060001 4290494147
-0.21727742 0.044085313 1.3050001 4291612630
-0.21484756 0.044051535 1.304 4292994283
-0.21242119 0.044017751 1.3030001 4293718006
-0.20999829 0.04398397 1.302 4293915385
-0.20757885 0.043950189 1.3010001 4294375934
-0.20547853 0.04398397 1.302 4294046972
-0.20337473 0.044017751 1.3030001 4290494151
-0.20111312 0.044017751 1.3030001 4286086019
-0.1988515 0.044017751 1.3030001 4283256666
-0.19658989 0.044017751 1.3030001 4281480256
-0.19432826 0.044017751 1.3030001 4280691253
-0.19206665 0.044017751 1.3030001 4280757047
-0.18980505 0.044017751 1.3030001 4281875273
-0.18725556 0.043950189 1.3010001 4282006860
-0.18485522 0.043916404 1.3000001 4282862170
-0.18259881 0.043916404 1.3000001 4283322464
-0.18020369 0.043882623 1.299 4283191135
-0.178086 0.043916404 1.3000001 4282993756
-0.17610011 0.04398397 1.302 4282467413
-0.17410725 0.044051535 1.304 4281941582
-0.1718439 0.044051535 1.304 4282270804
-0.16971061 0.044085313 1.3050001 4282533976
-0.16770212 0.044152878 1.307 4283060320
-0.16556016 0.044186659 1.3080001 4282731097
-0.1634147 0.04422044 1.309 4282072910
-0.16089645 0.044152878 1.307 4282138958
-0.15850653 0.044119097 1.3060001 4282665043
-0.15600045 0.044051535 1.304 4282928215
-0.15326551 0.043916404 1.3000001 4282796629
-0.15089294 0.043882623 1.299 4282599250
-0.14863828 0.043882623 1.299 4282401872
-0.1463836 0.043882623 1.299 4282467665
-0.14423989 0.043916404 1.3000001 4281678149
-0.14209269 0.043950189 1.3010001 4285954693
-0.13972707 0.043916404 1.3000001 4293718008
-0.1375764 0.043950189 1.3010001 4293454836
-0.13531825 0.043950189 1.3010001 4293323505
-0.13306011 0.043950189 1.3010001 4293323760
-0.13090251 0.04398397 1.302 4293389552
-0.12864263 0.04398397 1.302 4293389552
-0.12638275 0.04398397 1.302 4293389552
-0.12412288 0.04398397 1.302 4293455345
-0.12176939 0.043950189 1.3010001 4293389552
-0.11951125 0.043950189 1.3010001 4293323759
-0.11725311 0.043950189 1.3010001 4293389552
-0.11499497 0.043950189 1.3010001 4293389552
-0.11282348 0.04398397 1.302 4293323759
-0.11090327 0.044119097 1.3060001 4293455345
-0.108886 0.04422044 1.309 4293389552
-0.10693976 0.044355571 1.3130001 4293981689
-0.10063869 0.0467203 1.383 4282534990
-0.098380275 0.046787862 1.3850001 4282863700
-0.29359168 0.046583217 1.312 4282864988
-0.2910924 0.046547715 1.3110001 4280230959
-0.2885966 0.046512205 1.3100001 4283386970
-0.28610426 0.046476699 1.309 4292993261
-0.28404906 0.046512205 1.3100001 4293980153
-0.2817753 0.046512205 1.3100001 4293519859
-0.27928817 0.046476699 1.309 4293454322
-0.27659291 0.046405692 1.307 4293192432
-0.27432436 0.046405692 1.307 4293192689
-0.2720558 0.046405692 1.307 4293389554
-0.27020007 0.046476699 1.309 4293389554
-0.26792803 0.046476699 1.309 4293389554
-0.26565599 0.046476699 1.309 4293389554
-0.26298156 0.046405692 1.307 4293323761
-0.26071301 0.046405692 1.307 4293323761
-0.25824669 0.046370182 1.3060001 4293389554
-0.25597987 0.046370182 1.3060001 4293455347
-0.25371304 0.046370182 1.3060001 4293455347
-0.25125369 0.046334676 1.3050001 4293389554
-0.24898861 0.046334676 1.3050001 4293455347
-0.24672352 0.046334676 1.3050001 4293455347
-0.24445844 0.046334676 1.3050001 4293389554
-0.24219336 0.046334676 1.3050001 4293323761
-0.24011211 0.046370182 1.3060001 4293454834
-0.23784529 0.046370182 1.3060001 4293323248
-0.23557846 0.046370182 1.3060001 4291678934
-0.23295437 0.046299174 1.304 4290494147
-0.23069102 0.046299174 1.304 4290428354
-0.2282525 0.046263669 1.3030001 4290428354
-0.22599088 0.046263669 1.3030001 4291349200
-0.22372927 0.046263669 1.3030001 4291875543
-0.22163761 0.046299174 1.304 4292796902
-0.21937425 0.046299174 1.304 4292599523
-0.21711092 0.046299174 1.304 4291546835
-0.2146828 0.046263669 1.3030001 4291283663
-0.21225818 0.046228163 1.302 4292073179
-0.20983699 0.046192657 1.3010001 4290165182
-0.20757885 0.046192657 1.3010001 4291415250
-0.2053207 0.046192657 1.3010001 4293191662
-0.20321865 0.046228163 1.302 4293981178
-0.20095877 0.046228163 1.302 4294244349
-0.19869889 0.046228163 1.302 4294375935
-0.19628814 0.046192657 1.3010001 4294244349
-0.19402999 0.046192657 1.3010001 4291612631
-0.19177185 0.046192657 1.3010001 4287401881
-0.1895137 0.046192657 1.3010001 4283848803
-0.18711163 0.046157151 1.3000001 4281940807
-0.18485522 0.046157151 1.3000001 4280624948
-0.18231788 0.046086144 1.2980001 4280690741
-0.18006495 0.046086144 1.2980001 4281282878
-0.17794901 0.046121646 1.299 4281743686
-0.17582959 0.046157151 1.3000001 4282796376
-0.17384022 0.046228163 1.302 4282927963
-0.17171212 0.046263669 1.3030001 4283125343
-0.16971061 0.046334676 1.3050001 4283125343
-0.16770212 0.046405692 1.307 4282533206
-0.16556016 0.046441194 1.3080001 4282138447
-0.1634147 0.046476699 1.309 4282138446
-0.16089645 0.046405692 1.307 4282336081
-0.15850653 0.046370182 1.3060001 4282796374
-0.15588082 0.046263669 1.3030001 4282862423
-0.15314762 0.046121646 1.299 4282862423
-0.15077677 0.046086144 1.2980001 4282599251
-0.14840943 0.046050634 1.2970001 4282533458
-0.1462709 0.046086144 1.2980001 4281546563
-0.14401796 0.046086144 1.2980001 4286020487
-0.14198348 0.046157151 1.3000001 4293718265
-0.13972707 0.046157151 1.3000001 4293718265
-0.13747066 0.046157151 1.3000001 4293323505
-0.13521425 0.046157151 1.3000001 4293455347
-0.13306011 0.046192657 1.3010001 4293389552
-0.13080198 0.046192657 1.3010001 4293389552
-0.12854382 0.046192657 1.3010001 4293323759
-0.12628569 0.046192657 1.3010001 4293389552
-0.12402754 0.046192657 1.3010001 4293455345
-0.1216758 0.046157151 1.3000001 4293455345
-0.1194194 0.046157151 1.3000001 4293323759
-0.11716299 0.046157151 1.3000001 4293389552
-0.11490658 0.046157151 1.3000001 4293389552
-0.11273682 0.046192657 1.3010001 4293389552
-0.11090327 0.046370182 1.3060001 4293389552
-0.108886 0.046476699 1.309 4293784310
-0.10693976 0.046618722 1.3130001 4292994794
-0.29973689 0.049105249 1.319 4291680478
-0.29609445 0.048881877 1.3130001 4281745992
-0.29359168 0.048844647 1.312 4279771689
-0.29064834 0.048732959 1.309 4284639088
-0.288156 0.048695728 1.3080001 4293520629
-0.28566715 0.048658501 1.307 4293586679
-0.28361541 0.048695728 1.3080001 4293322994
-0.28134513 0.048695728 1.3080001 4293388530
-0.27886146 0.048658501 1.307 4293585650
-0.27616966 0.04858404 1.3050001 4293389554
-0.27369466 0.048546813 1.304 4293454834
-0.27143133 0.048546813 1.304 4293455347
-0.26916799 0.048546813 1.304 4293389554
-0.26690462 0.048546813 1.304 4293389554
-0.26464128 0.048546813 1.304 4293455347
-0.26237792 0.048546813 1.304 4293389554
-0.26011458 0.048546813 1.304 4293323761
-0.25765347 0.048509583 1.3030001 4293389554
-0.25539187 0.048509583 1.3030001 4293455347
-0.25293601 0.048472352 1.302 4293455091
-0.25067613 0.048472352 1.302 4293455347
-0.24841623 0.048472352 1.302 4293389554
-0.2459673 0.048435125 1.3010001 4293455347
-0.24370916 0.048435125 1.3010001 4293454836
-0.24145101 0.048435125 1.3010001 4293783031
-0.23937672 0.048472352 1.302 4294308863
-0.23711684 0.048472352 1.302 4294505727
-0.23485696 0.048472352 1.302 4294111483
-0.23223977 0.048397899 1.3000001 4293979897
-0.22980645 0.048360668 1.299 4293388273
-0.22720145 0.048286211 1.2970001 4292795880
-0.22512367 0.048323441 1.2980001 4290953930
-0.22287074 0.048323441 1.2980001 4290032828
-0.22078778 0.048360668 1.299 4291349456
-0.21870133 0.048397899 1.3000001 4291612628
-0.21644492 0.048397899 1.3000001 4292006872
-0.21402377 0.048360668 1.299 4292599266
-0.21160606 0.048323441 1.2980001 4292599523
-0.20935312 0.048323441 1.2980001 4292270558
-0.20694064 0.048286211 1.2970001 4291349456
-0.20484725 0.048323441 1.2980001 4291481042
-0.20259431 0.048323441 1.2980001 4290625733
-0.20049573 0.048360668 1.299 4290757321
-0.19824107 0.048360668 1.299 4292336353
-0.1958355 0.048323441 1.2980001 4293125869
-0.19358256 0.048323441 1.2980001 4293520627
-0.19132963 0.048323441 1.2980001 4294112763
-0.18893103 0.048286211 1.2970001 4294178301
-0.18653591 0.04824898 1.296 4294046716
-0.18428645 0.04824898 1.296 4292467172
-0.18203698 0.04824898 1.296 4288322213
-0.17978752 0.04824898 1.296 4284374890
-0.17753805 0.04824898 1.296 4281743428
-0.17528859 0.04824898 1.296 4280295983
-0.17330614 0.048323441 1.2980001 4280690998
-0.1710532 0.048323441 1.2980001 4280822585
-0.16906036 0.048397899 1.3000001 4281283137
-0.16693227 0.048435125 1.3010001 4281941067
-0.1648007 0.048472352 1.302 4282006860
-0.16266567 0.048509583 1.3030001 4282072653
-0.16028094 0.048472352 1.302 4282401618
-0.15789969 0.048435125 1.3010001 4282598997
-0.15504339 0.04824898 1.296 4282467411
-0.15267603 0.04821175 1.2950001 4282467410
-0.15031214 0.048174523 1.294 4282598996
-0.14795171 0.048137292 1.2930001 4281480771
-0.14570746 0.048137292 1.2930001 4284441454
-0.1436851 0.04821175 1.2950001 4293323508
-0.14154661 0.04824898 1.296 4293718266
-0.13940462 0.048286211 1.2970001 4293323506
-0.13715342 0.048286211 1.2970001 4293323762
-0.13490222 0.048286211 1.2970001 4293389553
-0.13265102 0.048286211 1.2970001 4293389552
-0.13039981 0.048286211 1.2970001 4293455345
-0.12814862 0.048286211 1.2970001 4293389552
-0.12599447 0.048323441 1.2980001 4293323759
-0.12364621 0.048286211 1.2970001 4293323759
-0.12139501 0.048286211 1.2970001 4293389552
-0.11914381 0.048286211 1.2970001 4293389552
-0.11689261 0.048286211 1.2970001 4293323759
-0.11464141 0.048286211 1.2970001 4293389552
-0.11256351 0.048360668 1.299 4293455345
-0.11090327 0.048621271 1.3060001 4293850103
-0.10905236 0.04880742 1.3110001 4293257966
-0.29928237 0.051300842 1.317 4284113513
-0.29609445 0.051145028 1.3130001 4280692533
-0.29336789 0.051067125 1.3110001 4287534235
-0.29064834 0.050989218 1.309 4293784313
-0.2879357 0.050911311 1.307 4293718008
-0.28544855 0.050872359 1.3060001 4293323507
-0.28318173 0.050872359 1.3060001 4293323250
-0.2809149 0.050872359 1.3060001 4293651443
-0.27843472 0.050833404 1.3050001 4293258738
-0.27574641 0.050755501 1.3030001 4293258482
-0.2732749 0.050716545 1.302 4293389554
-0.27080688 0.050677598 1.3010001 4293389554
-0.26854873 0.050677598 1.3010001 4293455347
-0.26629061 0.050677598 1.3010001 4293389554
-0.26403245 0.050677598 1.3010001 4293455347
-0.2617743 0.050677598 1.3010001 4293455347
-0.25951615 0.050677598 1.3010001 4293389554
-0.25706026 0.050638642 1.3000001 4293455347
-0.25460786 0.050599691 1.299 4293323761
-0.25235319 0.050599691 1.299 4293455347
-0.24990599 0.050560739 1.2980001 4293389554
-0.24765305 0.050560739 1.2980001 4293521140
-0.24521105 0.050521784 1.2970001 4293455093
-0.24295986 0.050521784 1.2970001 4293651447
-0.24070865 0.050521784 1.2970001 4286479497
-0.23864131 0.050560739 1.2980001 4285096562
-0.23638837 0.050560739 1.2980001 4290556097
-0.23395506 0.050521784 1.2970001 4293582833
-0.23134656 0.050443877 1.2950001 4294110459
-0.22892191 0.050404925 1.294 4294440191
-0.22650073 0.050365973 1.2930001 4294440191
-0.22442994 0.050404925 1.294 4294440447
-0.22218394 0.050404925 1.294 4294111740
-0.22010791 0.050443877 1.2950001 4293454834
-0.21786018 0.050443877 1.2950001 4292533475
-0.21561244 0.050443877 1.2950001 4291282636
-0.21336472 0.050443877 1.2950001 4290822598
-0.21095397 0.050404925 1.294 4290362047
-0.20870797 0.050404925 1.294 4290625220
-0.20646198 0.050404925 1.294 4292204508
-0.20421599 0.050404925 1.294 4292599266
-0.20197 0.050404925 1.294 4292401887
-0.19987833 0.050443877 1.2950001 4292204508
-0.19763061 0.050443877 1.2950001 4291217615
-0.19538288 0.050443877 1.2950001 4290625735
-0.19298603 0.050404925 1.294 4289967804
-0.19074002 0.050404925 1.294 4290164927
-0.18834835 0.050365973 1.2930001 4290888395
-0.1861041 0.050365973 1.2930001 4291875291
-0.18400204 0.050404925 1.294 4293322737
-0.18175605 0.050404925 1.294 4294375165
-0.17964877 0.050443877 1.2950001 4294572287
-0.17726406 0.050404925 1.294 4294638591
-0.17501807 0.050404925 1.294 4292401636
-0.17277208 0.050404925 1.294 4289112243
-0.17052609 0.050404925 1.294 4285493886
-0.16828009 0.050404925 1.294 4283520097
-0.1661624 0.050443877 1.2950001 4281019962
-0.16391467 0.050443877 1.2950001 4280888378
-0.16166694 0.050443877 1.2950001 4281480515
-0.15941921 0.050443877 1.2950001 4281940810
-0.15705012 0.050404925 1.294 4282204239
-0.15468448 0.050365973 1.2930001 4282532947
-0.15220444 0.05028807 1.291 4282730326
-0.14996366 0.05028807 1.291 4281809480
-0.14772287 0.05028807 1.291 4285230715
-0.14548208 0.05028807 1.291 4293323508
-0.14335224 0.050327018 1.2920001 4293718266
-0.14121895 0.050365973 1.2930001 4293389300
-0.13897468 0.050365973 1.2930001 4293323762
-0.13673042 0.050365973 1.2930001 4293455346
-0.13459018 0.050404925 1.294 4293389552
-0.13234419 0.050404925 1.294 4293389552
-0.13009819 0.050404925 1.294 4293455345
-0.1278522 0.050404925 1.294 4293389552
-0.12560621 0.050404925 1.294 4293389552
-0.12336022 0.050404925 1.294 4293323759
-0.12111422 0.050404925 1.294 4293323759
-0.11886823 0.050404925 1.294 4293389552
-0.11671235 0.050443877 1.2950001 4293323759
-0.11455303 0.050482832 1.296 4293455345
-0.11265017 0.050638642 1.3000001 4293981689
-0.10667046 0.053287432 1.368 4282468684
-0.10467723 0.053482197 1.373 4283060821
-0.30777639 0.054262388 1.3340001 4293258997
-0.3038581 0.053977653 1.327 4292864239
-0.29950964 0.053611562 1.3180001 4287995299
-0.29654545 0.053489532 1.3150001 4289376438
-0.29403922 0.05344886 1.314 4292863210
-0.2910924 0.05332683 1.3110001 4293454836
-0.2883763 0.053245477 1.309 4293257455
-0.28588569 0.053204797 1.3080001 4293454834
-0.2833986 0.053164124 1.307 4293520627
-0.28113002 0.053164124 1.307 4293455347
-0.27864808 0.053123448 1.3060001 4293455347
-0.27574641 0.053001419 1.3030001 4293455347
-0.2732749 0.052960739 1.302 4293455092
-0.27080688 0.052920066 1.3010001 4293455347
-0.26854873 0.052920066 1.3010001 4293389554
-0.26629061 0.052920066 1.3010001 4293455347
-0.26403245 0.052920066 1.3010001 4293389554
-0.2617743 0.052920066 1.3010001 4293389554
-0.25931665 0.052879389 1.3000001 4293455347
-0.25686252 0.052838709 1.299 4293455347
-0.25441185 0.052798036 1.2980001 4293389554
-0.25215891 0.052798036 1.2980001 4293455090
-0.24971345 0.05275736 1.2970001 4293389811
-0.24746226 0.05275736 1.2970001 4293521140
-0.24521105 0.05275736 1.2970001 4293454834
-0.24295986 0.05275736 1.2970001 4293716468
-0.24052307 0.052716684 1.296 4286935685
-0.23845746 0.05275736 1.2970001 4283641416
-0.23584202 0.052676003 1.2950001 4284297039
-0.2335943 0.052676003 1.2950001 4284034379
-0.2311679 0.052635331 1.294 4284169046
-0.228745 0.052594654 1.2930001 4286344321
-0.22650073 0.052594654 1.2930001 4289700791
-0.22425649 0.052594654 1.2930001 4292925418
-0.22201222 0.052594654 1.2930001 4293716215
-0.21993795 0.052635331 1.294 4294111998
-0.21769194 0.052635331 1.294 4294440703
-0.21561244 0.052676003 1.2950001 4294111996
-0.21319996 0.052635331 1.294 4293981178
-0.21095397 0.052635331 1.294 4293519857
-0.20854668 0.052594654 1.2930001 4292928232
-0.20630242 0.052594654 1.2930001 4292533474
-0.20421599 0.052635331 1.294 4291282636
-0.20197 0.052635331 1.294 4290230975
-0.19987833 0.052676003 1.2950001 4290428610
-0.19747801 0.052635331 1.294 4292270044
-0.19508113 0.052594654 1.2930001 4292007386
-0.19268773 0.052553974 1.2920001 4292533730
-0.19059262 0.052594654 1.2930001 4292731109
-0.18834835 0.052594654 1.2930001 4291415251
-0.1861041 0.052594654 1.2930001 4290494150
-0.18385984 0.052594654 1.2930001 4289770427
-0.18175605 0.052635331 1.294 4291480789
-0.17951006 0.052635331 1.294 4292467171
-0.17740105 0.052676003 1.2950001 4292730599
-0.17501807 0.052635331 1.294 4293322735
-0.17263855 0.052594654 1.2930001 4293980920
-0.17052609 0.052635331 1.294 4294244351
-0.16828009 0.052635331 1.294 4294375935
-0.16590577 0.052594654 1.2930001 4292796650
-0.16366152 0.052594654 1.2930001 4289967550
-0.16141726 0.052594654 1.2930001 4285756802
-0.159173 0.052594654 1.2930001 4282335567
-0.15680738 0.052553974 1.2920001 4280690742
-0.15444523 0.052513301 1.291 4281151293
-0.15220444 0.052513301 1.291 4280888121
-0.14984749 0.052472625 1.2900001 4283849062
-0.14760844 0.052472625 1.2900001 4293455094
-0.14536938 0.052472625 1.2900001 4293652473
-0.1432413 0.052513301 1.291 4293389300
-0.14110972 0.052553974 1.2920001 4293520884
-0.1388672 0.052553974 1.2920001 4293389553
-0.13662468 0.052553974 1.2920001 4293455345
-0.13438216 0.052553974 1.2920001 4293455345
-0.13213964 0.052553974 1.2920001 4293455345
-0.12989712 0.052553974 1.2920001 4293389552
-0.1276546 0.052553974 1.2920001 4293389552
-0.12550913 0.052594654 1.2930001 4293455345
-0.12326487 0.052594654 1.2930001 4293455345
-0.12102062 0.052594654 1.2930001 4293521138
-0.11886823 0.052635331 1.294 4293389552
-0.11671235 0.052676003 1.2950001 4293323759
-0.11446463 0.052676003 1.2950001 4293915896
-0.11273682 0.052920066 1.3010001 4293981688
-0.10674844 0.055686064 1.3690001 4282929235
-0.30823785 0.056646533 1.3360001 4293258997
-0.30454507 0.056392137 1.33 4293061105
-0.30019137 0.056010537 1.3210001 4289113266
-0.29722199 0.055883333 1.3180001 4291349971
-0.29448676 0.055798534 1.3160001 4291086798
-0.29175854 0.055713736 1.314 4290626248
-0.28903723 0.055628933 1.312 4291152592
-0.2865414 0.055586535 1.3110001 4291876315
-0.28383225 0.055501733 1.309 4292468452
-0.28134513 0.055459332 1.3080001 4292863210
-0.27864808 0.055374533 1.3060001 4293191921
-0.27595803 0.055289734 1.304 4293455093
-0.2734848 0.055247333 1.3030001 4293389300
-0.27080688 0.055162534 1.3010001 4293455347
-0.26834229 0.055120133 1.3000001 4293521140
-0.26608589 0.055120133 1.3000001 4293389554
-0.26382947 0.055120133 1.3000001 4293389554
-0.26157308 0.055120133 1.3000001 4293455347
-0.25911719 0.055077732 1.299 4293455345
-0.25666478 0.055035334 1.2980001 4293521138
-0.25401986 0.054950532 1.296 4293521138
-0.25157613 0.05490813 1.2950001 4293520627
-0.24913585 0.054865733 1.294 4293520370
-0.24688986 0.054865733 1.294 4293389554
-0.24464387 0.054865733 1.294 4293258484
-0.24239786 0.054865733 1.294 4293520116
-0.23978071 0.05478093 1.2920001 4294110714
-0.23735434 0.054738533 1.291 4294832126
-0.23511355 0.054738533 1.291 4293447912
-0.23287275 0.054738533 1.291 4290022826
-0.23045333 0.054696131 1.2900001 4285942892
-0.22821428 0.054696131 1.2900001 4284822358
-0.22597522 0.054696131 1.2900001 4284166222
-0.22373617 0.054696131 1.2900001 4284826975
-0.22149712 0.054696131 1.2900001 4287065988
-0.21925807 0.054696131 1.2900001 4287396751
-0.21718726 0.054738533 1.291 4290358204
-0.21494646 0.054738533 1.291 4292531170
-0.21270569 0.054738533 1.291 4293453298
-0.21046489 0.054738533 1.291 4294177276
-0.20806281 0.054696131 1.2900001 4294177789
-0.20582376 0.054696131 1.2900001 4294374653
-0.20374253 0.054738533 1.291 4294242041
-0.20134565 0.054696131 1.2900001 4293650929
-0.1991066 0.054696131 1.2900001 4292664547
-0.19702017 0.054738533 1.291 4292401631
-0.19462851 0.054696131 1.2900001 4290559427
-0.19224031 0.05465373 1.289 4289638583
-0.19000301 0.05465373 1.289 4290691271
-0.18776569 0.05465373 1.289 4291085773
-0.18552837 0.05465373 1.289 4292533475
-0.18329106 0.05465373 1.289 4292731111
-0.1811942 0.054696131 1.2900001 4292862697
-0.17895515 0.054696131 1.2900001 4291744216
-0.17685309 0.054738533 1.291 4290823114
-0.17447704 0.054696131 1.2900001 4289902012
-0.17223799 0.054696131 1.2900001 4290428356
-0.16999894 0.054696131 1.2900001 4293257455
-0.1677599 0.054696131 1.2900001 4293454835
-0.16539253 0.05465373 1.289 4293783801
-0.16315523 0.05465373 1.289 4293783802
-0.16066822 0.054568931 1.2870001 4294309887
-0.15843438 0.054568931 1.2870001 4294309887
-0.15620054 0.054568931 1.2870001 4292204511
-0.15408634 0.054611333 1.2880001 4288849072
-0.15185076 0.054611333 1.2880001 4288520108
-0.149499 0.054568931 1.2870001 4292928751
-0.14726517 0.054568931 1.2870001 4293586680
-0.14503132 0.054568931 1.2870001 4293323762
-0.14279747 0.054568931 1.2870001 4293389554
-0.14067286 0.054611333 1.2880001 4293455346
-0.13843729 0.054611333 1.2880001 4293389552
-0.13620169 0.054611333 1.2880001 4293389552
