# .PCD v0.7 - Point Cloud Data file format
VERSION 0.7
FIELDS x y z rgba
SIZE 4 4 4 4
TYPE F F F U
COUNT 1 1 1 1
WIDTH 425
HEIGHT 1
VIEWPOINT 0 0 0 1 0 0 0
POINTS 425
DATA ascii
-0.16141725 -0.25058222 1.34 4293060587
-0.15492757 -0.24609417 1.3160001 4292863978
-0.15121396 -0.24590716 1.3150001 4292929517
-0.14986323 -0.2496472 1.335 4293192689
-0.15985125 -0.24452248 1.327 4293126380
-0.15351486 -0.24028434 1.304 4293257966
-0.14914411 -0.23899448 1.2970001 4293192943
-0.14593422 -0.23954728 1.3000001 4293127150
-0.14259841 -0.2399158 1.302 4292929517
-0.13935845 -0.24046862 1.3050001 4293192691
-0.13683045 -0.24231127 1.3150001 4293258997
-0.15433894 -0.23798928 1.3110001 4293127150
-0.14902912 -0.23526628 1.296 4293258736
-0.14503618 -0.23454016 1.2920001 4293192943
-0.14128414 -0.23417708 1.2900001 4293127150
-0.13818377 -0.23490322 1.294 4293061357
-0.13506153 -0.23562935 1.2980001 4293258482
-0.13282929 -0.23798928 1.3110001 4293127411
-0.15669346 -0.23798031 1.3310001 4292929001
-0.14994906 -0.23315273 1.304 4293455345
-0.14503618 -0.23100717 1.2920001 4293258736
-0.14084604 -0.22993436 1.286 4293258736
-0.13722269 -0.22975558 1.2850001 4293192943
-0.13391694 -0.23011318 1.2870001 4293061103
-0.13100554 -0.23118596 1.2930001 4293127411
-0.12806132 -0.23225875 1.299 4293193204
-0.15144396 -0.23187576 1.317 4292994793
-0.14559746 -0.22835451 1.2970001 4293521137
-0.14095557 -0.22659387 1.2870001 4293455345
-0.13690232 -0.22571355 1.2820001 4293258736
-0.13339669 -0.22571355 1.2820001 4293258736
-0.13029632 -0.22641779 1.286 4293061357
-0.12697689 -0.22676992 1.2880001 4293192689
-0.12402995 -0.2278263 1.294 4293193204
-0.15247887 -0.22983439 1.3260001 4292534242
-0.14604649 -0.22550115 1.3010001 4293323758
-0.14128414 -0.22359453 1.2900001 4293390321
-0.13700911 -0.22238123 1.2830001 4293324528
-0.13308452 -0.22168793 1.279 4293258736
-0.12958708 -0.22168793 1.279 4293192943
-0.12618822 -0.22186124 1.2800001 4293126896
-0.12287976 -0.2222079 1.2820001 4293061103
-0.12011904 -0.22359453 1.2900001 4293192691
-0.15328382 -0.22740258 1.3330001 4291613140
-0.14683229 -0.22313772 1.3080001 4292468449
-0.14237936 -0.22177297 1.3000001 4292994536
-0.13786341 -0.22023761 1.291 4293521138
-0.13360478 -0.21904346 1.284 4293390322
-0.1296884 -0.21836106 1.2800001 4293390322
-0.12589248 -0.21784928 1.2770001 4293258482
-0.12249634 -0.21801987 1.2780001 4293192689
-0.11928099 -0.21853165 1.281 4293192689
-0.11650114 -0.21989641 1.289 4293192691
-0.15374379 -0.22442892 1.337 4291152589
-0.14750583 -0.22056814 1.314 4291547347
-0.14325555 -0.21956098 1.3080001 4292402656
-0.13871771 -0.21805023 1.299 4293060586
-0.13433315 -0.21670735 1.291 4293521137
-0.12989104 -0.21519662 1.2820001 4293390322
-0.12579389 -0.21418945 1.276 4293521908
-0.12211295 -0.21385375 1.274 4293456115
-0.11881542 -0.21418945 1.276 4293258482
-0.11568771 -0.2148609 1.2800001 4293192689
-0.11297636 -0.21637163 1.289 4293258484
-0.15546864 -0.22324978 1.3520001 4291152589
-0.14874065 -0.21879137 1.325 4291218382
-0.14446029 -0.21780062 1.319 4291547601
-0.13999918 -0.21647961 1.3110001 4292205277
-0.13558181 -0.21515861 1.3030001 4292994793
-0.1308029 -0.2131771 1.291 4293718516
-0.1262868 -0.21152584 1.281 4293389552
-0.1222088 -0.21053509 1.2750001 4293586931
-0.11862919 -0.21036997 1.274 4293653494
-0.11532619 -0.21070021 1.276 4293456115
-0.11218753 -0.21136072 1.2800001 4293193202
-0.10945157 -0.21284685 1.289 4293127411
-0.15684855 -0.2215014 1.3640001 4291021003
-0.14975098 -0.21662968 1.3340001 4291284175
-0.14522696 -0.21533056 1.3260001 4291349968
-0.14096026 -0.21435618 1.3200001 4291678933
-0.13662234 -0.21321946 1.3130001 4278190080
-0.1318161 -0.21127076 1.3010001 4293652724
-0.12697689 -0.20915969 1.2880001 4293784310
-0.1225922 -0.20769817 1.279 4293586931
-0.11862919 -0.20688622 1.274 4293061357
-0.11487427 -0.20639904 1.271 4293192943
-0.11148637 -0.20656143 1.2720001 4293127150
-0.10843263 -0.20737338 1.2770001 4293258482
-0.1069951 -0.21143314 1.302 4293324275
-0.15661858 -0.21745221 1.3620001 4291349711
-0.15031224 -0.21378012 1.3390001 4291481554
-0.14588408 -0.21266252 1.332 4291547347
-0.14192136 -0.21218355 1.3290001 4291349968
-0.13776693 -0.21138526 1.3240001 4278190080
-0.13293061 -0.20946938 1.312 4292073692
-0.12786415 -0.20707455 1.2970001 4293850103
-0.123359 -0.20547798 1.2870001 4293718517
-0.11900164 -0.20404106 1.2780001 4292863208
-0.11487427 -0.20292348 1.271 4292863978
-0.11122343 -0.20260416 1.2690001 4292732392
-0.10817789 -0.20340244 1.274 4293192943
-0.1058446 -0.20563763 1.2880001 4293258482
-0.10510306 -0.2112256 1.3230001 4278190080
-0.1823774 -0.23757997 1.5140001 4278190080
-0.16446339 -0.21922009 1.3970001 4278190080
-0.1562736 -0.21325704 1.3590001 4291284176
-0.15042451 -0.21027553 1.34 4291349969
-0.14566505 -0.2087063 1.33 4290889418
-0.14192136 -0.2085494 1.3290001 4291021004
-0.13828719 -0.2085494 1.3290001 4291086797
-0.13374116 -0.20713708 1.3200001 4291547348
-0.12885 -0.20509709 1.307 4278190080
-0.12422165 -0.20337096 1.296 4292929001
-0.11956034 -0.2014879 1.284 4292994794
-0.11487427 -0.19944791 1.271 4293060587
-0.11113577 -0.19897713 1.268 4293060587
-0.10800807 -0.19960484 1.2720001 4292863208
-0.10535154 -0.20117405 1.2820001 4293455347
-0.10256089 -0.20258635 1.291 4293192691
-0.17683621 -0.2263473 1.4680001 4278190080
-0.16340385 -0.21401228 1.388 4291678421
-0.15673356 -0.2101576 1.363 4291415249
-0.15121031 -0.20769061 1.3470001 4291349969
-0.14654122 -0.20630291 1.3380001 4290560453
-0.14266887 -0.20599453 1.3360001 4290955211
-0.13911963 -0.20614873 1.337 4278190080
-0.13475436 -0.20506941 1.33 4278190080
-0.12973727 -0.2029108 1.3160001 4291744727
-0.12498846 -0.20106053 1.304 4292797415
-0.12011904 -0.19890192 1.2900001 4292994794
-0.11550694 -0.19705166 1.2780001 4293060587
-0.11157401 -0.19628072 1.273 4293126380
-0.1082628 -0.1965891 1.2750001 4292994794
-0.10518719 -0.19736004 1.2800001 4293126382
-0.10200479 -0.1979768 1.284 4293258482
-0.099721014 -0.20044379 1.3000001 4293258482
-0.17177686 -0.21597201 1.4260001 4291810520
-0.16363931 -0.21051969 1.3900001 4291613141
-0.15799847 -0.20809644 1.3740001 4293060587
-0.15311868 -0.20658192 1.3640001 4291481555
-0.14829358 -0.20506738 1.3540001 4278190080
-0.14469784 -0.20521885 1.355 4291218383
-0.14120069 -0.20552173 1.3570001 4278190080
-0.13637546 -0.20385575 1.3460001 4278190080
-0.13052595 -0.20052379 1.3240001 4291678934
-0.12518016 -0.19779764 1.3060001 4291876313
-0.12021215 -0.19552584 1.291 4292534243
-0.11586847 -0.19416277 1.2820001 4293060587
-0.1119246 -0.19340551 1.2770001 4293060587
-0.10834771 -0.19325404 1.276 4293126380
-0.10494065 -0.19340551 1.2770001 4292929003
-0.10168701 -0.19385986 1.2800001 4293192175
-0.098723799 -0.19492005 1.2870001 4293258482
-0.098015502 -0.20067525 1.325 4278190080
-0.18072727 -0.21817006 1.4670001 4292205280
-0.17057225 -0.2105854 1.416 4292665831
-0.16434565 -0.20761102 1.396 4293455347
-0.1604133 -0.20746233 1.3950001 4278190080
-0.15738446 -0.20850335 1.4020001 4292205278
-0.15826015 -0.21489824 1.4450001 4291218383
-0.14962903 -0.2138572 1.4380001 4278190080
-0.13131462 -0.19809306 1.332 4278190080
-0.12508431 -0.19407766 1.3050001 4291810520
-0.12030527 -0.19214432 1.2920001 4291876313
-0.11632037 -0.19140072 1.2870001 4292797415
-0.11253812 -0.19095458 1.284 4292929001
-0.10877227 -0.1905084 1.281 4293060587
-0.10518719 -0.1903597 1.2800001 4293126380
-0.10168701 -0.1903597 1.2800001 4293126382
-0.098647095 -0.19125199 1.286 4293389554
-0.095796287 -0.19259048 1.2950001 4293455347
-0.18048087 -0.21386656 1.465 4293390068
-0.17310192 -0.20977901 1.437 4293390068
-0.16858381 -0.20904908 1.432 4293193202
-0.16742778 -0.2125527 1.4560001 4293390068
-0.13249764 -0.19620249 1.3440001 4291284175
-0.12518016 -0.1906551 1.3060001 4291678933
-0.12021215 -0.18846534 1.291 4291876312
-0.11632037 -0.18788141 1.2870001 4292271070
-0.11253812 -0.18744346 1.284 4292994794
-0.10877227 -0.18700549 1.281 4293192173
-0.10526937 -0.18700549 1.281 4293389552
-0.10184591 -0.18715149 1.2820001 4293192173
-0.098570392 -0.18758944 1.2850001 4292994796
-0.09550038 -0.18846534 1.291 4293389554
-0.092825003 -0.19021715 1.3030001 4293324275
-0.1260428 -0.18837307 1.3150001 4291678933
-0.12077084 -0.18579459 1.2970001 4292007898
-0.11677228 -0.18507835 1.2920001 4292271070
-0.11315164 -0.18493509 1.291 4293060586
-0.10945157 -0.18464859 1.289 4293257965
-0.10600896 -0.18479185 1.2900001 4293257966
-0.10240201 -0.18464859 1.289 4293192173
-0.099030636 -0.18493509 1.291 4293060589
-0.095648333 -0.18522158 1.2930001 4293060589
-0.092468813 -0.18593784 1.2980001 4293455347
-0.090015501 -0.18822983 1.314 4278190080
-0.12652205 -0.18547976 1.3200001 4291349709
-0.12086397 -0.18238844 1.2980001 4291481295
-0.11686266 -0.18168586 1.2930001 4291086537
-0.1132393 -0.18154536 1.2920001 4291283146
-0.10979122 -0.18168586 1.2930001 4292599778
-0.10650203 -0.1821074 1.296 4293191660
-0.10295811 -0.1821074 1.296 4293257966
-0.099260762 -0.18182637 1.294 4293257968
-0.095796287 -0.1819669 1.2950001 4293389554
-0.092753768 -0.1829505 1.302 4278190080
-0.090495035 -0.18562029 1.3210001 4293324277
-0.1260428 -0.18118131 1.3150001 4291348939
-0.12105019 -0.17911461 1.3000001 4291217353
-0.11686266 -0.17815015 1.2930001 4291085767
-0.11332694 -0.17815015 1.2930001 4291283146
-0.10996105 -0.1784257 1.2950001 4291612113
-0.10683074 -0.17911461 1.3000001 4292533216
-0.1035142 -0.17952795 1.3030001 4293520625
-0.10010456 -0.17980352 1.3050001 4293455347
-0.096683964 -0.18007907 1.307 4278190080
-0.094605997 -0.18297246 1.3280001 4293258484
-0.13141321 -0.18001626 1.3330001 4291414732
-0.12498846 -0.17609993 1.304 4291348682
-0.12039838 -0.17461443 1.2930001 4291282889
-0.11632037 -0.17380415 1.2870001 4291348682
-0.11280106 -0.17380415 1.2870001 4291414732
-0.10945157 -0.17407425 1.289 4291941078
-0.10641985 -0.17488451 1.2950001 4291349456
-0.10343476 -0.17582984 1.302 4293521138
-0.1004881 -0.17691021 1.3100001 4278190080
-0.10001279 -0.18258214 1.3520001 4293192691
-0.13042736 -0.17504805 1.3230001 4291743440
-0.12441336 -0.17174026 1.2980001 4291809233
-0.12021215 -0.17081408 1.291 4291808720
-0.11632037 -0.17028484 1.2870001 4291874513
-0.1128887 -0.17041714 1.2880001 4291742927
-0.10945157 -0.17054947 1.289 4291611343
-0.10633767 -0.17121102 1.294 4291743187
-0.1035142 -0.17240183 1.3030001 4293652211
-0.10110177 -0.17438649 1.3180001 4278190080
-0.14022557 -0.17933449 1.3840001 4278190080
-0.1301316 -0.17104156 1.3200001 4291544780
-0.1243175 -0.16806129 1.2970001 4291282376
-0.12021215 -0.16728382 1.291 4291347399
-0.11650114 -0.16702467 1.289 4291413192
-0.1128887 -0.16689509 1.2880001 4291610060
-0.10953648 -0.16715425 1.2900001 4291544780
-0.10650203 -0.16793171 1.296 4290821572
-0.10383198 -0.16935706 1.307 4293783283
-0.10125518 -0.17104156 1.3200001 4278190080
-0.14083348 -0.17631097 1.3900001 4278190080
-0.1307231 -0.16819306 1.3260001 4291805129
-0.1248926 -0.16527569 1.3030001 4291739079
-0.12077084 -0.16451463 1.2970001 4291672516
-0.11704343 -0.16426094 1.2950001 4291672516
-0.11341458 -0.16413411 1.294 4291606210
-0.11004595 -0.16438779 1.296 4290949308
-0.1069951 -0.16514884 1.302 4290555063
-0.10430863 -0.16654411 1.3130001 4293914869
-0.10171543 -0.16819306 1.3260001 4278190080
-0.1414414 -0.17325465 1.396 4278190080
-0.13101886 -0.16493943 1.3290001 4290816694
-0.12537186 -0.16233316 1.3080001 4290290863
-0.12123642 -0.16158852 1.302 4290618288
-0.11740495 -0.1612162 1.299 4290289837
-0.11350223 -0.16071975 1.2950001 4290354603
-0.11021578 -0.16109209 1.2980001 4290880178
-0.10715946 -0.16183673 1.304 4290619316
-0.10446752 -0.16320191 1.3150001 4293582568
-0.10202228 -0.16506353 1.33 4293520627
-0.14083348 -0.16870904 1.3900001 4278190080
-0.13151179 -0.16191213 1.3340001 4290812585
-0.12594695 -0.15948465 1.314 4290811815
-0.12160888 -0.15851368 1.3060001 4290679716
-0.11776647 -0.15814956 1.3030001 4290416544
-0.11402812 -0.1579068 1.3010001 4290744482
-0.11072525 -0.15827093 1.304 4291008422
-0.10757034 -0.15887779 1.309 4292385198
-0.10470586 -0.15997015 1.3180001 4287574098
-0.10209898 -0.161548 1.3310001 4294699509
-0.1014183 -0.16640295 1.3710001 4293586420
-0.13982031 -0.1637217 1.3800001 4291008933
-0.13180755 -0.15862021 1.337 4278190080
-0.12642621 -0.15648471 1.319 4290547871
-0.12188823 -0.15529832 1.309 4290481051
-0.11785686 -0.15470512 1.304 4290480279
-0.11402812 -0.15434921 1.3010001 4290743451
-0.11081016 -0.15482377 1.3050001 4290936208
-0.1077347 -0.15553561 1.3110001 4288096842
-0.10510306 -0.15695927 1.3230001 4289082456
-0.10263593 -0.15873885 1.3380001 4287189866
-0.10067856 -0.16146754 1.3610001 4294439673
-0.09959276 -0.16585718 1.3980001 4293389554
-0.14681959 -0.16354109 1.411 4289538897
-0.13911107 -0.15913673 1.373 4288816201
-0.13289197 -0.15623912 1.348 4288553542
-0.12767226 -0.15438466 1.332 4289477211
-0.12281939 -0.1528779 1.319 4289279832
-0.1185799 -0.15206656 1.312 4289080654
-0.11472929 -0.15171884 1.309 4288882248
-0.11157437 -0.15229838 1.314 4289406796
-0.108803 -0.15345742 1.3240001 4289997906
-0.10613583 -0.15484826 1.3360001 4289802069
-0.10340302 -0.15623912 1.348 4289870178
-0.10060459 -0.15762997 1.36 4287778407
-0.097954251 -0.15936854 1.3750001 4294505212
-0.096454963 -0.16319339 1.4080001 4293390068
-0.1445304 -0.15719296 1.3890001 4289801040
-0.13890843 -0.15515591 1.3710001 4289669454
-0.13407499 -0.15391104 1.36 4289211213
-0.12958924 -0.15300567 1.3520001 4290067547
-0.12458858 -0.15142129 1.3380001 4289540689
-0.12002599 -0.15028961 1.3280001 4289999444
-0.11586869 -0.14961058 1.322 4289735245
-0.11259331 -0.15006326 1.3260001 4290063697
-0.10987131 -0.15130813 1.337 4289933394
-0.10716859 -0.15266617 1.3490001 4289932113
-0.10393997 -0.15334518 1.355 4289605718
-0.10075254 -0.15413739 1.3620001 4288559451
-0.097740531 -0.15526907 1.3720001 4290946741
-0.095016353 -0.15696663 1.3870001 4293586420
-0.15078476 -0.15593475 1.4120001 4289669454
-0.1441142 -0.15295298 1.3850001 4289472589
-0.13941503 -0.15195908 1.376 4289473102
-0.13545516 -0.1517382 1.3740001 4289538897
-0.13150626 -0.15151733 1.3720001 4278190080
-0.12673023 -0.15030254 1.3610001 4289934166
-0.12183362 -0.14886688 1.348 4289736787
-0.11744633 -0.1479834 1.34 4289867347
-0.1139519 -0.14820427 1.342 4289866833
-0.11093961 -0.14908776 1.35 4289998165
-0.10764524 -0.14963992 1.355 4290325590
-0.10432352 -0.1501921 1.36 4289997908
-0.10119639 -0.15107559 1.368 4289606231
-0.098310441 -0.15240082 1.3800001 4288559710
-0.095084861 -0.1532843 1.388 4294699509
-0.092144378 -0.15471996 1.401 4293586420
-0.14971688 -0.15099661 1.4020001 4289603150
-0.14432229 -0.1493811 1.3870001 4289998165
-0.14012426 -0.14895029 1.383 4289407311
-0.13614526 -0.14873488 1.381 4289670483
-0.13208136 -0.14841178 1.378 4278190080
-0.12719582 -0.14711937 1.3660001 4289802326
-0.12192401 -0.14528847 1.3490001 4289604947
-0.11753397 -0.14442685 1.3410001 4290065241
-0.1139519 -0.14453456 1.342 4289998419
-0.11093961 -0.14539617 1.35 4290327130
-0.10772469 -0.14604236 1.3560001 4289800529
-0.10463035 -0.14690398 1.3640001 4289735763
-0.1017142 -0.14808869 1.3750001 4289868122
-0.098595396 -0.149058 1.3840001 4288954209
-0.095153369 -0.1495965 1.3890001 4291339959
-0.091815524 -0.15035041 1.396 4294309627
-0.14918295 -0.14663801 1.3970001 4289471821
-0.14473853 -0.14600819 1.391 4289274442
-0.14083348 -0.14590323 1.3900001 4289538642
-0.13693394 -0.14579827 1.3890001 4290066269
-0.13256061 -0.14516847 1.383 4278190080
-0.12700959 -0.1431741 1.3640001 4291119470
-0.12056828 -0.14002511 1.3340001 4290461027
-0.11621927 -0.13918538 1.3260001 4290131291
-0.11284804 -0.13950029 1.3290001 4289669970
-0.11077525 -0.14149465 1.348 4290195287
-0.10796302 -0.14264926 1.3590001 4289734736
-0.10524403 -0.14401384 1.3720001 4289801556
-0.10237996 -0.14527343 1.3840001 4289605464
-0.09916532 -0.14611317 1.3920001 4289475163
-0.095427379 -0.14621814 1.393 4288757859
-0.091815524 -0.14653303 1.396 4290619828
-0.14886259 -0.14251119 1.3940001 4289471564
-0.1445304 -0.14200002 1.3890001 4289406031
-0.14063086 -0.1418978 1.388 4289670230
-0.13683535 -0.1418978 1.388 4290000224
-0.13246475 -0.14128441 1.3820001 4278190080
-0.12663712 -0.1390353 1.36 4290921839
-0.11948371 -0.13515049 1.322 4290592874
-0.11507986 -0.13423041 1.3130001 4290329189
-0.11191402 -0.13474157 1.3180001 4289736023
-0.11036438 -0.13729736 1.3430001 4290195293
-0.10804246 -0.1390353 1.36 4290129754
-0.10539744 -0.14046656 1.3740001 4289669203
-0.10252791 -0.14169334 1.386 4289801305
-0.09916532 -0.14230673 1.3920001 4289604696
-0.095153369 -0.14200002 1.3890001 4289279583
-0.091420896 -0.14210226 1.3900001 4288368238
-0.1445304 -0.13820179 1.3890001 4289603156
-0.13284816 -0.1379033 1.386 4278190080
-0.12654401 -0.13521688 1.3590001 4290658415
-0.11903181 -0.13103798 1.317 4290329450
-0.11455399 -0.13004301 1.307 4290460777
-0.11140455 -0.13054049 1.312 4289867357
-0.11020002 -0.13342592 1.3410001 4289867100
-0.10828079 -0.13561487 1.363 4289932123
-0.10532073 -0.13660984 1.373 4289997914
-0.10245394 -0.13780381 1.3850001 4289997914
-0.095084861 -0.13810231 1.388 4289474393
-0.091289364 -0.13810231 1.388 4289613940
-0.13246475 -0.13372622 1.3820001 4278190080
-0.12607843 -0.13101687 1.3540001 4291381626
-0.11830875 -0.12666254 1.309 4290657903
-0.11402812 -0.12588844 1.3010001 4290986098
-0.11097998 -0.12646902 1.307 4289867360
-0.11020002 -0.12975895 1.3410001 4290129249
-0.10843968 -0.13208126 1.365 4290523750
-0.10524403 -0.13275859 1.3720001 4290194785
-0.10223202 -0.13372622 1.3820001 4289932639
-0.12626466 -0.1275024 1.3560001 4291315065
-0.11812799 -0.12289501 1.307 4290986100
-0.11394046 -0.1222368 1.3000001 4291249274
-0.11097998 -0.12289501 1.307 4290459758
-0.11052872 -0.12646808 1.345 4290524525
-0.10867801 -0.12863073 1.368 4290721390
-0.10524403 -0.12900685 1.3720001 4290720875
-0.12635778 -0.12388569 1.3570001 4291051895
-0.11876067 -0.11996005 1.314 4290920309
-0.11429106 -0.11904711 1.304 4291446653
-0.11148945 -0.11986876 1.3130001 4290328686
-0.11102179 -0.12333792 1.3510001 4290525040
-0.10883688 -0.12507251 1.3700001 4290327661
-0.10516731 -0.12516381 1.3710001 4290721904
-0.12700959 -0.12079488 1.3640001 4291051895
-0.12038752 -0.11796098 1.332 4290986102
-0.11613163 -0.11734106 1.325 4290920823
-0.11301787 -0.11787242 1.3310001 4290328686
-0.11184356 -0.1205292 1.3610001 4290788723
-0.12201438 -0.11586346 1.35 4289803627
-0.11797221 -0.11552016 1.3460001 4289540712
-0.11488594 -0.11612093 1.353 4290132337
