# .PCD v0.7 - Point Cloud Data file format
VERSION 0.7
FIELDS x y z rgba
SIZE 4 4 4 4
TYPE F F F U
COUNT 1 1 1 1
WIDTH 439
HEIGHT 1
VIEWPOINT 0 0 0 1 0 0 0
POINTS 439
DATA ascii
-0.17436604 -0.2408938 1.327 4292863978
-0.16893603 -0.23835234 1.3130001 4292929771
-0.17160666 -0.23351035 1.3060001 4293389551
-0.16571943 -0.23029198 1.2880001 4293192942
-0.16194552 -0.22993436 1.286 4292929771
-0.15855214 -0.23011318 1.2870001 4292995564
-0.15491237 -0.22993436 1.286 4292929771
-0.15210214 -0.23100717 1.2920001 4293324275
-0.17186946 -0.2302912 1.3080001 4278190080
-0.16533345 -0.22624174 1.2850001 4293192172
-0.16081215 -0.22483322 1.2770001 4293455344
-0.157197 -0.22465715 1.276 4293258736
-0.15382822 -0.22483322 1.2770001 4293258736
-0.15045397 -0.22500928 1.2780001 4293061357
-0.14799421 -0.22659387 1.2870001 4293324275
-0.14694454 -0.23046726 1.309 4293324275
-0.16649142 -0.22428784 1.294 4278190080
-0.16106403 -0.22168793 1.279 4293389551
-0.15670422 -0.22047462 1.2720001 4293455344
-0.15298501 -0.22012796 1.2700001 4293323758
-0.14951217 -0.22012796 1.2700001 4293258736
-0.14649931 -0.22082128 1.274 4292995564
-0.14368908 -0.22186124 1.2800001 4293324275
-0.14161271 -0.22411452 1.2930001 4293324277
-0.16970803 -0.22501425 1.319 4278190080
-0.16244924 -0.22006702 1.2900001 4292665828
-0.15732019 -0.21784928 1.2770001 4293521137
-0.15310545 -0.21682572 1.271 4293389552
-0.14927672 -0.21631393 1.268 4293258736
-0.14580935 -0.21631393 1.268 4293258736
-0.14279103 -0.21699631 1.2720001 4293061357
-0.13986035 -0.21784928 1.2770001 4293126896
-0.1371159 -0.21904346 1.284 4293390068
-0.16383448 -0.21838596 1.3010001 4292402656
-0.15781297 -0.21502875 1.281 4292994793
-0.1535873 -0.21402159 1.2750001 4293586931
-0.14927672 -0.21284656 1.268 4293389552
-0.14546438 -0.21234299 1.2650001 4293324529
-0.14200522 -0.21234299 1.2650001 4293258736
-0.1386556 -0.21251087 1.266 4293127150
-0.1353005 -0.21267872 1.2670001 4293127150
-0.13204399 -0.21301444 1.2690001 4293258482
-0.13293061 -0.22023241 1.312 4278190080
-0.16496783 -0.21631448 1.3100001 4291942105
-0.15879853 -0.21284685 1.289 4292534242
-0.15455098 -0.2118561 1.2830001 4293060586
-0.15021853 -0.21070021 1.276 4293455345
-0.14592436 -0.20954435 1.2690001 4293455345
-0.14189297 -0.20871872 1.2640001 4293324529
-0.13832703 -0.20855358 1.263 4293324529
-0.13487335 -0.20855358 1.263 4293258736
-0.13162777 -0.20888384 1.2650001 4293192689
-0.12887785 -0.21003972 1.2720001 4293324275
-0.16521969 -0.21305706 1.312 4291415762
-0.1594145 -0.21013401 1.294 4291810520
-0.15539421 -0.20948447 1.2900001 4292468449
-0.15127806 -0.20867251 1.2850001 4293126379
-0.14649931 -0.20688622 1.274 4293455345
-0.14222975 -0.20574947 1.2670001 4293521138
-0.13821751 -0.20493752 1.2620001 4293586931
-0.13455299 -0.20461273 1.2600001 4293455345
-0.13100344 -0.20445034 1.2590001 4293389552
-0.12786464 -0.20493752 1.2620001 4293258482
-0.1251038 -0.20607425 1.2690001 4293324277
-0.12393411 -0.20997164 1.2930001 4278190080
-0.16647899 -0.21106595 1.322 4291547347
-0.16064647 -0.20819214 1.304 4291744726
-0.1563579 -0.2072342 1.2980001 4291810519
-0.15269077 -0.20707455 1.2970001 4292336863
-0.14810918 -0.20563763 1.2880001 4292731621
-0.14357683 -0.20420073 1.279 4293652723
-0.13898417 -0.20260416 1.2690001 4293455345
-0.13487335 -0.20164621 1.263 4293521138
-0.13100344 -0.20100759 1.2590001 4293389552
-0.12766202 -0.20116724 1.2600001 4293521138
-0.12431512 -0.20132691 1.261 4293324275
-0.12144201 -0.20228484 1.2670001 4293390068
-0.16836794 -0.20980477 1.337 4291744726
-0.16175522 -0.20603864 1.3130001 4291744726
-0.15720113 -0.20478326 1.3050001 4291744726
-0.15327941 -0.20431249 1.302 4291744726
-0.14914411 -0.2035279 1.2970001 4292271070
-0.14469941 -0.20227249 1.289 4278190080
-0.13975082 -0.20023251 1.276 4293521138
-0.13508692 -0.19850637 1.2650001 4293389552
-0.13079534 -0.19725099 1.2570001 4293126380
-0.1270541 -0.19678023 1.2540001 4292929001
-0.12372361 -0.19693714 1.2550001 4292994794
-0.12057935 -0.19740793 1.258 4293126896
-0.11788426 -0.19866331 1.266 4293390070
-0.16874573 -0.20661129 1.34 4291613140
-0.16261758 -0.20352753 1.3200001 4291613140
-0.15780342 -0.20198566 1.3100001 4291547347
-0.15375032 -0.20136891 1.3060001 4291481554
-0.14983407 -0.20090635 1.3030001 4291613140
-0.14570972 -0.20013541 1.2980001 4291876312
-0.14106509 -0.19859353 1.2880001 4292402656
-0.13604802 -0.19643492 1.274 4293323758
-0.13152371 -0.19489303 1.2640001 4293060587
-0.12735806 -0.19381371 1.2570001 4292731622
-0.12372361 -0.19350533 1.2550001 4292929001
-0.12038764 -0.19365954 1.256 4292666599
-0.11751179 -0.19458465 1.2620001 4293258482
-0.11505504 -0.19628072 1.273 4293324275
-0.17652723 -0.20779353 1.3720001 4291481554
-0.16811608 -0.20218977 1.335 4291349968
-0.162248 -0.19946362 1.317 4291284175
-0.15732157 -0.19779764 1.3060001 4291284175
-0.15327941 -0.19719182 1.302 4291086796
-0.14971907 -0.19719182 1.302 4291086796
-0.14593422 -0.19688892 1.3000001 4291284175
-0.14183176 -0.19613166 1.2950001 4291613394
-0.13700911 -0.19431421 1.2830001 4292534242
-0.13246019 -0.19279969 1.273 4292994794
-0.12776333 -0.19098227 1.261 4292797415
-0.12392078 -0.19037645 1.2570001 4293192173
-0.1204835 -0.19037645 1.2570001 4292994794
-0.11751179 -0.19113371 1.2620001 4292994794
-0.11460313 -0.19204243 1.268 4293455347
-0.11236283 -0.19416277 1.2820001 4293258484
-0.17562658 -0.20300077 1.365 4278190080
-0.16836794 -0.19883665 1.337 4291481042
-0.16261758 -0.19630842 1.3200001 4291217870
-0.15756251 -0.19452381 1.3080001 4290955211
-0.15363258 -0.19407766 1.3050001 4290560453
-0.15040903 -0.19452381 1.3080001 4290757831
-0.14694454 -0.19467252 1.309 4278190080
-0.14281747 -0.19392893 1.304 4291481554
-0.13818377 -0.19244175 1.294 4291876312
-0.13350073 -0.19080584 1.2830001 4292534242
-0.12887785 -0.18916994 1.2720001 4292994793
-0.12470945 -0.1881289 1.2650001 4293060587
-0.12096275 -0.18768275 1.2620001 4293192173
-0.11769803 -0.18798019 1.2640001 4292994794
-0.11460313 -0.18857506 1.268 4293060589
-0.11157401 -0.18931866 1.273 4293258484
-0.10928174 -0.19140072 1.2870001 4293390070
-0.18356395 -0.20393965 1.3970001 4291810520
-0.17536925 -0.19897619 1.363 4291678934
-0.16937537 -0.19634847 1.345 4292073692
-0.16397274 -0.19430472 1.3310001 4293192173
-0.1587671 -0.19240692 1.3180001 4278190080
-0.15492757 -0.19211495 1.3160001 4278190080
-0.15224889 -0.19328281 1.3240001 4278190080
-0.14885291 -0.19357479 1.3260001 4278190080
-0.14391269 -0.19182298 1.314 4291218382
-0.13861093 -0.18948723 1.2980001 4291810519
-0.13381289 -0.18773541 1.286 4291744726
-0.1291818 -0.1861296 1.2750001 4292402656
-0.1251038 -0.18525369 1.2690001 4293060587
-0.12115445 -0.18452378 1.2640001 4293126380
-0.11769803 -0.18452378 1.2640001 4293060587
-0.11451276 -0.18496172 1.2670001 4293060587
-0.11148637 -0.18569165 1.2720001 4293389554
-0.10860246 -0.18671355 1.279 4293258482
-0.10691292 -0.18992518 1.3010001 4293390068
-0.19181043 -0.20484675 1.4300001 4291942106
-0.18119876 -0.19754104 1.3790001 4291810520
-0.17524059 -0.19510579 1.3620001 4292863208
-0.17113839 -0.19467606 1.3590001 4293521138
-0.1671758 -0.19438955 1.3570001 4292534243
-0.16310368 -0.1939598 1.3540001 4278190080
-0.15266965 -0.19481932 1.36 4278190080
-0.14588408 -0.19080833 1.332 4278190080
-0.13914487 -0.18665409 1.3030001 4291613140
-0.13391694 -0.1843621 1.2870001 4291810519
-0.12948576 -0.18307284 1.2780001 4291810519
-0.12559672 -0.18249986 1.274 4292863208
-0.12163371 -0.1817836 1.2690001 4293126380
-0.11797738 -0.1814971 1.2670001 4293126380
-0.11451276 -0.1814971 1.2670001 4293192173
-0.11122343 -0.1817836 1.2690001 4292994796
-0.1082628 -0.1826431 1.2750001 4293455347
-0.10559808 -0.18407559 1.2850001 4293390068
-0.10565917 -0.19052182 1.33 4293324275
-0.20051116 -0.20585445 1.465 4292205278
-0.18899365 -0.1979856 1.409 4292731622
-0.18172437 -0.19433221 1.383 4293323761
-0.17704187 -0.19334862 1.376 4278190080
-0.17479035 -0.19503479 1.388 4293521140
-0.17666182 -0.20149848 1.434 4293586933
-0.13946523 -0.18351257 1.3060001 4291481297
-0.13370883 -0.18056175 1.2850001 4291810262
-0.12928313 -0.1792971 1.276 4291941848
-0.1256953 -0.1791566 1.2750001 4292007898
-0.12192126 -0.17873505 1.2720001 4293192172
-0.11816362 -0.17831351 1.2690001 4293192173
-0.11451276 -0.17803247 1.2670001 4293455345
-0.11113577 -0.17817299 1.268 4293257966
-0.10817789 -0.17901608 1.274 4292994794
-0.10518719 -0.17985918 1.2800001 4293192173
-0.10248145 -0.18126433 1.2900001 4293521140
-0.10156202 -0.18604183 1.3240001 4293258482
-0.20010054 -0.20143506 1.462 4293586933
-0.19248112 -0.19771497 1.4350001 4293455861
-0.1873745 -0.19647495 1.4260001 4293390068
-0.18579105 -0.198955 1.4440001 4293390068
-0.14085348 -0.18173245 1.319 4278190080
-0.13422911 -0.1777368 1.2900001 4291547090
-0.12958708 -0.17622122 1.279 4292073434
-0.1262868 -0.17649679 1.281 4292402399
-0.12268806 -0.176359 1.2800001 4292797157
-0.11890853 -0.17594567 1.2770001 4293389039
-0.11505504 -0.17539454 1.273 4293192173
-0.11148637 -0.17525676 1.2720001 4293192173
-0.10817789 -0.17553231 1.274 4293060587
-0.10502283 -0.17608343 1.2780001 4292994794
-0.10208423 -0.17704791 1.2850001 4293455347
-0.099490888 -0.17870127 1.2970001 4293324275
-0.098311394 -0.18311025 1.3290001 4278190080
-0.14213493 -0.17974618 1.3310001 4291415504
-0.13443722 -0.17447938 1.2920001 4291349711
-0.12958708 -0.17272379 1.279 4292006871
-0.12618822 -0.17285883 1.2800001 4291743699
-0.1227839 -0.17299388 1.281 4291743699
-0.11937411 -0.17312893 1.2820001 4292797157
-0.11577808 -0.17299388 1.281 4293257708
-0.11227518 -0.17299388 1.281 4293060587
-0.10851754 -0.17258874 1.2780001 4293192173
-0.10526937 -0.17299388 1.281 4293323759
-0.10232256 -0.1739392 1.2880001 4278190080
-0.10025797 -0.17650507 1.307 4293324275
-0.099642925 -0.18190691 1.3470001 4293258482
-0.14138742 -0.17518036 1.3240001 4291349711
-0.13443722 -0.17094639 1.2920001 4291414734
-0.12978971 -0.16949096 1.281 4291283148
-0.1262868 -0.16949096 1.281 4291217355
-0.1229756 -0.16975559 1.2830001 4291283148
-0.11983968 -0.17028484 1.2870001 4291612113
-0.11659151 -0.17068177 1.2900001 4292797157
-0.11332694 -0.17107871 1.2930001 4293455345
-0.10945157 -0.17054947 1.289 4278190080
-0.10609113 -0.17081408 1.291 4278190080
-0.10422919 -0.17359261 1.312 4293258482
-0.13957201 -0.16935706 1.307 4291414734
-0.13381289 -0.16663595 1.286 4291348682
-0.12948576 -0.16559933 1.2780001 4291282889
-0.12589248 -0.16546975 1.2770001 4291414475
-0.1224005 -0.16546975 1.2770001 4291546061
-0.11937411 -0.16611764 1.2820001 4292006872
-0.11641075 -0.16689509 1.2880001 4291612114
-0.11350223 -0.16780213 1.2950001 4293521138
-0.11055543 -0.16870917 1.302 4278190080
-0.14752693 -0.17085674 1.3470001 4291612113
-0.13893129 -0.165022 1.3010001 4291809233
-0.13360478 -0.16286568 1.284 4291677647
-0.12948576 -0.16210462 1.2780001 4291809233
-0.12589248 -0.16197778 1.2770001 4291874513
-0.1224005 -0.16197778 1.2770001 4291873743
-0.11928099 -0.16248515 1.281 4291611343
-0.11623 -0.16311938 1.286 4291808980
-0.11350223 -0.16426094 1.2950001 4293586420
-0.11131964 -0.16629043 1.3110001 4293390070
-0.14708884 -0.16667694 1.3430001 4291480014
-0.13871771 -0.1612162 1.299 4291479755
-0.13339669 -0.15910636 1.2820001 4291282376
-0.1291818 -0.15823759 1.2750001 4291282376
-0.12559672 -0.15811348 1.274 4291413192
-0.12211295 -0.15811348 1.274 4291610571
-0.11900164 -0.15860991 1.2780001 4291742160
-0.11604923 -0.15935457 1.284 4290887365
-0.11341458 -0.16059566 1.294 4293520627
-0.11114981 -0.16245727 1.309 4293390070
-0.1153772 -0.17424752 1.404 4293324277
-0.14818406 -0.16421823 1.353 4278190080
-0.13914487 -0.15814956 1.3030001 4291609033
-0.13370883 -0.15596484 1.2850001 4291674824
-0.1296884 -0.15535797 1.2800001 4291674311
-0.12599105 -0.15511522 1.2780001 4291608004
-0.1224005 -0.15499385 1.2770001 4291410625
-0.11928099 -0.15547934 1.281 4291081406
-0.11632037 -0.15620758 1.2870001 4291017924
-0.11394046 -0.15778543 1.3000001 4293717490
-0.11191402 -0.15997015 1.3180001 4293324277
-0.11529502 -0.17028689 1.4030001 4293258484
-0.1488412 -0.16123027 1.3590001 4278190080
-0.1397856 -0.15529832 1.309 4290752184
-0.13412505 -0.15292555 1.289 4290817207
-0.12999235 -0.15221371 1.2830001 4290750901
-0.1262868 -0.15197644 1.281 4290487216
-0.12268806 -0.15185779 1.2800001 4290421423
-0.11946723 -0.15221371 1.2830001 4290684081
-0.11650114 -0.15292555 1.289 4290554036
-0.1142034 -0.15458649 1.3030001 4294046971
-0.11225367 -0.15684062 1.322 4293192175
-0.11422671 -0.16490807 1.3900001 4293324277
-0.1488412 -0.15751407 1.3590001 4278190080
-0.14031954 -0.15229838 1.314 4290616235
-0.13474938 -0.15009618 1.2950001 4290615465
-0.13060027 -0.14940076 1.289 4290614436
-0.12687832 -0.14916895 1.2870001 4290548130
-0.12345485 -0.14928485 1.2880001 4290745509
-0.12021215 -0.14963256 1.291 4290877606
-0.1171338 -0.15021209 1.296 4292647087
-0.11464164 -0.15160294 1.3080001 4285935174
-0.1125084 -0.15357332 1.325 4294440699
-0.11274752 -0.15902083 1.3720001 4293586933
-0.14851263 -0.15345836 1.3560001 4278190080
-0.14031954 -0.14870523 1.314 4290877606
-0.13506153 -0.14689451 1.2980001 4290547871
-0.1308029 -0.14610231 1.291 4290612894
-0.12717406 -0.14598915 1.2900001 4290349463
-0.12383825 -0.14621548 1.2920001 4290613146
-0.12058461 -0.14655499 1.2950001 4291925156
-0.11749533 -0.14712085 1.3000001 4288360271
-0.11481693 -0.14825255 1.3100001 4288622932
-0.11259331 -0.15006326 1.3260001 4289301145
-0.11126832 -0.15323202 1.3540001 4294178041
-0.11185572 -0.1593432 1.4080001 4293390068
-0.15760897 -0.15505126 1.404 4287774553
-0.14829358 -0.1495295 1.3540001 4289295235
-0.1414942 -0.14632687 1.325 4290086804
-0.13620612 -0.1445599 1.309 4290676118
-0.13191742 -0.14378686 1.302 4290543503
-0.12796275 -0.14334512 1.2980001 4289753987
-0.1245092 -0.14345555 1.299 4288434019
-0.12123642 -0.14378686 1.302 4288555082
-0.11839914 -0.14467034 1.3100001 4289865552
-0.11586869 -0.14599556 1.322 4289539155
-0.11344244 -0.14754166 1.3360001 4289016663
-0.11126832 -0.1495295 1.3540001 4290481312
-0.1092341 -0.15184864 1.3750001 4293783797
-0.15502706 -0.14873488 1.381 4290062931
-0.14851263 -0.14604236 1.3560001 4289669970
-0.14320281 -0.14442685 1.3410001 4278190080
-0.13818315 -0.14302675 1.3280001 4289278035
-0.1334372 -0.14184204 1.317 4288947787
-0.12904717 -0.14098042 1.309 4289407568
-0.12518016 -0.14065732 1.3060001 4289472075
-0.12198135 -0.14108813 1.3100001 4289602380
-0.11930294 -0.14216514 1.3200001 4290128724
-0.11656986 -0.14324215 1.33 4289932372
-0.11378209 -0.14431916 1.34 4289474132
-0.11093961 -0.14539617 1.35 4287837270
-0.10828079 -0.14679629 1.363 4294637052
-0.10608782 -0.14895029 1.383 4293521140
-0.15401675 -0.14401384 1.3720001 4289932372
-0.14938881 -0.1431741 1.3640001 4289604947
-0.14523178 -0.14275424 1.36 4289671510
-0.14088853 -0.14212444 1.3540001 4278190080
-0.13566622 -0.14054994 1.3390001 4289539154
-0.1307231 -0.13918538 1.3260001 4289670740
-0.12652205 -0.13855559 1.3200001 4289800786
-0.12319184 -0.13887049 1.3230001 4289932115
-0.12056828 -0.14002511 1.3340001 4289603407
-0.11762162 -0.14086483 1.342 4290129751
-0.11454629 -0.14159961 1.3490001 4289736276
-0.1113505 -0.14222941 1.355 4289016661
-0.10859855 -0.143489 1.3670001 4287452777
-0.10585769 -0.14485358 1.3800001 4293717490
-0.15903339 -0.14138664 1.383 4289997138
-0.15367997 -0.13995539 1.3690001 4289800529
-0.14982691 -0.13985315 1.368 4289669970
-0.1459793 -0.13975093 1.3670001 4290131034
-0.14213718 -0.13964871 1.3660001 4278190080
-0.13657808 -0.13780852 1.348 4289604947
-0.13131462 -0.13617282 1.332 4289473104
-0.1268096 -0.13525273 1.3230001 4290063701
-0.12365743 -0.13576388 1.3280001 4289997908
-0.12120095 -0.1370929 1.3410001 4290129494
-0.11814749 -0.13780852 1.348 4289800529
-0.11505575 -0.13852414 1.355 4289800786
-0.11176139 -0.1390353 1.36 4289146449
-0.10891633 -0.14015986 1.3710001 4289412189
-0.10562757 -0.14077325 1.3770001 4290283933
-0.10252791 -0.14169334 1.386 4293651443
-0.15857343 -0.13720682 1.3790001 4289799246
-0.15424125 -0.13670933 1.3740001 4289669200
-0.15048404 -0.13670933 1.3740001 4289867607
-0.14672682 -0.13670933 1.3740001 4278190080
-0.1427615 -0.13651034 1.3720001 4278190080
-0.13667941 -0.13422191 1.3490001 4290527079
-0.13052595 -0.13173448 1.3240001 4290329187
-0.12613866 -0.1309385 1.3160001 4289735764
-0.12319184 -0.13163497 1.3230001 4289537102
-0.12138171 -0.13362491 1.3430001 4289997653
-0.11884867 -0.13491838 1.3560001 4289668943
-0.1159898 -0.13591336 1.3660001 4289734736
-0.11274752 -0.13651034 1.3720001 4289932372
-0.10947243 -0.13710733 1.378 4289212500
-0.10570428 -0.13710733 1.378 4288695146
-0.10208406 -0.13730632 1.3800001 4292134094
-0.15845844 -0.13333917 1.378 4289601867
-0.15446576 -0.13314565 1.376 4289274959
-0.15059356 -0.13304889 1.3750001 4289604696
-0.14704718 -0.1332424 1.3770001 4278190080
-0.1427615 -0.13275859 1.3720001 4278190080
-0.13627413 -0.130146 1.345 4290527597
-0.12944151 -0.12704958 1.3130001 4290921841
-0.12508431 -0.12627548 1.3050001 4289999197
-0.12244692 -0.12724312 1.3150001 4289800787
-0.12120095 -0.12975895 1.3410001 4289931862
-0.11893632 -0.13130715 1.3570001 4289800274
-0.11590489 -0.13208126 1.365 4289734483
-0.11291187 -0.13295212 1.3740001 4289669201
-0.10931354 -0.13314565 1.376 4289867609
-0.10547415 -0.13304889 1.3750001 4289344863
-0.10164022 -0.13295212 1.3740001 4289360008
-0.098310441 -0.1335327 1.3800001 4293520111
-0.14265744 -0.12891282 1.3710001 4278190080
-0.13576755 -0.12599795 1.34 4290987380
-0.12835708 -0.12242486 1.302 4290395497
-0.12422165 -0.12186069 1.296 4290064736
-0.12160888 -0.12280098 1.3060001 4289932123
-0.12111057 -0.12599795 1.34 4289800276
-0.11902396 -0.12769045 1.358 4289866071
-0.11581997 -0.12825462 1.3640001 4289800276
-0.11299405 -0.12928893 1.3750001 4289931092
-0.14213718 -0.12470734 1.3660001 4278190080
-0.13536227 -0.12196852 1.3360001 4291447167
-0.12737124 -0.11795159 1.2920001 4290591342
-0.12345485 -0.11758642 1.2880001 4290722158
-0.12095708 -0.11859065 1.299 4290128992
-0.12111057 -0.1223337 1.34 4290128992
-0.11902396 -0.12397699 1.358 4290063198
-0.11556523 -0.12425087 1.3610001 4289931612
-0.11250099 -0.12498122 1.3690001 4289865819
-0.13556491 -0.11849233 1.3380001 4291249020
-0.12746982 -0.11450717 1.2930001 4291051384
-0.12345485 -0.11406437 1.2880001 4291379066
-0.12105019 -0.11512708 1.3000001 4290655597
-0.12156247 -0.11911225 1.345 4290194531
-0.11937455 -0.12061776 1.3620001 4290589543
-0.11565015 -0.12061776 1.3620001 4290852715
-0.1360715 -0.11526268 1.3430001 4291380096
-0.12845567 -0.1118297 1.3030001 4291182204
-0.1243175 -0.11131474 1.2970001 4291314044
-0.12188823 -0.11234464 1.309 4291115894
-0.12183362 -0.11569181 1.348 4290392425
-0.1153105 -0.11655006 1.358 4290787181
-0.11167921 -0.11663587 1.3590001 4290984560
-0.13698336 -0.11233805 1.3520001 4290787957
-0.1307231 -0.1101777 1.3260001 4291182458
-0.12642621 -0.10959607 1.319 4291182458
-0.12365743 -0.11034389 1.3280001 4290985078
-0.12219513 -0.11233805 1.3520001 4290392941
-0.13239905 -0.10791779 1.3430001 4290985591
-0.12834319 -0.10759637 1.3390001 4290854005
-0.12514727 -0.10799815 1.3440001 4290590833
