# .PCD v0.7 - Point Cloud Data file format
VERSION 0.7
FIELDS x y z rgba
SIZE 4 4 4 4
TYPE F F F U
COUNT 1 1 1 1
WIDTH 831
HEIGHT 1
VIEWPOINT 0 0 0 1 0 0 0
POINTS 831
DATA ascii
-0.034548294 -0.11745746 1.8220001 4294901503
-0.031368624 -0.117393 1.8210001 4294901503
-0.047094446 -0.114066 1.8180001 4294901502
-0.043914776 -0.11400326 1.817 4294901502
-0.040738579 -0.11394051 1.8160001 4294901502
-0.037565853 -0.11387777 1.8150001 4294901502
-0.0343966 -0.11381504 1.8140001 4294901502
-0.031248042 -0.11381504 1.8140001 4294901502
-0.028099485 -0.11381504 1.8140001 4294901502
-0.024964683 -0.11387777 1.8150001 4294901502
-0.021850448 -0.114066 1.8180001 4294901503
-0.059650745 -0.11081037 1.8160001 4294901502
-0.056498721 -0.11081037 1.8160001 4294901502
-0.053317316 -0.11074935 1.8150001 4294901502
-0.050167024 -0.11074935 1.8150001 4294901502
-0.046964921 -0.11062732 1.8130001 4294901502
-0.043818101 -0.11062732 1.8130001 4294901502
-0.040693711 -0.11068833 1.8140001 4294901502
-0.037545156 -0.11068833 1.8140001 4294901502
-0.034377638 -0.11062732 1.8130001 4294901502
-0.031213593 -0.1105663 1.812 4294901502
-0.028068505 -0.1105663 1.812 4294901502
-0.024937175 -0.11062732 1.8130001 4294901502
-0.021826411 -0.11081037 1.8160001 4294901502
-0.01870523 -0.11099343 1.8190001 4294901502
-0.015556544 -0.11105444 1.8200001 4294901503
-0.072020121 -0.10732445 1.8100001 4294901502
-0.068916559 -0.10738374 1.8110001 4294901502
-0.06573689 -0.10732445 1.8100001 4294901502
-0.0625607 -0.10726515 1.8090001 4294901502
-0.059387971 -0.10720585 1.8080001 4294901502
-0.056187604 -0.10708727 1.8060001 4294901502
-0.053023558 -0.10702797 1.8050001 4294901502
-0.049890622 -0.10702797 1.8050001 4294901502
-0.046757687 -0.10702797 1.8050001 4294901502
-0.043648917 -0.10708727 1.8060001 4294901502
-0.040536683 -0.10714656 1.807 4294901502
-0.037420969 -0.10720585 1.8080001 4294901502
-0.03428283 -0.10720585 1.8080001 4294901502
-0.031127462 -0.10714656 1.807 4294901502
-0.027991053 -0.10714656 1.807 4294901502
-0.024868401 -0.10720585 1.8080001 4294901502
-0.021754296 -0.10732445 1.8100001 4294901502
-0.018643532 -0.10750233 1.8130001 4294901502
-0.015479615 -0.10738374 1.8110001 4294901502
-0.012309019 -0.10714656 1.807 4294835709
-0.0091675352 -0.10708727 1.8060001 4294901503
-0.0060328646 -0.10708727 1.8060001 4294835710
-0.084306173 -0.10385922 1.8040001 4294901502
-0.081129983 -0.10380164 1.8030001 4294901502
-0.077957258 -0.10374407 1.802 4294901502
-0.074871056 -0.10380164 1.8030001 4294901502
-0.071781375 -0.10385922 1.8040001 4294901502
-0.068650179 -0.10385922 1.8040001 4294901502
-0.065518975 -0.10385922 1.8040001 4294901502
-0.062353201 -0.10380164 1.8030001 4294901502
-0.059125192 -0.10362893 1.8000001 4294901502
-0.05593871 -0.10351378 1.7980001 4294901502
-0.052817926 -0.10351378 1.7980001 4294901502
-0.049697138 -0.10351378 1.7980001 4294901502
-0.046576355 -0.10351378 1.7980001 4294901502
-0.043479737 -0.10357136 1.7990001 4294901502
-0.040402081 -0.1036865 1.8010001 4294901502
-0.037296787 -0.10374407 1.802 4294901502
-0.034169059 -0.10374407 1.802 4294901502
-0.031041332 -0.10374407 1.802 4294901502
-0.027929092 -0.10380164 1.8030001 4294901502
-0.024799628 -0.10380164 1.8030001 4294901502
-0.021694202 -0.10391678 1.8050001 4294901502
-0.018550983 -0.10385922 1.8040001 4294901502
-0.015402689 -0.10374407 1.802 4294901502
-0.012268148 -0.1036865 1.8010001 4294901502
-0.0091370791 -0.10362893 1.8000001 4294901502
-0.0060128216 -0.10362893 1.8000001 4294901502
-0.0028901696 -0.1036865 1.8010001 4294835710
0.00023595412 -0.10374407 1.802 4294835710
-0.096884653 -0.10080559 1.8050001 4294770686
-0.093751721 -0.10080559 1.8050001 4294770687
-0.09056858 -0.10074975 1.8040001 4294835966
-0.08738891 -0.1006939 1.8030001 4294835966
-0.084212713 -0.10063805 1.802 4294835966
-0.081039988 -0.1005822 1.8010001 4294901502
-0.077913992 -0.1005822 1.8010001 4294901502
-0.074829526 -0.10063805 1.802 4294901502
-0.071701802 -0.10063805 1.802 4294901502
-0.068574071 -0.10063805 1.802 4294901502
-0.065410025 -0.1005822 1.8010001 4294901502
-0.062249452 -0.10052636 1.8000001 4294901502
-0.059059497 -0.10041466 1.7980001 4294901502
-0.0559076 -0.10035881 1.7970001 4294901502
-0.052788548 -0.10035881 1.7970001 4294901502
-0.049641859 -0.10030296 1.7960001 4294901502
-0.046524547 -0.10030296 1.7960001 4294901502
-0.043455567 -0.10041466 1.7980001 4294901502
-0.040357217 -0.10047051 1.7990001 4294901502
-0.037234694 -0.10047051 1.7990001 4294901502
-0.034131136 -0.10052636 1.8000001 4294901502
-0.031006878 -0.10052636 1.8000001 4294901502
-0.027882621 -0.10052636 1.8000001 4294901502
-0.024772119 -0.1005822 1.8010001 4294901502
-0.021646125 -0.1005822 1.8010001 4294901502
-0.01850985 -0.10052636 1.8000001 4294901502
-0.015377045 -0.10047051 1.7990001 4294901502
-0.012247712 -0.10041466 1.7980001 4294901502
-0.0091320025 -0.10047051 1.7990001 4294901502
-0.0060128216 -0.10052636 1.8000001 4294901502
-0.0028885647 -0.10052636 1.8000001 4294901502
0.00023582319 -0.1005822 1.8010001 4294901502
0.0033599492 -0.10052636 1.8000001 4294901502
0.0064770016 -0.10041466 1.7980001 4294901503
-0.10557687 -0.097044915 1.7930001 4294705151
-0.10246476 -0.097044915 1.7930001 4294705151
-0.099574298 -0.097261406 1.7970001 4294310395
-0.087049633 -0.097207285 1.7960001 4294705150
-0.08383885 -0.097099036 1.794 4294704894
-0.080770001 -0.097153164 1.7950001 4294836222
-0.077697687 -0.097207285 1.7960001 4294836222
-0.074580371 -0.097207285 1.7960001 4294836222
-0.071463063 -0.097207285 1.7960001 4294836222
-0.06830769 -0.097153164 1.7950001 4294901502
-0.065155789 -0.097099036 1.794 4294901502
-0.062041946 -0.097099036 1.794 4294901502
-0.05886241 -0.096990786 1.7920001 4294901502
-0.055689815 -0.096882544 1.7900001 4294901502
-0.052582916 -0.096882544 1.7900001 4294901502
-0.049476016 -0.096882544 1.7900001 4294901502
-0.046395022 -0.096936665 1.7910001 4294901502
-0.043310557 -0.096990786 1.7920001 4294901502
-0.040222615 -0.097044915 1.7930001 4294901502
-0.037110507 -0.097044915 1.7930001 4294901502
-0.033979442 -0.096990786 1.7920001 4294901502
-0.030869069 -0.096990786 1.7920001 4294901502
-0.027758699 -0.096990786 1.7920001 4294901502
-0.024648327 -0.096990786 1.7920001 4294901502
-0.021537956 -0.096990786 1.7920001 4294901502
-0.018417301 -0.096936665 1.7910001 4294901502
-0.015300117 -0.096882544 1.7900001 4294901502
-0.012200029 -0.096936665 1.7910001 4294901502
-0.0090964697 -0.096990786 1.7920001 4294901502
-0.005992779 -0.097099036 1.794 4294901502
-0.0028805409 -0.097153164 1.7950001 4294901502
0.00023503754 -0.097153164 1.7950001 4294901502
0.0033468828 -0.097044915 1.7930001 4294901502
0.0064517851 -0.096936665 1.7910001 4294901502
0.0095497444 -0.096828416 1.789 4294901502
0.012647836 -0.096774288 1.7880001 4294901503
0.015751265 -0.096774288 1.7880001 4294967039
-0.11173873 -0.093902007 1.7920001 4294705151
-0.1084465 -0.093744807 1.789 4294573823
-0.10481139 -0.0932732 1.7800001 4292797414
-0.10126467 -0.092853993 1.7720001 4287928735
-0.098022774 -0.092696793 1.7690001 4284968049
-0.094844975 -0.092591994 1.7670001 4286152323
-0.077394858 -0.093744807 1.789 4294705151
-0.074289694 -0.093744807 1.789 4294770687
-0.071184531 -0.093744807 1.789 4294836222
-0.06807936 -0.093744807 1.789 4294836222
-0.064937875 -0.0936924 1.7880001 4294836222
-0.061799873 -0.093640007 1.7870001 4294901502
-0.058632478 -0.0935352 1.7850001 4294901502
-0.055472039 -0.0934304 1.7830001 4294901502
-0.052377287 -0.0934304 1.7830001 4294901502
-0.049310178 -0.0934828 1.784 4294901502
-0.046239592 -0.0935352 1.7850001 4294901502
-0.043165542 -0.0935876 1.7860001 4294901502
-0.040043149 -0.0935352 1.7850001 4294901502
-0.036924232 -0.0934828 1.784 4294901502
-0.033827748 -0.0934828 1.784 4294901502
-0.030731261 -0.0934828 1.784 4294901502
-0.027650267 -0.0935352 1.7850001 4294901502
-0.024552045 -0.0935352 1.7850001 4294901502
-0.021441804 -0.0934828 1.784 4294901502
-0.018335033 -0.0934304 1.7830001 4294901502
-0.015240284 -0.0934304 1.7830001 4294901502
-0.012152346 -0.0934828 1.784 4294901502
-0.009060937 -0.0935352 1.7850001 4294901502
-0.0059693959 -0.093640007 1.7870001 4294901502
-0.0028677029 -0.093640007 1.7870001 4294901502
0.00023385907 -0.0935876 1.7860001 4294901502
0.0033300831 -0.0934828 1.784 4294901502
0.0064229667 -0.0934304 1.7830001 4294901502
0.0095123788 -0.093378 1.7820001 4294901502
0.012605393 -0.093378 1.7820001 4294901502
0.015698409 -0.093378 1.7820001 4294835710
0.018812513 -0.0934828 1.784 4294901502
0.021921279 -0.0935352 1.7850001 4294835711
-0.11736704 -0.090357132 1.7830001 4294639615
-0.11446456 -0.090509161 1.7860001 4294573823
-0.11148931 -0.090610512 1.7880001 4291547348
-0.10820402 -0.090458483 1.7850001 4286415754
-0.10469362 -0.090103745 1.7780001 4284113256
-0.10103609 -0.089596972 1.7680001 4284639600
-0.097801127 -0.089444943 1.7650001 4284639601
-0.094683953 -0.089394271 1.7640001 4284705394
-0.077308334 -0.09055984 1.7870001 4294639615
-0.074206643 -0.09055984 1.7870001 4294705151
-0.071104951 -0.09055984 1.7870001 4294639359
-0.06800326 -0.09055984 1.7870001 4294770431
-0.064865246 -0.090509161 1.7860001 4294836223
-0.061730701 -0.090458483 1.7850001 4294901758
-0.058599629 -0.090407811 1.784 4294770429
-0.055440925 -0.090306453 1.7820001 4294835965
-0.05234791 -0.090306453 1.7820001 4294901502
-0.049254894 -0.090306453 1.7820001 4294901502
-0.046161879 -0.090306453 1.7820001 4294901502
-0.043093037 -0.090357132 1.7830001 4294901502
-0.039975852 -0.090306453 1.7820001 4294901502
-0.036882836 -0.090306453 1.7820001 4294901502
-0.033789821 -0.090306453 1.7820001 4294901502
-0.030696807 -0.090306453 1.7820001 4294901502
-0.027619284 -0.090357132 1.7830001 4294901502
-0.024524534 -0.090357132 1.7830001 4294901502
-0.021417765 -0.090306453 1.7820001 4294901502
-0.018314468 -0.090255782 1.7810001 4294901502
-0.015223189 -0.090255782 1.7810001 4294901502
-0.012131911 -0.090255782 1.7810001 4294901502
-0.009045708 -0.090306453 1.7820001 4294901502
-0.0059526935 -0.090306453 1.7820001 4294901502
-0.0028596791 -0.090306453 1.7820001 4294901502
0.00023333532 -0.090306453 1.7820001 4294901502
0.0033244831 -0.090255782 1.7810001 4294901502
0.0064085573 -0.090154424 1.779 4294901502
0.0094963647 -0.090154424 1.779 4294901502
0.012591246 -0.090205103 1.7800001 4294901502
0.015680788 -0.090205103 1.7800001 4294901502
0.018791422 -0.090306453 1.7820001 4294901502
0.021896718 -0.090357132 1.7830001 4294901502
0.024991468 -0.090357132 1.7830001 4294901502
0.02810197 -0.090407811 1.784 4294967038
0.031198455 -0.090407811 1.784 4294966783
-0.12544373 -0.086451657 1.766 4294705151
-0.1221706 -0.086304799 1.7630001 4294705151
-0.11911056 -0.086304799 1.7630001 4294244859
-0.11657713 -0.086696424 1.771 4290955469
-0.11369548 -0.086843282 1.774 4285758081
-0.11086576 -0.087039098 1.7780001 4283982184
-0.10765846 -0.08694119 1.7760001 4284442736
-0.10445809 -0.086843282 1.774 4284837495
-0.10092179 -0.086451657 1.766 4284771959
-0.097634897 -0.086255841 1.7620001 4284771959
-0.093878813 -0.08561945 1.7490001 4284771959
-0.090219796 -0.085032009 1.7370001 4284969081
-0.087004066 -0.0848362 1.733 4285035130
-0.083947636 -0.084787242 1.7320001 4284771701
-0.080941409 -0.084787242 1.7320001 4284639858
-0.073666804 -0.086843282 1.774 4294573823
-0.070667259 -0.08694119 1.7760001 4294639359
-0.067622714 -0.08699014 1.7770001 4294639359
-0.064538375 -0.08699014 1.7770001 4294770687
-0.061454039 -0.08699014 1.7770001 4294704638
-0.058369704 -0.08699014 1.7770001 4294835967
-0.055285364 -0.08699014 1.7770001 4294901759
-0.052171655 -0.08694119 1.7760001 4294901502
-0.049089056 -0.08694119 1.7760001 4294901502
-0.046032358 -0.08699014 1.7770001 4294901502
-0.042923853 -0.08694119 1.7760001 4294901502
-0.039796386 -0.086843282 1.774 4294901502
-0.036717258 -0.086843282 1.774 4294901502
-0.033619169 -0.086794332 1.7730001 4294901502
-0.030576227 -0.08689224 1.7750001 4294901502
-0.027510852 -0.08694119 1.7760001 4294901502
-0.024442008 -0.08699014 1.7770001 4294901502
-0.021357672 -0.08699014 1.7770001 4294901502
-0.018263051 -0.08694119 1.7760001 4294901502
-0.015171903 -0.08689224 1.7750001 4294901502
-0.012077416 -0.086794332 1.7730001 4294901502
-0.0090050986 -0.086843282 1.774 4294901502
-0.0059259697 -0.086843282 1.774 4294901502
-0.002846841 -0.086843282 1.774 4294901502
0.0002322878 -0.086843282 1.774 4294901502
0.00330955 -0.086794332 1.7730001 4294901502
0.0063869432 -0.086794332 1.7730001 4294901502
0.0094643356 -0.086794332 1.7730001 4294901502
0.012541729 -0.086794332 1.7730001 4294901502
0.015619122 -0.086794332 1.7730001 4294901502
0.018707061 -0.086843282 1.774 4294901502
0.021810751 -0.08694119 1.7760001 4294901502
0.024893351 -0.08694119 1.7760001 4294901502
0.027975952 -0.08694119 1.7760001 4294901502
0.031058552 -0.08694119 1.7760001 4294901502
0.034141153 -0.08694119 1.7760001 4294901503
0.03720279 -0.08689224 1.7750001 4294901503
-0.13179773 -0.08354938 1.7690001 4294639615
-0.12836343 -0.083313234 1.7640001 4294639615
-0.12487547 -0.083029851 1.7580001 4292995050
-0.12161622 -0.082888164 1.7550001 4288982192
-0.11863764 -0.082935393 1.756 4284903286
-0.11605053 -0.083265997 1.7630001 4284311150
-0.11311867 -0.083360456 1.7650001 4284509044
-0.11030458 -0.08354938 1.7690001 4284640888
-0.10729475 -0.08359661 1.7700001 4284509303
-0.10416368 -0.08354938 1.7690001 4284443767
-0.1008075 -0.083313234 1.7640001 4284640377
-0.097634897 -0.083218768 1.7620001 4284705913
-0.094093516 -0.082793705 1.7530001 4284706426
-0.090791136 -0.082557552 1.748 4284706425
-0.087807335 -0.082604788 1.7490001 4284706425
-0.083996102 -0.081849113 1.733 4284640889
-0.080988139 -0.081849113 1.733 4284903803
-0.077980176 -0.081849113 1.733 4284640374
-0.07557787 -0.08251033 1.7470001 4284245357
-0.073126972 -0.083171539 1.761 4286218890
-0.070189774 -0.083313234 1.7640001 4289771453
-0.067128003 -0.083313234 1.7640001 4294047736
-0.064066231 -0.083313234 1.7640001 4294639615
-0.061108209 -0.083454922 1.7670001 4294704895
-0.058074079 -0.083502144 1.7680001 4294705150
-0.05503647 -0.08354938 1.7690001 4294639358
-0.0519954 -0.08359661 1.7700001 4294835967
-0.048950851 -0.083643839 1.771 4294836222
-0.045876931 -0.083643839 1.771 4294836222
-0.042778842 -0.08359661 1.7700001 4294901502
-0.039639357 -0.083454922 1.7670001 4294901502
-0.036551677 -0.083407693 1.766 4294901502
-0.033467475 -0.083360456 1.7650001 4294901502
-0.030438419 -0.083454922 1.7670001 4294901502
-0.02738693 -0.083502144 1.7680001 4294901502
-0.024345726 -0.08359661 1.7700001 4294901502
-0.021285556 -0.083643839 1.771 4294901502
-0.018201353 -0.08359661 1.7700001 4294901502
-0.015120619 -0.08354938 1.7690001 4294901502
-0.012043357 -0.083502144 1.7680001 4294901502
-0.0089695649 -0.083454922 1.7670001 4294901502
-0.0059025865 -0.083454922 1.7670001 4294901502
-0.0028356079 -0.083454922 1.7670001 4294901502
0.00023137122 -0.083454922 1.7670001 4294901502
0.0032983501 -0.083454922 1.7670001 4294901502
0.006365329 -0.083454922 1.7670001 4294901502
0.00942697 -0.083407693 1.766 4294901502
0.012485139 -0.083360456 1.7650001 4294901502
0.015548646 -0.083360456 1.7650001 4294901502
0.0186227 -0.083407693 1.766 4294901502
0.021700224 -0.083454922 1.7670001 4294901502
0.02478122 -0.083502144 1.7680001 4294901502
0.027849933 -0.083502144 1.7680001 4294901502
0.030918648 -0.083502144 1.7680001 4294901502
0.033987362 -0.083502144 1.7680001 4294901502
0.037056077 -0.083502144 1.7680001 4294901502
0.040102098 -0.083454922 1.7670001 4294901502
0.043169074 -0.083454922 1.7670001 4294901502
0.046236053 -0.083454922 1.7670001 4294901502
-0.13778268 -0.080409229 1.7670001 4294705151
-0.1343345 -0.080181696 1.7620001 4294573823
-0.1314252 -0.080272712 1.7640001 4292468963
-0.12836343 -0.080272712 1.7640001 4287008403
-0.12494651 -0.080045179 1.7590001 4284245355
-0.12175482 -0.07995417 1.7570001 4284442993
-0.11863764 -0.079908669 1.756 4284574838
-0.11585305 -0.080090687 1.7600001 4284575096
-0.11286231 -0.080136195 1.761 4284509305
-0.10999281 -0.080272712 1.7640001 4284508792
-0.10693104 -0.080272712 1.7640001 4284442999
-0.10381038 -0.080227204 1.7630001 4284640121
-0.10063605 -0.080136195 1.761 4284771451
-0.097468659 -0.080045179 1.7590001 4284771451
-0.094093516 -0.079772145 1.7530001 4284705914
-0.090895019 -0.079635628 1.7500001 4284574840
-0.087907754 -0.079681128 1.751 4284575096
-0.084335387 -0.079180561 1.7400001 4284509560
-0.081221804 -0.079089552 1.738 4284575096
-0.078160167 -0.079044044 1.7370001 4284640889
-0.07557787 -0.079499111 1.7470001 4284903547
-0.073043913 -0.080045179 1.7590001 4284837754
-0.070070408 -0.080136195 1.761 4284442994
-0.06689968 -0.079999678 1.7580001 4284969080
-0.063812003 -0.07995417 1.7570001 4288060836
-0.060866125 -0.080090687 1.7600001 4293587445
-0.057942688 -0.080272712 1.7640001 4294705151
-0.05497425 -0.080409229 1.7670001 4294705151
-0.051936649 -0.080454729 1.7680001 4294705151
-0.048895571 -0.080500238 1.7690001 4294705151
-0.04582512 -0.080500238 1.7690001 4294835967
-0.042730503 -0.080454729 1.7680001 4294836222
-0.03959449 -0.080318213 1.7650001 4294901502
-0.036489587 -0.080227204 1.7630001 4294901502
-0.03341059 -0.080181696 1.7620001 4294901502
-0.030386742 -0.080272712 1.7640001 4294901502
-0.027324969 -0.080272712 1.7640001 4294901502
-0.024304461 -0.080409229 1.7670001 4294901502
-0.021261521 -0.080500238 1.7690001 4294901502
-0.018180786 -0.080454729 1.7680001 4294901502
-0.015103523 -0.080409229 1.7670001 4294901502
-0.012022921 -0.080318213 1.7650001 4294901502
-0.0089594135 -0.080318213 1.7650001 4294901502
-0.0058959057 -0.080318213 1.7650001 4294901502
-0.0028307934 -0.080272712 1.7640001 4294901502
0.00023097839 -0.080272712 1.7640001 4294901502
0.0032927503 -0.080272712 1.7640001 4294901502
0.006354522 -0.080272712 1.7640001 4294901502
0.0094109559 -0.080227204 1.7630001 4294901502
0.012463918 -0.080181696 1.7620001 4294901502
0.015513409 -0.080136195 1.761 4294901502
0.018591065 -0.080227204 1.7630001 4294901502
0.021663381 -0.080272712 1.7640001 4294901502
0.024739169 -0.080318213 1.7650001 4294901502
0.02781843 -0.080363721 1.766 4294901502
0.030866185 -0.080318213 1.7650001 4294901502
0.033929691 -0.080318213 1.7650001 4294901502
0.036993198 -0.080318213 1.7650001 4294901502
0.040056705 -0.080318213 1.7650001 4294901502
0.043120217 -0.080318213 1.7650001 4294901502
0.046157554 -0.080272712 1.7640001 4294901502
0.049219325 -0.080272712 1.7640001 4294967295
0.052221823 -0.080181696 1.7620001 4294835710
-0.14318362 -0.076969497 1.7580001 4294639615
-0.13997284 -0.076881938 1.756 4294508030
-0.13614519 -0.076444104 1.7460001 4291152589
-0.13334338 -0.076575458 1.7490001 4286613389
-0.13068017 -0.076794364 1.7540001 4283981928
-0.1279996 -0.077013277 1.7590001 4284245101
-0.12480444 -0.07692571 1.7570001 4284443252
-0.12161622 -0.076838151 1.7550001 4284312180
-0.11843496 -0.076750584 1.7530001 4284443511
-0.11539228 -0.076750584 1.7530001 4284311926
-0.11234959 -0.076750584 1.7530001 4284443257
-0.10936927 -0.076794364 1.7540001 4284574073
-0.10644609 -0.076881938 1.756 4284573816
-0.1033982 -0.076881938 1.756 4284705145
-0.10029317 -0.076838151 1.7550001 4284375664
-0.097247019 -0.076838151 1.7550001 4284244334
-0.094039835 -0.076706804 1.7520001 4284770934
-0.090895019 -0.076619238 1.7500001 4284903035
-0.087807335 -0.076575458 1.7490001 4284771706
-0.084674664 -0.076487891 1.7470001 4284706170
-0.081502207 -0.076356545 1.7440001 4284575098
-0.078340158 -0.076225199 1.7410001 4284640891
-0.075318307 -0.076225199 1.7410001 4284575355
-0.072753236 -0.076706804 1.7520001 4284706941
-0.069513343 -0.076487891 1.7470001 4284903806
-0.066404969 -0.076400325 1.7450001 4284640890
-0.063412488 -0.076444104 1.7460001 4284903547
-0.060727794 -0.076881938 1.756 4284771446
-0.057712756 -0.07692571 1.7570001 4287600030
-0.054694243 -0.076969497 1.7580001 4292073951
-0.05176039 -0.077144623 1.7620001 4294574079
-0.048729729 -0.07718841 1.7630001 4294574079
-0.045669693 -0.07718841 1.7630001 4294573823
-0.042561319 -0.077100843 1.761 4294705151
-0.039459892 -0.077013277 1.7590001 4294704895
-0.036365401 -0.07692571 1.7570001 4294835967
-0.033277854 -0.076838151 1.7550001 4294901759
-0.030266158 -0.07692571 1.7570001 4294770686
-0.027232025 -0.076969497 1.7580001 4294901502
-0.024208179 -0.077057064 1.7600001 4294901502
-0.021177387 -0.077144623 1.7620001 4294901502
-0.018108804 -0.077100843 1.761 4294901502
-0.015052238 -0.077100843 1.761 4294901502
-0.01198205 -0.077013277 1.7590001 4294901502
-0.0089289555 -0.077013277 1.7590001 4294901502
-0.0058725225 -0.076969497 1.7580001 4294901502
-0.0028211649 -0.076969497 1.7580001 4294901502
0.00023019276 -0.076969497 1.7580001 4294901502
0.0032796839 -0.07692571 1.7570001 4294901502
0.0063293059 -0.07692571 1.7570001 4294901502
0.009368252 -0.076838151 1.7550001 4294901502
0.012414402 -0.076838151 1.7550001 4294901502
0.015460554 -0.076838151 1.7550001 4294901502
0.018517248 -0.076881938 1.756 4294901502
0.021589696 -0.076969497 1.7580001 4294901502
0.024627037 -0.07692571 1.7570001 4294901502
0.027676659 -0.07692571 1.7570001 4294901502
0.030726282 -0.07692571 1.7570001 4294901502
0.033775903 -0.07692571 1.7570001 4294901502
0.036825527 -0.07692571 1.7570001 4294901502
0.039875146 -0.07692571 1.7570001 4294901502
0.042924769 -0.07692571 1.7570001 4294901502
0.045948226 -0.076881938 1.756 4294901502
0.048996113 -0.076881938 1.756 4294901502
0.05198472 -0.076794364 1.7540001 4294901502
0.05496639 -0.076706804 1.7520001 4294901502
0.058007337 -0.076706804 1.7520001 4294901502
0.061083123 -0.076750584 1.7530001 4294901502
-0.1515578 -0.073560789 1.7490001 4294639359
-0.14852206 -0.073560789 1.7490001 4294639359
-0.14523678 -0.073434614 1.7460001 4293521393
-0.14155467 -0.073098145 1.738 4289244850
-0.13837862 -0.073014021 1.7360001 4285692286
-0.13528746 -0.07297197 1.7350001 4283916390
-0.13265723 -0.073182262 1.7400001 4284048235
-0.13000964 -0.073392555 1.7450001 4284442995
-0.12734468 -0.073602855 1.7500001 4284245875
-0.12430722 -0.073602855 1.7500001 4284180596
-0.12113114 -0.073518731 1.748 4284180597
-0.11802959 -0.073476672 1.7470001 4284377463
-0.11499732 -0.073476672 1.7470001 4284443256
-0.11196505 -0.073476672 1.7470001 4284639866
-0.10905749 -0.073560789 1.7490001 4284705145
-0.106143 -0.073644906 1.751 4283783783
-0.10310379 -0.073644906 1.751 4283388768
-0.10006458 -0.073644906 1.751 4287665055
-0.096969962 -0.073602855 1.7500001 4291283663
-0.093771465 -0.073476672 1.7470001 4286086537
-0.090635322 -0.073392555 1.7450001 4284179053
-0.087606527 -0.073392555 1.7450001 4284047724
-0.084577732 -0.073392555 1.7450001 4284903034
-0.081408739 -0.07326638 1.7420001 4284706170
-0.077935182 -0.072845794 1.7320001 4284640633
-0.074842423 -0.072761677 1.7300001 4284443513
-0.072005771 -0.072929904 1.7340001 4284509819
-0.069035865 -0.07297197 1.7350001 4284444026
-0.065910265 -0.072845794 1.7320001 4284378233
-0.062831394 -0.072761677 1.7300001 4284706428
-0.059655722 -0.072551377 1.725 4284838012
-0.057351433 -0.073434614 1.7460001 4284706167
-0.054352015 -0.073476672 1.7470001 4284179566
-0.051466633 -0.073686965 1.7520001 4285758340
-0.048536249 -0.073855206 1.756 4289903039
-0.045488361 -0.073855206 1.756 4294311165
-0.042295463 -0.073602855 1.7500001 4294639615
-0.039235558 -0.073560789 1.7490001 4294639359
-0.036179125 -0.073518731 1.748 4294705151
-0.033164088 -0.073560789 1.7490001 4294704895
-0.030180028 -0.073686965 1.7520001 4294639359
-0.027139084 -0.073686965 1.7520001 4294836222
-0.024111895 -0.073729031 1.7530001 4294836222
-0.021081235 -0.073771082 1.7540001 4294901502
-0.018036822 -0.073771082 1.7540001 4294901502
-0.014983858 -0.073729031 1.7530001 4294901502
-0.011934367 -0.073686965 1.7520001 4294901502
-0.0088883471 -0.073644906 1.751 4294901502
-0.0058457991 -0.073602855 1.7500001 4294901502
-0.0028099315 -0.073644906 1.751 4294901502
0.00022901429 -0.073560789 1.7490001 4294901502
0.0032647506 -0.073560789 1.7490001 4294901502
0.0063004871 -0.073560789 1.7490001 4294901502
0.0093362229 -0.073560789 1.7490001 4294901502
0.012379033 -0.073602855 1.7500001 4294901502
0.015425315 -0.073644906 1.751 4294901502
0.018464522 -0.073644906 1.751 4294901502
0.021491451 -0.073602855 1.7500001 4294901502
0.024514904 -0.073560789 1.7490001 4294901502
0.027550641 -0.073560789 1.7490001 4294901502
0.030586379 -0.073560789 1.7490001 4294901502
0.033622116 -0.073560789 1.7490001 4294901502
0.036657851 -0.073560789 1.7490001 4294901502
0.039693587 -0.073560789 1.7490001 4294901502
0.042704891 -0.073518731 1.748 4294901502
0.045738891 -0.073518731 1.748 4294901502
0.048744991 -0.073476672 1.7470001 4294901502
0.051717982 -0.073392555 1.7450001 4294901502
0.054684028 -0.073308438 1.743 4294901502
0.057742458 -0.073350497 1.7440001 4294901502
0.06080436 -0.073392555 1.7450001 4294901502
0.063906319 -0.073476672 1.7470001 4294901502
0.066976897 -0.073518731 1.748 4294901502
-0.15744904 -0.07046546 1.7470001 4294639359
-0.15432838 -0.070425123 1.7460001 4294639615
-0.15103787 -0.070304118 1.743 4293324271
-0.14801256 -0.070304118 1.743 4288850606
-0.14498724 -0.070304118 1.743 4284047975
-0.14147323 -0.070062101 1.7370001 4284114026
-0.13837862 -0.070021763 1.7360001 4284377199
-0.13536544 -0.070021763 1.7360001 4284443252
-0.132581 -0.070142768 1.7390001 4284377717
-0.12971161 -0.070223443 1.7410001 4284246133
-0.12698084 -0.070384786 1.7450001 4284246135
-0.12395205 -0.070384786 1.7450001 4284443256
-0.12092326 -0.070384786 1.7450001 4284376950
-0.11789446 -0.070384786 1.7450001 4284376950
-0.11486567 -0.070384786 1.7450001 4284574071
-0.11183687 -0.070384786 1.7450001 4283981419
-0.10887043 -0.070425123 1.7460001 4283257181
-0.10596114 -0.07050579 1.748 4288520106
-0.10292714 -0.07050579 1.748 4293849076
-0.099893138 -0.07050579 1.748 4294770175
-0.096803725 -0.07046546 1.7470001 4294770175
-0.09366411 -0.070384786 1.7450001 4294639359
-0.090583377 -0.070344456 1.7440001 4292797158
-0.087455913 -0.070263781 1.7420001 4286218121
-0.084480792 -0.070304118 1.743 4283718245
-0.081315272 -0.070183106 1.7400001 4283915882
-0.077800192 -0.069739424 1.7290001 4284771448
-0.074669383 -0.069618419 1.7260001 4284771708
-0.071756616 -0.069699086 1.728 4284575099
-0.068797119 -0.069739424 1.7290001 4284378233
-0.065643877 -0.069578081 1.725 4284312440
-0.062577166 -0.069497414 1.723 4284378490
-0.059448224 -0.069336072 1.7190001 4284509819
-0.057285741 -0.070344456 1.7440001 4284641405
-0.054258682 -0.070344456 1.7440001 4284772734
-0.051319752 -0.07046546 1.7470001 4284706426
-0.048398051 -0.070626795 1.751 4284246129
-0.045384746 -0.070667133 1.7520001 4284969081
-0.042102113 -0.070263781 1.7420001 4288982196
-0.039123394 -0.070344456 1.7440001 4294047740
-0.036096334 -0.070344456 1.7440001 4294508287
-0.033145126 -0.07050579 1.748 4294639615
-0.030180028 -0.070667133 1.7520001 4294639615
-0.027139084 -0.070667133 1.7520001 4294705151
-0.024098141 -0.070667133 1.7520001 4294705151
-0.021057198 -0.070667133 1.7520001 4294835967
-0.018016255 -0.070667133 1.7520001 4294836222
-0.014966763 -0.070626795 1.751 4294901502
-0.011907119 -0.07050579 1.748 4294901502
-0.008873119 -0.07050579 1.748 4294901502
-0.005832437 -0.070425123 1.7460001 4294901502
-0.0028019077 -0.070425123 1.7460001 4294901502
0.00022862147 -0.070425123 1.7460001 4294901502
0.0032591508 -0.070425123 1.7460001 4294901502
0.0062932824 -0.07046546 1.7470001 4294901502
0.0093255481 -0.07046546 1.7470001 4294901502
0.012364886 -0.07050579 1.748 4294901502
0.015416507 -0.070586465 1.7500001 4294901502
0.018443432 -0.070546128 1.7490001 4294901502
0.021466888 -0.07050579 1.748 4294901502
0.024486873 -0.07046546 1.7470001 4294901502
0.027519139 -0.07046546 1.7470001 4294901502
0.030551402 -0.07046546 1.7470001 4294901502
0.033564445 -0.070425123 1.7460001 4294901502
0.036594972 -0.070425123 1.7460001 4294901502
0.039625503 -0.070425123 1.7460001 4294901502
0.042631604 -0.070384786 1.7450001 4294901502
0.045608059 -0.070304118 1.743 4294901502
0.048633382 -0.070304118 1.743 4294901502
0.05162907 -0.070263781 1.7420001 4294901502
0.054621279 -0.070223443 1.7410001 4294901502
0.057676237 -0.070263781 1.7420001 4294901502
0.060769517 -0.070344456 1.7440001 4294901502
0.063833155 -0.070384786 1.7450001 4294901502
0.066900268 -0.070425123 1.7460001 4294901502
0.069890738 -0.070384786 1.7450001 4294901502
0.07287775 -0.070344456 1.7440001 4294901502
0.075861283 -0.070304118 1.743 4294901502
-0.16492517 -0.066797845 1.7300001 4294705151
-0.162016 -0.066836454 1.7310001 4294639615
-0.15910336 -0.06687507 1.7320001 4294442237
-0.15609714 -0.06687507 1.7320001 4291942361
-0.15300253 -0.066836454 1.7310001 4287863712
-0.15025799 -0.066952288 1.7340001 4283916389
-0.14741814 -0.067029506 1.7360001 4284113769
-0.14432177 -0.066990905 1.7350001 4284443249
-0.14122888 -0.066952288 1.7340001 4284377714
-0.13821919 -0.066952288 1.7340001 4284311921
-0.13528746 -0.066990905 1.7350001 4284377973
-0.13235228 -0.067029506 1.7360001 4284377462
-0.1293391 -0.067029506 1.7360001 4284377206
-0.1263987 -0.067068122 1.7370001 4284508279
-0.12345481 -0.067106739 1.738 4284507766
-0.12050747 -0.06714534 1.7390001 4284178544
-0.11755665 -0.067183957 1.7400001 4283652454
-0.11460236 -0.067222573 1.7410001 4284375663
-0.11158051 -0.067222573 1.7410001 4290033342
-0.10862102 -0.067261174 1.7420001 4293651953
-0.10565805 -0.067299791 1.743 4294835711
-0.10263272 -0.067299791 1.743 4294835711
-0.099550262 -0.067261174 1.7420001 4294769919
-0.096471258 -0.067222573 1.7410001 4294835711
-0.093342058 -0.06714534 1.7390001 4294770175
-0.090271741 -0.067106739 1.738 4294770431
-0.087255098 -0.067106739 1.738 4294704895
-0.084238447 -0.067106739 1.738 4293257709
-0.080941409 -0.06687507 1.7320001 4288718255
-0.077485211 -0.066488951 1.7220001 4283784039
-0.0741935 -0.066218674 1.715 4283916142
-0.071216777 -0.066218674 1.715 4284377463
-0.068160482 -0.066141441 1.7130001 4284509306
-0.065111116 -0.066064224 1.7110001 4284312440
-0.062068701 -0.065987006 1.7090001 4284312697
-0.059067808 -0.065948389 1.7080001 4284378747
-0.05061473 -0.06652756 1.723 4284444283
-0.047485922 -0.066334508 1.7180001 4284575611
-0.044529896 -0.066373117 1.7190001 4284706939
-0.041691244 -0.066604786 1.725 4284246131
-0.038831763 -0.066836454 1.7310001 4284706167
0.1114818 -0.051584922 1.3360001 4294964991
0.11388586 -0.051623534 1.337 4292329208
0.11629342 -0.051662147 1.3380001 4287589315
0.11156525 -0.049319014 1.337 4294171389
0.11397105 -0.049355902 1.3380001 4288705239
0.11638033 -0.04939279 1.3390001 4288307927
0.11852712 -0.049319014 1.337 4287913680
0.12012466 -0.049023911 1.3290001 4288312781
0.12215503 -0.048913248 1.3260001 4286344860
0.11164869 -0.04704966 1.3380001 4290351339
0.11405624 -0.047084823 1.3390001 4289228772
0.11638033 -0.047084823 1.3390001 4288767199
0.11852712 -0.047014493 1.337 4288504539
0.1198535 -0.046627689 1.3260001 4288178642
0.12169442 -0.046451867 1.3210001 4287000245
0.12398728 -0.046451867 1.3210001 4283584878
0.1074838 -0.044944059 1.3440001 4294898943
0.10965315 -0.044877175 1.342 4290682093
0.11173213 -0.044776853 1.3390001 4288572379
0.11405624 -0.044776853 1.3390001 4288767458
0.11638033 -0.044776853 1.3390001 4288569311
0.11843848 -0.044676531 1.3360001 4288636129
0.1198535 -0.044342127 1.3260001 4287914964
0.12141805 -0.044074606 1.3180001 4286998458
0.12361184 -0.04404116 1.317 4283912305
0.12570657 -0.043974284 1.3150001 4283455081
0.13215069 -0.043840516 1.3110001 4288314574
0.13432366 -0.043807078 1.3100001 4288837093
0.1074838 -0.042627472 1.3440001 4288906702
0.10965315 -0.042564038 1.342 4288441819
0.11173213 -0.042468887 1.3390001 4288834533
0.11388586 -0.042405453 1.337 4288702439
0.1162065 -0.042405453 1.337 4288306654
0.11843848 -0.042373735 1.3360001 4287977945
0.11994389 -0.042088281 1.327 4288242648
0.12151018 -0.041834548 1.319 4287851970
0.12351799 -0.041739397 1.3160001 4284371319
0.12551539 -0.041644249 1.3130001 4283453800
0.13164668 -0.041422229 1.3060001 4287719122
0.1336059 -0.041327078 1.3030001 4286599115
0.13576323 -0.041295364 1.302 4285215930
0.13791712 -0.041263644 1.3010001 4284689333
0.1400675 -0.041231927 1.3000001 4284164010
0.14155756 -0.04100991 1.2930001 4284032422
0.1074838 -0.040310886 1.3440001 4289758172
0.10957145 -0.040220905 1.3410001 4288506075
0.11164869 -0.040130924 1.3380001 4288505053
0.11371551 -0.040040947 1.335 4288505571
0.11594575 -0.040010951 1.3340001 4288043741
0.11772927 -0.039830994 1.3280001 4287977690
0.11949196 -0.039651033 1.322 4288702173
0.12141805 -0.039531063 1.3180001 4288639948
0.12351799 -0.039471075 1.3160001 4285552774
0.12465503 -0.039111156 1.304 4284108910
0.13569093 -0.038391318 1.2800001 4286269383
0.1383436 -0.038511291 1.284 4285545658
0.14057223 -0.038511291 1.284 4285282485
0.14246723 -0.03842131 1.281 4285809600
0.14469066 -0.03842131 1.281 4286599630
0.14714345 -0.038481299 1.2830001 4285679554
0.10724388 -0.037909489 1.3410001 4288243657
0.10932633 -0.037824683 1.3380001 4288307676
0.11139835 -0.037739873 1.335 4288373729
0.11337479 -0.037626795 1.3310001 4287912668
0.11490277 -0.037372369 1.322 4287583703
0.11693141 -0.037287559 1.319 4287780054
0.11894963 -0.037202749 1.3160001 4288438488
0.1195756 -0.036693897 1.2980001 4288638667
0.12173466 -0.03666563 1.2970001 4285747854
0.12236077 -0.036185045 1.2800001 4283186541
0.12458246 -0.036185045 1.2800001 4286143652
0.12680416 -0.036185045 1.2800001 4287784652
0.12811863 -0.035930619 1.271 4288046808
0.13022217 -0.035902351 1.2700001 4288441059
0.1324265 -0.035902351 1.2700001 4288571618
0.13494886 -0.035987157 1.273 4288769512
0.13726616 -0.036015429 1.274 4288440807
0.13980588 -0.036100239 1.2770001 4288638186
0.14246723 -0.036213316 1.281 4288047075
0.1448036 -0.036241587 1.2820001 4286073798
0.14737283 -0.036326393 1.2850001 4284298412
0.14995247 -0.0364112 1.2880001 4283115420
0.10700396 -0.035518438 1.3380001 4287059900
0.10908119 -0.035438798 1.335 4287716564
0.11106458 -0.035332616 1.3310001 4287518421
0.11277853 -0.035146791 1.3240001 4287451603
0.1145551 -0.03498752 1.3180001 4287320016
0.11648814 -0.034881335 1.314 4287715029
0.11876885 -0.034881335 1.314 4287649489
0.11939134 -0.034403507 1.296 4288177872
0.12145309 -0.034350414 1.294 4286272421
0.12216958 -0.033925679 1.2780001 4283971464
0.12429047 -0.033899136 1.2770001 4288312019
0.12650695 -0.033899136 1.2770001 4288507354
0.12761463 -0.033607133 1.266 4288573152
0.12970948 -0.033580583 1.2650001 4288309983
0.13200942 -0.033607133 1.266 4288111582
0.13452484 -0.033686768 1.2690001 4287059151
0.13705067 -0.033766408 1.2720001 4286730956
0.13991536 -0.033925679 1.2780001 4287060180
0.14257844 -0.034031868 1.2820001 4285941699
0.14502952 -0.034084957 1.284 4284758706
0.14748752 -0.03413805 1.286 4283509665
0.14995247 -0.034191139 1.2880001 4282984346
0.15230621 -0.034217685 1.289 4281998476
0.1066041 -0.033088081 1.3330001 4285876916
0.10867266 -0.033013612 1.33 4286796747
0.11056391 -0.032889504 1.325 4287190226
0.11235262 -0.032740571 1.319 4287715285
0.11394668 -0.03254199 1.3110001 4287978200
0.11595623 -0.032467525 1.3080001 4288110302
0.11865436 -0.031971078 1.2880001 4288242904
0.12013907 -0.031772502 1.2800001 4288441302
0.1218828 -0.031648386 1.2750001 4287783372
0.12390114 -0.031598747 1.273 4287849684
0.12561536 -0.031474631 1.268 4287323085
0.12761463 -0.031424988 1.266 4286664646
0.12970948 -0.031400166 1.2650001 4286006719
0.13221796 -0.031474631 1.268 4285546681
0.13473685 -0.0315491 1.271 4285612216
0.13705067 -0.031573925 1.2720001 4285678526
0.14057223 -0.031871788 1.284 4285086648
0.10620423 -0.030674962 1.3280001 4285218993
0.10826411 -0.030605666 1.325 4287322835
0.11014669 -0.030490171 1.3200001 4287913947
0.11201191 -0.03037468 1.3150001 4288110557
0.11368594 -0.030212991 1.3080001 4287913179
0.11560163 -0.030120594 1.304 4288373220
0.11687072 -0.029866509 1.2930001 4287847642
0.11800951 -0.029589325 1.281 4287650771
0.11966978 -0.029450733 1.2750001 4287585750
0.12150042 -0.029358339 1.271 4286993612
0.12370649 -0.029358339 1.271 4286533317
0.12581348 -0.029335242 1.2700001 4287125456
0.12821944 -0.029381441 1.2720001 4287519957
0.13052978 -0.029404538 1.273 4287059151
0.10596431 -0.028321831 1.325 4285153452
0.10810069 -0.028279079 1.3230001 4287783127
0.1099798 -0.028172204 1.3180001 4288373986
0.11192673 -0.028086705 1.314 4287978717
0.11359902 -0.027937079 1.307 4287057615
0.11551297 -0.02785158 1.3030001 4286991824
0.11696111 -0.027659206 1.294 4286926542
0.11800951 -0.027381331 1.281 4287058895
0.11948206 -0.027210331 1.273 4286598859
0.12130923 -0.02712483 1.2690001 4286006463
0.12351184 -0.02712483 1.2690001 4285809595
0.12601162 -0.027188955 1.2720001 4286401992
0.12852184 -0.02725308 1.2750001 4287783899
0.13093993 -0.02729583 1.2770001 4287718105
0.10580436 -0.025998689 1.3230001 4287784405
0.10769215 -0.025900433 1.3180001 4289098735
0.10989635 -0.025880782 1.317 4288176869
0.11167119 -0.025762873 1.3110001 4286268102
0.11351211 -0.025664616 1.3060001 4286465479
0.11560163 -0.025625315 1.304 4287254995
0.11714187 -0.025468104 1.296 4286728910
0.11791738 -0.025153683 1.2800001 4286203334
0.11938821 -0.024996473 1.2720001 4285809343
0.12130923 -0.024937518 1.2690001 4285283253
0.12370649 -0.024976822 1.271 4283902368
0.12650695 -0.025094729 1.2770001 4283573919
0.11800951 -0.022965338 1.281 4286006467
0.11948206 -0.022821916 1.273 4285283257
0.1216916 -0.022821916 1.273 4285283768
0.12419313 -0.0228757 1.276 4283311002
0.12720042 -0.02301912 1.284 4283377310
