# .PCD v0.7 - Point Cloud Data file format
VERSION 0.7
FIELDS x y z rgba
SIZE 4 4 4 4
TYPE F F F U
COUNT 1 1 1 1
WIDTH 1127
HEIGHT 1
VIEWPOINT 0 0 0 1 0 0 0
POINTS 1127
DATA ascii
0.15827289 0.030976389 1.2310001 4285611962
0.16040954 0.030976389 1.2310001 4286204098
0.1632064 0.031102207 1.2360001 4286532805
0.16602062 0.031228026 1.2410001 4287124942
0.16831014 0.031253189 1.2420001 4287321808
0.17128938 0.031404171 1.248 4287453135
0.17415047 0.031529989 1.253 4287256011
0.17674746 0.031605478 1.256 4287256011
0.18020962 0.031831954 1.2650001 4287847893
0.20101181 0.033467587 1.33 4285217465
0.20362602 0.033517912 1.332 4285019830
0.20578337 0.033492748 1.3310001 4284361900
0.2077809 0.033442423 1.3290001 4284559022
0.2104038 0.033492748 1.3310001 4284888499
0.21319345 0.033568241 1.3340001 4284691380
0.21647818 0.033719223 1.34 4284889013
0.21929388 0.033794712 1.3430001 4285745086
0.22261505 0.033945695 1.3490001 4286009790
0.22847743 0.034121841 1.3560001 4285223321
0.23151195 0.034222495 1.36 4293451248
0.23559217 0.034474131 1.3700001 4294966271
0.032786023 0.036082689 1.342 4290818036
0.034775168 0.035733152 1.3290001 4290224878
0.037026104 0.035679381 1.327 4289105892
0.039151549 0.035518058 1.3210001 4286604994
0.041381657 0.035464279 1.319 4284959915
0.043538611 0.03535673 1.3150001 4284564389
0.04568167 0.035249185 1.3110001 4286734792
0.047737692 0.035087857 1.3050001 4284957871
0.052192837 0.033582173 1.2490001 4283904927
0.054273676 0.033528399 1.2470001 4283575962
0.056257058 0.03342085 1.243 4283181204
0.058226548 0.0333133 1.2390001 4282918802
0.060328353 0.033286415 1.238 4282918802
0.062325746 0.033205751 1.235 4282787215
0.064312726 0.033125091 1.2320001 4282853520
0.066397175 0.033098202 1.2310001 4282590348
0.068533815 0.033098202 1.2310001 4282327176
0.070613049 0.033071313 1.23 4282261899
0.072629675 0.033017542 1.228 4281998728
0.074700229 0.032990653 1.2270001 4282064522
0.076829925 0.032990653 1.2270001 4282130315
0.078959629 0.032990653 1.2270001 4282261903
0.081089333 0.032990653 1.2270001 4282327440
0.083151214 0.032963764 1.2260001 4282589586
0.085348733 0.032990653 1.2270001 4282589331
0.087549739 0.033017542 1.228 4282720405
0.089827232 0.033071313 1.23 4282917528
0.092111669 0.033125091 1.2320001 4282851480
0.094326556 0.033151977 1.233 4282785431
0.096310198 0.033098202 1.2310001 4283180190
0.098286897 0.033044431 1.2290001 4283180190
0.10033836 0.033017542 1.228 4282588309
0.10238635 0.032990653 1.2270001 4282522772
0.10451605 0.032990653 1.2270001 4282654357
0.10664576 0.032990653 1.2270001 4282588819
0.10895276 0.033044431 1.2290001 4282654868
0.11108594 0.033044431 1.2290001 4282786197
0.11331123 0.033071313 1.23 4282786197
0.11544614 0.033071313 1.23 4282917783
0.11758105 0.033071313 1.23 4282851990
0.11961863 0.033044431 1.2290001 4282983577
0.12155367 0.032990653 1.2270001 4282983321
0.12368337 0.032990653 1.2270001 4283180701
0.12571055 0.032963764 1.2260001 4283311776
0.12773423 0.032936879 1.225 4283574436
0.12986046 0.032936879 1.225 4283836838
0.13198669 0.032936879 1.225 4283902630
0.13411292 0.032936879 1.225 4284098985
0.13623916 0.032936879 1.225 4284427694
0.13859127 0.032990653 1.2270001 4284756402
0.14083567 0.033017542 1.228 4284690609
0.1429671 0.033017542 1.228 4284953779
0.14521672 0.033044431 1.2290001 4284822193
0.14734988 0.033044431 1.2290001 4284888242
0.14948305 0.033044431 1.2290001 4285151670
0.15161623 0.033044431 1.2290001 4285875393
0.15374941 0.033044431 1.2290001 4286072771
0.15588258 0.033044431 1.2290001 4286006977
0.15814431 0.033071313 1.23 4285743547
0.16027923 0.033071313 1.23 4285875133
0.16307434 0.033205751 1.235 4286072254
0.16575307 0.0333133 1.2390001 4286664391
0.16831014 0.033393964 1.2420001 4287321808
0.17128938 0.033555288 1.248 4287518929
0.17428945 0.033716612 1.2540001 4287387597
0.1768882 0.033797272 1.2570001 4287453390
0.18035209 0.034039255 1.266 4287847893
0.20101181 0.035760041 1.33 4285282487
0.20362602 0.035813816 1.332 4285151158
0.20593798 0.035813816 1.332 4284295850
0.20809358 0.035786927 1.3310001 4284427437
0.21056187 0.035813816 1.332 4284493229
0.21335328 0.035894476 1.335 4284427691
0.21647818 0.036028914 1.34 4284362409
0.21945716 0.03613646 1.3440001 4286007745
0.22278008 0.036297787 1.35 4286600650
0.22881442 0.036512882 1.358 4284958627
0.23185241 0.036620431 1.3620001 4289764552
0.2357641 0.036862418 1.3710001 4294965759
0.032761592 0.038367216 1.3410001 4283381144
0.034748998 0.037995271 1.3280001 4282722958
0.036998205 0.037938051 1.3260001 4282065030
0.039092273 0.037737776 1.319 4281867652
0.041318912 0.037680555 1.317 4282920082
0.043505497 0.037594721 1.314 4282590347
0.045716517 0.0375375 1.312 4284827050
0.04777427 0.037365835 1.3060001 4286470852
0.052234624 0.035763625 1.25 4283904925
0.054360725 0.035735011 1.2490001 4283444376
0.056392837 0.03564918 1.2460001 4283510169
0.058414526 0.035563346 1.243 4283115411
0.060474545 0.035506126 1.2410001 4282918802
0.062477145 0.035420295 1.238 4282919313
0.064469337 0.03533446 1.235 4282656141
0.066505045 0.035277236 1.233 4282458762
0.068589486 0.03524863 1.2320001 4282261383
0.070670463 0.035220016 1.2310001 4282196360
0.072747961 0.035191406 1.23 4282130567
0.074821986 0.035162795 1.2290001 4282064776
0.076892547 0.035134185 1.228 4282064521
0.078895278 0.035076961 1.2260001 4282130315
0.081089333 0.035105571 1.2270001 4282261902
0.083219036 0.035105571 1.2270001 4282524305
0.085418299 0.035134185 1.228 4282524305
0.08769232 0.035191406 1.23 4282523793
0.089900263 0.035220016 1.2310001 4282589332
0.092111669 0.03524863 1.2320001 4282588818
0.094326556 0.035277236 1.233 4282522771
0.096310198 0.035220016 1.2310001 4282588564
0.098206922 0.035134185 1.228 4282917530
0.10025664 0.035105571 1.2270001 4282391440
0.10238635 0.035105571 1.2270001 4282325646
0.10451605 0.035105571 1.2270001 4282391696
0.10664576 0.035105571 1.2270001 4282523539
0.10877545 0.035105571 1.2270001 4282457746
0.11090516 0.035105571 1.2270001 4282721173
0.11312699 0.035134185 1.228 4282786966
0.11525843 0.035134185 1.228 4282852759
0.11738987 0.035134185 1.228 4282786454
0.11932664 0.035076961 1.2260001 4282983576
0.12145461 0.035076961 1.2260001 4283049112
0.12358258 0.035076961 1.2260001 4283048856
0.125608 0.035048351 1.225 4283377310
0.12773423 0.035048351 1.225 4283639970
0.12975445 0.03501974 1.2240001 4283968423
0.13187894 0.03501974 1.2240001 4284033960
0.13411292 0.035048351 1.225 4284098983
0.13623916 0.035048351 1.225 4284230057
0.13859127 0.035105571 1.2270001 4284493230
0.14095037 0.035162795 1.2290001 4284953781
0.14308354 0.035162795 1.2290001 4284822194
0.14521672 0.035162795 1.2290001 4284756657
0.14746977 0.035191406 1.23 4284954291
0.14960468 0.035191406 1.23 4285151926
0.15173958 0.035191406 1.23 4285744320
0.1538745 0.035191406 1.23 4285810111
0.15588258 0.035162795 1.2290001 4286006720
0.15801576 0.035162795 1.2290001 4285809340
0.16001861 0.035134185 1.228 4286006718
0.16267821 0.03524863 1.2320001 4286006461
0.1654855 0.035391681 1.2370001 4286335426
0.16790359 0.035448901 1.2390001 4286729927
0.17101489 0.03564918 1.2460001 4287650516
0.17415047 0.035849456 1.253 4287584721
0.17674746 0.035935286 1.256 4287519183
0.18020962 0.03619279 1.2650001 4287782099
0.20070954 0.037995271 1.3280001 4285348535
0.20362602 0.038109716 1.332 4285085620
0.2062472 0.03816694 1.3340001 4284493227
0.20856261 0.03816694 1.3340001 4284427435
0.21087803 0.03816694 1.3340001 4284559021
0.21367291 0.038252775 1.337 4284361898
0.21680129 0.038395826 1.342 4284296359
0.21962047 0.03848166 1.345 4285875646
0.22545679 0.038681936 1.3520001 4286141378
0.2293199 0.038939431 1.3610001 4284827043
0.23236309 0.039053876 1.365 4288974784
0.23593608 0.039254155 1.3720001 4294965759
0.043671045 0.040011272 1.319 4282459530
0.04596043 0.040011272 1.319 4281801085
0.04821324 0.039980933 1.3180001 4285155760
0.052694291 0.038251869 1.261 4283970461
0.054795958 0.038191196 1.2590001 4283773082
0.056800164 0.038069859 1.2550001 4283444119
0.058743495 0.037918188 1.25 4283181204
0.060815655 0.037857518 1.248 4283049875
0.062830411 0.037766516 1.245 4282853007
0.064782545 0.037645176 1.2410001 4282787727
0.06688261 0.037614841 1.24 4282524555
0.068700835 0.037432835 1.2340001 4282458762
0.070785277 0.037402499 1.233 4282524812
0.072866254 0.037372164 1.2320001 4282130567
0.074882865 0.037311494 1.23 4282196360
0.076955162 0.037281163 1.2290001 4282130313
0.079023987 0.037250828 1.228 4282064522
0.081221506 0.037281163 1.2290001 4282261388
0.083354682 0.037281163 1.2290001 4282524304
0.085557409 0.037311494 1.23 4282458512
0.08783491 0.037372164 1.2320001 4282326927
0.090046324 0.037402499 1.233 4282392207
0.09226121 0.037432835 1.2340001 4282457746
0.094326556 0.037402499 1.233 4282589075
0.096310198 0.037341829 1.2310001 4282654611
0.098286897 0.037281163 1.2290001 4282786197
0.10033836 0.037250828 1.228 4282654611
0.1024698 0.037250828 1.228 4282457232
0.10460123 0.037250828 1.228 4282326160
0.10664576 0.037220493 1.2270001 4282457746
0.10877545 0.037220493 1.2270001 4282326416
0.11090516 0.037220493 1.2270001 4282523793
0.11312699 0.037250828 1.228 4282720659
0.11516456 0.037220493 1.2270001 4282851988
0.11719868 0.037190158 1.2260001 4282917526
0.11922931 0.037159823 1.225 4283049113
0.12135554 0.037159823 1.225 4282983063
0.12348177 0.037159823 1.225 4283114392
0.125608 0.037159823 1.225 4283508639
0.12762995 0.037129488 1.2240001 4283902885
0.12975445 0.037129488 1.2240001 4284034216
0.13187894 0.037129488 1.2240001 4284165546
0.13411292 0.037159823 1.225 4284099240
0.13635038 0.037190158 1.2260001 4283967397
0.13870424 0.037250828 1.228 4284164777
0.14106505 0.037311494 1.23 4284296107
0.14319995 0.037311494 1.23 4284493487
0.14533487 0.037311494 1.23 4284690864
0.14758967 0.037341829 1.2310001 4284625840
0.14972632 0.037341829 1.2310001 4284494510
0.15186296 0.037341829 1.2310001 4284823475
0.1538745 0.037311494 1.23 4285546940
0.15575574 0.037250828 1.228 4285809597
0.15788718 0.037250828 1.228 4286006718
0.16001861 0.037250828 1.228 4286006718
0.16254619 0.037341829 1.2310001 4285875132
0.16535172 0.037493501 1.2360001 4286072511
0.16776808 0.037554175 1.238 4286072254
0.17087764 0.037766516 1.245 4286664391
0.17401148 0.037978858 1.2520001 4287453906
0.17660674 0.038069859 1.2550001 4287782612
0.18006718 0.038342871 1.2640001 4287848148
0.18399142 0.038706884 1.276 4288045527
0.18722768 0.038919225 1.2830001 4288571871
0.20040725 0.040223613 1.3260001 4285216946
0.20362602 0.04040562 1.332 4285414583
0.20671101 0.040557295 1.337 4284756654
0.20918798 0.040587626 1.3380001 4284493483
0.21151036 0.040587626 1.3380001 4284559276
0.21431217 0.040678628 1.3410001 4284493482
0.21744749 0.040830303 1.3460001 4284296101
0.2202736 0.040921308 1.3490001 4285283251
0.22595707 0.041103315 1.355 4286141376
0.22982539 0.041376323 1.3640001 4284892834
0.23304403 0.041527998 1.3690001 4288777660
0.0438697 0.042477112 1.325 4281803647
0.046169501 0.042477112 1.325 4281932924
0.048469301 0.042477112 1.325 4281668214
0.052777864 0.040489506 1.263 4284891049
0.05492653 0.040457446 1.2620001 4284299169
0.056981198 0.040361274 1.2590001 4283773082
0.058931474 0.040200982 1.2540001 4283246485
0.061010577 0.040136866 1.2520001 4283312790
0.062981807 0.040008634 1.248 4283049873
0.064939156 0.039880402 1.2440001 4282852750
0.066990487 0.039816286 1.2420001 4282655885
0.068812184 0.039623935 1.2360001 4282656141
0.070785277 0.039527759 1.233 4282524555
0.072866254 0.039495703 1.2320001 4282327432
0.07500463 0.039495703 1.2320001 4282261383
0.077017777 0.039431587 1.23 4282195592
0.079152688 0.039431587 1.23 4282261129
0.081353687 0.039463643 1.2310001 4282326923
0.083422504 0.039431587 1.23 4282524047
0.085626975 0.039463643 1.2310001 4282392461
0.087906204 0.039527759 1.233 4282260619
0.090192385 0.039591879 1.235 4282326413
0.092335969 0.039591879 1.235 4282392207
0.094479561 0.039591879 1.235 4282523537
0.096388437 0.039495703 1.2320001 4282655123
0.098366864 0.039431587 1.23 4282655124
0.10042007 0.039399531 1.2290001 4282654868
0.10255324 0.039399531 1.2290001 4282523025
0.10468642 0.039399531 1.2290001 4282523025
0.10673267 0.039367471 1.228 4282457746
0.10886411 0.039367471 1.228 4282457745
0.11099555 0.039367471 1.228 4282589586
0.11312699 0.039367471 1.228 4282589330
0.11525843 0.039367471 1.228 4282720402
0.11729426 0.039335411 1.2270001 4282983318
0.11932664 0.039303351 1.2260001 4283114904
0.12135554 0.039271295 1.225 4282983062
0.12348177 0.039271295 1.225 4283443357
0.125608 0.039271295 1.225 4283837603
0.12762995 0.039239235 1.2240001 4283903399
0.12975445 0.039239235 1.2240001 4284034472
0.13187894 0.039239235 1.2240001 4283902630
0.1342224 0.039303351 1.2260001 4284033960
0.13646159 0.039335411 1.2270001 4283638945
0.13881719 0.039399531 1.2290001 4283704481
0.14106505 0.039431587 1.23 4283770276
0.14319995 0.039431587 1.23 4284230826
0.14545302 0.039463643 1.2310001 4284230826
0.14770955 0.039495703 1.2320001 4284297132
0.14984794 0.039495703 1.2320001 4284231595
0.15173958 0.039431587 1.23 4284297131
0.1538745 0.039431587 1.23 4285218231
0.15588258 0.039399531 1.2290001 4286006977
0.15788718 0.039367471 1.228 4285941182
0.16014892 0.039399531 1.2290001 4285875389
0.16254619 0.039463643 1.2310001 4285809339
0.16535172 0.039623935 1.2360001 4285743546
0.16776808 0.039688051 1.238 4285743289
0.17087764 0.039912459 1.245 4285874620
0.17401148 0.040136866 1.2520001 4286861769
0.17674746 0.040265098 1.256 4287519698
0.18020962 0.040553626 1.2650001 4287716818
0.18399142 0.040906262 1.276 4287914197
0.18708174 0.04109861 1.2820001 4288375006
0.20040725 0.042509172 1.3260001 4285414582
0.20362602 0.04270152 1.332 4285611961
0.20702024 0.042925932 1.3390001 4284954032
0.20965703 0.042990044 1.3410001 4284756653
0.21198459 0.042990044 1.3410001 4284888239
0.21495143 0.043118279 1.345 4285217204
0.22043689 0.043278571 1.35 4285612473
0.22311012 0.043342687 1.3520001 4286929358
0.22645733 0.043535035 1.358 4286207425
0.23033085 0.043823559 1.3670001 4284827294
0.23338446 0.043951791 1.3710001 4292528874
0.050041091 0.044119097 1.3060001 4286405566
0.0520676 0.043916404 1.3000001 4287391693
0.053780768 0.043477241 1.2870001 4285943993
0.055448808 0.043038078 1.274 4285088942
0.057207499 0.042700261 1.2640001 4284431012
0.059166443 0.042531349 1.2590001 4283904927
0.061254233 0.042463787 1.2570001 4283773341
0.063183673 0.042294879 1.2520001 4283246996
0.065147959 0.042159751 1.248 4283181459
0.067152299 0.042058405 1.245 4283050386
0.068812184 0.041754365 1.2360001 4282853007
0.070900097 0.041720588 1.235 4282721678
0.072984539 0.041686803 1.2340001 4282721678
0.075065508 0.041653022 1.233 4282392713
0.077143013 0.041619241 1.2320001 4282392458
0.079217039 0.041585457 1.2310001 4282326667
0.081353687 0.041585457 1.2310001 4282392204
0.083490327 0.041585457 1.2310001 4282457997
0.085696533 0.041619241 1.2320001 4282260618
0.087906204 0.041653022 1.233 4282260618
0.090192385 0.041720588 1.235 4282260618
0.092410736 0.041754365 1.2360001 4282392206
0.094556056 0.041754365 1.2360001 4282523792
0.096544914 0.041686803 1.2340001 4282655122
0.098526813 0.041619241 1.2320001 4282786452
0.10058349 0.041585457 1.2310001 4282654610
0.10263668 0.041551676 1.23 4282391439
0.10468642 0.041517895 1.2290001 4282457232
0.10681958 0.041517895 1.2290001 4282391439
0.10886411 0.041484114 1.228 4282326158
0.11108594 0.041517895 1.2290001 4282458000
0.1132191 0.041517895 1.2290001 4282392207
0.11525843 0.041484114 1.228 4282654866
0.11729426 0.041450329 1.2270001 4282851988
0.11932664 0.041416548 1.2260001 4282917781
0.12145461 0.041416548 1.2260001 4282785940
0.12348177 0.041382767 1.225 4283509407
0.125608 0.041382767 1.225 4283838117
0.12773423 0.041382767 1.225 4283903397
0.12975445 0.041348986 1.2240001 4284166056
0.13198669 0.041382767 1.225 4284100265
0.13433188 0.041450329 1.2270001 4283771043
0.13657279 0.041484114 1.228 4283507615
0.13893014 0.041551676 1.23 4283441823
0.14129442 0.041619241 1.2320001 4283310237
0.1434328 0.041619241 1.2320001 4283441823
0.14557117 0.041619241 1.2320001 4283573409
0.14758967 0.041585457 1.2310001 4283902374
0.14972632 0.041585457 1.2310001 4284100009
0.15173958 0.041551676 1.23 4284362924
0.15374941 0.041517895 1.2290001 4284823475
0.15575574 0.041484114 1.228 4285415610
0.15775859 0.041450329 1.2270001 4285546681
0.16001861 0.041484114 1.228 4285941182
0.16495039 0.041653022 1.233 4285875132
0.16749704 0.041754365 1.2360001 4285611960
0.17046587 0.041957058 1.2420001 4285743546
0.1738725 0.042261094 1.251 4286532804
0.17660674 0.042396225 1.2550001 4287124940
0.17992471 0.042666476 1.263 4287585745
0.18370304 0.043038078 1.274 4287717330
0.18664396 0.043206986 1.279 4288177882
0.19995384 0.044693388 1.3230001 4285612214
0.20332028 0.044929862 1.33 4285414836
0.21012606 0.045402806 1.3440001 4285414583
0.21293308 0.045504153 1.3470001 4285480375
0.21527106 0.045504153 1.3470001 4286072510
0.21825525 0.04563928 1.3510001 4285809339
0.22157989 0.045841973 1.3570001 4286335939
0.22426528 0.045909535 1.3590001 4286535112
0.22762462 0.046112224 1.365 4285944508
0.23100482 0.046314918 1.3710001 4285551782
0.23389517 0.04641626 1.3740001 4294569470
0.053530045 0.045482546 1.281 4286931145
0.055492334 0.045269515 1.2750001 4285088941
0.05729802 0.044949964 1.266 4284102303
0.059260435 0.044772439 1.261 4283641754
0.061351687 0.044701423 1.2590001 4283049617
0.063284606 0.044523899 1.2540001 4282852237
0.065200157 0.04434637 1.2490001 4282654860
0.067260176 0.044275358 1.2470001 4282918030
0.069201894 0.044133335 1.243 4282852493
0.071072325 0.04395581 1.238 4282787214
0.073161975 0.043920305 1.2370001 4282524042
0.075187273 0.043849293 1.235 4282260871
0.077268243 0.043813787 1.2340001 4282458251
0.07934574 0.043778282 1.233 4282326667
0.08148586 0.043778282 1.233 4282457997
0.083625972 0.043778282 1.233 4282457997
0.085835651 0.043813787 1.2340001 4282392204
0.088048793 0.043849293 1.235 4282129032
0.090338446 0.043920305 1.2370001 4282129032
0.092485502 0.043920305 1.2370001 4282523533
0.094632566 0.043920305 1.2370001 4282654863
0.096701384 0.043884799 1.2360001 4282786193
0.098686762 0.043813787 1.2340001 4282786194
0.1007469 0.043778282 1.233 4282588816
0.10272013 0.04370727 1.2310001 4282391437
0.10468642 0.043636262 1.2290001 4282391437
0.10681958 0.043636262 1.2290001 4282391437
0.10904141 0.043671764 1.23 4282326414
0.11117632 0.043671764 1.23 4282326414
0.11331123 0.043671764 1.23 4282326414
0.11535229 0.043636262 1.2290001 4282523793
0.11738987 0.043600757 1.228 4282720659
0.11942396 0.043565251 1.2270001 4282851988
0.12155367 0.043565251 1.2270001 4283246491
0.12368337 0.043565251 1.2270001 4283443614
0.12571055 0.043529741 1.2260001 4283772323
0.12783851 0.043529741 1.2260001 4283903396
0.12996647 0.043529741 1.2260001 4284034470
0.13220218 0.043565251 1.2270001 4283968420
0.13455084 0.043636262 1.2290001 4283771299
0.13679522 0.043671764 1.23 4283639713
0.13915603 0.04374278 1.2320001 4283310749
0.1414091 0.043778282 1.233 4283310749
0.1434328 0.04374278 1.2320001 4283376543
0.14545302 0.04370727 1.2310001 4283573921
0.14758967 0.04370727 1.2310001 4283705507
0.14960468 0.043671764 1.23 4283837093
0.15161623 0.043636262 1.2290001 4284100265
0.15374941 0.043636262 1.2290001 4284428974
0.15562889 0.043565251 1.2270001 4284889267
0.15763004 0.043529741 1.2260001 4285415353
0.16001861 0.043600757 1.228 4285809853
0.16468282 0.04370727 1.2310001 4285940925
0.16722602 0.043813787 1.2340001 4285940925
0.17032862 0.044062328 1.2410001 4285809338
0.17359452 0.04434637 1.2490001 4286270144
0.17632529 0.044488393 1.253 4286993866
0.17978226 0.044807941 1.2620001 4287388623
0.18341465 0.045162994 1.2720001 4287651794
0.18649803 0.045376033 1.2780001 4287849173
0.21059509 0.04782591 1.3470001 4286072766
0.21403964 0.048074447 1.3540001 4285875132
0.21638978 0.048074447 1.3540001 4286006973
0.22288619 0.04846501 1.365 4285941949
0.22509038 0.0484295 1.3640001 4286206401
0.053571831 0.047727771 1.2820001 4286799559
0.055318236 0.047318254 1.271 4285023148
0.057252754 0.047094878 1.2650001 4284168095
0.059260435 0.046945959 1.261 4283575960
0.061351687 0.046871502 1.2590001 4283181202
0.063335069 0.046722587 1.2550001 4282983822
0.065252364 0.046536438 1.25 4282983824
0.067314111 0.046461981 1.248 4282983824
0.069257572 0.046313066 1.2440001 4283049616
0.071244553 0.046201378 1.2410001 4282721421
0.07328026 0.046126917 1.2390001 4282524042
0.075369917 0.04608969 1.238 4282392456
0.077393472 0.046015229 1.2360001 4282326665
0.079474449 0.045978002 1.235 4282326665
0.08168412 0.046015229 1.2360001 4282326666
0.083761625 0.045978002 1.235 4282392204
0.085974768 0.046015229 1.2360001 4282523790
0.08819139 0.04605246 1.2370001 4282326411
0.090411477 0.04608969 1.238 4282063239
0.092635036 0.046126917 1.2390001 4282457740
0.094785564 0.046126917 1.2390001 4282589069
0.096779622 0.04605246 1.2370001 4282720400
0.098686762 0.045940772 1.2340001 4282654608
0.1006652 0.045866314 1.2320001 4282720401
0.10272013 0.045829087 1.2310001 4282457229
0.10477159 0.045791857 1.23 4282457230
0.10699342 0.045829087 1.2310001 4282457230
0.10913007 0.045829087 1.2310001 4282391950
0.11135709 0.045866314 1.2320001 4282392206
0.11340336 0.045829087 1.2310001 4282457999
0.11544614 0.045791857 1.23 4282523792
0.11748546 0.04575463 1.2290001 4282654865
0.1195213 0.0457174 1.228 4282917781
0.12165274 0.0457174 1.228 4283115161
0.12378418 0.0457174 1.228 4283378077
0.12591562 0.0457174 1.228 4283443614
0.12804705 0.0457174 1.228 4283509151
0.13017848 0.0457174 1.228 4283771809
0.13241768 0.04575463 1.2290001 4283903138
0.13466032 0.045791857 1.23 4283837603
0.13690645 0.045829087 1.2310001 4283574431
0.13904309 0.045829087 1.2310001 4283311003
0.1414091 0.045903541 1.233 4283310748
0.14354922 0.045903541 1.233 4283376542
0.14557117 0.045866314 1.2320001 4283705507
0.14770955 0.045866314 1.2320001 4283968679
0.14972632 0.045829087 1.2310001 4283968679
0.15173958 0.045791857 1.23 4284100265
0.15374941 0.04575463 1.2290001 4284429229
0.15575574 0.0457174 1.228 4284626608
0.15775859 0.045680169 1.2270001 4285284279
0.16001861 0.0457174 1.228 4285678780
0.1648166 0.045866314 1.2320001 4286072767
0.16722602 0.045940772 1.2340001 4286006718
0.17032862 0.046201378 1.2410001 4286204095
0.1737335 0.046536438 1.25 4286270143
0.17646602 0.046685357 1.2540001 4286664900
0.17978226 0.046983186 1.2620001 4287191243
0.18355884 0.047392711 1.273 4287585999
0.18649803 0.047578856 1.2780001 4287717841
0.21075143 0.050184894 1.348 4286204350
0.21483003 0.050594416 1.3590001 4286006972
0.21734865 0.050631646 1.36 4286007228
0.22353932 0.05096671 1.3690001 4286009019
0.22575049 0.050929479 1.368 4286470849
0.053446468 0.049820632 1.279 4286667460
0.055318236 0.049509011 1.271 4285154734
0.057207499 0.049236342 1.2640001 4283180945
0.059213445 0.049080528 1.2600001 4283312531
0.061351687 0.049041577 1.2590001 4283510167
0.063335069 0.048885766 1.2550001 4283575960
0.065304562 0.048729956 1.251 4283378581
0.067368045 0.048652049 1.2490001 4283181202
0.069368914 0.048535191 1.2460001 4282983823
0.07141678 0.048457287 1.2440001 4282589578
0.073575988 0.048457287 1.2440001 4282589835
0.075491674 0.048301473 1.24 4282589835
0.077581324 0.048262522 1.2390001 4282326921
0.079667501 0.04822357 1.238 4282326922
0.081816301 0.04822357 1.238 4282326666
0.08389727 0.048184615 1.2370001 4282261130
0.086113885 0.04822357 1.238 4282655631
0.088333972 0.048262522 1.2390001 4282787217
0.0904845 0.048262522 1.2390001 4282589583
0.092635036 0.048262522 1.2390001 4282457483
0.094709061 0.04822357 1.238 4282391690
0.096779622 0.048184615 1.2370001 4282523534
0.098686762 0.048067756 1.2340001 4282720913
0.1007469 0.048028804 1.233 4282655120
0.10280357 0.047989853 1.2320001 4282391692
0.10494196 0.047989853 1.2320001 4282523279
0.10708033 0.047989853 1.2320001 4282589329
0.10921872 0.047989853 1.2320001 4282457743
0.11135709 0.047989853 1.2320001 4282392206
0.11331123 0.047911946 1.23 4282523792
0.11544614 0.047911946 1.23 4282523792
0.11748546 0.047872994 1.2290001 4282523279
0.11961863 0.047872994 1.2290001 4282720402
0.12185086 0.047911946 1.23 4283312538
0.12398577 0.047911946 1.23 4283509919
0.12612069 0.047911946 1.23 4283575200
0.12835987 0.047950901 1.2310001 4283509407
0.13049652 0.047950901 1.2310001 4283706273
0.1327409 0.047989853 1.2320001 4283706273
0.13487928 0.047989853 1.2320001 4283706273
0.13701765 0.047989853 1.2320001 4283574687
0.13915603 0.047989853 1.2320001 4283245722
0.1414091 0.048028804 1.233 4283311259
0.1434328 0.047989853 1.2320001 4283574176
0.14557117 0.047989853 1.2320001 4283574433
0.14770955 0.047989853 1.2320001 4283903142
0.14972632 0.047950901 1.2310001 4283968936
0.15173958 0.047911946 1.23 4284166058
0.15374941 0.047872994 1.2290001 4284495021
0.15575574 0.047834042 1.228 4284297642
0.15788718 0.047834042 1.228 4284560556
0.16001861 0.047834042 1.228 4284955313
0.16241413 0.047911946 1.23 4285612728
0.16508417 0.048067756 1.2340001 4286073022
0.16763256 0.048184615 1.2370001 4286467523
0.17060313 0.048418332 1.243 4286730695
0.1737335 0.048691001 1.25 4286730694
0.17632529 0.048807859 1.253 4286928072
0.17978226 0.049158435 1.2620001 4287059657
0.18341465 0.049547963 1.2720001 4287454414
0.1863521 0.049742728 1.2770001 4287454669
0.21184583 0.052781045 1.355 4286270142
0.053488255 0.05206586 1.2800001 4286272702
0.055361763 0.051740445 1.2720001 4285812665
0.057252754 0.051455714 1.2650001 4283312531
0.059354428 0.051374357 1.263 4283444117
0.061449151 0.051293008 1.261 4283575703
0.063486472 0.051170979 1.258 4283049616
0.065565571 0.051089622 1.256 4283049616
0.067637734 0.051008273 1.2540001 4283115409
0.069702953 0.05092692 1.2520001 4282918030
0.071761236 0.050845563 1.25 4282654858
0.073871709 0.050804887 1.2490001 4282589835
0.07591784 0.050723538 1.2470001 4282524042
0.077831782 0.050560828 1.243 4282261127
0.07979621 0.050438799 1.24 4282326922
0.081948474 0.050438799 1.24 4282392715
0.084032916 0.050398123 1.2390001 4282261129
0.086183444 0.050398123 1.2390001 4282458251
0.088405274 0.050438799 1.24 4282655630
0.0904845 0.050398123 1.2390001 4282655631
0.092635036 0.050398123 1.2390001 4282326410
0.094709061 0.05035745 1.238 4282063239
0.096779622 0.05031677 1.2370001 4282195080
0.098766737 0.05023542 1.235 4282458252
0.10091032 0.05023542 1.235 4282457996
0.10297047 0.050194744 1.2340001 4282392204
0.10502713 0.050154064 1.233 4282589584
0.10725417 0.050194744 1.2340001 4282655378
0.10930736 0.050154064 1.233 4282589585
0.11135709 0.050113391 1.2320001 4282523792
0.11340336 0.050072715 1.2310001 4282589585
0.11544614 0.050032035 1.23 4282589585
0.11758105 0.050032035 1.23 4282654865
0.11971595 0.050032035 1.23 4282851987
0.12204899 0.050113391 1.2320001 4283115159
0.12418737 0.050113391 1.2320001 4283444125
0.12642829 0.050154064 1.233 4283575455
0.12867269 0.050194744 1.2340001 4283575200
0.13070853 0.050154064 1.233 4283640736
0.13284864 0.050154064 1.233 4283640480
0.13498875 0.050154064 1.233 4283837859
0.13712887 0.050154064 1.233 4283508894
0.13915603 0.050113391 1.2320001 4283377308
0.14117974 0.050072715 1.2310001 4283508894
0.14331639 0.050072715 1.2310001 4283508894
0.14545302 0.050072715 1.2310001 4283508895
0.14758967 0.050072715 1.2310001 4283837861
0.14972632 0.050072715 1.2310001 4283837861
0.15186296 0.050072715 1.2310001 4283837348
0.1538745 0.050032035 1.23 4284034470
0.15600941 0.050032035 1.23 4284363434
0.15827289 0.050072715 1.2310001 4284034725
0.16040954 0.050072715 1.2310001 4284495018
0.16294232 0.050194744 1.2340001 4285217970
0.1654855 0.05031677 1.2370001 4285875386
0.16803911 0.050438799 1.24 4286335937
0.17087764 0.050642185 1.245 4286928073
0.1737335 0.050845563 1.25 4286928071
0.17632529 0.050967593 1.253 4286928070
0.1796398 0.051293008 1.261 4287059398
0.18312626 0.051659096 1.2700001 4287125447
0.18620616 0.051903151 1.276 4287520460
0.053488255 0.05427213 1.2800001 4285680566
0.055405289 0.053975329 1.273 4286141375
0.057343274 0.053720929 1.2670001 4284035999
0.059448414 0.05363613 1.2650001 4283575705
0.061595343 0.053593729 1.2640001 4283575960
0.06368833 0.05350893 1.2620001 4283641753
0.065774381 0.053424131 1.2600001 4283181202
0.067907423 0.05338173 1.2590001 4283115409
0.069981322 0.053296931 1.2570001 4282852237
0.07199087 0.053169731 1.2540001 4282852237
0.074049145 0.053084929 1.2520001 4282654858
0.076100476 0.05300013 1.25 4282458249
0.078082256 0.05287293 1.2470001 4282458249
0.080117963 0.052788131 1.245 4282458249
0.082146734 0.052703328 1.243 4282327176
0.084168561 0.05261853 1.2410001 4282392714
0.086322561 0.05261853 1.2410001 4282392458
0.088476568 0.05261853 1.2410001 4282589837
0.090630569 0.05261853 1.2410001 4282655630
0.092709802 0.052576128 1.24 4282458251
0.094862074 0.052576128 1.24 4282195079
0.096857861 0.05249133 1.238 4282392458
0.099006653 0.05249133 1.238 4282458251
0.10115544 0.05249133 1.238 4282392204
0.1032208 0.052448928 1.2370001 4282392204
0.10528267 0.052406527 1.2360001 4282392204
0.107428 0.052406527 1.2360001 4282589584
0.10957332 0.052406527 1.2360001 4282655378
0.11162826 0.05236413 1.235 4282523792
0.11377184 0.05236413 1.235 4282655378
0.11572772 0.052279327 1.233 4282589585
0.11786783 0.052279327 1.233 4282589071
0.12000795 0.052279327 1.233 4282720401
0.12224713 0.052321728 1.2340001 4282917780
0.12438899 0.052321728 1.2340001 4283180952
0.12653084 0.052321728 1.2340001 4283378075
0.12877695 0.05236413 1.235 4283443612
0.13081454 0.052321728 1.2340001 4283443612
0.13295639 0.052321728 1.2340001 4283706528
0.13498875 0.052279327 1.233 4283574687
0.13701765 0.05223693 1.2320001 4283574943
0.13904309 0.052194528 1.2310001 4283377308
0.14117974 0.052194528 1.2310001 4283311515
0.14331639 0.052194528 1.2310001 4283508894
0.14545302 0.052194528 1.2310001 4283443101
0.14770955 0.05223693 1.2320001 4283706273
0.14984794 0.05223693 1.2320001 4283837860
0.15198632 0.05223693 1.2320001 4283903140
0.1539996 0.052194528 1.2310001 4283968677
0.15613624 0.052194528 1.2310001 4284232104
0.15840146 0.05223693 1.2320001 4283903138
0.16067015 0.052279327 1.233 4284429225
0.1632064 0.052406527 1.2360001 4284955567
0.16575307 0.052533727 1.2390001 4285679032
0.16803911 0.052576128 1.24 4286270398
0.17087764 0.052788131 1.245 4286664899
0.1737335 0.05300013 1.25 4286928326
0.17632529 0.05312733 1.253 4286862532
0.1796398 0.053466529 1.261 4286993860
0.18327045 0.05389053 1.271 4287388104
0.18620616 0.054102529 1.276 4287717068
0.1930261 0.05478093 1.2920001 4288507097
0.049542978 0.057052016 1.2930001 4286339009
0.051546924 0.056787267 1.2870001 4285483188
0.053404681 0.056390159 1.2780001 4284891052
0.055361763 0.056125414 1.2720001 4285549239
0.057343274 0.055904794 1.2670001 4284364965
0.059495412 0.055860672 1.266 4283707290
0.061644074 0.05581655 1.2650001 4283575960
0.063839734 0.05581655 1.2650001 4283707546
0.065983191 0.055772424 1.2640001 4283904925
0.068177111 0.055772424 1.2640001 4283641753
0.070204012 0.055640053 1.261 4283312788
0.072220504 0.055507682 1.258 4283378581
0.074344866 0.055463556 1.2570001 4282983824
0.07628312 0.055287063 1.253 4282852239
0.0782701 0.055154692 1.25 4282852495
0.080311023 0.055066444 1.248 4282786701
0.082278907 0.054934073 1.245 4282523785
0.084372029 0.054889951 1.2440001 4282524044
0.086461678 0.054845825 1.243 4282589837
0.08861915 0.054845825 1.243 4282458251
0.090703592 0.054801702 1.2420001 4282458251
0.092859335 0.054801702 1.2420001 4282721423
0.094938569 0.05475758 1.2410001 4282721423
0.097014338 0.054713454 1.24 4282589837
0.099086627 0.054669328 1.2390001 4282524044
0.10123716 0.054669328 1.2390001 4282589582
0.10330424 0.054625206 1.238 4282655119
0.10536786 0.054581083 1.2370001 4282655119
0.10751492 0.054581083 1.2370001 4282786448
0.10957332 0.054536957 1.2360001 4282786448
0.11171865 0.054536957 1.2360001 4282655119
0.11386397 0.054536957 1.2360001 4282655376
0.11600929 0.054536957 1.2360001 4282655376
0.11796343 0.054448713 1.2340001 4282589325
0.12010528 0.054448713 1.2340001 4282589325
0.12234619 0.054492835 1.235 4282589325
0.12448978 0.054492835 1.235 4282589069
0.12663336 0.054492835 1.235 4282918035
0.12867269 0.054448713 1.2340001 4282983572
0.13081454 0.054448713 1.2340001 4283114903
0.13284864 0.054404587 1.233 4283443868
0.13487928 0.054360464 1.2320001 4283443869
0.13701765 0.054360464 1.2320001 4283443869
0.13904309 0.054316342 1.2310001 4283048855
0.14117974 0.054316342 1.2310001 4282982806
0.1434328 0.054360464 1.2320001 4283179929
0.1458075 0.054448713 1.2340001 4283377308
0.14806923 0.054492835 1.235 4283574687
0.15021282 0.054492835 1.235 4283640480
0.15247978 0.054536957 1.2360001 4283837602
0.15450001 0.054492835 1.235 4283903138
0.15677042 0.054536957 1.2360001 4284166310
0.15904433 0.054581083 1.2370001 4283903138
0.16119139 0.054581083 1.2370001 4284429224
0.16360253 0.054669328 1.2390001 4284889517
0.16602062 0.05475758 1.2410001 4285810361
0.16844566 0.054845825 1.243 4286204605
0.17115213 0.055022322 1.2470001 4286599105
0.17415047 0.055287063 1.253 4286928068
0.17674746 0.055419434 1.256 4286862532
0.18006718 0.055772424 1.2640001 4287125190
0.18355884 0.056169536 1.273 4287716298
0.1863521 0.056346033 1.2770001 4288044748
0.1943707 0.057405002 1.3010001 4288375506
0.049504668 0.059234846 1.2920001 4285615031
0.051506877 0.05895976 1.286 4285088176
0.053362891 0.058547135 1.2770001 4284364453
0.055318236 0.058272053 1.271 4284627881
0.057343274 0.058088657 1.2670001 4284365222
0.059495412 0.058042813 1.266 4284168097
0.061692808 0.058042813 1.266 4283641753
0.063890204 0.058042813 1.266 4283641753
0.06603539 0.057996966 1.2650001 4283970718
0.068231046 0.057996966 1.2650001 4284102304
0.070315361 0.057905272 1.263 4283970718
0.072335325 0.05776773 1.2600001 4283707547
0.074404009 0.057676032 1.258 4282918032
0.076343998 0.057492644 1.2540001 4282983825
0.078332715 0.057355102 1.251 4283049618
0.080439724 0.057309259 1.25 4283246997
0.082411088 0.057171717 1.2470001 4283115410
0.084507674 0.057125863 1.2460001 4282918288
0.086600795 0.057080019 1.245 4282655117
0.088761739 0.057080019 1.245 4282589580
0.09084966 0.057034168 1.2440001 4282589580
0.092934094 0.056988321 1.243 4282655630
0.095015071 0.056942478 1.2420001 4282853009
0.097014338 0.05685078 1.24 4282523787
0.099166602 0.05685078 1.24 4282523531
0.10131887 0.05685078 1.24 4282852240
0.10347114 0.05685078 1.24 4282918033
0.10553821 0.056804936 1.2390001 4282786447
0.10768875 0.056804936 1.2390001 4282786447
0.10966197 0.056713238 1.2370001 4282918033
0.11180904 0.056713238 1.2370001 4282655118
0.11395609 0.056713238 1.2370001 4282655375
0.11600929 0.056667395 1.2360001 4282589838
0.11815462 0.056667395 1.2360001 4282524044
0.1202026 0.05662154 1.235 4282524044
0.12244526 0.056667395 1.2360001 4282589580
0.12459058 0.056667395 1.2360001 4282654860
0.12663336 0.05662154 1.235 4282720654
0.12877695 0.05662154 1.235 4282720655
0.13081454 0.056575697 1.2340001 4282786449
0.13284864 0.05652985 1.233 4283180952
0.13498875 0.05652985 1.233 4283247002
0.13701765 0.056483999 1.2320001 4283247002
0.13915603 0.056483999 1.2320001 4282983317
0.14129442 0.056483999 1.2320001 4283114904
0.14366566 0.056575697 1.2340001 4283114649
0.14604381 0.056667395 1.2360001 4282982550
0.14830904 0.056713238 1.2370001 4282982806
0.1504561 0.056713238 1.2370001 4283509150
0.15260315 0.056713238 1.2370001 4283706273
0.15487531 0.056759082 1.238 4283706016
0.15689728 0.056713238 1.2370001 4283903138
0.15917289 0.056759082 1.238 4284232102
0.161452 0.056804936 1.2390001 4284297895
0.16373459 0.05685078 1.24 4285415605
0.1661544 0.056942478 1.2420001 4286073021
0.16858116 0.057034168 1.2440001 4286073019
0.17128938 0.057217561 1.248 4286533312
0.17428945 0.057492644 1.2540001 4286730689
0.1768882 0.057630185 1.2570001 4286993862
0.18035209 0.058042813 1.266 4287125190
0.18355884 0.058363747 1.273 4287650249
0.18620616 0.058501288 1.276 4288241099
0.19392249 0.059509929 1.2980001 4287980230
0.04931308 0.061223943 1.2870001 4285549239
0.051386718 0.061033662 1.2830001 4284562090
0.053195745 0.060557954 1.273 4284035745
0.05510062 0.060224954 1.266 4284299173
0.057207499 0.06012981 1.2640001 4283575961
0.059401423 0.06012981 1.2640001 4284102304
0.061595343 0.06012981 1.2640001 4283773339
0.063839734 0.060177386 1.2650001 4283641753
0.06603539 0.060177386 1.2650001 4283773339
0.068231046 0.060177386 1.2650001 4283773594
0.070315361 0.060082242 1.263 4283510167
0.072392732 0.059987098 1.261 4283575960
0.074522302 0.05993953 1.2600001 4283049618
0.076465756 0.059749246 1.256 4283246997
0.078457952 0.059606533 1.253 4283378583
0.080568425 0.059558958 1.2520001 4283575962
0.082609348 0.059463821 1.25 4283444376
0.084643319 0.059368677 1.248 4283246997
0.086809471 0.059368677 1.248 4283049618
0.088904336 0.059321109 1.2470001 4282720653
0.090995714 0.059273534 1.2460001 4282523788
0.093008868 0.05917839 1.2440001 4282589837
0.095168076 0.05917839 1.2440001 4282787216
0.097170807 0.059083249 1.2420001 4282589324
0.099326544 0.059083249 1.2420001 4282523274
0.10148228 0.059083249 1.2420001 4282786446
0.10363802 0.059083249 1.2420001 4282983825
0.10570858 0.059035674 1.2410001 4282983825
0.10786258 0.059035674 1.2410001 4282983825
0.10992793 0.058988106 1.24 4282983825
0.11189942 0.058892962 1.238 4282918546
0.11404821 0.058892962 1.238 4282787216
0.116197 0.058892962 1.238 4282787216
0.11825021 0.058845393 1.2370001 4282524044
0.12039727 0.058845393 1.2370001 4282589837
0.12254433 0.058845393 1.2370001 4282589837
0.12459058 0.058797825 1.2360001 4282655630
0.12673591 0.058797825 1.2360001 4282786703
0.12877695 0.058750249 1.235 4282786448
0.13092054 0.058750249 1.235 4282983827
0.13295639 0.058702681 1.2340001 4283247000
0.13498875 0.058655113 1.233 4283181208
0.13712887 0.058655113 1.233 4283115159
0.13938195 0.058702681 1.2340001 4282983573
0.14152379 0.058702681 1.2340001 4282983574
0.14389849 0.058797825 1.2360001 4282917782
0.14639829 0.058940537 1.2390001 4282917783
0.14854883 0.058940537 1.2390001 4283049368
0.15069935 0.058940537 1.2390001 4283443870
0.15284988 0.058940537 1.2390001 4283377821
0.15512551 0.058988106 1.24 4283443357
0.15727778 0.058988106 1.24 4283509149
0.15955861 0.059035674 1.2410001 4283772063
0.16171262 0.059035674 1.2410001 4284100515
0.16399866 0.059083249 1.2420001 4285021616
0.16642195 0.05917839 1.2440001 4285679031
0.16871668 0.059225965 1.245 4286073275
0.17156388 0.059463821 1.25 4286402239
0.17456743 0.059749246 1.256 4286599102
0.17731036 0.05993953 1.2600001 4286862275
0.18077946 0.060367666 1.2690001 4287125191
0.1847124 0.060938518 1.281 4287781830
0.19004524 0.061223943 1.2870001 4287118757
0.19407189 0.061794803 1.299 4286731687
0.1981402 0.062365655 1.3110001 4294239999
0.20133294 0.062651083 1.317 4294966271
0.049159817 0.063245103 1.2830001 4285483445
0.051186461 0.06299863 1.2780001 4284167588
0.052819654 0.062308505 1.2640001 4283575450
0.054970052 0.062259212 1.263 4283904670
0.057071719 0.062160619 1.261 4283444374
0.05930743 0.062209919 1.2620001 4283181458
0.061497882 0.062209919 1.2620001 4282984335
0.063738801 0.062259212 1.263 4283313043
0.065878786 0.062209919 1.2620001 4283444629
0.068069234 0.062209919 1.2620001 4283247507
0.070259683 0.062209919 1.2620001 4283181971
0.072392732 0.062160619 1.261 4283115665
0.074522302 0.062111329 1.2600001 4283181202
0.076526642 0.061963443 1.2570001 4283444376
0.078520566 0.06181556 1.2540001 4283839134
0.080697134 0.06181556 1.2540001 4283839134
0.082741521 0.06171697 1.2520001 4283707548
0.084846795 0.061667677 1.251 4283312790
0.08687903 0.061569083 1.2490001 4283049618
0.089046918 0.061569083 1.2490001 4282720653
0.091068752 0.061470501 1.2470001 4282392202
0.093083628 0.061371908 1.245 4282524044
0.095244572 0.061371908 1.245 4282721423
0.097405516 0.061371908 1.245 4282523531
0.099486493 0.061322611 1.2440001 4282720653
0.1016457 0.061322611 1.2440001 4282918032
0.10372146 0.061273318 1.243 4283049618
0.10587893 0.061273318 1.243 4283246997
0.1079495 0.061224025 1.2420001 4283444376
0.11001658 0.061174724 1.2410001 4283181204
0.11208019 0.061125435 1.24 4282918546
0.11423247 0.061125435 1.24 4282787216
0.11629087 0.061076142 1.2390001 4282721423
0.1183458 0.061026841 1.238 4282589836
0.12049459 0.061026841 1.238 4282589835
0.12264339 0.061026841 1.238 4282392456
0.12469139 0.060977548 1.2370001 4282655629
0.12683845 0.060977548 1.2370001 4282853009
0.12877695 0.060878959 1.235 4282918545
0.13092054 0.060878959 1.235 4283247254
0.13295639 0.060829666 1.2340001 4283181205
0.13509825 0.060829666 1.2340001 4283181205
0.1373513 0.060878959 1.235 4283246999
0.13960785 0.060928255 1.2360001 4282983571
0.14186786 0.060977548 1.2370001 4282983572
0.14424776 0.061076142 1.2390001 4282851987
0.14651646 0.061125435 1.24 4282917780
0.14866872 0.061125435 1.24 4282983573
0.15082099 0.061125435 1.24 4283246746
0.1530966 0.061174724 1.2410001 4283443868
0.15537572 0.061224025 1.2420001 4283377819
0.15765829 0.061273318 1.243 4283509148
0.15994433 0.061322611 1.2440001 4283772320
0.16210353 0.061322611 1.2440001 4284298150
0.16426274 0.061322611 1.2440001 4284955565
0.16655575 0.061371908 1.245 4285481908
0.16885221 0.061421201 1.2460001 4286007995
0.17170113 0.061667677 1.251 4286270653
0.17484541 0.062012736 1.258 4286402236
0.1775918 0.062209919 1.2620001 4286796737
0.18120684 0.062702864 1.2720001 4287059138
0.18722768 0.063245103 1.2830001 4288959160
0.19048823 0.063590169 1.2900001 4288497321
0.19452009 0.064181708 1.302 4286335640
0.19844249 0.064723946 1.3130001 4293253622
0.20148581 0.064970419 1.3180001 4294966527
0.049083184 0.065354511 1.281 4285023406
0.051146407 0.06515044 1.2770001 4284496806
0.052777864 0.064436182 1.263 4283575961
0.05492653 0.064385168 1.2620001 4283970974
0.057071719 0.064334147 1.261 4283642265
0.059260435 0.064334147 1.261 4283050384
0.061449151 0.064334147 1.261 4282524552
0.06368833 0.064385168 1.2620001 4282261380
0.065878786 0.064385168 1.2620001 4282458758
0.068069234 0.064385168 1.2620001 4282919566
0.070259683 0.064385168 1.2620001 4283116690
0.072392732 0.064334147 1.261 4282853006
0.074522302 0.064283125 1.2600001 4283050386
0.076587521 0.064181089 1.258 4283575961
0.078583181 0.064028032 1.2550001 4283773341
0.080697134 0.063977018 1.2540001 4283707549
0.082807608 0.063926004 1.253 4283641756
0.084914617 0.063874982 1.2520001 4283378583
0.086948596 0.063772947 1.25 4282983825
0.08911822 0.063772947 1.25 4282654860
0.091141775 0.063670911 1.248 4282589580
0.093158394 0.063568868 1.2460001 4282524043
0.095321074 0.063568868 1.2460001 4282260871
0.097483754 0.063568868 1.2460001 4282786702
0.099646434 0.063568868 1.2460001 4282852238
0.10180911 0.063568868 1.2460001 4282983824
0.10372146 0.063415818 1.243 4283049617
0.10579376 0.063364796 1.2420001 4283312788
0.1079495 0.063364796 1.2420001 4283378581
0.11001658 0.063313775 1.2410001 4283181202
0.11208019 0.063262761 1.24 4283049873
0.11432458 0.063313775 1.2410001 4282853008
0.11638473 0.063262761 1.24 4282721423
0.11853699 0.063262761 1.24 4282589836
0.12068926 0.063262761 1.24 4282458250
0.12284153 0.063262761 1.24 4282392457
0.12489299 0.063211747 1.2390001 4282655630
0.12694098 0.063160717 1.238 4282853009
0.12898551 0.063109703 1.2370001 4282918545
0.13102655 0.063058689 1.2360001 4283181460
0.13306412 0.063007668 1.235 4283181204
0.13531719 0.063058689 1.2360001 4283246998
0.13746253 0.063058689 1.2360001 4283181206
0.1397208 0.063109703 1.2370001 4283049620
0.14198254 0.063160717 1.238 4283049620
0.14413133 0.063160717 1.238 4282918034
0.14651646 0.063262761 1.24 4282918292
0.14866872 0.063262761 1.24 4283115415
0.15094261 0.063313775 1.2410001 4283181208
0.15321998 0.063364796 1.2420001 4283312537
0.15550081 0.063415818 1.243 4283312536
0.15778512 0.063466832 1.2440001 4283312024
0.16007291 0.063517854 1.245 4283640476
0.16223386 0.063517854 1.245 4284035232
0.16452685 0.063568868 1.2460001 4284626856
0.1668233 0.063619889 1.2470001 4285020844
0.16898771 0.063619889 1.2470001 4285744309
0.17183839 0.063874982 1.2520001 4286139067
0.17512338 0.064283125 1.2600001 4286468031
0.17773253 0.064436182 1.263 4286796993
0.18134929 0.064946368 1.273 4287058881
0.18751954 0.06555859 1.2850001 4289022637
0.1906359 0.065864697 1.291 4289021607
0.1946695 0.066476919 1.3030001 4286531736
0.19859362 0.067038119 1.314 4292529387
0.2016387 0.067293212 1.319 4294966527
0.048891604 0.0672988 1.276 4283378329
0.050946146 0.067087829 1.2720001 4283707549
0.052736077 0.06656041 1.2620001 4284036511
0.054883003 0.066507667 1.261 4284037024
0.056981198 0.066402189 1.2590001 4283510936
0.059213445 0.066454925 1.2600001 4283314069
0.061400425 0.066454925 1.2600001 4282721932
0.063637868 0.066507667 1.261 4282327430
0.06582658 0.066507667 1.261 4282327428
0.0680153 0.066507667 1.261 4282262149
0.070204012 0.066507667 1.261 4282327431
0.072335325 0.066454925 1.2600001 4282656140
0.074463151 0.066402189 1.2590001 4283247765
0.076526642 0.066296704 1.2570001 4283510682
0.078645796 0.066243961 1.256 4283510683
0.080761477 0.066191219 1.2550001 4283378842
0.082873695 0.066138476 1.2540001 4283247256
0.085050263 0.066138476 1.2540001 4282983826
0.086948596 0.065927513 1.25 4282983825
0.08911822 0.065927513 1.25 4283115411
0.091141775 0.065822028 1.248 4282786959
0.093233168 0.065769285 1.2470001 4282458250
0.095474079 0.065822028 1.248 4282458249
0.097640231 0.065822028 1.248 4282984336
0.099726409 0.065769285 1.2470001 4282984080
0.10180911 0.065716535 1.2460001 4282984080
0.10388836 0.0656638 1.245 4282984336
0.10587893 0.065558314 1.243 4283247251
0.10803641 0.065558314 1.243 4283312788
0.11010523 0.065505572 1.2420001 4283246995
0.11226097 0.065505572 1.2420001 4283115666
0.1144167 0.065505572 1.2420001 4283181717
0.11657244 0.065505572 1.2420001 4282984082
0.11872818 0.065505572 1.2420001 4282984338
0.12088392 0.065505572 1.2420001 4282720910
0.12303966 0.065505572 1.2420001 4282589580
0.1251954 0.065505572 1.2420001 4282852753
0.12704352 0.065347344 1.2390001 4283247510
0.12908977 0.065294601 1.238 4283247254
0.13113256 0.065241858 1.2370001 4283246997
0.13317187 0.065189123 1.2360001 4283246997
0.13553615 0.065294601 1.238 4283246998
0.13779616 0.065347344 1.2390001 4283181206
0.14005965 0.065400086 1.24 4283115412
0.14232659 0.065452829 1.2410001 4283049620
0.1444806 0.065452829 1.2410001 4283115670
0.14663461 0.065452829 1.2410001 4282984341
0.1487886 0.065452829 1.2410001 4283115670
0.15094261 0.065452829 1.2410001 4283115927
0.15334335 0.065558314 1.243 4283313049
0.15550081 0.065558314 1.243 4283444378
0.15791196 0.0656638 1.245 4283509658
0.16020149 0.065716535 1.2460001 4283443352
0.16249447 0.065769285 1.2470001 4283639961
0.16465887 0.065769285 1.2470001 4284166048
0.16695708 0.065822028 1.248 4284889514
0.16925876 0.065874763 1.2490001 4285217965
0.1721129 0.066138476 1.2540001 4285941944
0.17540134 0.06656041 1.2620001 4286139323
0.17801397 0.066718638 1.2650001 4286731201
0.18177666 0.0672988 1.276 4287256260
0.1878114 0.067878962 1.2870001 4289350317
0.19093123 0.068195418 1.2930001 4289153190
0.1948189 0.068775572 1.304 4286859675
0.19859362 0.069302998 1.314 4291343576
0.20179155 0.069619447 1.3200001 4294966527
0.046676856 0.069498181 1.276 4283707554
0.04862339 0.06911692 1.2690001 4283247002
0.050585676 0.068790123 1.263 4282983826
0.052652504 0.068626724 1.2600001 4283378582
0.054839484 0.068626724 1.2600001 4283773853
0.057026464 0.068626724 1.2600001 4283708572
0.059213445 0.068626724 1.2600001 4283511449
0.061400425 0.068626724 1.2600001 4282854030
0.063587405 0.068626724 1.2600001 4282261893
0.065774381 0.068626724 1.2600001 4282196612
0.067961365 0.068626724 1.2600001 4282130820
0.070204012 0.068681188 1.261 4281933441
0.072335325 0.068626724 1.2600001 4282196102
0.074463151 0.06857226 1.2590001 4282722190
0.076526642 0.068463333 1.2570001 4283182229
0.078645796 0.068408869 1.256 4283379353
0.080761477 0.068354398 1.2550001 4283313561
0.082939781 0.068354398 1.2550001 4283247513
