# .PCD v0.7 - Point Cloud Data file format
VERSION 0.7
FIELDS x y z rgba
SIZE 4 4 4 4
TYPE F F F U
COUNT 1 1 1 1
WIDTH 1085
HEIGHT 1
VIEWPOINT 0 0 0 1 0 0 0
POINTS 1085
DATA ascii
-0.0069543323 0.0061373156 1.3700001 4283719800
-0.0057695871 0.0061417948 1.3710001 4283785591
-0.004586447 0.0061507546 1.373 4284312189
-0.18073063 0.0070028603 1.3110001 4279716988
-0.1793189 0.0069921771 1.309 4279587722
-0.1769578 0.0069441027 1.3000001 4280378524
-0.17569435 0.0069387611 1.299 4280905386
-0.174567 0.0069387611 1.299 4281037232
-0.17303912 0.0069227363 1.296 4281168564
-0.17191438 0.0069227363 1.296 4281103028
-0.17065786 0.0069173942 1.2950001 4280971442
-0.16927217 0.006906711 1.2930001 4280642990
-0.16802 0.0069013699 1.2920001 4280511402
-0.16676956 0.0068960283 1.291 4280577450
-0.16526423 0.006880003 1.2880001 4280774827
-0.16414644 0.006880003 1.2880001 4280972464
-0.16290207 0.0068746619 1.2870001 4281170099
-0.16165945 0.0068693198 1.286 4281105075
-0.1605434 0.0068693198 1.286 4280776881
-0.15930337 0.0068639787 1.2850001 4280448431
-0.15818818 0.0068639787 1.2850001 4280250796
-0.15707299 0.0068639787 1.2850001 4280250028
-0.15583643 0.0068586366 1.284 4280315308
-0.15472211 0.0068586366 1.284 4280380588
-0.1536078 0.0068586366 1.284 4280380332
-0.15237471 0.0068532955 1.2830001 4280249516
-0.15114337 0.0068479534 1.2820001 4280052395
-0.14979674 0.0068372702 1.2800001 4279986860
-0.14856973 0.0068319286 1.279 4279987374
-0.14745975 0.0068319286 1.279 4279790509
-0.14612092 0.0068212454 1.2770001 4279789996
-0.14501268 0.0068212454 1.2770001 4279789996
-0.14390443 0.0068212454 1.2770001 4279789741
-0.14279619 0.0068212454 1.2770001 4279789741
-0.1417989 0.006826587 1.2780001 4279855534
-0.14068978 0.006826587 1.2780001 4279855789
-0.13958067 0.006826587 1.2780001 4279789996
-0.13857992 0.0068319286 1.279 4279789738
-0.13757741 0.0068372702 1.2800001 4279789738
-0.13646656 0.0068372702 1.2800001 4279855274
-0.13535573 0.0068372702 1.2800001 4279921067
-0.13414 0.0068319286 1.279 4279921067
-0.13303003 0.0068319286 1.279 4279855273
-0.13181689 0.006826587 1.2780001 4279855017
-0.1306055 0.0068212454 1.2770001 4279920808
-0.12939586 0.0068159038 1.276 4279920808
-0.12818794 0.0068105622 1.2750001 4279855015
-0.12708144 0.0068105622 1.2750001 4279855015
-0.12597492 0.0068105622 1.2750001 4280051880
-0.12486842 0.0068105622 1.2750001 4280051624
-0.12376191 0.0068105622 1.2750001 4279920038
-0.12275161 0.0068159038 1.276 4279920038
-0.12164424 0.0068159038 1.276 4280051622
-0.12053686 0.0068159038 1.276 4280117158
-0.11942948 0.0068159038 1.276 4280117158
-0.1183221 0.0068159038 1.276 4280117158
-0.11721473 0.0068159038 1.276 4280116645
-0.11592536 0.0068052206 1.274 4280050595
-0.11472961 0.006799879 1.273 4279984545
-0.11344632 0.0067891958 1.271 4279984289
-0.11234328 0.0067891958 1.271 4279984289
-0.11124025 0.0067891958 1.271 4279984289
-0.1101372 0.0067891958 1.271 4279918496
-0.10903417 0.0067891958 1.271 4279852703
-0.10801604 0.0067945374 1.2720001 4279918750
-0.10708025 0.0068052206 1.274 4279918750
-0.10597461 0.0068052206 1.274 4279918494
-0.10495128 0.0068105622 1.2750001 4279984030
-0.10392622 0.0068159038 1.276 4279918237
-0.10281885 0.0068159038 1.276 4279918237
-0.10171147 0.0068159038 1.276 4279918235
-0.10052525 0.0068105622 1.2750001 4279852442
-0.099418744 0.0068105622 1.2750001 4279917721
-0.09823513 0.0068052206 1.274 4279983771
-0.096977003 0.0067945374 1.2720001 4280115100
-0.095873103 0.0067945374 1.2720001 4280180892
-0.094694696 0.0067891958 1.271 4280180892
-0.093518026 0.0067838542 1.2700001 4280115099
-0.092415854 0.0067838542 1.2700001 4280180633
-0.091313682 0.0067838542 1.2700001 4280180633
-0.090211518 0.0067838542 1.2700001 4280180378
-0.089109346 0.0067838542 1.2700001 4280114586
-0.08807648 0.0067891958 1.271 4280049047
-0.086973444 0.0067891958 1.271 4280114840
-0.085870408 0.0067891958 1.271 4280114840
-0.084834062 0.0067945374 1.2720001 4280180633
-0.083730154 0.0067945374 1.2720001 4280311449
-0.082626253 0.0067945374 1.2720001 4280245656
-0.081586435 0.006799879 1.273 4280114069
-0.080481671 0.006799879 1.273 4280114068
-0.079376899 0.006799879 1.273 4280245397
-0.078272127 0.006799879 1.273 4280179604
-0.077227972 0.0068052206 1.274 4280113298
-0.076122329 0.0068052206 1.274 4280244884
-0.075016692 0.0068052206 1.274 4280376470
-0.073969066 0.0068105622 1.2750001 4280376470
-0.072862558 0.0068105622 1.2750001 4280310677
-0.071756057 0.0068105622 1.2750001 4280179091
-0.070649549 0.0068105622 1.2750001 4280244884
-0.069543041 0.0068105622 1.2750001 4280376470
-0.068436533 0.0068105622 1.2750001 4280441491
-0.067277215 0.0068052206 1.274 4280441491
-0.066119634 0.006799879 1.273 4280441233
-0.065014862 0.006799879 1.273 4280375440
-0.063910089 0.006799879 1.273 4280441231
-0.062805317 0.006799879 1.273 4280441231
-0.061749015 0.0068052206 1.274 4280572303
-0.060643375 0.0068052206 1.274 4280638096
-0.059537735 0.0068052206 1.274 4280637581
-0.058477961 0.0068105622 1.2750001 4280505995
-0.057371452 0.0068105622 1.2750001 4280505995
-0.056264944 0.0068105622 1.2750001 4280571788
-0.055158436 0.0068105622 1.2750001 4280637324
-0.054051928 0.0068105622 1.2750001 4280637324
-0.05294542 0.0068105622 1.2750001 4280571531
-0.051798254 0.0068052206 1.274 4280439945
-0.050692614 0.0068052206 1.274 4280504966
-0.049586974 0.0068052206 1.274 4280636552
-0.04844328 0.006799879 1.273 4280702345
-0.047338508 0.006799879 1.273 4280636552
-0.046270058 0.0068052206 1.274 4280833672
-0.045164417 0.0068052206 1.274 4280767879
-0.044058777 0.0068052206 1.274 4280767878
-0.043054283 0.0068212454 1.2770001 4280767878
-0.041978884 0.006826587 1.2780001 4280898948
-0.040901754 0.0068319286 1.279 4280833155
-0.03886326 0.0068639787 1.2850001 4280833407
-0.037777446 0.0068693198 1.286 4280701821
-0.03671841 0.006880003 1.2880001 4280964479
-0.03576646 0.0069120531 1.294 4281226109
-0.034643464 0.0069120531 1.294 4281554045
-0.033546373 0.0069173942 1.2950001 4281881983
-0.032898206 0.0070188851 1.314 4282144125
-0.03178202 0.0070242272 1.3150001 4281946233
-0.030664101 0.0070295683 1.3160001 4281616239
-0.029634174 0.0070562768 1.3210001 4281615980
-0.028509313 0.0070616184 1.322 4281812843
-0.027382713 0.0070669604 1.3230001 4281615978
-0.026274208 0.0070776432 1.325 4281682025
-0.025238078 0.0071096928 1.3310001 4281879403
-0.024101065 0.0071150349 1.332 4282010989
-0.022979541 0.0071257176 1.3340001 4282207339
-0.021887265 0.007147084 1.3380001 4282273132
-0.020757062 0.0071577677 1.34 4282273132
-0.019608768 0.0071631093 1.3410001 4282273132
-0.018513756 0.0071898173 1.3460001 4282338923
-0.017358515 0.0071951584 1.3470001 4282273130
-0.016201543 0.0072005005 1.348 4282273384
-0.015053983 0.0072111837 1.35 4282339177
-0.01392352 0.0072325501 1.3540001 4282602349
-0.012757868 0.0072378921 1.355 4282865521
-0.011599028 0.0072485749 1.3570001 4283391351
-0.010459755 0.0072752829 1.3620001 4283720316
-0.0092913676 0.0072859665 1.3640001 4283720316
-0.0081135659 0.0072913077 1.365 4283523191
-0.0069594085 0.0073233573 1.3710001 4283522421
-0.0057737953 0.0073286993 1.3720001 4283917431
-0.0045897872 0.0073393821 1.3740001 4284312189
-0.18128206 0.0081575271 1.3150001 4279453046
-0.17986685 0.0081451209 1.3130001 4278929279
-0.17750227 0.0080892891 1.304 4279456653
-0.17637061 0.0080892891 1.304 4279917720
-0.17510454 0.0080830855 1.3030001 4280246944
-0.1737067 0.0080706785 1.3010001 4280510117
-0.17244498 0.0080644758 1.3000001 4280642216
-0.171185 0.0080582723 1.299 4280642474
-0.16966492 0.0080396617 1.296 4280577196
-0.16841014 0.0080334581 1.2950001 4280708524
-0.1671571 0.0080272546 1.294 4280709035
-0.16539253 0.0079962378 1.289 4280774572
-0.16427389 0.0079962378 1.289 4280774572
-0.16290207 0.0079838308 1.2870001 4280774573
-0.16178514 0.0079838308 1.2870001 4280709293
-0.16066822 0.0079838308 1.2870001 4280447405
-0.15942733 0.0079776272 1.286 4280185261
-0.15831128 0.0079776272 1.286 4280119212
-0.15719523 0.0079776272 1.286 4280052651
-0.15595782 0.0079714237 1.2850001 4280052394
-0.15484263 0.0079714237 1.2850001 4280052138
-0.15372744 0.0079714237 1.2850001 4280052394
-0.15237471 0.0079590166 1.2830001 4280052653
-0.15126127 0.0079590166 1.2830001 4280052911
-0.14979674 0.0079404069 1.2800001 4280053168
-0.14845356 0.0079279998 1.2780001 4279987888
-0.14734446 0.0079279998 1.2780001 4279856303
-0.14612092 0.0079217963 1.2770001 4279856047
-0.14489911 0.0079155928 1.276 4279921327
-0.14379175 0.0079155928 1.276 4279855534
-0.14268437 0.0079155928 1.276 4279855534
-0.14168794 0.0079217963 1.2770001 4279789741
-0.14068978 0.0079279998 1.2780001 4279789741
-0.13958067 0.0079279998 1.2780001 4279789996
-0.13857992 0.0079342034 1.279 4279789995
-0.13746993 0.0079342034 1.279 4279855788
-0.13646656 0.0079404069 1.2800001 4279921324
-0.13524999 0.0079342034 1.279 4280052653
-0.13414 0.0079342034 1.279 4279986860
-0.13303003 0.0079342034 1.279 4279921067
-0.13181689 0.0079279998 1.2780001 4279789481
-0.1306055 0.0079217963 1.2770001 4279855273
-0.12929444 0.0079093892 1.2750001 4279855273
-0.12818794 0.0079093892 1.2750001 4279855273
-0.12698177 0.0079031857 1.274 4279855273
-0.12587613 0.0079031857 1.274 4279986345
-0.12486842 0.0079093892 1.2750001 4279986344
-0.12376191 0.0079093892 1.2750001 4279920551
-0.1226554 0.0079093892 1.2750001 4279920551
-0.12154889 0.0079093892 1.2750001 4279920551
-0.12044238 0.0079093892 1.2750001 4279986344
-0.11933587 0.0079093892 1.2750001 4280117416
-0.11822937 0.0079093892 1.2750001 4280051624
-0.11712286 0.0079093892 1.2750001 4280117160
-0.11592536 0.0079031857 1.274 4280051366
-0.11472961 0.0078969831 1.273 4279985317
-0.11344632 0.007884576 1.271 4279919267
-0.11234328 0.007884576 1.271 4279853731
-0.11115272 0.0078783724 1.2700001 4279853731
-0.1101372 0.007884576 1.271 4279787938
-0.10894838 0.0078783724 1.2700001 4279787938
-0.10784622 0.0078783724 1.2700001 4279919010
-0.10691214 0.0078907795 1.2720001 4279919010
-0.10589142 0.0078969831 1.273 4279919010
-0.10486897 0.0079031857 1.274 4279918753
-0.10392622 0.0079155928 1.276 4279853216
-0.10281885 0.0079155928 1.276 4279853215
-0.10163176 0.0079093892 1.2750001 4279918495
-0.10044641 0.0079031857 1.274 4279852702
-0.099340767 0.0079031857 1.274 4279787164
-0.09823513 0.0079031857 1.274 4279852956
-0.096977003 0.0078907795 1.2720001 4279984286
-0.095873103 0.0078907795 1.2720001 4280050079
-0.094694696 0.007884576 1.271 4280115614
-0.093518026 0.0078783724 1.2700001 4280049821
-0.092415854 0.0078783724 1.2700001 4280049820
-0.091313682 0.0078783724 1.2700001 4280049564
-0.090211518 0.0078783724 1.2700001 4279984283
-0.089109346 0.0078783724 1.2700001 4279984283
-0.088007182 0.0078783724 1.2700001 4279918490
-0.08690501 0.0078783724 1.2700001 4279918490
-0.085802846 0.0078783724 1.2700001 4279984281
-0.084767371 0.007884576 1.271 4279984281
-0.083664335 0.007884576 1.271 4280049304
-0.082561299 0.007884576 1.271 4280049304
-0.081522346 0.0078907795 1.2720001 4280049304
-0.080418445 0.0078907795 1.2720001 4280049304
-0.079314537 0.0078907795 1.2720001 4280114840
-0.078272127 0.0078969831 1.273 4280049047
-0.077167355 0.0078969831 1.273 4279983252
-0.076062582 0.0078969831 1.273 4279983252
-0.075016692 0.0079031857 1.274 4280245654
-0.073911056 0.0079031857 1.274 4280311447
-0.072862558 0.0079093892 1.2750001 4280311190
-0.071756057 0.0079093892 1.2750001 4280245397
-0.070649549 0.0079093892 1.2750001 4280311190
-0.069543041 0.0079093892 1.2750001 4280376983
-0.068329178 0.0078969831 1.273 4280442261
-0.067224406 0.0078969831 1.273 4280310675
-0.066119634 0.0078969831 1.273 4280179089
-0.065014862 0.0078969831 1.273 4280113296
-0.063910089 0.0078969831 1.273 4280310160
-0.062805317 0.0078969831 1.273 4280375953
-0.061700542 0.0078969831 1.273 4280441231
-0.060643375 0.0079031857 1.274 4280441231
-0.059537735 0.0079031857 1.274 4280375438
-0.058432095 0.0079031857 1.274 4280375438
-0.057326455 0.0079031857 1.274 4280506510
-0.056264944 0.0079093892 1.2750001 4280638096
-0.055115175 0.0079031857 1.274 4280637581
-0.054009534 0.0079031857 1.274 4280440202
-0.052903894 0.0079031857 1.274 4280505738
-0.051757596 0.0078969831 1.273 4280703117
-0.050652824 0.0078969831 1.273 4280637322
-0.049548052 0.0078969831 1.273 4280637322
-0.048405226 0.0078907795 1.2720001 4280833931
-0.047301322 0.0078907795 1.2720001 4280768138
-0.046233736 0.0078969831 1.273 4280834185
-0.045128964 0.0078969831 1.273 4280834185
-0.044058777 0.0079031857 1.274 4280834184
-0.043054283 0.0079217963 1.2770001 4280768391
-0.041978884 0.0079279998 1.2780001 4280768132
-0.040901754 0.0079342034 1.279 4280702339
-0.03886326 0.0079714237 1.2850001 4281030786
-0.037806824 0.0079838308 1.2870001 4280964222
-0.036746915 0.0079962378 1.289 4281291902
-0.03576646 0.0080272546 1.294 4281685631
-0.034670237 0.0080334581 1.2950001 4282013567
-0.033572279 0.0080396617 1.296 4281947517
-0.032898206 0.0081513245 1.314 4281880694
-0.03180619 0.0081637306 1.3160001 4281682802
-0.030687401 0.0081699342 1.317 4281484905
-0.028595572 0.0082257651 1.3260001 4281878634
-0.027465502 0.0082319686 1.327 4282009962
-0.026333697 0.0082381722 1.3280001 4282075755
-0.025276002 0.0082691889 1.3330001 4282206826
-0.024137251 0.0082753925 1.3340001 4282272619
-0.023013994 0.0082877995 1.3360001 4282534762
-0.021919981 0.0083126137 1.34 4282469482
-0.020788042 0.0083250199 1.342 4282469484
-0.019638011 0.0083312234 1.3430001 4282404205
-0.018527508 0.0083560366 1.3470001 4282470252
-0.017371403 0.0083622411 1.348 4282470252
-0.016213562 0.0083684446 1.3490001 4282273384
-0.015053983 0.0083746482 1.35 4282404970
-0.013933803 0.0084056649 1.355 4282799728
-0.012767283 0.0084118675 1.3560001 4283194486
-0.011607575 0.0084242756 1.358 4283523450
-0.010467434 0.0084552923 1.363 4283523450
-0.0092981802 0.0084676994 1.365 4283523191
-0.0081195096 0.0084739029 1.3660001 4283391605
-0.0069644847 0.0085111232 1.3720001 4283523189
-0.0057822121 0.0085235303 1.3740001 4283983738
-0.0045931279 0.0085297339 1.3750001 4284246396
-0.0022209852 0.0085855648 1.3840001 4285233031
-0.0010220929 0.0086041754 1.3870001 4292799224
0.00018226866 0.0086351931 1.3920001 4293587967
-0.18141991 0.0092978925 1.3160001 4279386485
-0.17986685 0.0092766974 1.3130001 4278862460
-0.17763841 0.0092201754 1.3050001 4279258248
-0.17637061 0.0092131095 1.304 4279587983
-0.17523892 0.0092131095 1.304 4279719826
-0.1737067 0.0091919135 1.3010001 4279785877
-0.17244498 0.0091848485 1.3000001 4279917976
-0.17131677 0.0091848485 1.3000001 4279983771
-0.16979583 0.0091636525 1.2970001 4280050080
-0.16854018 0.0091565866 1.296 4280247460
-0.16728626 0.0091495225 1.2950001 4280445351
-0.16577747 0.0091283256 1.2920001 4280642474
-0.16452877 0.0091212615 1.291 4280642476
-0.1632818 0.0091141956 1.2900001 4280708525
-0.16216227 0.0091141956 1.2900001 4280709294
-0.16104275 0.0091141956 1.2900001 4280512943
-0.15979925 0.0091071306 1.289 4280447664
-0.15868059 0.0091071306 1.289 4280447665
-0.15756193 0.0091071306 1.289 4280381616
-0.15632191 0.0091000646 1.2880001 4280184495
-0.15520412 0.0091000646 1.2880001 4280118446
-0.15408634 0.0091000646 1.2880001 4280052909
-0.15273102 0.0090859346 1.286 4280053167
-0.15137917 0.0090718037 1.284 4280053424
-0.15026484 0.0090718037 1.284 4280053425
-0.14868589 0.0090435427 1.2800001 4279987888
-0.14745975 0.0090364777 1.279 4279922096
-0.14612092 0.0090223476 1.2770001 4279987376
-0.14501268 0.0090223476 1.2770001 4280052657
-0.14390443 0.0090223476 1.2770001 4280052657
-0.14279619 0.0090223476 1.2770001 4279921327
-0.14168794 0.0090223476 1.2770001 4279855534
-0.14068978 0.0090294117 1.2780001 4279855534
-0.13958067 0.0090294117 1.2780001 4279855789
-0.13847156 0.0090294117 1.2780001 4279855788
-0.13725497 0.0090223476 1.2770001 4279921581
-0.13614672 0.0090223476 1.2770001 4279921581
-0.13493274 0.0090152817 1.276 4279987374
-0.13382536 0.0090152817 1.276 4279987117
-0.13250996 0.0090011507 1.274 4279921323
-0.13140433 0.0090011507 1.274 4279855530
-0.13029869 0.0090011507 1.274 4279855531
-0.12909164 0.0089940866 1.273 4279921067
-0.12788633 0.0089870207 1.2720001 4279855274
-0.12678242 0.0089870207 1.2720001 4279855274
-0.12567851 0.0089870207 1.2720001 4279920810
-0.12457461 0.0089870207 1.2720001 4279920810
-0.1234707 0.0089870207 1.2720001 4279920553
-0.1223668 0.0089870207 1.2720001 4279986089
-0.12126289 0.0089870207 1.2720001 4280051882
-0.12015899 0.0089870207 1.2720001 4280117675
-0.11905508 0.0089870207 1.2720001 4280183210
-0.11795118 0.0089870207 1.2720001 4280117417
-0.11684728 0.0089870207 1.2720001 4280117417
-0.11574338 0.0089870207 1.2720001 4280117160
-0.11445923 0.0089728897 1.2700001 4279985574
-0.11326779 0.0089658247 1.2690001 4279853988
-0.11216649 0.0089658247 1.2690001 4279788195
-0.11097768 0.0089587597 1.268 4279788195
-0.10987724 0.0089587597 1.268 4279919268
-0.10877681 0.0089587597 1.268 4279985060
-0.10767638 0.0089587597 1.268 4279985061
-0.10674404 0.0089728897 1.2700001 4279984804
-0.10564188 0.0089728897 1.2700001 4279984547
-0.10462202 0.0089799557 1.271 4279984289
-0.10360043 0.0089870207 1.2720001 4279984289
-0.10249653 0.0089870207 1.2720001 4279984289
-0.10139262 0.0089870207 1.2720001 4279984288
-0.10020988 0.0089799557 1.271 4279984287
-0.099106841 0.0089799557 1.271 4279918494
-0.098003805 0.0089799557 1.271 4279984030
-0.096824527 0.0089728897 1.2700001 4280049821
-0.095646985 0.0089658247 1.2690001 4280049822
-0.094396681 0.0089516947 1.2670001 4280115614
-0.093297116 0.0089516947 1.2670001 4280115614
-0.092197552 0.0089516947 1.2670001 4280115614
-0.091097988 0.0089516947 1.2670001 4280115614
-0.089998417 0.0089516947 1.2670001 4279984028
-0.088898852 0.0089516947 1.2670001 4280049821
-0.087799288 0.0089516947 1.2670001 4280049563
-0.086699724 0.0089516947 1.2670001 4280115099
-0.08560016 0.0089516947 1.2670001 4280115355
-0.084567294 0.0089587597 1.268 4280115099
-0.083466858 0.0089587597 1.268 4280115099
-0.082366422 0.0089587597 1.268 4280180891
-0.081330076 0.0089658247 1.2690001 4280180890
-0.080228776 0.0089658247 1.2690001 4280246683
-0.07918983 0.0089728897 1.2700001 4280246426
-0.078087665 0.0089728897 1.2700001 4280049047
-0.076985493 0.0089728897 1.2700001 4280114327
-0.075883329 0.0089728897 1.2700001 4280114070
-0.074840046 0.0089799557 1.271 4280179863
-0.07373701 0.0089799557 1.271 4280311449
-0.072633974 0.0089799557 1.271 4280376729
-0.071530938 0.0089799557 1.271 4280245143
-0.070372485 0.0089728897 1.2700001 4280376472
-0.06927032 0.0089728897 1.2700001 4280442265
-0.068168148 0.0089728897 1.2700001 4280376470
-0.067065977 0.0089728897 1.2700001 4280244884
-0.065963812 0.0089728897 1.2700001 4280309905
-0.06486164 0.0089728897 1.2700001 4280244112
-0.063759476 0.0089728897 1.2700001 4280309648
-0.062657304 0.0089728897 1.2700001 4280375441
-0.061603609 0.0089799557 1.271 4280441233
-0.060500573 0.0089799557 1.271 4280441233
-0.059397537 0.0089799557 1.271 4280572303
-0.058340359 0.0089870207 1.2720001 4280572303
-0.057236455 0.0089870207 1.2720001 4280638096
-0.056132555 0.0089870207 1.2720001 4280638096
-0.055028651 0.0089870207 1.2720001 4280703887
-0.053882353 0.0089799557 1.271 4280374922
-0.052779317 0.0089799557 1.271 4280440202
-0.051635623 0.0089728897 1.2700001 4280703374
-0.050533455 0.0089728897 1.2700001 4280834701
-0.049392365 0.0089658247 1.2690001 4280834701
-0.048291065 0.0089658247 1.2690001 4280834701
-0.047189765 0.0089658247 1.2690001 4280834701
-0.0461611 0.0089799557 1.271 4280768908
-0.045093514 0.0089870207 1.2720001 4280834701
-0.044024192 0.0089940866 1.273 4280768906
-0.043054283 0.0090223476 1.2770001 4280637575
-0.042011734 0.0090364777 1.279 4280768391
-0.040933732 0.0090435427 1.2800001 4280899975
-0.038893502 0.0090859346 1.286 4281162372
-0.037836201 0.0091000646 1.2880001 4281227652
-0.036775429 0.0091141956 1.2900001 4281424001
-0.036208704 0.0092555005 1.3100001 4281751426
-0.035125367 0.0092696315 1.312 4282013567
-0.034012653 0.0092766974 1.3130001 4282012540
-0.031854525 0.0093120234 1.3180001 4281419630
-0.029634174 0.0093332194 1.3210001 4281879150
-0.028574008 0.0093614804 1.325 4281813357
-0.027465502 0.0093756104 1.327 4282076013
-0.026333697 0.0093826763 1.3280001 4282141806
-0.025276002 0.0094180014 1.3330001 4282141548
-0.024155347 0.0094321324 1.335 4282206828
-0.023013994 0.0094391983 1.3360001 4282403691
-0.021919981 0.0094674593 1.34 4282469484
-0.020788042 0.0094815893 1.342 4282535275
-0.019638011 0.0094886543 1.3430001 4282404459
-0.018527508 0.0095169153 1.3470001 4282470250
-0.017371403 0.0095239813 1.348 4282470250
-0.016213562 0.0095310463 1.3490001 4282404970
-0.015053983 0.0095381122 1.35 4282668142
-0.013933803 0.0095734382 1.355 4283128692
-0.012767283 0.0095805032 1.3560001 4283457657
-0.011607575 0.0095946342 1.358 4283457657
-0.010467434 0.0096299602 1.363 4283260278
-0.0092981802 0.0096440902 1.365 4283260276
-0.0081195096 0.0096511561 1.3660001 4283326323
-0.0069644847 0.0096935481 1.3720001 4283786361
-0.0057780039 0.0097006131 1.373 4284246910
-0.0045931279 0.0097147431 1.3750001 4284312187
-0.0022193806 0.0097712651 1.383 4285233288
-0.001021356 0.009792462 1.386 4292602104
0.00018200678 0.009820722 1.3900001 4293587967
-0.18155777 0.010439982 1.317 4279583606
-0.18000385 0.0104162 1.314 4279125117
-0.17859125 0.010400346 1.312 4279783820
-0.17650586 0.010344857 1.3050001 4280047506
-0.17523892 0.01033693 1.304 4280047763
-0.17384022 0.010321075 1.302 4279850641
-0.17257762 0.010313148 1.3010001 4279785362
-0.17131677 0.010305221 1.3000001 4279785621
-0.16979583 0.01028144 1.2970001 4279720087
-0.16854018 0.010273512 1.296 4279917210
-0.16728626 0.010265586 1.2950001 4280115101
-0.16590577 0.010249731 1.2930001 4280180893
-0.16465621 0.010241804 1.2920001 4280181150
-0.16340838 0.010233877 1.291 4280312993
-0.16216227 0.010225951 1.2900001 4280445349
-0.16104275 0.010225951 1.2900001 4280445864
-0.15992321 0.010225951 1.2900001 4280577708
-0.15880369 0.010225951 1.2900001 4280709552
-0.15756193 0.010218023 1.289 4280709296
-0.15644328 0.010218023 1.289 4280512174
-0.15532462 0.010218023 1.289 4280380590
-0.1539667 0.010202168 1.2870001 4280315310
-0.15273102 0.010194242 1.286 4280315310
-0.15149707 0.010186315 1.2850001 4280249774
-0.15026484 0.010178387 1.284 4280184494
-0.14880204 0.010154607 1.281 4280184751
-0.14769033 0.010154607 1.281 4280053167
-0.14634977 0.010138752 1.279 4280052911
-0.14512622 0.010130825 1.2780001 4280118448
-0.14401712 0.010130825 1.2780001 4280118704
-0.14290801 0.010130825 1.2780001 4279987375
-0.1417989 0.010130825 1.2780001 4279921582
-0.14068978 0.010130825 1.2780001 4279987118
-0.13958067 0.010130825 1.2780001 4279987374
-0.13836321 0.010122898 1.2770001 4279987374
-0.13725497 0.010122898 1.2770001 4279987374
-0.13604012 0.010114971 1.276 4279921581
-0.13482699 0.010107044 1.2750001 4279921581
-0.1336156 0.010099117 1.274 4279921581
-0.13240595 0.01009119 1.273 4279921581
-0.13130118 0.01009119 1.273 4279921581
-0.13019641 0.01009119 1.273 4279987117
-0.12899022 0.010083263 1.2720001 4279921580
-0.12788633 0.010083263 1.2720001 4279921323
-0.12668274 0.010075335 1.271 4279855531
-0.12557971 0.010075335 1.271 4279855530
-0.12447668 0.010075335 1.271 4279855274
-0.1234707 0.010083263 1.2720001 4279855017
-0.12227061 0.010075335 1.271 4279920554
-0.12116757 0.010075335 1.271 4279986603
-0.12006453 0.010075335 1.271 4280052397
-0.1189615 0.010075335 1.271 4280117932
-0.11785846 0.010075335 1.271 4280052395
-0.11666357 0.010067408 1.2700001 4279986346
-0.11537941 0.010051554 1.268 4279920810
-0.11418886 0.010043628 1.2670001 4279920553
-0.11300002 0.0100357 1.266 4279854759
-0.11190133 0.0100357 1.266 4279788966
-0.11080263 0.0100357 1.266 4279788967
-0.10970393 0.0100357 1.266 4279854760
-0.10869102 0.010043628 1.2670001 4279920553
-0.10759146 0.010043628 1.2670001 4280051370
-0.10657594 0.010051554 1.268 4279985577
-0.10547552 0.010051554 1.268 4279919783
-0.10445739 0.010059481 1.2690001 4279853989
-0.10335609 0.010059481 1.2690001 4279853733
-0.10225479 0.010059481 1.2690001 4279853733
-0.10115349 0.010059481 1.2690001 4279853731
-0.10005219 0.010059481 1.2690001 4279853987
-0.098950885 0.010059481 1.2690001 4279853731
-0.097772487 0.010051554 1.268 4279853730
-0.096672051 0.010051554 1.268 4279853729
-0.095496245 0.010043628 1.2670001 4279853728
-0.094247676 0.010027773 1.2650001 4279919265
-0.093149841 0.010027773 1.2650001 4279985315
-0.092052013 0.010027773 1.2650001 4279985314
-0.090954185 0.010027773 1.2650001 4279919520
-0.089856356 0.010027773 1.2650001 4279853214
-0.088758528 0.010027773 1.2650001 4279919005
-0.0876607 0.010027773 1.2650001 4279919261
-0.086562872 0.010027773 1.2650001 4279919261
-0.085465044 0.010027773 1.2650001 4279984541
-0.084433898 0.0100357 1.266 4279984284
-0.083335206 0.0100357 1.266 4279918490
-0.082236506 0.0100357 1.266 4279984540
-0.081201904 0.010043628 1.2670001 4280115869
-0.080102339 0.010043628 1.2670001 4280115869
-0.079065129 0.010051554 1.268 4280049819
-0.077964693 0.010051554 1.268 4279918233
-0.076864265 0.010051554 1.268 4279918231
-0.075763829 0.010051554 1.268 4279918231
-0.074663393 0.010051554 1.268 4279983511
-0.073562965 0.010051554 1.268 4280049304
-0.072462529 0.010051554 1.268 4280049047
-0.071362101 0.010051554 1.268 4279982997
-0.070261665 0.010051554 1.268 4280114070
-0.069161229 0.010051554 1.268 4280179863
-0.0680608 0.010051554 1.268 4280114070
-0.066960365 0.010051554 1.268 4280048277
-0.065911867 0.010059481 1.2690001 4280179604
-0.0647595 0.010051554 1.268 4280179604
-0.063659072 0.010051554 1.268 4280244882
-0.062558636 0.010051554 1.268 4280376468
-0.061506666 0.010059481 1.2690001 4280376468
-0.060405366 0.010059481 1.2690001 4280310675
-0.059304066 0.010059481 1.2690001 4280441746
-0.058248632 0.010067408 1.2700001 4280573332
-0.057146464 0.010067408 1.2700001 4280573332
-0.056044295 0.010067408 1.2700001 4280507539
-0.054942127 0.010067408 1.2700001 4280572817
-0.053839959 0.010067408 1.2700001 4280572817
-0.052737791 0.010067408 1.2700001 4280638094
-0.051594965 0.010059481 1.2690001 4280572301
-0.050453875 0.010051554 1.268 4280834703
-0.049353443 0.010051554 1.268 4280900496
-0.048253011 0.010051554 1.268 4280900496
-0.047189765 0.010059481 1.2690001 4280966289
-0.0461611 0.010075335 1.271 4280900494
-0.045093514 0.010083263 1.2720001 4280900494
-0.044024192 0.01009119 1.273 4280834699
-0.043087997 0.010130825 1.2780001 4280703368
-0.042011734 0.010138752 1.279 4280834184
-0.040933732 0.010146679 1.2800001 4280966022
-0.039885111 0.010162534 1.2820001 4281162888
-0.038893502 0.010194242 1.286 4281228164
-0.037836201 0.010210096 1.2880001 4281555328
-0.036746915 0.010218023 1.289 4281948544
-0.036208704 0.010384492 1.3100001 4282078332
-0.035125367 0.010400346 1.312 4281945204
-0.034012653 0.010408274 1.3130001 4282009457
-0.031878695 0.010455836 1.319 4281942633
-0.030734004 0.010455836 1.319 4282206059
-0.029634174 0.01047169 1.3210001 4282337131
-0.028595572 0.010511326 1.3260001 4282206058
-0.027465502 0.010519253 1.327 4282337898
-0.026353527 0.010535107 1.3290001 4282272619
-0.025276002 0.010566815 1.3330001 4282141544
-0.024155347 0.01058267 1.335 4282141544
-0.023013994 0.010590597 1.3360001 4282207848
-0.021919981 0.010622305 1.34 4282273641
-0.020788042 0.010638159 1.342 4282536045
-0.019638011 0.010646086 1.3430001 4282470252
-0.018527508 0.010677794 1.3470001 4282404457
-0.017371403 0.010685721 1.348 4282404457
-0.016213562 0.010693649 1.3490001 4282602348
-0.015053983 0.010701576 1.35 4283062899
-0.013933803 0.010741211 1.355 4283392377
-0.012767283 0.010749138 1.3560001 4283523963
-0.011607575 0.010764993 1.358 4283260791
-0.010467434 0.010804628 1.363 4283129205
-0.0092981802 0.010820482 1.365 4283194483
-0.0081195096 0.010828409 1.3660001 4283194483
-0.0069644847 0.010875972 1.3720001 4283720568
-0.0057780039 0.010883899 1.373 4284444289
-0.0045931279 0.010899753 1.3750001 4284443775
-0.002216171 0.010947316 1.381 4285167238
-0.0010198822 0.010971096 1.3840001 4292338675
0.00018174491 0.011002805 1.388 4293653759
-0.18210919 0.011610162 1.3210001 4279911799
-0.1805518 0.011583795 1.3180001 4279452797
-0.17899962 0.011557427 1.3150001 4280242571
-0.17704687 0.011504695 1.309 4280374672
-0.17564209 0.011487116 1.307 4280374674
-0.17410725 0.011460749 1.304 4280177809
-0.17284293 0.011451961 1.3030001 4280112530
-0.17158034 0.011443172 1.302 4280112531
-0.17018858 0.011425594 1.3000001 4279915668
-0.16893032 0.011416805 1.299 4279981717
-0.1676738 0.011408016 1.2980001 4280113558
-0.16629072 0.011390438 1.296 4279982227
-0.16516599 0.011390438 1.296 4279851154
-0.16391467 0.011381649 1.2950001 4279917205
-0.1626651 0.011372861 1.294 4279917464
-0.16141726 0.011364072 1.2930001 4279983514
-0.16029513 0.011364072 1.2930001 4280312737
-0.159173 0.011364072 1.2930001 4280641960
-0.15792865 0.011355283 1.2920001 4280642474
-0.15668602 0.011346494 1.291 4280511402
-0.15544511 0.011337705 1.2900001 4280511660
-0.15432559 0.011337705 1.2900001 4280446638
-0.1530873 0.011328916 1.289 4280446639
-0.15185076 0.011320127 1.2880001 4280446895
-0.15061593 0.011311337 1.2870001 4280381615
-0.14926669 0.011293761 1.2850001 4280315824
-0.14803621 0.011284972 1.284 4280250288
-0.14669305 0.011267394 1.2820001 4280184496
-0.14558047 0.011267394 1.2820001 4280184240
-0.14435518 0.011258605 1.281 4280184240
-0.14324346 0.011258605 1.281 4280118703
-0.14202081 0.011249816 1.2800001 4280053167
-0.14090995 0.011249816 1.2800001 4280053167
-0.13968989 0.011241026 1.279 4280053167
-0.13836321 0.011223449 1.2770001 4280053167
-0.13725497 0.011223449 1.2770001 4279987374
-0.13593349 0.011205871 1.2750001 4279987374
-0.13472125 0.011197082 1.274 4279987374
-0.13351072 0.011188294 1.273 4279987374
-0.13240595 0.011188294 1.273 4279987374
-0.13119803 0.011179505 1.2720001 4279987374
-0.13009413 0.011179505 1.2720001 4279987374
-0.12888882 0.011170715 1.271 4279921581
-0.12778579 0.011170715 1.271 4279921581
-0.12668274 0.011170715 1.271 4279921581
-0.12557971 0.011170715 1.271 4279921324
-0.12447668 0.011170715 1.271 4279855274
-0.12327658 0.011161926 1.2700001 4279789481
-0.12217441 0.011161926 1.2700001 4279789481
-0.1209769 0.011153137 1.2690001 4279921067
-0.11987559 0.011153137 1.2690001 4279986860
-0.11868071 0.011144349 1.268 4279986860
-0.11739481 0.011126771 1.266 4279986860
-0.11620425 0.011117982 1.2650001 4279920810
-0.11510643 0.011117982 1.2650001 4279921067
-0.1140086 0.011117982 1.2650001 4279986603
-0.11291077 0.011117982 1.2650001 4279920810
-0.11181294 0.011117982 1.2650001 4279920553
-0.11071511 0.011117982 1.2650001 4279986089
-0.10961729 0.011117982 1.2650001 4279986090
-0.10860524 0.011126771 1.266 4279986090
-0.10750654 0.011126771 1.266 4280117163
-0.10640784 0.011126771 1.266 4280051370
-0.10530914 0.011126771 1.266 4279985575
-0.10429277 0.01113556 1.2670001 4279919781
-0.1031932 0.01113556 1.2670001 4279919781
-0.10201305 0.011126771 1.266 4279919781
-0.10091436 0.011126771 1.266 4279985060
-0.099815659 0.011126771 1.266 4279985059
-0.098638989 0.011117982 1.2650001 4280050852
-0.097541161 0.011117982 1.2650001 4279985059
-0.096367091 0.011109194 1.2640001 4279985059
-0.095270127 0.011109194 1.2640001 4279985059
-0.094173171 0.011109194 1.2640001 4280050851
-0.093076207 0.011109194 1.2640001 4280116388
-0.091906473 0.011100404 1.263 4280050595
-0.090810381 0.011100404 1.263 4279984802
-0.089714289 0.011100404 1.263 4279853214
-0.088618197 0.011100404 1.263 4279918750
-0.087522097 0.011100404 1.263 4279984543
-0.086426005 0.011100404 1.263 4280050335
-0.085329913 0.011100404 1.263 4279984543
-0.084300518 0.011109194 1.2640001 4279918750
-0.083203554 0.011109194 1.2640001 4279918235
-0.08210659 0.011109194 1.2640001 4279984028
-0.081009634 0.011109194 1.2640001 4280049821
-0.07991267 0.011109194 1.2640001 4280049821
-0.078815706 0.011109194 1.2640001 4280049306
-0.077780239 0.011117982 1.2650001 4279983513
-0.076682404 0.011117982 1.2650001 4279983513
-0.075524822 0.011109194 1.2640001 4279983513
-0.074486747 0.011117982 1.2650001 4279917718
-0.073388919 0.011117982 1.2650001 4279983511
-0.072291091 0.011117982 1.2650001 4279983254
-0.071193263 0.011117982 1.2650001 4279917461
-0.070095435 0.011117982 1.2650001 4280048277
-0.068997599 0.011117982 1.2650001 4280179863
-0.067899771 0.011117982 1.2650001 4280245143
-0.066749133 0.011109194 1.2640001 4280179350
-0.065652169 0.011109194 1.2640001 4280376472
-0.064555213 0.011109194 1.2640001 4280442264
-0.063458249 0.011109194 1.2640001 4280376470
-0.062361289 0.011109194 1.2640001 4280442263
-0.061312798 0.011117982 1.2650001 4280573077
-0.06021497 0.011117982 1.2650001 4280507284
-0.059163868 0.011126771 1.266 4280507284
-0.058111038 0.01113556 1.2670001 4280573077
-0.057011474 0.01113556 1.2670001 4280704405
-0.05591191 0.01113556 1.2670001 4280572819
-0.054769084 0.011126771 1.266 4280507026
-0.053670384 0.011126771 1.266 4280704405
-0.052530162 0.011117982 1.2650001 4280769682
-0.05143233 0.011117982 1.2650001 4280703889
-0.050334502 0.011117982 1.2650001 4280834960
-0.049275599 0.011126771 1.266 4280769167
-0.048214953 0.01113556 1.2670001 4280769167
-0.047115389 0.01113556 1.2670001 4280900753
-0.046124779 0.011161926 1.2700001 4280769167
-0.045058064 0.011170715 1.271 4280769421
-0.044058777 0.011197082 1.274 4280834701
-0.04204458 0.011249816 1.2800001 4281031561
-0.04096571 0.011258605 1.281 4281031813
-0.039916221 0.011276182 1.2830001 4281293957
-0.036263987 0.011531061 1.312 4281618551
-0.035205685 0.011557427 1.3150001 4281353837
-0.032948282 0.011566216 1.3160001 4281680744
-0.031951204 0.01161895 1.322 4281811817
-0.030827206 0.011627739 1.3230001 4282141036
-0.029701473 0.011636527 1.3240001 4282074472
-0.028638704 0.011671684 1.3280001 4282206058
-0.027527597 0.011689262 1.33 4282337898
-0.026393184 0.01169805 1.3310001 4282337898
-0.025313925 0.011733206 1.335 4282207080
-0.024191534 0.011750785 1.337 4282272873
-0.023048447 0.011759573 1.3380001 4282338666
-0.021952696 0.011794728 1.342 4282272873
-0.020803533 0.011803517 1.3430001 4282470250
-0.019652635 0.011812306 1.3440001 4282404457
-0.018541263 0.011847462 1.348 4282339177
-0.017384291 0.011856251 1.3490001 4282536556
-0.01622558 0.01186504 1.35 4282866033
-0.015065135 0.011873828 1.3510001 4283260791
-0.013944087 0.011917773 1.3560001 4283392377
-0.012776699 0.011926563 1.3570001 4283326584
-0.011616122 0.01194414 1.3590001 4283063412
-0.010475114 0.011988085 1.3640001 4283129205
-0.0093049919 0.012005663 1.3660001 4283260278
-0.0081254533 0.012014451 1.3670001 4283194483
-0.0069695604 0.012067186 1.373 4283720570
-0.0057822121 0.012075974 1.3740001 4284641668
-0.0045964681 0.012093551 1.376 4284706947
-0.18224706 0.012758283 1.322 4280305786
-0.18068878 0.012729331 1.319 4279517818
-0.17913572 0.012700379 1.3160001 4280175748
-0.17704687 0.012632824 1.309 4280768399
-0.17577648 0.012623173 1.3080001 4280636815
-0.17424078 0.012594221 1.3050001 4280374413
-0.17297557 0.01258457 1.304 4280177290
-0.1718439 0.01258457 1.304 4280045963
-0.17031948 0.012555617 1.3010001 4279980428
-0.16906036 0.012545967 1.3000001 4280112015
-0.16793217 0.012545967 1.3000001 4280178320
-0.16654733 0.012526665 1.2980001 4280046991
-0.16529343 0.012517015 1.2970001 4279915919
-0.16416782 0.012517015 1.2970001 4279916176
-0.16279081 0.012497713 1.2950001 4279784848
-0.16166694 0.012497713 1.2950001 4279719312
-0.16041911 0.012488062 1.294 4279982485
-0.15929611 0.012488062 1.294 4280245658
-0.15805088 0.012478411 1.2930001 4280246173
-0.15680738 0.012468761 1.2920001 4280180894
-0.15556562 0.01245911 1.291 4280247201
-0.15444523 0.01245911 1.291 4280379559
-0.15320607 0.012449459 1.2900001 4280511402
-0.15196864 0.012439809 1.289 4280708781
-0.15073296 0.012430158 1.2880001 4280643758
-0.14938284 0.012410857 1.286 4280446894
-0.14826679 0.012410857 1.286 4280316079
-0.14692189 0.012391555 1.284 4280250543
-0.14569402 0.012381904 1.2830001 4280184494
-0.14458057 0.012381904 1.2830001 4280184239
-0.1433553 0.012372253 1.2820001 4280184496
-0.14213175 0.012362603 1.281 4280184496
-0.14102004 0.012362603 1.281 4280184239
-0.13990833 0.012362603 1.281 4280118703
-0.13847156 0.01233365 1.2780001 4280053167
-0.13725497 0.012324 1.2770001 4280053167
-0.13614672 0.012324 1.2770001 4280053167
-0.13482699 0.012304698 1.2750001 4280053167
-0.1336156 0.012295047 1.274 4280053167
-0.13240595 0.012285397 1.273 4279987374
-0.13130118 0.012285397 1.273 4279987374
-0.13019641 0.012285397 1.273 4279987374
-0.12899022 0.012275746 1.2720001 4279921581
-0.12788633 0.012275746 1.2720001 4279921581
-0.12678242 0.012275746 1.2720001 4279987374
-0.12557971 0.012266095 1.271 4279987373
-0.12447668 0.012266095 1.271 4279921324
-0.12337364 0.012266095 1.271 4279855531
-0.12217441 0.012256444 1.2700001 4279789994
-0.1209769 0.012246793 1.2690001 4279789994
-0.11987559 0.012246793 1.2690001 4279855787
-0.1184935 0.012217841 1.266 4279921323
-0.11739481 0.012217841 1.266 4279855787
-0.11620425 0.012208191 1.2650001 4279855530
-0.11510643 0.012208191 1.2650001 4279855530
-0.1140086 0.012208191 1.2650001 4279855274
-0.11291077 0.012208191 1.2650001 4279855274
-0.11181294 0.012208191 1.2650001 4279920810
-0.11071511 0.012208191 1.2650001 4279855017
-0.10970393 0.012217841 1.266 4279920553
-0.10860524 0.012217841 1.266 4279854761
-0.10750654 0.012217841 1.266 4279920298
-0.10649189 0.012227492 1.2670001 4279854505
-0.10539233 0.012227492 1.2670001 4279788967
-0.10429277 0.012227492 1.2670001 4279788967
-0.1031932 0.012227492 1.2670001 4279920039
-0.10201305 0.012217841 1.266 4279920039
-0.10091436 0.012217841 1.266 4279920038
-0.099736817 0.012208191 1.2650001 4279920037
-0.098638989 0.012208191 1.2650001 4279985574
-0.097464055 0.01219854 1.2640001 4280051367
-0.096367091 0.01219854 1.2640001 4279985830
-0.095270127 0.01219854 1.2640001 4279985574
-0.094173171 0.01219854 1.2640001 4279985574
-0.093076207 0.01219854 1.2640001 4279985574
-0.091906473 0.012188889 1.263 4279919781
-0.090810381 0.012188889 1.263 4279853988
-0.089714289 0.012188889 1.263 4279788193
-0.088618197 0.012188889 1.263 4279788193
-0.087522097 0.012188889 1.263 4279788193
-0.086426005 0.012188889 1.263 4279853986
-0.085329913 0.012188889 1.263 4279984800
-0.08423382 0.012188889 1.263 4279984800
-0.083137728 0.012188889 1.263 4279984799
-0.082041636 0.012188889 1.263 4279984799
-0.080945536 0.012188889 1.263 4280050334
-0.079849444 0.012188889 1.263 4280050334
-0.078815706 0.01219854 1.2640001 4279984541
-0.07765726 0.012188889 1.263 4279918748
-0.076561168 0.012188889 1.263 4279918490
-0.075524822 0.01219854 1.2640001 4279918490
-0.074427865 0.01219854 1.2640001 4279852697
-0.073388919 0.012208191 1.2650001 4279852697
-0.072291091 0.012208191 1.2650001 4279918488
-0.071193263 0.012208191 1.2650001 4279786902
-0.070095435 0.012208191 1.2650001 4279983511
-0.068997599 0.012208191 1.2650001 4280115097
-0.067846097 0.01219854 1.2640001 4280180633
-0.066749133 0.01219854 1.2640001 4280114840
-0.065600231 0.012188889 1.263 4280311449
-0.064504139 0.012188889 1.263 4280377242
-0.063408047 0.012188889 1.263 4280376729
-0.062311951 0.012188889 1.263 4280376729
-0.061264329 0.01219854 1.2640001 4280442263
-0.06021497 0.012208191 1.2650001 4280376470
-0.059117138 0.012208191 1.2650001 4280376468
-0.058065172 0.012217841 1.266 4280508054
-0.056966472 0.012217841 1.266 4280508054
-0.05586778 0.012217841 1.266 4280442261
-0.054769084 0.012217841 1.266 4280441746
-0.05362799 0.012208191 1.2650001 4280507539
-0.052530162 0.012208191 1.2650001 4280638610
-0.05143233 0.012208191 1.2650001 4280770196
-0.050334502 0.012208191 1.2650001 4280901268
-0.049275599 0.012217841 1.266 4280769682
-0.048214953 0.012227492 1.2670001 4280703376
-0.047115389 0.012227492 1.2670001 4280834962
-0.046197418 0.012275746 1.2720001 4280638094
-0.045128964 0.012285397 1.273 4280703885
-0.044093359 0.012304698 1.2750001 4280835214
-0.04204458 0.012352952 1.2800001 4281097608
-0.04096571 0.012362603 1.281 4281293957
-0.039916221 0.012381904 1.2830001 4281359489
-0.036291625 0.012671427 1.3130001 4281746537
-0.034064464 0.012690728 1.3150001 4282270569
-0.032973316 0.012710029 1.317 4282336617
-0.03197537 0.012767934 1.3230001 4282074213
-0.030850505 0.012777585 1.3240001 4282140519
-0.029723909 0.012787235 1.325 4281943908
-0.028660268 0.012825838 1.3290001 4282075494
-0.027548293 0.01284514 1.3310001 4282141798
-0.026413014 0.012854791 1.332 4282141798
-0.025332887 0.012893394 1.3360001 4282141798
-0.024191534 0.012903045 1.337 4282207591
-0.023048447 0.012912694 1.3380001 4282273384
-0.021969054 0.012960949 1.3430001 4282207591
-0.020819023 0.012970599 1.3440001 4282338664
-0.019667257 0.012980251 1.345 4282404457
-0.018555019 0.013018853 1.3490001 4282536555
-0.017397176 0.013028504 1.35 4282931313
-0.016237598 0.013038155 1.3510001 4283194998
-0.015076286 0.013047805 1.3520001 4283260791
-0.013944087 0.013086408 1.3560001 4282998133
-0.012786115 0.01310571 1.358 4282866547
-0.011616122 0.013115361 1.3590001 4282800755
-0.010482795 0.013173264 1.365 4282998134
-0.0093049919 0.013182916 1.3660001 4283392377
-0.0081313979 0.013202217 1.368 4283458168
-0.0069695604 0.013250471 1.373 4283983742
-0.0057864203 0.013269773 1.3750001 4284839049
-0.0045964681 0.013279423 1.376 4284772740
-0.18238492 0.013908129 1.3230001 4280896635
-0.18082578 0.013876591 1.3200001 4279845237
-0.17927186 0.013845054 1.317 4280963975
-0.17718212 0.013771465 1.3100001 4282346142
-0.17591086 0.013760953 1.309 4282214814
-0.17437428 0.013729415 1.3060001 4281426067
-0.17324089 0.013729415 1.3060001 4280570758
-0.17197569 0.013718903 1.3050001 4280176258
-0.1704504 0.013687365 1.302 4280044931
-0.16932046 0.013687365 1.302 4280110981
-0.16806133 0.013676852 1.3010001 4280111238
-0.16667566 0.013655827 1.299 4280111753
-0.16542086 0.013645315 1.2980001 4280177805
-0.16429439 0.013645315 1.2980001 4280112526
-0.16291653 0.013624289 1.296 4280046991
-0.16179179 0.013624289 1.296 4279915919
-0.16054308 0.013613777 1.2950001 4280046993
-0.15929611 0.013603264 1.294 4280113044
-0.15817311 0.013603264 1.294 4279981973
-0.15692875 0.013592752 1.2930001 4279851157
-0.15580662 0.013592752 1.2930001 4279851672
-0.15456486 0.013582239 1.2920001 4279983772
-0.15332484 0.013571727 1.291 4280115616
-0.15208654 0.013561214 1.2900001 4280313252
-0.15084998 0.013550702 1.289 4280314023
-0.149499 0.013529676 1.2870001 4280117928
-0.14838208 0.013529676 1.2870001 4280118699
-0.14703631 0.013508651 1.2850001 4280118957
-0.14592114 0.013508651 1.2850001 4280118957
-0.14469326 0.013498139 1.284 4280184495
-0.14357893 0.013498139 1.284 4280250032
-0.14224271 0.013477114 1.2820001 4280315825
-0.14113013 0.013477114 1.2820001 4280315825
-0.14001755 0.013477114 1.2820001 4280184496
-0.13857992 0.013445576 1.279 4280184496
-0.13736245 0.013435063 1.2780001 4280118960
-0.13614672 0.013424551 1.2770001 4280118960
-0.13493274 0.013414038 1.276 4280118960
-0.13372047 0.013403526 1.2750001 4280053167
-0.13250996 0.013393013 1.274 4279987374
-0.13140433 0.013393013 1.274 4279987374
-0.13029869 0.013393013 1.274 4279987374
-0.12909164 0.013382501 1.273 4279987374
-0.12798686 0.013382501 1.273 4279987374
-0.12688209 0.013382501 1.273 4280053167
-0.12567851 0.013371988 1.2720001 4280053166
-0.12447668 0.013361475 1.271 4279987373
-0.12337364 0.013361475 1.271 4279921580
-0.12217441 0.013350963 1.2700001 4279855787
-0.1209769 0.01334045 1.2690001 4279855787
-0.11978114 0.013329938 1.268 4279855787
-0.1184935 0.013308913 1.266 4279855787
-0.11730209 0.0132984 1.2650001 4279855787
-0.11611239 0.013287888 1.2640001 4279855531
-0.11501542 0.013287888 1.2640001 4279855274
-0.11391847 0.013287888 1.2640001 4279855274
-0.11291077 0.0132984 1.2650001 4279855274
-0.11181294 0.0132984 1.2650001 4279920810
-0.11071511 0.0132984 1.2650001 4279920810
-0.10970393 0.013308913 1.266 4279855017
-0.10860524 0.013308913 1.266 4279855017
-0.10759146 0.013319425 1.2670001 4279855017
-0.10649189 0.013319425 1.2670001 4279789224
-0.10539233 0.013319425 1.2670001 4279854504
-0.10429277 0.013319425 1.2670001 4279920040
-0.10311175 0.013308913 1.266 4279920039
-0.10201305 0.013308913 1.266 4279854246
-0.10091436 0.013308913 1.266 4279854245
-0.099736817 0.0132984 1.2650001 4279920038
-0.098638989 0.0132984 1.2650001 4280051624
-0.097464055 0.013287888 1.2640001 4280117417
-0.096367091 0.013287888 1.2640001 4280051624
-0.095270127 0.013287888 1.2640001 4279985831
-0.094098665 0.013277375 1.263 4279854245
-0.093002565 0.013277375 1.263 4279854245
-0.091979243 0.013287888 1.2640001 4279920038
-0.090882286 0.013287888 1.2640001 4279920038
-0.089785323 0.013287888 1.2640001 4279919779
-0.088688359 0.013287888 1.2640001 4279788193
-0.087522097 0.013277375 1.263 4279853986
-0.086426005 0.013277375 1.263 4279919779
-0.085329913 0.013277375 1.263 4279919779
-0.08423382 0.013277375 1.263 4279985315
-0.083137728 0.013277375 1.263 4280182180
-0.081976682 0.013266862 1.2620001 4280247972
-0.080945536 0.013277375 1.263 4280181922
-0.079786226 0.013266862 1.2620001 4280116129
-0.078691006 0.013266862 1.2620001 4280050334
-0.07765726 0.013277375 1.263 4280050334
-0.076561168 0.013277375 1.263 4280050076
-0.075465068 0.013277375 1.263 4279984283
-0.074427865 0.013287888 1.2640001 4279984283
-0.073330902 0.013287888 1.2640001 4279984283
-0.072233938 0.013287888 1.2640001 4279984281
-0.071136981 0.013287888 1.2640001 4279852695
-0.070040017 0.013287888 1.2640001 4279983511
-0.068943053 0.013287888 1.2640001 4280115097
-0.067792416 0.013277375 1.263 4280246426
-0.066696323 0.013277375 1.263 4280180633
-0.065600231 0.013277375 1.263 4280311449
-0.064504139 0.013277375 1.263 4280377242
-0.063408047 0.013277375 1.263 4280376729
-0.062311951 0.013277375 1.263 4280442522
-0.061264329 0.013287888 1.2640001 4280508056
-0.060167365 0.013287888 1.2640001 4280442263
-0.059117138 0.0132984 1.2650001 4280442261
-0.058065172 0.013308913 1.266 4280508054
-0.056966472 0.013308913 1.266 4280508054
-0.05586778 0.013308913 1.266 4280442261
-0.054725818 0.0132984 1.2650001 4280639125
-0.05362799 0.0132984 1.2650001 4280507539
-0.052488636 0.013287888 1.2640001 4280704405
-0.05143233 0.0132984 1.2650001 4280770198
-0.050334502 0.0132984 1.2650001 4280901268
-0.049275599 0.013308913 1.266 4280901268
-0.048214953 0.013319425 1.2670001 4280835475
-0.047152579 0.013329938 1.268 4280638096
-0.046197418 0.013371988 1.2720001 4280638096
-0.045164417 0.013393013 1.274 4280769680
-0.044127941 0.013414038 1.276 4280966287
-0.042077426 0.013466601 1.281 4281162886
-0.04096571 0.013466601 1.281 4281425284
-0.039916221 0.013487626 1.2830001 4281490816
-0.035205685 0.013824028 1.3150001 4282074473
-0.034116272 0.013845054 1.317 4282467948
-0.033023391 0.013866078 1.319 4282468201
-0.03199954 0.013918641 1.3240001 4282205799
-0.030873809 0.013929154 1.325 4282140517
-0.029746341 0.013939667 1.3260001 4282009701
-0.028681835 0.013981717 1.33 4282075494
-0.027548293 0.013992229 1.3310001 4282141287
-0.026432846 0.014013254 1.3330001 4282272873
-0.025351848 0.014055305 1.337 4282272871
-0.02420963 0.014065817 1.3380001 4282272871
-0.023065671 0.01407633 1.3390001 4282338664
-0.021969054 0.01411838 1.3430001 4282338664
-0.020819023 0.014128893 1.3440001 4282338663
-0.019667257 0.014139405 1.345 4282470249
-0.018555019 0.014181456 1.3490001 4282733934
-0.017397176 0.014191967 1.35 4283194485
-0.016237598 0.014202481 1.3510001 4283392377
-0.015076286 0.014212993 1.3520001 4283194998
-0.01395437 0.014265556 1.3570001 4282734961
-0.012786115 0.014276068 1.358 4282603375
-0.01162467 0.014297093 1.36 4282800755
-0.010482795 0.014349656 1.365 4282998134
-0.0093118027 0.014370682 1.3670001 4283589756
-0.0081373416 0.014391707 1.3690001 4283852926
-0.0069746366 0.01444427 1.3740001 4284312707
-0.0057906285 0.014465296 1.376 4284904842
-0.0045998087 0.014475808 1.3770001 4284772740
-0.18279849 0.015082447 1.3260001 4281554306
-0.18109976 0.015036948 1.322 4280108149
-0.17954409 0.015002825 1.319 4281752976
