# .PCD v0.7 - Point Cloud Data file format
VERSION 0.7
FIELDS x y z rgba
SIZE 4 4 4 4
TYPE F F F U
COUNT 1 1 1 1
WIDTH 1097
HEIGHT 1
VIEWPOINT 0 0 0 1 0 0 0
POINTS 1097
DATA ascii
-0.10071275 0.0081947474 1.3210001 4281555078
-0.099566326 0.0081947474 1.3210001 4281292420
-0.098494403 0.0082009519 1.322 4281161090
-0.097347111 0.0082009519 1.322 4281227397
-0.09627258 0.0082071554 1.3230001 4281359242
-0.095124416 0.0082071554 1.3230001 4281359756
-0.093976252 0.0082071554 1.3230001 4281162123
-0.09289825 0.008213358 1.3240001 4280636293
-0.091749214 0.008213358 1.3240001 4280307328
-0.090668619 0.0082195615 1.325 4280241535
-0.089518718 0.0082195615 1.325 4280241535
-0.088368818 0.0082195615 1.325 4280044413
-0.087218918 0.0082195615 1.325 4280241536
-0.086004056 0.008213358 1.3240001 4280307330
-0.08485502 0.008213358 1.3240001 4280307330
-0.083769217 0.0082195615 1.325 4280307330
-0.082619317 0.0082195615 1.325 4280307330
-0.081469417 0.0082195615 1.325 4280373123
-0.080319516 0.0082195615 1.325 4280503938
-0.07922937 0.0082257651 1.3260001 4280503937
-0.07813748 0.0082319686 1.327 4280569730
-0.076985843 0.0082319686 1.327 4280767109
-0.075834207 0.0082319686 1.327 4280700805
-0.074795134 0.0082443748 1.3290001 4280700803
-0.073697165 0.0082505783 1.33 4280897154
-0.072542928 0.0082505783 1.33 4281094272
-0.071603395 0.0082753925 1.3340001 4281487998
-0.070498496 0.008281596 1.335 4280828005
-0.069443792 0.0082940031 1.337 4282206308
-0.20457213 0.0093120234 1.3180001 4292275199
-0.20296527 0.0092908274 1.3150001 4283198093
-0.20151709 0.0092766974 1.3130001 4279911287
-0.19976716 0.0092484364 1.309 4280439179
-0.19863115 0.0092484364 1.309 4280242061
-0.19734426 0.0092413705 1.3080001 4280569741
-0.19635911 0.0092484364 1.309 4281487505
-0.19522311 0.0092484364 1.309 4281947283
-0.19423535 0.0092555005 1.3100001 4281946769
-0.19309847 0.0092555005 1.3100001 4281684109
-0.19196159 0.0092555005 1.3100001 4281553805
-0.19067904 0.0092484364 1.309 4281489036
-0.18954304 0.0092484364 1.309 4281818256
-0.18840702 0.0092484364 1.309 4282345621
-0.187271 0.0092484364 1.309 4282411922
-0.18627718 0.0092555005 1.3100001 4282280846
-0.1851403 0.0092555005 1.3100001 4282347153
-0.18400341 0.0092555005 1.3100001 4282610326
-0.18300614 0.0092625665 1.3110001 4282544278
-0.18186839 0.0092625665 1.3110001 4282675606
-0.18073063 0.0092625665 1.3110001 4283398557
-0.17959288 0.0092625665 1.3110001 4284187046
-0.17845513 0.0092625665 1.3110001 4284646316
-0.17731738 0.0092625665 1.3110001 4284908716
-0.17631401 0.0092696315 1.312 4284907946
-0.1751754 0.0092696315 1.312 4284842407
-0.17416942 0.0092766974 1.3130001 4284711334
-0.17302993 0.0092766974 1.3130001 4284777640
-0.17202137 0.0092837624 1.314 4284712362
-0.17101106 0.0092908274 1.3150001 4284778412
-0.16986984 0.0092908274 1.3150001 4284581035
-0.16885692 0.0092978925 1.3160001 4284514730
-0.16771483 0.0092978925 1.3160001 4284382378
-0.16657275 0.0092978925 1.3160001 4284184744
-0.16543065 0.0092978925 1.3160001 4283527073
-0.16428857 0.0092978925 1.3160001 4282738072
-0.16314648 0.0092978925 1.3160001 4282541207
-0.16200438 0.0092978925 1.3160001 4282673563
-0.1608623 0.0092978925 1.3160001 4282673819
-0.15984158 0.0093049584 1.317 4282543003
-0.15869863 0.0093049584 1.317 4282477210
-0.15755567 0.0093049584 1.317 4282082708
-0.15641271 0.0093049584 1.317 4281621643
-0.15526976 0.0093049584 1.317 4281161605
-0.15412679 0.0093049584 1.317 4281030018
-0.15286767 0.0092978925 1.3160001 4280964481
-0.15172558 0.0092978925 1.3160001 4280964481
-0.15035465 0.0092837624 1.314 4280964737
-0.14910074 0.0092766974 1.3130001 4280964737
-0.14796124 0.0092766974 1.3130001 4280964480
-0.14682175 0.0092766974 1.3130001 4280898687
-0.14568228 0.0092766974 1.3130001 4280832893
-0.14465289 0.0092837624 1.314 4280832637
-0.14351253 0.0092837624 1.314 4280701307
-0.14248052 0.0092908274 1.3150001 4280504185
-0.14144677 0.0092978925 1.3160001 4280372855
-0.14030468 0.0092978925 1.3160001 4280307063
-0.1391626 0.0092978925 1.3160001 4280504184
-0.13812539 0.0093049584 1.317 4280635256
-0.13698244 0.0093049584 1.317 4280569720
-0.13583948 0.0093049584 1.317 4280569719
-0.13479879 0.0093120234 1.3180001 4280438390
-0.13365497 0.0093120234 1.3180001 4280438647
-0.13251114 0.0093120234 1.3180001 4280569978
-0.13146698 0.0093190884 1.319 4280635517
-0.13032229 0.0093190884 1.319 4280569216
-0.1291776 0.0093190884 1.319 4280437633
-0.12812999 0.0093261534 1.3200001 4280372093
-0.12698442 0.0093261534 1.3200001 4280241016
-0.12583886 0.0093261534 1.3200001 4280110198
-0.1246933 0.0093261534 1.3200001 4280045175
-0.12354774 0.0093261534 1.3200001 4280045435
-0.12230944 0.0093190884 1.319 4280045437
-0.12116475 0.0093190884 1.319 4279979391
-0.12002005 0.0093190884 1.319 4280110464
-0.11878524 0.0093120234 1.3180001 4280372352
-0.11764142 0.0093120234 1.3180001 4280766594
-0.11649759 0.0093120234 1.3180001 4281095559
-0.11535376 0.0093120234 1.3180001 4281292935
-0.11429659 0.0093190884 1.319 4282147215
-0.1131519 0.0093190884 1.319 4282870422
-0.11209213 0.0093261534 1.3200001 4282935444
-0.11094657 0.0093261534 1.3200001 4281816447
-0.10971782 0.0093190884 1.319 4281618552
-0.10865545 0.0093261534 1.3200001 4282209406
-0.10750989 0.0093261534 1.3200001 4282931331
-0.10636432 0.0093261534 1.3200001 4283128453
-0.10529847 0.0093332194 1.3210001 4283260299
-0.10415205 0.0093332194 1.3210001 4282801033
-0.10300562 0.0093332194 1.3210001 4282473612
-0.10185918 0.0093332194 1.3210001 4282409104
-0.10071275 0.0093332194 1.3210001 4282607508
-0.099566326 0.0093332194 1.3210001 4282345363
-0.098494403 0.0093402844 1.322 4282016654
-0.097347111 0.0093402844 1.322 4281951119
-0.09627258 0.0093473494 1.3230001 4281951377
-0.095124416 0.0093473494 1.3230001 4281819793
-0.093976252 0.0093473494 1.3230001 4281425038
-0.09289825 0.0093544144 1.3240001 4280833157
-0.091749214 0.0093544144 1.3240001 4280372863
-0.090668619 0.0093614804 1.325 4280372863
-0.089518718 0.0093614804 1.325 4280241535
-0.088368818 0.0093614804 1.325 4280241535
-0.087218918 0.0093614804 1.325 4280241535
-0.086069018 0.0093614804 1.325 4280307328
-0.084919117 0.0093614804 1.325 4280307330
-0.083769217 0.0093614804 1.325 4280241537
-0.082619317 0.0093614804 1.325 4280438146
-0.081469417 0.0093614804 1.325 4280503939
-0.080380134 0.0093685454 1.3260001 4280503937
-0.07922937 0.0093685454 1.3260001 4280438144
-0.07813748 0.0093756104 1.327 4280438144
-0.076985843 0.0093756104 1.327 4280569730
-0.075891353 0.0093826763 1.3280001 4280766596
-0.074795134 0.0093897404 1.3290001 4280897924
-0.073697165 0.0093968064 1.33 4281028740
-0.072542928 0.0093968064 1.33 4281159551
-0.071603395 0.0094250673 1.3340001 4281421950
-0.070551299 0.0094391983 1.3360001 4280696421
-0.069443792 0.0094462633 1.337 4281548123
-0.20441692 0.010439982 1.317 4292932863
-0.20296527 0.010424127 1.3150001 4284382366
-0.20151709 0.010408274 1.3130001 4280109176
-0.19991978 0.010384492 1.3100001 4280176775
-0.19863115 0.010376565 1.309 4280504460
-0.19734426 0.010368638 1.3080001 4281029006
-0.19635911 0.010376565 1.309 4282539421
-0.19522311 0.010376565 1.309 4283591080
-0.19423535 0.010384492 1.3100001 4283788972
-0.19295107 0.010376565 1.309 4283723948
-0.19181506 0.010376565 1.309 4283527080
-0.19067904 0.010376565 1.309 4283264677
-0.18954304 0.010376565 1.309 4284054960
-0.18840702 0.010376565 1.309 4284779193
-0.18741407 0.010384492 1.3100001 4284780471
-0.18627718 0.010384492 1.3100001 4284583860
-0.1851403 0.010384492 1.3100001 4284386996
-0.18414389 0.010392419 1.3110001 4284058033
-0.18300614 0.010392419 1.3110001 4283728555
-0.18186839 0.010392419 1.3110001 4283530405
-0.18073063 0.010392419 1.3110001 4283530147
-0.17959288 0.010392419 1.3110001 4283858342
-0.17845513 0.010392419 1.3110001 4284055209
-0.17745262 0.010400346 1.312 4283923109
-0.17631401 0.010400346 1.312 4283725216
-0.1751754 0.010400346 1.312 4283462300
-0.17416942 0.010408274 1.3130001 4283330714
-0.17302993 0.010408274 1.3130001 4283265179
-0.17215228 0.010424127 1.3150001 4283199386
-0.17101106 0.010424127 1.3150001 4282936214
-0.16986984 0.010424127 1.3150001 4282673043
-0.16872862 0.010424127 1.3150001 4282475406
-0.1675874 0.010424127 1.3150001 4282211980
-0.16644618 0.010424127 1.3150001 4281883017
-0.16530496 0.010424127 1.3150001 4281553798
-0.16428857 0.010432054 1.3160001 4281093762
-0.16314648 0.010432054 1.3160001 4280896896
-0.16200438 0.010432054 1.3160001 4280897152
-0.1608623 0.010432054 1.3160001 4280831872
-0.15984158 0.010439982 1.317 4280700800
-0.15869863 0.010439982 1.317 4280766850
-0.15755567 0.010439982 1.317 4280832899
-0.15641271 0.010439982 1.317 4280635520
-0.15526976 0.010439982 1.317 4280503934
-0.15412679 0.010439982 1.317 4280437885
-0.15286767 0.010432054 1.3160001 4280503678
-0.1516103 0.010424127 1.3150001 4280569470
-0.15035465 0.0104162 1.314 4280569726
-0.1492143 0.0104162 1.314 4280569983
-0.14807394 0.0104162 1.314 4280504190
-0.14693359 0.0104162 1.314 4280372606
-0.14579323 0.0104162 1.314 4280438142
-0.14465289 0.0104162 1.314 4280503934
-0.14351253 0.0104162 1.314 4280438398
-0.14248052 0.010424127 1.3150001 4280307069
-0.14144677 0.010432054 1.3160001 4280175739
-0.14030468 0.010432054 1.3160001 4280175995
-0.1391626 0.010432054 1.3160001 4280241274
-0.13812539 0.010439982 1.317 4280306809
-0.13698244 0.010439982 1.317 4280372345
-0.13583948 0.010439982 1.317 4280438394
-0.13479879 0.010447909 1.3180001 4280372860
-0.13365497 0.010447909 1.3180001 4280373117
-0.13251114 0.010447909 1.3180001 4280438398
-0.13146698 0.010455836 1.319 4280372349
-0.13032229 0.010455836 1.319 4280372352
-0.1291776 0.010455836 1.319 4280306817
-0.12812999 0.010463763 1.3200001 4280306559
-0.12698442 0.010463763 1.3200001 4280109435
-0.12583886 0.010463763 1.3200001 4280109434
-0.1246933 0.010463763 1.3200001 4280044154
-0.12354774 0.010463763 1.3200001 4280110203
-0.12230944 0.010455836 1.319 4280175740
-0.12116475 0.010455836 1.319 4280175740
-0.12002005 0.010455836 1.319 4280175483
-0.11878524 0.010447909 1.3180001 4280437630
-0.11764142 0.010447909 1.3180001 4280897665
-0.11649759 0.010447909 1.3180001 4281424003
-0.11535376 0.010447909 1.3180001 4282673293
-0.11429659 0.010455836 1.319 4285697708
-0.1131519 0.010455836 1.319 4287209401
-0.11200721 0.010455836 1.319 4287471033
-0.11086252 0.010455836 1.319 4285233560
-0.10971782 0.010455836 1.319 4283062396
-0.10865545 0.010463763 1.3200001 4283128448
-0.10750989 0.010463763 1.3200001 4283982474
-0.1064449 0.01047169 1.3210001 4284311439
-0.10529847 0.01047169 1.3210001 4284311440
-0.10415205 0.01047169 1.3210001 4283523208
-0.10300562 0.01047169 1.3210001 4283063947
-0.10185918 0.01047169 1.3210001 4283064977
-0.10071275 0.01047169 1.3210001 4283329177
-0.099566326 0.01047169 1.3210001 4283264667
-0.098494403 0.010479617 1.322 4283067802
-0.097347111 0.010479617 1.322 4283068829
-0.09627258 0.010487544 1.3230001 4283003039
-0.095124416 0.010487544 1.3230001 4282608539
-0.094047286 0.010495471 1.3240001 4281622158
-0.09289825 0.010495471 1.3240001 4280832899
-0.091749214 0.010495471 1.3240001 4280438398
-0.090668619 0.010503398 1.325 4280504191
-0.089518718 0.010503398 1.325 4280504192
-0.088368818 0.010503398 1.325 4280438656
-0.087218918 0.010503398 1.325 4280372351
-0.086069018 0.010503398 1.325 4280504193
-0.084919117 0.010503398 1.325 4280372352
-0.083769217 0.010503398 1.325 4280306558
-0.082681671 0.010511326 1.3260001 4280306558
-0.081530906 0.010511326 1.3260001 4280438144
-0.080380134 0.010511326 1.3260001 4280503424
-0.079289116 0.010519253 1.327 4280437631
-0.07813748 0.010519253 1.327 4280437886
-0.076985843 0.010519253 1.327 4280569472
-0.075891353 0.010527181 1.3280001 4280700546
-0.074795134 0.010535107 1.3290001 4280700545
-0.073697165 0.010543033 1.33 4280896897
-0.072542928 0.010543033 1.33 4280962173
-0.071603395 0.010574742 1.3340001 4281290364
-0.070498496 0.01058267 1.335 4280696166
-0.069391847 0.010590597 1.3360001 4281350489
-0.20426171 0.011566216 1.3160001 4293458687
-0.20281093 0.011548639 1.314 4285895346
-0.20136361 0.011531061 1.312 4280174453
-0.19991978 0.011513483 1.3100001 4279714938
-0.19863115 0.011504695 1.309 4280832135
-0.19734426 0.011495905 1.3080001 4281422216
-0.19635911 0.011504695 1.309 4283524768
-0.19507396 0.011495905 1.3080001 4284313514
-0.19408709 0.011504695 1.309 4284511922
-0.19309847 0.011513483 1.3100001 4284578485
-0.19196159 0.011513483 1.3100001 4284118445
-0.1908247 0.011513483 1.3100001 4283329697
-0.18983263 0.011522272 1.3110001 4283724708
-0.18869488 0.011522272 1.3110001 4284120489
-0.1877002 0.011531061 1.312 4283859369
-0.18656157 0.011531061 1.312 4283596455
-0.18542296 0.011531061 1.312 4283332776
-0.1844248 0.01153985 1.3130001 4283069605
-0.18328531 0.01153985 1.3130001 4282674591
-0.18214582 0.01153985 1.3130001 4282214039
-0.18100634 0.01153985 1.3130001 4282081939
-0.17986685 0.01153985 1.3130001 4282016401
-0.17872736 0.01153985 1.3130001 4281884815
-0.17758788 0.01153985 1.3130001 4281490569
-0.17644839 0.01153985 1.3130001 4281161603
-0.17530891 0.01153985 1.3130001 4281029761
-0.17416942 0.01153985 1.3130001 4280897665
-0.17316173 0.011548639 1.314 4280897409
-0.17202137 0.011548639 1.314 4281028483
-0.17101106 0.011557427 1.3150001 4280896895
-0.16986984 0.011557427 1.3150001 4280567929
-0.16872862 0.011557427 1.3150001 4280436854
-0.16771483 0.011566216 1.3160001 4280371061
-0.16657275 0.011566216 1.3160001 4280305270
-0.16543065 0.011566216 1.3160001 4280436087
-0.16428857 0.011566216 1.3160001 4280370552
-0.16314648 0.011566216 1.3160001 4280305017
-0.16200438 0.011566216 1.3160001 4280370810
-0.16098455 0.011575006 1.317 4280437116
-0.15984158 0.011575006 1.317 4280306044
-0.15881912 0.011583795 1.3180001 4280371838
-0.1576753 0.011583795 1.3180001 4280372351
-0.15653147 0.011583795 1.3180001 4280174971
-0.15526976 0.011575006 1.317 4280240508
-0.15400976 0.011566216 1.3160001 4280371581
-0.15286767 0.011566216 1.3160001 4280437630
-0.1516103 0.011557427 1.3150001 4280503167
-0.15046906 0.011557427 1.3150001 4280437630
-0.1492143 0.011548639 1.314 4280437887
-0.14818662 0.011557427 1.3150001 4280372095
-0.1470454 0.011557427 1.3150001 4280240766
-0.14579323 0.011548639 1.314 4280306559
-0.14476296 0.011557427 1.3150001 4280372352
-0.14362174 0.011557427 1.3150001 4280372865
-0.14248052 0.011557427 1.3150001 4280307328
-0.14144677 0.011566216 1.3160001 4280175998
-0.14041132 0.011575006 1.317 4280175998
-0.13926835 0.011575006 1.317 4280306813
-0.13823026 0.011583795 1.3180001 4280437885
-0.13708645 0.011583795 1.3180001 4280438141
-0.13594262 0.011583795 1.3180001 4280503677
-0.13490106 0.011592583 1.319 4280372349
-0.13375637 0.011592583 1.319 4280372350
-0.13261168 0.011592583 1.319 4280437632
-0.13156666 0.011601372 1.3200001 4280306046
-0.1304211 0.011601372 1.3200001 4280174717
-0.12927555 0.011601372 1.3200001 4280109436
-0.12822704 0.011610162 1.3210001 4279977338
-0.12708062 0.011610162 1.3210001 4279845496
-0.12593418 0.011610162 1.3210001 4279779959
-0.12478776 0.011610162 1.3210001 4279780216
-0.12364133 0.011610162 1.3210001 4279911800
-0.12249491 0.011610162 1.3210001 4280043385
-0.12134848 0.011610162 1.3210001 4280109691
-0.12011106 0.011601372 1.3200001 4280175484
-0.1189655 0.011601372 1.3200001 4280306301
-0.11781994 0.011601372 1.3200001 4280700544
-0.11667437 0.011601372 1.3200001 4281292160
-0.11552881 0.011601372 1.3200001 4283133069
-0.11429659 0.011592583 1.319 4286485421
-0.1131519 0.011592583 1.319 4288260283
-0.11209213 0.011601372 1.3200001 4289048774
-0.11094657 0.011601372 1.3200001 4288193469
-0.10988419 0.011610162 1.3210001 4285429914
-0.10873776 0.011610162 1.3210001 4284706710
-0.10767278 0.01161895 1.322 4285297823
-0.10652548 0.01161895 1.322 4285824166
-0.10537819 0.01161895 1.322 4285626786
-0.10423089 0.01161895 1.322 4284245905
-0.10308359 0.01161895 1.322 4282996868
-0.1019363 0.01161895 1.322 4282538116
-0.100789 0.01161895 1.322 4282802574
-0.099717073 0.011627739 1.3230001 4283132823
-0.098568909 0.011627739 1.3230001 4283396507
-0.097494379 0.011636527 1.3240001 4283528864
-0.09634535 0.011636527 1.3240001 4283528353
-0.09526822 0.011645317 1.325 4283134366
-0.094118319 0.011645317 1.325 4281885071
-0.092968419 0.011645317 1.325 4280832896
-0.091887817 0.011654106 1.3260001 4280503933
-0.090737045 0.011654106 1.3260001 4280635263
-0.08958628 0.011654106 1.3260001 4280635265
-0.088435508 0.011654106 1.3260001 4280438143
-0.087284744 0.011654106 1.3260001 4280306813
-0.086133979 0.011654106 1.3260001 4280569985
-0.08504729 0.011662895 1.327 4280438144
-0.083895653 0.011662895 1.327 4280306558
-0.082744025 0.011662895 1.327 4280306045
-0.081592388 0.011662895 1.327 4280437631
-0.08050137 0.011671684 1.3280001 4280437886
-0.07934887 0.011671684 1.3280001 4280437886
-0.078196362 0.011671684 1.3280001 4280503679
-0.077101879 0.011680473 1.3290001 4280569472
-0.075948507 0.011680473 1.3290001 4280766338
-0.074851409 0.011689262 1.33 4280634751
-0.073752582 0.01169805 1.3310001 4280831102
-0.072542928 0.011689262 1.33 4281027963
-0.071657069 0.011733206 1.335 4281356157
-0.070551299 0.011741995 1.3360001 4280761959
-0.069495738 0.011759573 1.3380001 4281153625
-0.2003776 0.012671427 1.3130001 4279714170
-0.19908637 0.012661776 1.312 4280766087
-0.19779688 0.012652125 1.3110001 4281225352
-0.19650912 0.012642474 1.3100001 4282341523
-0.19537224 0.012642474 1.3100001 4283130524
-0.19438364 0.012652125 1.3110001 4283065759
-0.19324589 0.012652125 1.3110001 4283066785
-0.19210814 0.012652125 1.3110001 4282409110
-0.19097039 0.012652125 1.3110001 4281488777
-0.18997744 0.012661776 1.312 4281291654
-0.18883881 0.012661776 1.312 4281358214
-0.18784325 0.012671427 1.3130001 4281227911
-0.18670377 0.012671427 1.3130001 4280899203
-0.18556428 0.012671427 1.3130001 4280701314
-0.18456526 0.012681077 1.314 4280635521
-0.1834249 0.012681077 1.314 4280635007
-0.18228456 0.012681077 1.314 4280503421
-0.18114421 0.012681077 1.314 4280569213
-0.18000385 0.012681077 1.314 4280635008
-0.1788635 0.012681077 1.314 4280437887
-0.17772314 0.012681077 1.314 4280175228
-0.17658278 0.012681077 1.314 4280109691
-0.17544244 0.012681077 1.314 4280044154
-0.17430209 0.012681077 1.314 4280109691
-0.17316173 0.012681077 1.314 4280109691
-0.17202137 0.012681077 1.314 4280372093
-0.17101106 0.012690728 1.3150001 4280503419
-0.16986984 0.012690728 1.3150001 4280371573
-0.16885692 0.012700379 1.3160001 4280437110
-0.16771483 0.012700379 1.3160001 4280437112
-0.16657275 0.012700379 1.3160001 4280568441
-0.16543065 0.012700379 1.3160001 4280897406
-0.16441341 0.012710029 1.317 4281028736
-0.16327046 0.012710029 1.317 4280962944
-0.16212749 0.012710029 1.317 4280765823
-0.16098455 0.012710029 1.317 4280634752
-0.15996295 0.012719681 1.3180001 4280569216
-0.15881912 0.012719681 1.3180001 4280437887
-0.1576753 0.012719681 1.3180001 4280240507
-0.15641271 0.012710029 1.317 4280043127
-0.15526976 0.012710029 1.317 4280173943
-0.15412679 0.012710029 1.317 4280305272
-0.15298384 0.012710029 1.317 4280436603
-0.15172558 0.012700379 1.3160001 4280371068
-0.15046906 0.012690728 1.3150001 4280371325
-0.14932784 0.012690728 1.3150001 4280502912
-0.14818662 0.012690728 1.3150001 4280371840
-0.1470454 0.012690728 1.3150001 4280306304
-0.14590418 0.012690728 1.3150001 4280372097
-0.14487304 0.012700379 1.3160001 4280437890
-0.14373095 0.012700379 1.3160001 4280372353
-0.14258887 0.012700379 1.3160001 4280306559
-0.14155427 0.012710029 1.317 4280174972
-0.14041132 0.012710029 1.317 4280109434
-0.13926835 0.012710029 1.317 4280437627
-0.13823026 0.012719681 1.3180001 4280502905
-0.13708645 0.012719681 1.3180001 4280371317
-0.13604575 0.012729331 1.319 4280305524
-0.13490106 0.012729331 1.319 4280371060
-0.13375637 0.012729331 1.319 4280305267
-0.13271223 0.012738981 1.3200001 4280305011
-0.13156666 0.012738981 1.3200001 4280436340
-0.13051991 0.012748633 1.3210001 4280435571
-0.12937348 0.012748633 1.3210001 4280500850
-0.12832411 0.012758283 1.322 4280631153
-0.12717681 0.012758283 1.322 4280959089
-0.12602952 0.012758283 1.322 4281155957
-0.12488222 0.012758283 1.322 4281287544
-0.12373492 0.012758283 1.322 4281354107
-0.12258763 0.012758283 1.322 4281486720
-0.12134848 0.012748633 1.3210001 4281224574
-0.12020204 0.012748633 1.3210001 4280831099
-0.11905561 0.012748633 1.3210001 4280633720
-0.11790919 0.012748633 1.3210001 4280765305
-0.11667437 0.012738981 1.3200001 4281093751
-0.11552881 0.012738981 1.3200001 4281815669
-0.11438325 0.012738981 1.3200001 4284049284
-0.11323769 0.012738981 1.3200001 4287074213
-0.11217704 0.012748633 1.3210001 4289113025
-0.11103062 0.012748633 1.3210001 4289376454
-0.10988419 0.012748633 1.3210001 4286547619
-0.10882007 0.012758283 1.322 4285758622
-0.10767278 0.012758283 1.322 4286218921
-0.10652548 0.012758283 1.322 4286613938
-0.10537819 0.012758283 1.322 4286351281
-0.10423089 0.012758283 1.322 4284707483
-0.10308359 0.012758283 1.322 4282866822
-0.1020134 0.012767934 1.3230001 4282275970
-0.10086524 0.012767934 1.3230001 4282540172
-0.099717073 0.012767934 1.3230001 4283067543
-0.098643415 0.012777585 1.3240001 4283265693
-0.097494379 0.012777585 1.3240001 4283200157
-0.09641812 0.012787235 1.325 4283002268
-0.09526822 0.012787235 1.325 4282739609
-0.094189353 0.012796886 1.3260001 4282016657
-0.093038581 0.012796886 1.3260001 4280964482
-0.091887817 0.012796886 1.3260001 4280569468
-0.090805471 0.012806538 1.327 4280569724
-0.089653835 0.012806538 1.327 4280569470
-0.088502198 0.012806538 1.327 4280372091
-0.087350562 0.012806538 1.327 4280306813
-0.086198926 0.012806538 1.327 4280504192
-0.08504729 0.012806538 1.327 4280569985
-0.083895653 0.012806538 1.327 4280438399
-0.082806379 0.012816188 1.3280001 4280437886
-0.081653871 0.012816188 1.3280001 4280437886
-0.08050137 0.012816188 1.3280001 4280372093
-0.079408616 0.012825838 1.3290001 4280372093
-0.078255251 0.012825838 1.3290001 4280503164
-0.077101879 0.012825838 1.3290001 4280568957
-0.075948507 0.012825838 1.3290001 4280700028
-0.074851409 0.012835489 1.33 4280568442
-0.073697165 0.012835489 1.33 4280699769
-0.072597474 0.01284514 1.3310001 4281093755
-0.071710743 0.012893394 1.3360001 4281422205
-0.070604108 0.012903045 1.337 4280828263
-0.069547676 0.012922346 1.3390001 4281153627
-0.20053022 0.013813516 1.314 4279714423
-0.19908637 0.013792491 1.312 4280371841
-0.19779688 0.013781978 1.3110001 4280700806
-0.19650912 0.013771465 1.3100001 4280832392
-0.19552138 0.013781978 1.3110001 4280832645
-0.1945319 0.013792491 1.312 4280963205
-0.19339329 0.013792491 1.312 4280766594
-0.19225466 0.013792491 1.312 4280372605
-0.19111605 0.013792491 1.312 4279978620
-0.18997744 0.013792491 1.312 4279518329
-0.18898274 0.013803003 1.3130001 4279649914
-0.18784325 0.013803003 1.3130001 4279780986
-0.18684597 0.013813516 1.314 4279780983
-0.18570562 0.013813516 1.314 4279781237
-0.18456526 0.013813516 1.314 4279846771
-0.1834249 0.013813516 1.314 4279977844
-0.18228456 0.013813516 1.314 4280175480
-0.18114421 0.013813516 1.314 4280307069
-0.18000385 0.013813516 1.314 4280372865
-0.1788635 0.013813516 1.314 4280307075
-0.17772314 0.013813516 1.314 4280109954
-0.17658278 0.013813516 1.314 4280110209
-0.17544244 0.013813516 1.314 4280176515
-0.17430209 0.013813516 1.314 4280110977
-0.17316173 0.013813516 1.314 4280045183
-0.17202137 0.013813516 1.314 4280110718
-0.17101106 0.013824028 1.3150001 4280241786
-0.16986984 0.013824028 1.3150001 4280438392
-0.16885692 0.013834541 1.3160001 4280700794
-0.16771483 0.013834541 1.3160001 4281160321
-0.16657275 0.013834541 1.3160001 4281883786
-0.16555637 0.013845054 1.317 4282475665
-0.16441341 0.013845054 1.317 4282607253
-0.16327046 0.013845054 1.317 4282213010
-0.16225059 0.013855566 1.3180001 4281423752
-0.16110678 0.013855566 1.3180001 4280634495
-0.15996295 0.013855566 1.3180001 4280371837
-0.15881912 0.013855566 1.3180001 4280569472
-0.1576753 0.013855566 1.3180001 4281029509
-0.15641271 0.013845054 1.317 4281160580
-0.15526976 0.013845054 1.317 4280897151
-0.15412679 0.013845054 1.317 4281554567
-0.15298384 0.013845054 1.317 4282015120
-0.15172558 0.013834541 1.3160001 4281094277
-0.15058349 0.013834541 1.3160001 4280239483
-0.14932784 0.013824028 1.3150001 4280173948
-0.14818662 0.013824028 1.3150001 4280174461
-0.1470454 0.013824028 1.3150001 4280108924
-0.14590418 0.013824028 1.3150001 4280174718
-0.14487304 0.013834541 1.3160001 4280174462
-0.14373095 0.013834541 1.3160001 4280108668
-0.14269723 0.013845054 1.317 4280108924
-0.14166175 0.013855566 1.3180001 4280108923
-0.14051792 0.013855566 1.3180001 4280240251
-0.13937409 0.013855566 1.3180001 4280503164
-0.13833514 0.013866078 1.319 4280634234
-0.13719045 0.013866078 1.319 4280699512
-0.13604575 0.013866078 1.319 4280830840
-0.13500334 0.013876591 1.3200001 4281094267
-0.13385779 0.013876591 1.3200001 4281489024
-0.13271223 0.013876591 1.3200001 4281883524
-0.13166633 0.013887104 1.3210001 4282212232
-0.13051991 0.013887104 1.3210001 4282605965
-0.12947141 0.013897616 1.322 4282868110
-0.12832411 0.013897616 1.322 4283326352
-0.12717681 0.013897616 1.322 4283982997
-0.12602952 0.013897616 1.322 4284376732
-0.12488222 0.013897616 1.322 4284245403
-0.12373492 0.013897616 1.322 4284115357
-0.12258763 0.013897616 1.322 4284182691
-0.12144033 0.013897616 1.322 4283329690
-0.12029304 0.013897616 1.322 4281422977
-0.11914574 0.013897616 1.322 4280699256
-0.11790919 0.013887104 1.3210001 4280764791
-0.11676276 0.013887104 1.3210001 4280895602
-0.11561633 0.013887104 1.3210001 4281157225
-0.1144699 0.013887104 1.3210001 4282930031
-0.11332347 0.013887104 1.3210001 4286217876
-0.11226197 0.013897616 1.322 4288915389
-0.11111467 0.013897616 1.322 4289113282
-0.10996737 0.013897616 1.322 4286613152
-0.10890239 0.013908129 1.3230001 4285758103
-0.10775423 0.013908129 1.3230001 4286021025
-0.10660607 0.013908129 1.3230001 4286612910
-0.1054579 0.013908129 1.3230001 4286547892
-0.10430973 0.013908129 1.3230001 4284641436
-0.10316157 0.013908129 1.3230001 4283524239
-0.1020134 0.013908129 1.3230001 4283130764
-0.10086524 0.013908129 1.3230001 4283197586
-0.099717073 0.013908129 1.3230001 4283264407
-0.098643415 0.013918641 1.3240001 4283133337
-0.09756802 0.013929154 1.325 4282936215
-0.09649089 0.013939667 1.3260001 4282607506
-0.095340118 0.013939667 1.3260001 4282213519
-0.094189353 0.013939667 1.3260001 4281950606
-0.093108743 0.013950179 1.327 4281161861
-0.091957107 0.013950179 1.327 4280503931
-0.090805471 0.013950179 1.327 4280503931
-0.089721397 0.013960692 1.3280001 4280437883
-0.088568896 0.013960692 1.3280001 4280306298
-0.087416396 0.013960692 1.3280001 4280437886
-0.086263888 0.013960692 1.3280001 4280503679
-0.085111387 0.013960692 1.3280001 4280569472
-0.083958879 0.013960692 1.3280001 4280437886
-0.082806379 0.013960692 1.3280001 4280372093
-0.081653871 0.013960692 1.3280001 4280372093
-0.080561988 0.013971204 1.3290001 4280306300
-0.079408616 0.013971204 1.3290001 4280372093
-0.078255251 0.013971204 1.3290001 4280568957
-0.077101879 0.013971204 1.3290001 4280634750
-0.075948507 0.013971204 1.3290001 4280634234
-0.074851409 0.013981717 1.33 4280502648
-0.073752582 0.013992229 1.3310001 4280633975
-0.07265202 0.014002742 1.332 4281027962
-0.071710743 0.014044792 1.3360001 4281356155
-0.070656918 0.014065817 1.3380001 4280893799
-0.069599614 0.014086843 1.34 4280956248
-0.20053022 0.014945953 1.314 4279779445
-0.19923811 0.01493458 1.3130001 4280240254
-0.19794776 0.014923205 1.312 4280635524
-0.19665913 0.01491183 1.3110001 4280701061
-0.19552138 0.01491183 1.3110001 4280635010
-0.1945319 0.014923205 1.312 4280765570
-0.19339329 0.014923205 1.312 4280568704
-0.1924012 0.01493458 1.3130001 4280372609
-0.19126171 0.01493458 1.3130001 4279979135
-0.19012223 0.01493458 1.3130001 4279650169
-0.18912669 0.014945953 1.314 4279715961
-0.18798633 0.014945953 1.314 4279781495
-0.18684597 0.014945953 1.314 4280044151
-0.18584694 0.014957329 1.3150001 4280174967
-0.18484618 0.014968703 1.3160001 4280109429
-0.18370409 0.014968703 1.3160001 4280109428
-0.18256199 0.014968703 1.3160001 4280306809
-0.18141991 0.014968703 1.3160001 4280306813
-0.18027782 0.014968703 1.3160001 4280503681
-0.17913572 0.014968703 1.3160001 4280503425
-0.17799364 0.014968703 1.3160001 4280371584
-0.17671718 0.014957329 1.3150001 4280306304
-0.17557594 0.014957329 1.3150001 4280372354
-0.17430209 0.014945953 1.314 4280240767
-0.17316173 0.014945953 1.314 4280306559
-0.17215228 0.014957329 1.3150001 4280438144
-0.17101106 0.014957329 1.3150001 4280503421
-0.16999902 0.014968703 1.3160001 4280569211
-0.16898525 0.014980077 1.317 4280765820
-0.16784228 0.014980077 1.317 4281751945
-0.16669933 0.014980077 1.317 4283067547
-0.16568208 0.014991452 1.3180001 4283330718
-0.16453825 0.014991452 1.3180001 4283199902
-0.16351838 0.015002825 1.319 4283134110
-0.16237369 0.015002825 1.319 4282081422
-0.16110678 0.014991452 1.3180001 4280765306
-0.15996295 0.014991452 1.3180001 4280633203
-0.15893961 0.015002825 1.319 4282079876
-0.15779492 0.015002825 1.319 4284645026
-0.15653147 0.014991452 1.3180001 4284907422
-0.15538765 0.014991452 1.3180001 4283722376
-0.15424383 0.014991452 1.3180001 4285104028
-0.1531 0.014991452 1.3180001 4286617270
-0.15195617 0.014991452 1.3180001 4284709790
-0.15069793 0.014980077 1.317 4281814906
-0.14944141 0.014968703 1.3160001 4281288825
-0.14829931 0.014968703 1.3160001 4281619074
-0.14715722 0.014968703 1.3160001 4281685380
-0.14601514 0.014968703 1.3160001 4281750918
-0.14498314 0.014980077 1.317 4281816455
-0.14394939 0.014991452 1.3180001 4281881992
-0.14280558 0.014991452 1.3180001 4282079370
-0.14176922 0.015002825 1.319 4282474896
-0.14062452 0.015002825 1.319 4282738581
-0.13947983 0.015002825 1.319 4282935961
-0.13844003 0.0150142 1.3200001 4283330461
-0.13729447 0.0150142 1.3200001 4283659167
-0.13625205 0.015025575 1.3210001 4283987872
-0.13510562 0.015025575 1.3210001 4284382368
-0.13395919 0.015025575 1.3210001 4284974758
-0.13291329 0.015036948 1.322 4285369516
-0.13176601 0.015036948 1.322 4285632688
-0.13071752 0.015048324 1.3230001 4285764273
-0.12956935 0.015048324 1.3230001 4285829040
-0.12842119 0.015048324 1.3230001 4286155697
-0.12727302 0.015048324 1.3230001 4286549171
-0.12612486 0.015048324 1.3230001 4286548145
-0.12497669 0.015048324 1.3230001 4286285485
-0.12392212 0.015059697 1.3240001 4285891755
-0.12277309 0.015059697 1.3240001 4285630125
-0.1215322 0.015048324 1.3230001 4284381858
-0.12029304 0.015036948 1.322 4282145927
-0.11914574 0.015036948 1.322 4281027706
-0.11808771 0.015048324 1.3230001 4280830069
-0.11693954 0.015048324 1.3230001 4281223537
-0.11579138 0.015048324 1.3230001 4282537335
-0.11464322 0.015048324 1.3230001 4284574345
-0.11349505 0.015048324 1.3230001 4287073446
-0.1124318 0.015059697 1.3240001 4289113284
-0.11128277 0.015059697 1.3240001 4288982725
-0.11013374 0.015059697 1.3240001 4286023842
-0.1089847 0.015059697 1.3240001 4283063932
-0.10783567 0.015059697 1.3240001 4282997631
-0.10668664 0.015059697 1.3240001 4284049809
-0.10553761 0.015059697 1.3240001 4284247958
-0.10438857 0.015059697 1.3240001 4283656592
-0.10323954 0.015059697 1.3240001 4283197326
-0.10209051 0.015059697 1.3240001 4282869391
-0.10101772 0.015071073 1.325 4282607505
-0.099867821 0.015071073 1.325 4282476690
-0.098792426 0.015082447 1.3260001 4282541971
-0.097641654 0.015082447 1.3260001 4282541971
-0.096563652 0.01509382 1.327 4282409615
-0.095412016 0.01509382 1.327 4282278029
-0.094331414 0.015105196 1.3280001 4281949835
-0.093178913 0.015105196 1.3280001 4281226626
-0.092026405 0.015105196 1.3280001 4280569211
-0.090942338 0.01511657 1.3290001 4280437625
-0.089788966 0.01511657 1.3290001 4280437371
-0.088635594 0.01511657 1.3290001 4280437628
-0.087482221 0.01511657 1.3290001 4280568959
-0.086328849 0.01511657 1.3290001 4280503166
-0.085175477 0.01511657 1.3290001 4280568959
-0.084022105 0.01511657 1.3290001 4280568959
-0.082931086 0.015127945 1.33 4280437373
-0.081776842 0.015127945 1.33 4280306043
-0.080622606 0.015127945 1.33 4280305785
-0.079408616 0.01511657 1.3290001 4280437371
-0.078314126 0.015127945 1.33 4280699516
-0.077159889 0.015127945 1.33 4280699516
-0.076005645 0.015127945 1.33 4280764793
-0.07490769 0.015139319 1.3310001 4280830843
-0.073807992 0.015150692 1.332 4280896635
-0.072706558 0.015162067 1.3330001 4281027963
-0.071764417 0.015207564 1.337 4281159031
-0.070709728 0.015230314 1.3390001 4280697701
-0.069651552 0.015253063 1.3410001 4280892506
-0.20098805 0.016115101 1.317 4279845235
-0.1995416 0.01609063 1.3150001 4280568964
-0.1982495 0.016078392 1.314 4280635270
-0.19680914 0.016053919 1.312 4280569477
-0.19567052 0.016053919 1.312 4280569733
-0.19468017 0.016066156 1.3130001 4280437890
-0.19354068 0.016066156 1.3130001 4280438147
-0.1924012 0.016066156 1.3130001 4280372868
-0.19140738 0.016078392 1.314 4280242050
-0.19026704 0.016078392 1.314 4280439167
-0.18912669 0.016078392 1.314 4280373884
-0.18812938 0.01609063 1.3150001 4280637310
-0.18698816 0.01609063 1.3150001 4281097347
-0.18584694 0.01609063 1.3150001 4281227909
-0.18484618 0.016102865 1.3160001 4281161860
-0.18370409 0.016102865 1.3160001 4280898945
-0.18256199 0.016102865 1.3160001 4280569728
-0.18141991 0.016102865 1.3160001 4280437119
-0.18027782 0.016102865 1.3160001 4280567936
-0.17913572 0.016102865 1.3160001 4280633214
-0.17799364 0.016102865 1.3160001 4280567678
-0.17671718 0.01609063 1.3150001 4280436864
-0.17557594 0.01609063 1.3150001 4280371583
-0.17430209 0.016078392 1.314 4280305789
-0.17316173 0.016078392 1.314 4280831363
-0.17215228 0.01609063 1.3150001 4281225607
-0.17101106 0.01609063 1.3150001 4281159812
-0.16999902 0.016102865 1.3160001 4280700029
-0.16898525 0.016115101 1.317 4280633978
-0.16784228 0.016115101 1.317 4281751945
-0.16669933 0.016115101 1.317 4283067804
-0.16568208 0.016127337 1.3180001 4283264925
-0.16453825 0.016127337 1.3180001 4283133852
-0.16327046 0.016115101 1.317 4283265438
-0.16225059 0.016127337 1.3180001 4282212750
-0.16110678 0.016127337 1.3180001 4280896119
-0.15996295 0.016127337 1.3180001 4281092209
-0.15893961 0.016139572 1.319 4284380567
-0.15779492 0.016139572 1.319 4288261062
-0.15653147 0.016127337 1.3180001 4287865526
-0.15538765 0.016127337 1.3180001 4285890706
-0.15424383 0.016127337 1.3180001 4287403944
-0.1531 0.016127337 1.3180001 4289706959
-0.15195617 0.016127337 1.3180001 4288391873
-0.15069793 0.016115101 1.317 4284576146
-0.14955497 0.016115101 1.317 4282866050
-0.148412 0.016115101 1.317 4283985304
-0.14726906 0.016115101 1.317 4284775847
-0.14612609 0.016115101 1.317 4285038765
-0.14509322 0.016127337 1.3180001 4285235632
-0.14394939 0.016127337 1.3180001 4285300913
-0.14280558 0.016127337 1.3180001 4285301168
-0.14176922 0.016139572 1.319 4285433780
-0.14062452 0.016139572 1.319 4285566393
-0.13947983 0.016139572 1.319 4285632187
-0.13844003 0.01615181 1.3200001 4285763772
-0.13729447 0.01615181 1.3200001 4285829563
-0.13614891 0.01615181 1.3200001 4285961401
-0.13510562 0.016164046 1.3210001 4286355897
-0.13395919 0.016164046 1.3210001 4286553528
-0.13291329 0.016176281 1.322 4286685370
-0.13176601 0.016176281 1.322 4286751676
-0.13071752 0.016188519 1.3230001 4286882749
-0.12956935 0.016188519 1.3230001 4286947516
-0.12842119 0.016188519 1.3230001 4287011770
-0.12727302 0.016188519 1.3230001 4286879156
-0.12612486 0.016188519 1.3230001 4286615470
-0.12497669 0.016188519 1.3230001 4286287016
-0.12392212 0.016200755 1.3240001 4285760931
-0.12268037 0.016188519 1.3230001 4284972702
-0.12144033 0.016176281 1.322 4283657621
-0.12029304 0.016176281 1.322 4281948036
-0.11923587 0.016188519 1.3230001 4281092987
-0.11808771 0.016188519 1.3230001 4280895348
-0.11693954 0.016188519 1.3230001 4281486194
-0.11579138 0.016188519 1.3230001 4283984780
-0.11464322 0.016188519 1.3230001 4286877611
-0.11349505 0.016188519 1.3230001 4288324024
-0.1124318 0.016200755 1.3240001 4289113542
-0.11128277 0.016200755 1.3240001 4288522433
-0.11013374 0.016200755 1.3240001 4284576656
-0.10906702 0.016212991 1.325 4281748588
-0.10791712 0.016212991 1.325 4281813614
-0.10676721 0.016212991 1.325 4282866304
-0.10553761 0.016200755 1.3240001 4283327112
-0.10438857 0.016200755 1.3240001 4283064967
-0.10323954 0.016200755 1.3240001 4282803081
-0.10216762 0.016212991 1.325 4282606731
-0.10101772 0.016212991 1.325 4282147210
-0.099867821 0.016212991 1.325 4282082188
-0.098792426 0.016225226 1.3260001 4282213518
-0.097641654 0.016225226 1.3260001 4282213517
-0.096563652 0.016237462 1.327 4282278799
-0.095412016 0.016237462 1.327 4282146956
-0.094331414 0.0162497 1.3280001 4281752713
-0.093178913 0.0162497 1.3280001 4281357955
-0.092026405 0.0162497 1.3280001 4280700796
-0.090942338 0.016261935 1.3290001 4280371832
-0.089788966 0.016261935 1.3290001 4280306041
-0.088635594 0.016261935 1.3290001 4280437884
-0.087482221 0.016261935 1.3290001 4280503166
-0.086393803 0.016274173 1.33 4280437373
-0.085239559 0.016274173 1.33 4280503166
-0.084085323 0.016274173 1.33 4280503166
-0.082931086 0.016274173 1.33 4280372093
-0.08171536 0.016261935 1.3290001 4280372093
-0.080561988 0.016261935 1.3290001 4280437371
-0.079468362 0.016274173 1.33 4280437371
-0.078314126 0.016274173 1.33 4280634236
-0.077159889 0.016274173 1.33 4280700027
-0.076005645 0.016274173 1.33 4281027965
-0.07490769 0.016286409 1.3310001 4280764792
-0.073807992 0.016298644 1.332 4281027963
-0.072706558 0.016310882 1.3330001 4281027962
-0.071764417 0.016359825 1.337 4281224823
-0.070709728 0.016384298 1.3390001 4280500323
-0.069599614 0.016396534 1.34 4281286751
-0.20098805 0.017250124 1.317 4280107637
-0.19969334 0.017237026 1.3160001 4280239740
-0.19840038 0.01722393 1.3150001 4280504197
-0.19680914 0.017184634 1.312 4280504452
-0.19567052 0.017184634 1.312 4280372865
-0.19468017 0.017197732 1.3130001 4280372097
-0.19354068 0.017197732 1.3130001 4280635012
-0.1924012 0.017197732 1.3130001 4280700804
-0.19140738 0.01721083 1.314 4281161352
-0.19026704 0.01721083 1.314 4281818508
-0.18912669 0.01721083 1.314 4281950092
-0.18812938 0.01722393 1.3150001 4282213519
-0.18698816 0.01722393 1.3150001 4282411152
-0.18584694 0.01722393 1.3150001 4282476944
-0.18484618 0.017237026 1.3160001 4282608529
-0.18370409 0.017237026 1.3160001 4282937494
-0.18256199 0.017237026 1.3160001 4282607502
-0.18141991 0.017237026 1.3160001 4281488510
-0.18027782 0.017237026 1.3160001 4280961396
-0.17913572 0.017237026 1.3160001 4281421177
-0.17799364 0.017237026 1.3160001 4281947520
-0.17671718 0.01722393 1.3150001 4281882757
-0.17557594 0.01722393 1.3150001 4281685893
-0.17443472 0.01722393 1.3150001 4281620616
-0.1732935 0.01722393 1.3150001 4282212497
-0.17215228 0.01722393 1.3150001 4282672792
-0.1711411 0.017237026 1.3160001 4282080911
-0.16999902 0.017237026 1.3160001 4281028991
-0.16898525 0.017250124 1.317 4280568440
-0.16784228 0.017250124 1.317 4281291906
-0.16669933 0.017250124 1.317 4282344593
-0.16555637 0.017250124 1.317 4282870935
-0.16441341 0.017250124 1.317 4283002265
-0.16327046 0.017250124 1.317 4282804887
-0.16225059 0.017263222 1.3180001 4281751686
-0.16110678 0.017263222 1.3180001 4280698484
-0.15996295 0.017263222 1.3180001 4281091953
-0.15881912 0.017263222 1.3180001 4285432997
-0.1576753 0.017263222 1.3180001 4289576407
-0.15665023 0.017276321 1.319 4288917443
-0.15538765 0.017263222 1.3180001 4286942624
-0.15424383 0.017263222 1.3180001 4287797934
-0.1531 0.017263222 1.3180001 4290101204
-0.15195617 0.017263222 1.3180001 4289904600
-0.15069793 0.017250124 1.317 4285958312
-0.14955497 0.017250124 1.317 4283458956
-0.148412 0.017250124 1.317 4284841380
-0.14726906 0.017250124 1.317 4286091961
-0.14623705 0.017263222 1.3180001 4286486462
-0.14509322 0.017263222 1.3180001 4286617535
-0.14394939 0.017263222 1.3180001 4286617280
-0.14280558 0.017263222 1.3180001 4286551232
-0.14176922 0.017276321 1.319 4286223551
-0.14062452 0.017276321 1.319 4286092992
-0.13947983 0.017276321 1.319 4286027456
-0.13844003 0.017289419 1.3200001 4285961663
-0.13729447 0.017289419 1.3200001 4285764284
-0.13614891 0.017289419 1.3200001 4285369782
-0.13510562 0.017302517 1.3210001 4285303987
-0.13395919 0.017302517 1.3210001 4285041071
-0.13291329 0.017315615 1.322 4284843946
-0.13176601 0.017315615 1.322 4284581543
-0.13071752 0.017328713 1.3230001 4284647078
-0.12956935 0.017328713 1.3230001 4284712358
-0.12842119 0.017328713 1.3230001 4284711076
-0.12727302 0.017328713 1.3230001 4284183963
-0.12612486 0.017328713 1.3230001 4283526292
-0.12497669 0.017328713 1.3230001 4283000205
-0.12382853 0.017328713 1.3230001 4282868621
-0.12268037 0.017328713 1.3230001 4282540170
-0.12144033 0.017315615 1.322 4281685637
-0.12029304 0.017315615 1.322 4281028221
-0.11923587 0.017328713 1.3230001 4280699512
-0.11808771 0.017328713 1.3230001 4280698996
-0.11693954 0.017328713 1.3230001 4281027442
-0.11587889 0.017341811 1.3240001 4282605443
-0.11472987 0.017341811 1.3240001 4285630122
-0.11358083 0.017341811 1.3240001 4286813625
-0.1124318 0.017341811 1.3240001 4286813624
-0.11128277 0.017341811 1.3240001 4284906653
-0.11021692 0.017354909 1.325 4282013304
-0.10906702 0.017354909 1.325 4280895340
-0.10791712 0.017354909 1.325 4281815672
-0.10676721 0.017354909 1.325 4282670982
-0.10561731 0.017354909 1.325 4282868361
-0.10446741 0.017354909 1.325 4282540167
-0.10331752 0.017354909 1.325 4282474889
-0.10216762 0.017354909 1.325 4282278281
-0.10101772 0.017354909 1.325 4282081418
-0.099867821 0.017354909 1.325 4282015881
-0.098792426 0.017368007 1.3260001 4282080906
-0.097641654 0.017368007 1.3260001 4282146699
-0.096563652 0.017381106 1.327 4282146700
-0.095412016 0.017381106 1.327 4282146444
-0.094331414 0.017394204 1.3280001 4281686663
-0.093178913 0.017394204 1.3280001 4281357698
-0.092026405 0.017394204 1.3280001 4280766076
-0.090942338 0.017407302 1.3290001 4280502904
-0.089788966 0.017407302 1.3290001 4280371578
-0.088635594 0.017407302 1.3290001 4280503164
-0.087482221 0.017407302 1.3290001 4280700286
-0.086393803 0.0174204 1.33 4280700029
-0.085239559 0.0174204 1.33 4280633982
-0.084022105 0.017407302 1.3290001 4280502652
-0.082868733 0.017407302 1.3290001 4280568443
-0.08171536 0.017407302 1.3290001 4280568700
-0.080622606 0.0174204 1.33 4280634493
-0.079468362 0.0174204 1.33 4280634236
-0.078314126 0.0174204 1.33 4280765050
-0.077159889 0.0174204 1.33 4280896379
-0.076005645 0.0174204 1.33 4280830585
-0.07490769 0.017433498 1.3310001 4280962170
-0.073807992 0.017446594 1.332 4280896377
-0.072706558 0.017459694 1.3330001 4281093498
-0.071764417 0.017512085 1.337 4281158776
-0.070656918 0.017525185 1.3380001 4280565603
-0.069599614 0.017551379 1.34 4281352289
-0.20114066 0.018399108 1.3180001 4280631922
-0.19969334 0.018371189 1.3160001 4280304503
-0.19840038 0.01835723 1.3150001 4280832389
-0.19680914 0.018315349 1.312 4280569473
-0.19567052 0.018315349 1.312 4280503680
-0.19468017 0.018329309 1.3130001 4280634497
-0.19354068 0.018329309 1.3130001 4280962690
-0.1924012 0.018329309 1.3130001 4281487490
-0.19140738 0.018343268 1.314 4282604427
-0.19026704 0.018343268 1.314 4283589778
-0.18912669 0.018343268 1.314 4283458703
-0.18812938 0.01835723 1.3150001 4282999692
-0.18698816 0.01835723 1.3150001 4282803082
-0.18584694 0.01835723 1.3150001 4283000714
-0.18470572 0.01835723 1.3150001 4283592846
-0.18370409 0.018371189 1.3160001 4284973982
-0.18256199 0.018371189 1.3160001 4285039514
-0.18141991 0.018371189 1.3160001 4283723653
-0.18027782 0.018371189 1.3160001 4282999160
-0.17913572 0.018371189 1.3160001 4283853187
-0.17799364 0.018371189 1.3160001 4284774548
-0.17685156 0.018371189 1.3160001 4284775323
-0.17570946 0.018371189 1.3160001 4284250012
-0.17443472 0.01835723 1.3150001 4283725215
-0.1732935 0.01835723 1.3150001 4283857060
-0.17228319 0.018371189 1.3160001 4284054183
-0.1711411 0.018371189 1.3160001 4283133338
-0.1701282 0.018385148 1.317 4281949321
-0.16898525 0.018385148 1.317 4281357441
-0.16784228 0.018385148 1.317 4281357698
-0.16669933 0.018385148 1.317 4281884041
-0.16555637 0.018385148 1.317 4282410384
-0.16453825 0.018399108 1.3180001 4282476178
-0.16339442 0.018399108 1.3180001 4281949578
-0.16225059 0.018399108 1.3180001 4280962426
-0.161229 0.018413069 1.319 4280303980
-0.15996295 0.018399108 1.3180001 4280894828
-0.15893961 0.018413069 1.319 4285235875
-0.15779492 0.018413069 1.319 4289707737
-0.15665023 0.018413069 1.319 4289377225
-0.15550554 0.018413069 1.319 4287863214
-0.15436085 0.018413069 1.319 4288586682
-0.15321615 0.018413069 1.319 4290429401
-0.15195617 0.018399108 1.3180001 4289904343
-0.15081234 0.018399108 1.3180001 4285563809
-0.14966851 0.018399108 1.3180001 4282473086
-0.14863738 0.018413069 1.319 4283526544
-0.14749269 0.018413069 1.319 4284776610
-0.146348 0.018413069 1.319 4284973475
-0.1453134 0.018427029 1.3200001 4285104548
-0.14416784 0.018427029 1.3200001 4285499051
-0.14302227 0.018427029 1.3200001 4285498798
-0.14187671 0.018427029 1.3200001 4284644261
-0.14083776 0.018440988 1.3210001 4283921309
-0.1395856 0.018427029 1.3200001 4283921822
-0.1385449 0.018440988 1.3210001 4283856286
-0.13739848 0.018440988 1.3210001 4283396250
-0.13625205 0.018440988 1.3210001 4282540942
-0.13520789 0.018454947 1.322 4282211977
-0.13406059 0.018454947 1.322 4281883524
-0.13301384 0.018468909 1.3230001 4281686144
-0.13186568 0.018468909 1.3230001 4281489277
-0.13081631 0.018482868 1.3240001 4281554814
-0.12966728 0.018482868 1.3240001 4281620607
-0.12851825 0.018482868 1.3240001 4281620095
-0.12736923 0.018482868 1.3240001 4281487996
-0.12612486 0.018468909 1.3230001 4281027960
-0.12497669 0.018468909 1.3230001 4280698995
-0.12392212 0.018482868 1.3240001 4280764534
-0.12277309 0.018482868 1.3240001 4280830584
-0.12162406 0.018482868 1.3240001 4280699259
-0.12047502 0.018482868 1.3240001 4280633978
-0.119326 0.018482868 1.3240001 4280633207
-0.11826621 0.018496828 1.325 4280633204
-0.11711631 0.018496828 1.325 4280961908
-0.11605395 0.018510787 1.3260001 4281684859
-0.11490317 0.018510787 1.3260001 4282802569
-0.11375241 0.018510787 1.3260001 4283196813
-0.11260164 0.018510787 1.3260001 4283130506
-0.11145087 0.018510787 1.3260001 4282144124
-0.1103001 0.018510787 1.3260001 4281618292
-0.10923164 0.018524747 1.327 4281487220
-0.10799856 0.018510787 1.3260001 4282079102
-0.1068478 0.018510787 1.3260001 4282605446
-0.10569703 0.018510787 1.3260001 4282539654
-0.10454626 0.018510787 1.3260001 4282277509
-0.10339549 0.018510787 1.3260001 4282146182
-0.10224473 0.018510787 1.3260001 4281949060
-0.1011702 0.018524747 1.327 4281884037
-0.10001856 0.018524747 1.327 4281752708
-0.098866925 0.018524747 1.327 4281686405
-0.097788922 0.018538708 1.3280001 4281686663
-0.096636422 0.018538708 1.3280001 4281555079
-0.09555582 0.018552667 1.3290001 4281490056
-0.094402447 0.018552667 1.3290001 4281423749
-0.093249075 0.018552667 1.3290001 4281028990
-0.092165001 0.018566627 1.33 4280568954
-0.091010757 0.018566627 1.33 4280371832
-0.08985652 0.018566627 1.33 4280372089
-0.088768974 0.018580588 1.3310001 4280438138
-0.087613866 0.018580588 1.3310001 4280568957
-0.086393803 0.018566627 1.33 4280634750
-0.085303657 0.018580588 1.3310001 4280503164
-0.084148549 0.018580588 1.3310001 4280371578
-0.08299344 0.018580588 1.3310001 4280371578
-0.081838332 0.018580588 1.3310001 4280568957
-0.080683224 0.018580588 1.3310001 4280765820
-0.079528116 0.018580588 1.3310001 4280700027
-0.078373007 0.018580588 1.3310001 4280699514
-0.077217907 0.018580588 1.3310001 4280699768
-0.076062799 0.018580588 1.3310001 4280961657
-0.074963972 0.018594546 1.332 4281027705
-0.073863402 0.018608507 1.3330001 4281027450
-0.072706558 0.018608507 1.3330001 4281092985
-0.071764417 0.018664345 1.337 4281224055
-0.070709728 0.018692266 1.3390001 4281420400
-0.069599614 0.018706225 1.34 4281154653
-0.20144588 0.019564638 1.3200001 4280434282
-0.19999683 0.019534994 1.3180001 4280370808
-0.19855125 0.01950535 1.3160001 4280832388
-0.19695914 0.019460887 1.3130001 4280569728
-0.19581966 0.019460887 1.3130001 4280635007
-0.19468017 0.019460887 1.3130001 4281028995
