# .PCD v0.7 - Point Cloud Data file format
VERSION 0.7
FIELDS x y z rgba
SIZE 4 4 4 4
TYPE F F F U
COUNT 1 1 1 1
WIDTH 355
HEIGHT 1
VIEWPOINT 0 0 0 1 0 0 0
POINTS 355
DATA ascii
0.073962487 -0.32643023 1.6960001 4280429873
0.078368492 -0.32546788 1.6910001 4280429871
0.073657215 -0.32046437 1.6890001 4280560946
0.077951394 -0.3191362 1.682 4280429614
-0.045546453 -0.30079955 1.6570001 4280496434
-0.040644076 -0.29807657 1.6420001 4280430641
-0.045299064 -0.29465929 1.6480001 4280627250
-0.040866852 -0.2951957 1.651 4280693043
-0.03659438 -0.29716247 1.6620001 4280693047
-0.045518965 -0.29156134 1.6560001 4280693043
-0.040965863 -0.29138526 1.6550001 4280496434
-0.15280259 -0.2799457 1.641 4280429873
-0.15215078 -0.27428338 1.6340001 4280561459
-0.29300025 -0.24639167 1.598 4279705888
-0.198595 -0.14437063 1.4510001 4289967540
-0.19342004 -0.14347516 1.442 4289638575
-0.18881989 -0.14297767 1.437 4282795592
-0.18463308 -0.14277868 1.4350001 4286808963
-0.18196833 -0.14377365 1.4450001 4289440685
-0.20453784 -0.13904817 1.437 4289176482
-0.19963112 -0.13837084 1.4300001 4287466117
-0.19489957 -0.13779026 1.424 4280954150
-0.19127391 -0.13798378 1.4260001 4279900436
-0.1872431 -0.13788702 1.4250001 4280294425
-0.18270311 -0.13740321 1.4200001 4290230189
-0.17856824 -0.13720968 1.4180001 4286677116
-0.17579946 -0.13808055 1.427 4288453790
-0.21254463 -0.13521272 1.4380001 4288716960
-0.20730677 -0.13436645 1.429 4284571742
-0.20254514 -0.13380228 1.4230001 4286935408
-0.19837473 -0.13361423 1.4210001 4287461746
-0.19421524 -0.13342617 1.419 4290033071
-0.19060326 -0.13361423 1.4210001 4284245598
-0.18684889 -0.13370827 1.4220001 4289506728
-0.18231711 -0.13323812 1.4170001 4283058500
-0.17781267 -0.13276798 1.4120001 4288650908
-0.17407474 -0.132862 1.4130001 4294111988
-0.17153594 -0.13389632 1.424 4287204497
-0.22010252 -0.1310979 1.4360001 4289441971
-0.21467037 -0.13018496 1.4260001 4287796889
-0.20958853 -0.12945461 1.4180001 4289638575
-0.20542084 -0.12927203 1.416 4287927955
-0.20097944 -0.12890685 1.4120001 4285556586
-0.19711831 -0.12890685 1.4120001 4285689193
-0.19339404 -0.12899815 1.4130001 4285164389
-0.18979846 -0.12918073 1.4150001 4287927696
-0.1860605 -0.12927203 1.416 4284111188
-0.18180245 -0.12899815 1.4130001 4283322186
-0.17718302 -0.12845038 1.4070001 4293914607
-0.17308916 -0.12826779 1.4050001 4292665053
-0.16960856 -0.12854168 1.4080001 4281085748
-0.16846608 -0.13064143 1.4310001 4286612873
-0.22324924 -0.12672836 1.4310001 4287468182
-0.21780342 -0.12584276 1.4210001 4288192158
-0.21316497 -0.12539996 1.416 4289705397
-0.2092929 -0.12539996 1.416 4289112745
-0.20484057 -0.12504572 1.4120001 4288454815
-0.20097944 -0.12504572 1.4120001 4287532684
-0.1966995 -0.12478005 1.409 4287992976
-0.19298343 -0.12486861 1.4100001 4282465849
-0.18912777 -0.12486861 1.4100001 4283913040
-0.18527211 -0.12486861 1.4100001 4283848017
-0.18154512 -0.12495716 1.411 4289901745
-0.17718302 -0.12460292 1.4070001 4291480779
-0.17308916 -0.12442581 1.4050001 4287533715
-0.16912672 -0.12433725 1.404 4287928986
-0.16634701 -0.12513429 1.4130001 4286810252
-0.22168916 -0.12195702 1.4210001 4289770936
-0.2165772 -0.12127043 1.4130001 4288586916
-0.21196066 -0.12084129 1.4080001 4287336849
-0.20796265 -0.12075547 1.4070001 4288586403
-0.2041152 -0.12075547 1.4070001 4289836470
-0.20012541 -0.12066964 1.406 4287730324
-0.19600147 -0.120498 1.404 4286150520
-0.19216223 -0.120498 1.404 4289374631
-0.18832298 -0.120498 1.404 4289243045
-0.18408953 -0.12024052 1.401 4290361272
-0.18038715 -0.12032634 1.4020001 4287072648
-0.17642744 -0.12024052 1.401 4288256922
-0.17234999 -0.12006887 1.399 4289770677
-0.16804257 -0.11972558 1.3950001 4289047213
-0.16434565 -0.1198114 1.396 4288981420
-0.16225316 -0.12109876 1.411 4288257698
-0.22153315 -0.11798819 1.4200001 4287402388
-0.21627067 -0.11724038 1.411 4288060570
-0.21150903 -0.11674184 1.4050001 4289705395
-0.20766704 -0.11674184 1.4050001 4289113260
-0.20367998 -0.11665875 1.404 4287270802
-0.1996984 -0.11657565 1.4030001 4289442225
-0.19544308 -0.11632638 1.4000001 4289705397
-0.19161476 -0.11632638 1.4000001 4288455330
-0.18778646 -0.11632638 1.4000001 4287073675
-0.18356395 -0.11607712 1.3970001 4288060570
-0.17935784 -0.11582784 1.3940001 4290100153
-0.17554593 -0.11582784 1.3940001 4287863191
-0.17136444 -0.11557857 1.391 4287731605
-0.16744027 -0.11549548 1.3900001 4288850086
-0.16340385 -0.1153293 1.388 4290034362
-0.1604133 -0.11591093 1.3950001 4288915627
-0.15850702 -0.11732347 1.4120001 4288060319
-0.21535102 -0.11289985 1.4050001 4289244844
-0.21090686 -0.11257843 1.401 4287205261
-0.20678021 -0.11241771 1.399 4289705395
-0.20280956 -0.11233736 1.3980001 4289639604
-0.19870204 -0.11217665 1.396 4287600021
-0.19460547 -0.11201593 1.3940001 4287797400
-0.19079356 -0.11201593 1.3940001 4288981674
-0.18698165 -0.11201593 1.3940001 4289771190
-0.18316975 -0.11201593 1.3940001 4289113260
-0.17897184 -0.11177487 1.391 4288718502
-0.17479035 -0.11153381 1.388 4290100155
-0.17037888 -0.11113203 1.383 4289244844
-0.16659705 -0.11113203 1.383 4287665812
-0.16269749 -0.11105166 1.3820001 4287600021
-0.15926339 -0.11129273 1.3850001 4288718248
-0.15603736 -0.11169451 1.3900001 4289178800
-0.15497446 -0.1137034 1.4150001 4290099904
-0.21504447 -0.10890262 1.4030001 4288060572
-0.21045524 -0.10851451 1.3980001 4289639602
-0.20618898 -0.10828165 1.3950001 4287271054
-0.2020842 -0.10812642 1.393 4287534228
-0.19799036 -0.10797117 1.391 4289508018
-0.19404705 -0.10789354 1.3900001 4289771190
-0.19024608 -0.10789354 1.3900001 4287994779
-0.18631099 -0.10781592 1.3890001 4288784295
-0.18251276 -0.10781592 1.3890001 4289836983
-0.17819986 -0.10750543 1.3850001 4289113260
-0.1741607 -0.1073502 1.383 4287600021
-0.16976291 -0.10696209 1.378 4288192158
-0.16647659 -0.10727257 1.3820001 4289244846
-0.16269749 -0.10727257 1.3820001 4290034362
-0.15914838 -0.10742782 1.3840001 4288718502
-0.15536381 -0.10742782 1.3840001 4287994526
-0.15256496 -0.10812642 1.393 4288520870
-0.21519773 -0.10514099 1.404 4288849834
-0.2098531 -0.10439212 1.3940001 4288389537
-0.20559777 -0.10416746 1.391 4289968569
-0.20164898 -0.10409258 1.3900001 4289705395
-0.19756335 -0.1039428 1.388 4287534228
-0.19348866 -0.10379303 1.386 4287271056
-0.18915114 -0.10349348 1.3820001 4289705397
-0.18496965 -0.10326882 1.3790001 4288652709
-0.18106736 -0.10319393 1.378 4287600021
-0.17729922 -0.10319393 1.378 4288389537
-0.17353106 -0.10319393 1.378 4289508018
-0.1695165 -0.10304417 1.376 4288850088
-0.16599475 -0.10319393 1.378 4287665560
-0.16199113 -0.10304417 1.376 4288060318
-0.15822846 -0.10304417 1.376 4289968315
-0.15435351 -0.10296928 1.3750001 4287270803
-0.1508126 -0.10311905 1.3770001 4287797147
-0.14843543 -0.10409258 1.3900001 4288323491
-0.20970255 -0.10050807 1.393 4288915370
-0.20485875 -0.100003 1.386 4287007371
-0.20092364 -0.099930845 1.3850001 4287599508
-0.19699399 -0.099858701 1.3840001 4289836983
-0.19306985 -0.099786542 1.383 4287863193
-0.18874054 -0.099497937 1.3790001 4287534228
-0.18429899 -0.099137172 1.3740001 4289047467
-0.18041037 -0.099065021 1.373 4289705397
-0.17626989 -0.098848566 1.3700001 4288323744
-0.17264955 -0.098920718 1.3710001 4287797398
-0.16853096 -0.098704256 1.368 4290231741
-0.16503106 -0.098848566 1.3700001 4289376432
-0.16140251 -0.098920718 1.3710001 4287073677
-0.15776849 -0.098992862 1.3720001 4287467922
-0.15379222 -0.098848566 1.3700001 4289639604
-0.14993642 -0.098776408 1.3690001 4289836729
-0.14683361 -0.099209324 1.3750001 4287468181
-0.14515473 -0.10065237 1.3950001 4288652456
-0.20940147 -0.096560054 1.391 4287401876
-0.20397191 -0.095796466 1.3800001 4290165437
-0.19990812 -0.095657624 1.378 4289835703
-0.19613998 -0.095657624 1.378 4287927705
-0.19195302 -0.095449373 1.3750001 4289046187
-0.18750873 -0.095102288 1.3700001 4289967803
-0.18336006 -0.094894037 1.3670001 4287862939
-0.18001617 -0.095102288 1.3700001 4287665814
-0.17614123 -0.095032863 1.3690001 4289508016
-0.17214583 -0.094894037 1.3670001 4289639602
-0.16779178 -0.094546944 1.3620001 4287007884
-0.16382645 -0.094408102 1.36 4287928986
-0.16034298 -0.094546944 1.3620001 4289968569
-0.15650357 -0.094477527 1.3610001 4289639604
-0.15266965 -0.094408102 1.36 4287336849
-0.14862216 -0.094199851 1.3570001 4287731607
-0.14565894 -0.094685778 1.3640001 4289836729
-0.14307366 -0.095449373 1.3750001 4289310385
-0.20397191 -0.092022844 1.3800001 4286678153
-0.19932786 -0.09162274 1.3740001 4289441459
-0.19557065 -0.09162274 1.3740001 4289243312
-0.191255 -0.091356009 1.3700001 4287796120
-0.187235 -0.091222636 1.368 4287401876
-0.18336006 -0.091155961 1.3670001 4289902265
-0.18001617 -0.091356009 1.3700001 4289508018
-0.17575525 -0.091089278 1.3660001 4287731607
-0.17164211 -0.09088923 1.363 4289442223
-0.16729899 -0.090555809 1.358 4289771190
-0.16346507 -0.090489127 1.3570001 4288455330
-0.15987207 -0.090555809 1.358 4287205009
-0.1561586 -0.090555809 1.358 4288520869
-0.15244514 -0.090555809 1.358 4289705397
-0.14862216 -0.090489127 1.3570001 4289047467
-0.14544536 -0.09082254 1.3620001 4287731096
-0.14203313 -0.091022588 1.365 4288848807
-0.13931371 -0.091689423 1.3750001 4289375152
-0.19874756 -0.087609731 1.3700001 4289704631
-0.19443193 -0.087353937 1.3660001 4287335569
-0.19013819 -0.087098144 1.3620001 4287664534
-0.18641379 -0.087098144 1.3620001 4289573045
-0.18268938 -0.087098144 1.3620001 4287533717
-0.17896499 -0.087098144 1.3620001 4287402131
-0.17524059 -0.087098144 1.3620001 4289968315
-0.17113839 -0.086906292 1.3590001 4288060572
-0.16692941 -0.086650498 1.355 4287665814
-0.16286276 -0.086458653 1.3520001 4288718502
-0.15916571 -0.086458653 1.3520001 4289902522
-0.15546864 -0.086458653 1.3520001 4288191904
-0.15188386 -0.086522602 1.353 4287468435
-0.14807454 -0.086458653 1.3520001 4287797400
-0.14459106 -0.08658655 1.3540001 4288652709
-0.14078449 -0.086522602 1.353 4287402129
-0.1376926 -0.086906292 1.3590001 4289177770
-0.13496225 -0.087545775 1.3690001 4288125085
-0.19918278 -0.084047087 1.373 4287270803
-0.1938626 -0.08337374 1.3620001 4289770936
-0.18971939 -0.083190091 1.3590001 4289902265
-0.18614005 -0.083251305 1.36 4287336338
-0.1824211 -0.083251305 1.36 4287270545
-0.17843938 -0.083128877 1.358 4289375921
-0.17446861 -0.083006449 1.3560001 4287402388
-0.17038281 -0.082822807 1.353 4288060572
-0.16655982 -0.082761593 1.3520001 4289508018
-0.1627423 -0.082700379 1.3510001 4289442225
-0.15881254 -0.082577951 1.3490001 4287402388
-0.15535367 -0.082700379 1.3510001 4287270802
-0.15165934 -0.082700379 1.3510001 4290165694
-0.14785549 -0.082639165 1.35 4287402388
-0.14395033 -0.082516737 1.348 4289902522
-0.1400561 -0.082394309 1.3460001 4289902776
-0.13678074 -0.082639165 1.35 4287138957
-0.13318773 -0.082700379 1.3510001 4288584095
-0.1312187 -0.083802231 1.3690001 4289111980
-0.19357792 -0.07953237 1.36 4286678665
-0.18930058 -0.079298452 1.3560001 4287073423
-0.18531886 -0.079181492 1.3540001 4290099901
-0.18161634 -0.079181492 1.3540001 4290034108
-0.1775196 -0.079006061 1.3510001 4287797146
-0.17356795 -0.078889102 1.3490001 4288784041
-0.16975316 -0.078830615 1.348 4289639350
-0.16582066 -0.078713655 1.3460001 4287205009
-0.16165815 -0.078479737 1.342 4287731607
-0.15775301 -0.078362778 1.34 4290231487
-0.15408877 -0.078362778 1.34 4287468435
-0.15053678 -0.078421257 1.3410001 4286941837
-0.14665075 -0.078304298 1.3390001 4289836468
-0.14288245 -0.078245826 1.3380001 4289244592
-0.13932772 -0.078304298 1.3390001 4286744459
-0.13586886 -0.078421257 1.3410001 4288717219
-0.13220188 -0.078421257 1.3410001 4290492868
-0.12920585 -0.078830615 1.348 4289046962
-0.18971939 -0.075757697 1.3590001 4289770937
-0.18518198 -0.075423226 1.353 4286678665
-0.18121393 -0.075311735 1.3510001 4289639350
-0.1775196 -0.075311735 1.3510001 4289902522
-0.17318197 -0.075033009 1.3460001 4288455076
-0.16937537 -0.074977264 1.345 4287402388
-0.16520467 -0.074754283 1.3410001 4289771190
-0.16117632 -0.074587047 1.3380001 4287731607
-0.15739982 -0.074531302 1.337 4287007884
-0.15374379 -0.074531302 1.337 4289179053
-0.15008774 -0.074531302 1.337 4289968056
-0.14621265 -0.074419811 1.335 4287533974
-0.14245529 -0.074364066 1.3340001 4288061089
-0.13901557 -0.074475557 1.3360001 4289968315
-0.13536227 -0.074475557 1.3360001 4288130991
-0.13190612 -0.074587047 1.3380001 4288255396
-0.12834319 -0.074642792 1.3390001 4288253614
-0.12542662 -0.075088754 1.3470001 4287530920
-0.18477137 -0.071564399 1.35 4290428867
-0.18040913 -0.071299352 1.345 4288455076
-0.17659982 -0.071246341 1.3440001 4287139216
-0.17253864 -0.071087301 1.3410001 4288520869
-0.16849387 -0.070928276 1.3380001 4289902522
-0.1644655 -0.070769243 1.335 4287139470
-0.16045356 -0.07061021 1.332 4288849834
-0.15669346 -0.070557199 1.3310001 4290297532
-0.15305384 -0.070557199 1.3310001 4287864222
-0.1494142 -0.070557199 1.3310001 4286812045
-0.14555551 -0.070451178 1.3290001 4289509305
-0.14192136 -0.070451178 1.3290001 4289573560
-0.13818315 -0.070398167 1.3280001 4289770424
-0.13475436 -0.070504189 1.33 4288584863
-0.13151179 -0.070716232 1.3340001 4286808201
-0.12815151 -0.070875265 1.337 4286216326
-0.12468169 -0.070981279 1.3390001 4286282631
-0.12228552 -0.071723431 1.353 4292138723
-0.18518198 -0.068023644 1.353 4288257698
-0.18054324 -0.067671709 1.3460001 4288389284
-0.17620561 -0.067420326 1.3410001 4290165694
-0.1722813 -0.067319773 1.3390001 4289639093
-0.16786422 -0.067018114 1.3330001 4287468181
-0.16434231 -0.067068398 1.3340001 4290297023
-0.16045356 -0.066967845 1.332 4289836472
-0.15681119 -0.066967845 1.332 4287139986
-0.15316883 -0.066967845 1.332 4288654251
-0.14930195 -0.066867292 1.33 4289971908
-0.14533648 -0.066716462 1.327 4289710534
-0.141601 -0.066666186 1.3260001 4285365629
-0.13807909 -0.066716462 1.327 4286347650
-0.13485567 -0.066917568 1.3310001 4287205009
-0.13161038 -0.067118667 1.335 4287335315
-0.12824735 -0.067269497 1.3380001 4287269265
-0.12486792 -0.067420326 1.3410001 4288388257
-0.12183362 -0.067772262 1.348 4288388003
-0.18067738 -0.064038604 1.3470001 4289376178
-0.17568003 -0.063563183 1.337 4287533974
-0.17189533 -0.063515641 1.3360001 4287467924
-0.16748643 -0.063230395 1.33 4289639350
-0.16384953 -0.063230395 1.33 4287599767
-0.15985125 -0.063087769 1.327 4287731096
-0.15634029 -0.063135311 1.3280001 4288849835
-0.15282385 -0.063182853 1.3290001 4289904063
-0.14896518 -0.063087769 1.327 4285301376
-0.14511743 -0.062992685 1.325 4284053108
-0.14138742 -0.062945142 1.3240001 4286878614
-0.13807909 -0.063087769 1.327 4286745229
-0.13495699 -0.06332548 1.332 4286547082
-0.13180755 -0.063563183 1.337 4287138704
-0.12843905 -0.063705809 1.34 4287138959
-0.12486792 -0.063753352 1.3410001 4287532694
-0.12147209 -0.063895978 1.3440001 4286940557
-0.1722813 -0.059996758 1.3390001 4290099642
-0.16773829 -0.059683111 1.332 4288191392
-0.16397274 -0.059638299 1.3310001 4287467669
-0.15985125 -0.059459072 1.327 4290164668
-0.15634029 -0.059503883 1.3280001 4287137677
-0.15282385 -0.059548687 1.3290001 4285757564
-0.14918968 -0.059548687 1.3290001 4286353551
-0.145446 -0.059503883 1.3280001 4285566604
-0.14181457 -0.059503883 1.3280001 4286745490
-0.13859935 -0.059683111 1.332 4286810768
-0.13566622 -0.059996758 1.3390001 4286547082
-0.16773829 -0.056040745 1.332 4287336596
-0.16360314 -0.055872455 1.3280001 4288587433
-0.15973079 -0.055788305 1.3260001 4284902255
-0.15610483 -0.055788305 1.3260001 4287401876
-0.15270886 -0.055872455 1.3280001 4286218117
-0.14918968 -0.055914525 1.3290001 4287469211
-0.14555551 -0.055914525 1.3290001 4286152840
-0.14213493 -0.055998668 1.3310001 4286810770
-0.13891152 -0.056166958 1.335 4286416264
-0.16384953 -0.052319702 1.33 4284837232
-0.16009218 -0.052280359 1.3290001 4288520870
-0.15645801 -0.052280359 1.3290001 4286744459
