# .PCD v0.7 - Point Cloud Data file format
VERSION 0.7
FIELDS x y z rgba
SIZE 4 4 4 4
TYPE F F F U
COUNT 1 1 1 1
WIDTH 380
HEIGHT 1
VIEWPOINT 0 0 0 1 0 0 0
POINTS 380
DATA ascii
-0.16587609 -0.10936835 1.409 4289572271
-0.16190818 -0.10929073 1.4080001 4289506474
-0.16744027 -0.10409258 1.3900001 4288586403
-0.16293295 -0.10364326 1.3840001 4288059543
-0.15903339 -0.10356837 1.383 4289836722
-0.15547608 -0.10371814 1.3850001 4280690212
-0.1522364 -0.10409258 1.3900001 4281216556
-0.14907616 -0.1045419 1.396 4280557599
-0.14484257 -0.10424235 1.3920001 4289637033
-0.14083348 -0.10409258 1.3900001 4283650899
-0.1372297 -0.10424235 1.3920001 4285229929
-0.13342325 -0.10424235 1.3920001 4294177779
-0.12970993 -0.10431724 1.393 4293389292
-0.12662381 -0.10491633 1.401 4287337366
-0.17074846 -0.100003 1.386 4287995809
-0.16599475 -0.099425778 1.378 4288786865
-0.16234432 -0.099497937 1.3790001 4289835952
-0.15834345 -0.099353626 1.3770001 4287595908
-0.15435351 -0.099209324 1.3750001 4288053630
-0.15048404 -0.099137172 1.3740001 4287002743
-0.14640646 -0.098920718 1.3710001 4290953146
-0.14255339 -0.098848566 1.3700001 4293585894
-0.13890843 -0.098920718 1.3710001 4287860622
-0.13535659 -0.099065021 1.373 4282793278
-0.13169795 -0.099137172 1.3740001 4290096555
-0.12784763 -0.099065021 1.373 4290032818
-0.12436429 -0.099281482 1.376 4288521891
-0.12121512 -0.099786542 1.383 4288259493
-0.11845224 -0.10065237 1.3950001 4289576381
-0.17428663 -0.096074134 1.3840001 4288915368
-0.16865414 -0.095032863 1.3690001 4289311407
-0.16479014 -0.094963446 1.368 4288981411
-0.16116706 -0.095032863 1.3690001 4284111191
-0.15742351 -0.095032863 1.3690001 4286674795
-0.15367997 -0.095032863 1.3690001 4288184436
-0.14971738 -0.094894037 1.3670001 4287727486
-0.14555216 -0.094616368 1.363 4290031542
-0.14172097 -0.094546944 1.3620001 4281413428
-0.1381992 -0.094685778 1.3640001 4283449157
-0.13476507 -0.094894037 1.3670001 4288579469
-0.131027 -0.094894037 1.3670001 4286607732
-0.1271027 -0.094755195 1.365 4290229940
-0.1233701 -0.094755195 1.365 4289770161
-0.11972514 -0.094824612 1.3660001 4289375919
-0.11632944 -0.095102288 1.3700001 4288717219
-0.11258316 -0.095102288 1.3700001 4287468435
-0.10883688 -0.095102288 1.3700001 4288784041
-0.10539744 -0.095379956 1.3740001 4289640120
-0.10208406 -0.095796466 1.3800001 4289639350
-0.098737881 -0.096212968 1.386 4287928732
-0.095153369 -0.096421219 1.3890001 4289770937
-0.17290141 -0.091556057 1.373 4288520094
-0.16828457 -0.091089278 1.3660001 4288979623
-0.16430829 -0.090955906 1.3640001 4290032561
-0.16057843 -0.090955906 1.3640001 4289045666
-0.15684855 -0.090955906 1.3640001 4286479996
-0.1533432 -0.091089278 1.3660001 4286020726
-0.1492793 -0.09088923 1.363 4288191127
-0.14533858 -0.090755858 1.3610001 4290229686
-0.1414088 -0.090622485 1.3590001 4287071106
-0.13799657 -0.09082254 1.3620001 4287135616
-0.13437074 -0.09088923 1.363 4287860111
-0.13073945 -0.090955906 1.3640001 4290492858
-0.12691647 -0.09088923 1.363 4289178024
-0.12309895 -0.09082254 1.3620001 4287993750
-0.11963749 -0.091022588 1.365 4289572782
-0.11581997 -0.090955906 1.3640001 4290098352
-0.1120901 -0.090955906 1.3640001 4290033333
-0.10804246 -0.090689175 1.36 4288981413
-0.10440022 -0.090755858 1.3610001 4288324514
-0.10075254 -0.09082254 1.3620001 4288125852
-0.097241856 -0.091022588 1.365 4289441710
-0.093577757 -0.091089278 1.3660001 4288980393
-0.089842416 -0.091089278 1.3660001 4288060059
-0.086233146 -0.091222636 1.368 4288783014
-0.082612939 -0.091356009 1.3700001 4289836472
-0.063182116 -0.090355754 1.355 4289770936
-0.059696324 -0.090689175 1.36 4288849834
-0.056059707 -0.09082254 1.3620001 4288390824
-0.052565861 -0.091222636 1.368 4289639351
-0.048932124 -0.091422692 1.3710001 4293127150
-0.045347892 -0.091756113 1.376 4293784312
-0.041826982 -0.092289574 1.3840001 4293719546
-0.17717054 -0.088057369 1.3770001 4289903544
-0.17189397 -0.087289982 1.365 4289639093
-0.16791497 -0.087162085 1.363 4288254366
-0.16394691 -0.087034188 1.3610001 4288914337
-0.16010752 -0.08697024 1.36 4289505967
-0.15650357 -0.087034188 1.3610001 4289900982
-0.15311868 -0.087226041 1.3640001 4289835702
-0.1492793 -0.087162085 1.363 4288257436
-0.14544536 -0.087098144 1.3620001 4288059028
-0.14120069 -0.086778395 1.3570001 4289967538
-0.13748996 -0.086778395 1.3570001 4288914598
-0.13368066 -0.086714447 1.3560001 4288652709
-0.13026021 -0.086906292 1.3590001 4287931296
-0.12645088 -0.086842343 1.358 4288916910
-0.12246628 -0.086650498 1.355 4289902522
-0.11893632 -0.086778395 1.3570001 4288849575
-0.11539541 -0.086906292 1.3590001 4288190103
-0.11184356 -0.087034188 1.3610001 4288586914
-0.10772469 -0.086714447 1.3560001 4289967286
-0.10401669 -0.086714447 1.3560001 4289375919
-0.10038266 -0.086778395 1.3570001 4287796371
-0.096885659 -0.08697024 1.36 4289178799
-0.092961207 -0.086778395 1.3570001 4290034362
-0.089250475 -0.086778395 1.3570001 4289639604
-0.08535064 -0.08658655 1.3540001 4288717221
-0.081527509 -0.086458653 1.3520001 4287928732
-0.078290991 -0.08697024 1.36 4288783015
-0.073530242 -0.085755214 1.3410001 4289704886
-0.069915362 -0.085819162 1.342 4288389026
-0.066295013 -0.085883111 1.3430001 4287928475
-0.062762454 -0.086074956 1.3460001 4289114800
-0.059125699 -0.086138912 1.3470001 4290234051
-0.055442315 -0.086138912 1.3470001 4288981674
-0.05175893 -0.086138912 1.3470001 4288521123
-0.048075546 -0.086138912 1.3470001 4287798170
-0.04449103 -0.086330757 1.35 4289902522
-0.040950548 -0.086650498 1.355 4289442742
-0.037685085 -0.087673672 1.3710001 4288388771
-0.17601258 -0.083741024 1.368 4287992737
-0.17164211 -0.083434947 1.363 4289771706
-0.16779178 -0.08337374 1.3620001 4288980908
-0.16394691 -0.083312519 1.3610001 4288783014
-0.16010752 -0.083251305 1.36 4288517790
-0.15650357 -0.083312519 1.3610001 4289308586
-0.15289417 -0.08337374 1.3620001 4289505712
-0.14916977 -0.08337374 1.3620001 4290033851
-0.14533858 -0.083312519 1.3610001 4288190618
-0.14109664 -0.083006449 1.3560001 4288322461
-0.13698336 -0.082761593 1.3520001 4289244333
-0.13328631 -0.082761593 1.3520001 4290165437
-0.12987681 -0.082945235 1.355 4289705913
-0.12626466 -0.083006449 1.3560001 4288191904
-0.1223759 -0.082884021 1.3540001 4287533974
-0.11876102 -0.082945235 1.355 4288852655
-0.11514068 -0.083006449 1.3560001 4289245616
-0.11151486 -0.083067663 1.3570001 4288259232
-0.1075658 -0.082884021 1.3540001 4287536536
-0.10370985 -0.082761593 1.3520001 4288785833
-0.10001279 -0.082761593 1.3520001 4289837753
-0.096386984 -0.082822807 1.353 4289376432
-0.09268719 -0.082822807 1.353 4287140240
-0.088921629 -0.082761593 1.3520001 4288455330
-0.085224569 -0.082761593 1.3520001 4289836472
-0.080864199 -0.082088239 1.3410001 4289309358
-0.077082083 -0.081965804 1.3390001 4287531922
-0.07336574 -0.081904598 1.3380001 4289113777
-0.06986326 -0.082088239 1.3410001 4289244080
-0.066245653 -0.082149453 1.342 4290623678
-0.062669195 -0.082271881 1.3440001 4288586405
-0.058994014 -0.082271881 1.3440001 4287467152
-0.055277672 -0.082210667 1.3430001 4289179053
-0.051643651 -0.082271881 1.3440001 4290294711
-0.047932778 -0.082210667 1.3430001 4290098615
-0.044326246 -0.082333095 1.345 4287731094
-0.040738996 -0.082516737 1.348 4289178799
-0.037355237 -0.083190091 1.3590001 4290625988
-0.17536925 -0.079707816 1.363 4289766835
-0.17101246 -0.079415411 1.358 4288850856
-0.1671758 -0.079356939 1.3570001 4288523433
-0.16346507 -0.079356939 1.3570001 4289241523
-0.15975434 -0.079356939 1.3570001 4290296000
-0.15592863 -0.079298452 1.3560001 4289246123
-0.15222062 -0.079298452 1.3560001 4288188322
-0.14851263 -0.079298452 1.3560001 4288454564
-0.14427069 -0.079006061 1.3510001 4289967805
-0.1400561 -0.078713655 1.3460001 4289440944
-0.13617282 -0.078596696 1.3440001 4288059030
-0.1327934 -0.078772143 1.3470001 4288059291
-0.1294934 -0.079006061 1.3510001 4289309358
-0.12579907 -0.079006061 1.3510001 4290363073
-0.12192401 -0.078889102 1.3490001 4288980908
-0.11823515 -0.078889102 1.3490001 4289047206
-0.11463121 -0.078947574 1.35 4287534998
-0.11085744 -0.078889102 1.3490001 4290233028
-0.10693026 -0.078713655 1.3460001 4289573558
-0.10309619 -0.078596696 1.3440001 4288586401
-0.099494979 -0.078655183 1.345 4287336845
-0.095745824 -0.078596696 1.3440001 4288784041
-0.092207655 -0.078713655 1.3460001 4290100923
-0.088132381 -0.078362778 1.34 4289903546
-0.084279031 -0.078187339 1.337 4287666843
-0.080622993 -0.078187339 1.337 4289639350
-0.076794252 -0.078011908 1.3340001 4290101184
-0.073201247 -0.07807038 1.335 4288389026
-0.069706969 -0.078245826 1.3380001 4288191904
-0.066097558 -0.078304298 1.3390001 4288586405
-0.062436052 -0.078304298 1.3390001 4289968054
-0.058818441 -0.078362778 1.34 4290493119
-0.055236515 -0.078479737 1.342 4288783784
-0.051566802 -0.078479737 1.342 4287926933
-0.047825709 -0.078362778 1.34 4289968054
-0.044128507 -0.078304298 1.3390001 4289836979
-0.04064833 -0.078655183 1.345 4287864213
-0.037245288 -0.079239979 1.355 4288387484
-0.17139025 -0.075869188 1.3610001 4289244582
-0.16729899 -0.075701952 1.358 4289177503
-0.16346507 -0.075646207 1.3570001 4288778919
-0.15951888 -0.075534716 1.355 4288519078
-0.15569864 -0.075478971 1.3540001 4289378992
-0.15188386 -0.075423226 1.353 4288652725
-0.14818406 -0.075423226 1.353 4288518827
-0.14405712 -0.075200245 1.3490001 4288388508
-0.13995205 -0.074977264 1.345 4289704116
-0.1360715 -0.074865773 1.3430001 4289637813
-0.13259621 -0.074977264 1.345 4290033081
-0.12939756 -0.07525599 1.35 4288388256
-0.12579907 -0.075311735 1.3510001 4287994777
-0.12210476 -0.075311735 1.3510001 4289507505
-0.11814749 -0.0751445 1.348 4289179051
-0.11446138 -0.0751445 1.348 4288060318
-0.11069308 -0.075088754 1.3470001 4287994518
-0.10700969 -0.075088754 1.3470001 4289507505
-0.10286606 -0.074754283 1.3410001 4290100151
-0.09912511 -0.074698538 1.34 4288783780
-0.095318384 -0.074587047 1.3380001 4288653477
-0.09186513 -0.074754283 1.3410001 4287600019
-0.088000841 -0.074587047 1.3380001 4289113776
-0.084342062 -0.074587047 1.3380001 4287602077
-0.080622993 -0.074531302 1.337 4287994525
-0.076909386 -0.074475557 1.3360001 4287995547
-0.073310912 -0.074531302 1.337 4289177772
-0.069706969 -0.074587047 1.3380001 4290100925
-0.065998837 -0.074531302 1.337 4289441972
-0.062296163 -0.074475557 1.3360001 4287994779
-0.058642861 -0.074475557 1.3360001 4287207320
-0.055071872 -0.074587047 1.3380001 4288653998
-0.0514131 -0.074587047 1.3380001 4287533977
-0.047718637 -0.074531302 1.337 4288522404
-0.044128507 -0.074642792 1.3390001 4287271824
-0.04067855 -0.075033009 1.3460001 4290760391
-0.037300263 -0.075646207 1.3570001 4288785063
-0.17113839 -0.072041497 1.3590001 4286743432
-0.16692941 -0.071829453 1.355 4288519589
-0.16322415 -0.071829453 1.355 4288452256
-0.15928344 -0.071723431 1.353 4288914339
-0.15546864 -0.07167042 1.3520001 4288984993
-0.15143482 -0.071511395 1.3490001 4289503404
-0.14774598 -0.071511395 1.3490001 4289898162
-0.14373676 -0.071352355 1.3460001 4287797649
-0.13995205 -0.071299352 1.345 4288654237
-0.13627413 -0.071299352 1.345 4288190113
-0.13239905 -0.071193323 1.3430001 4288786352
-0.12901416 -0.071352355 1.3460001 4288982961
-0.1253335 -0.071352355 1.3460001 4288717997
-0.12165286 -0.071352355 1.3460001 4288718249
-0.11753397 -0.071087301 1.3410001 4290298815
-0.11386699 -0.071087301 1.3410001 4289244592
-0.11020002 -0.071087301 1.3410001 4289048746
-0.10653304 -0.071087301 1.3410001 4288321950
-0.10255923 -0.070875265 1.337 4288521123
-0.098903187 -0.070875265 1.337 4289836470
-0.095318384 -0.070928276 1.3380001 4290032307
-0.091728114 -0.070981279 1.3390001 4289638571
-0.087737761 -0.070716232 1.3340001 4288519068
-0.083963849 -0.07061021 1.332 4290560702
-0.080442086 -0.070716232 1.3340001 4289242791
-0.076736681 -0.070663221 1.3330001 4287664274
-0.073091581 -0.070663221 1.3330001 4287929236
-0.069446482 -0.070663221 1.3330001 4288848805
-0.065702654 -0.070557199 1.3310001 4289835189
-0.061969765 -0.070451178 1.3290001 4289902010
-0.05837949 -0.070504189 1.33 4287204499
-0.054701436 -0.070451178 1.3290001 4290166714
-0.051105697 -0.070504189 1.33 4289242801
-0.047504492 -0.070557199 1.3310001 4289377974
-0.044062596 -0.070875265 1.337 4288520869
-0.040708773 -0.071405374 1.3470001 4286878865
-0.037355237 -0.072041497 1.3590001 4290035902
-0.15546864 -0.067973368 1.3520001 4288520870
-0.15132257 -0.067772262 1.348 4288586152
-0.14763644 -0.067772262 1.348 4288847782
-0.14395033 -0.067772262 1.348 4289048484
-0.14026421 -0.067772262 1.348 4289377962
-0.13647677 -0.067721985 1.3470001 4288778919
-0.13249764 -0.067571156 1.3440001 4289247657
-0.12891831 -0.067621432 1.345 4287995808
-0.12505417 -0.067520879 1.3430001 4289966526
-0.12129132 -0.067470603 1.342 4287994526
-0.11718339 -0.06721922 1.337 4288719781
-0.11352735 -0.06721922 1.337 4287665563
-0.10995349 -0.067269497 1.3380001 4289115829
-0.10597694 -0.067068398 1.3340001 4289375927
-0.10240581 -0.067118667 1.335 4288060835
-0.098829217 -0.067168951 1.3360001 4288915877
-0.095318384 -0.067269497 1.3380001 4287861653
-0.091591112 -0.06721922 1.337 4290297273
-0.08714582 -0.066615909 1.325 4288520610
-0.083648667 -0.066716462 1.327 4287927442
-0.080080278 -0.066766739 1.3280001 4288981420
-0.07644885 -0.066766739 1.3280001 4290099126
-0.072817422 -0.066766739 1.3280001 4290034362
-0.069238089 -0.066817015 1.3290001 4288387995
-0.065603927 -0.066817015 1.3290001 4287728527
-0.061969765 -0.066817015 1.3290001 4291018688
-0.058335602 -0.066817015 1.3290001 4288978087
-0.054577958 -0.066666186 1.3260001 4288454297
-0.051028848 -0.066766739 1.3280001 4287794067
-0.047468796 -0.066867292 1.33 4289507505
-0.044128507 -0.067319773 1.3390001 4290559426
-0.040769216 -0.067822538 1.3490001 4286876298
-0.15121031 -0.064038604 1.3470001 4286745482
-0.14752693 -0.064038604 1.3470001 4286284931
-0.14373676 -0.063991055 1.3460001 4287732377
-0.13995205 -0.06394352 1.345 4288257185
-0.13617282 -0.063895978 1.3440001 4288915879
-0.13239905 -0.063848428 1.3430001 4290101683
-0.12863076 -0.063800894 1.342 4289572782
-0.12458858 -0.063610725 1.3380001 4289174441
-0.12074905 -0.063515641 1.3360001 4288913830
-0.11692045 -0.063420564 1.3340001 4290231731
-0.11386699 -0.063753352 1.3410001 4289240493
-0.10987131 -0.063563183 1.337 4288456607
-0.10605638 -0.063468099 1.335 4287994268
-0.10232911 -0.063420564 1.3340001 4289046701
-0.09875524 -0.063468099 1.335 4289904308
-0.095175914 -0.063515641 1.3360001 4288980140
-0.091385596 -0.063420564 1.3340001 4288125860
-0.087014288 -0.0628976 1.3230001 4289706427
-0.083396524 -0.0628976 1.3230001 4289639099
-0.079899371 -0.062992685 1.325 4289244080
-0.076103449 -0.062850058 1.322 4287665814
-0.072488427 -0.062850058 1.322 4287862680
-0.0689255 -0.0628976 1.3230001 4289838260
-0.065455839 -0.063040227 1.3260001 4287862682
-0.061783247 -0.062992685 1.325 4288982694
-0.058160022 -0.062992685 1.325 4289309873
-0.054413315 -0.062850058 1.322 4290034109
-0.050951999 -0.063040227 1.3260001 4289177511
-0.047433112 -0.063182853 1.3290001 4288060061
-0.044128507 -0.063658267 1.3390001 4288718249
-0.040738996 -0.064086139 1.348 4289507505
-0.12496104 -0.060131181 1.342 4287335315
-0.11020002 -0.06008637 1.3410001 4290231741
-0.10653304 -0.06008637 1.3410001 4289441714
-0.10278936 -0.060041565 1.34 4287859859
-0.099051133 -0.059996758 1.3390001 4287996307
-0.095247149 -0.059907142 1.337 4290034362
-0.091385596 -0.059772726 1.3340001 4289044397
-0.087343134 -0.059503883 1.3280001 4288850337
-0.083648667 -0.059459072 1.327 4287335058
-0.079959676 -0.059414264 1.3260001 4289704884
-0.076218583 -0.059324648 1.3240001 4290034108
-0.072543256 -0.059279844 1.3230001 4288191907
-0.0689255 -0.059279844 1.3230001 4288850854
-0.065505199 -0.059459072 1.327 4289573045
-0.061829876 -0.059414264 1.3260001 4289313199
-0.058247808 -0.059459072 1.327 4288125862
-0.05449564 -0.059324648 1.3240001 4288127642
-0.050990418 -0.059459072 1.327 4289180332
-0.047504492 -0.059638299 1.3310001 4290825159
-0.044194419 -0.06008637 1.3410001 4285958533
-0.095247149 -0.056251105 1.337 4289307565
-0.091248579 -0.056040745 1.332 4289307818
-0.087540448 -0.055998668 1.3310001 4289770926
-0.083963849 -0.056040745 1.332 4288386716
-0.080140583 -0.055914525 1.3290001 4288980896
-0.076276146 -0.055746235 1.325 4288979623
-0.072543256 -0.055662088 1.3230001 4289109673
-0.0689255 -0.055662088 1.3230001 4289045925
-0.065406471 -0.055746235 1.325 4288386716
-0.061783247 -0.055746235 1.325 4289704882
-0.058160022 -0.055746235 1.325 4289376171
-0.054454476 -0.055662088 1.3230001 4289310376
-0.050875146 -0.055704158 1.3240001 4287336586
-0.047468796 -0.055956598 1.33 4290429116
-0.07644885 -0.052241024 1.3280001 4288387997
-0.072707757 -0.052162342 1.3260001 4288780961
-0.069081798 -0.052162342 1.3260001 4288914598
-0.065505199 -0.052201685 1.327 4288322463
-0.061876502 -0.052201685 1.327 4289177250
-0.058203917 -0.052162342 1.3260001 4288781977
-0.054577958 -0.052162342 1.3260001 4290230450
-0.050990418 -0.052201685 1.327 4290493882
-0.047575872 -0.052437712 1.3330001 4285559409
-0.061876502 -0.048572991 1.327 4287137425
-0.058203917 -0.048536383 1.3260001 4286216567
-0.054619115 -0.048572991 1.327 4286611073
