# .PCD v0.7 - Point Cloud Data file format
VERSION 0.7
FIELDS x y z rgba
SIZE 4 4 4 4
TYPE F F F U
COUNT 1 1 1 1
WIDTH 1107
HEIGHT 1
VIEWPOINT 0 0 0 1 0 0 0
POINTS 1107
DATA ascii
0.19730461 0.015753536 1.3850001 4284758448
0.20057371 0.015821781 1.391 4284166822
0.20342587 0.015855907 1.3940001 4284628140
0.20643608 0.015901404 1.3980001 4284893348
-0.01622558 0.01768236 1.35 4285222583
-0.013861821 0.017656164 1.348 4284563635
-0.011505004 0.017629968 1.3460001 4284102571
-0.0091687543 0.017629968 1.3460001 4283970985
-0.0068325046 0.017629968 1.3460001 4283773610
-0.0044895737 0.017603772 1.3440001 4283905196
-0.0021551903 0.017590676 1.3430001 4283642281
0.00017559071 0.017564477 1.3410001 4283576742
0.0025012956 0.017551379 1.34 4282984605
0.0048307339 0.017564477 1.3410001 4283050396
0.0071689817 0.017590676 1.3430001 4283576227
0.0095141707 0.01761687 1.345 4284168364
0.011857496 0.017629968 1.3460001 4283971239
0.014204291 0.017643066 1.3470001 4283379102
0.016517714 0.01761687 1.345 4283444894
0.018838212 0.017603772 1.3440001 4283773859
0.021123733 0.017564477 1.3410001 4283708066
0.023416329 0.017538281 1.3390001 4283839652
0.025663536 0.017485889 1.335 4283904929
0.027959734 0.017472791 1.3340001 4283970722
0.030275155 0.017472791 1.3340001 4284233894
0.032590576 0.017472791 1.3340001 4283970722
0.03487983 0.017459694 1.3330001 4283839136
0.037137713 0.017433498 1.3310001 4283904929
0.039388653 0.017407302 1.3290001 4284365480
0.041632645 0.017381106 1.327 4284365480
0.043836594 0.017341811 1.3240001 4284233894
0.046064965 0.017315615 1.322 4284102308
0.048359558 0.017315615 1.322 4283839136
0.050577521 0.017289419 1.3200001 4284102306
0.052828588 0.017276321 1.319 4284628650
0.054950826 0.01722393 1.3150001 4284431271
0.057102699 0.017184634 1.312 4284168099
0.059334677 0.017171536 1.3110001 4284102306
0.061469194 0.017132243 1.3080001 4283707548
0.063690752 0.017119145 1.307 4283510169
0.065959312 0.017119145 1.307 4283575962
0.068175666 0.017106047 1.3060001 4283707548
0.07044249 0.017106047 1.3060001 4283510171
0.072709315 0.017106047 1.3060001 4283378585
0.074918725 0.017092949 1.3050001 4283246999
0.07706552 0.017066753 1.3030001 4283246744
0.079327136 0.017066753 1.3030001 4283180952
0.081463523 0.017040556 1.3010001 4283180953
0.083657309 0.017027458 1.3000001 4283050137
0.085913718 0.017027458 1.3000001 4282984344
0.088102303 0.01701436 1.299 4283180955
0.090356976 0.01701436 1.299 4283444127
0.092754237 0.017040556 1.3010001 4283509920
0.095012382 0.017040556 1.3010001 4283904421
0.097270526 0.017040556 1.3010001 4283969958
0.099605173 0.017053654 1.302 4284364457
0.10186505 0.017053654 1.302 4284561836
0.1042049 0.017066753 1.3030001 4284890288
0.10662994 0.017092949 1.3050001 4285087668
0.10897847 0.017106047 1.3060001 4285153976
0.11124529 0.017106047 1.3060001 4285022133
0.11368594 0.017132243 1.3080001 4285218998
0.11595623 0.017132243 1.3080001 4285284278
0.11858808 0.017184634 1.312 4285284021
0.12132592 0.017250124 1.317 4285151666
0.12379956 0.017276321 1.319 4285348271
0.12647133 0.017328713 1.3230001 4285937573
0.12896232 0.017354909 1.325 4285671570
0.13146025 0.017381106 1.327 4284753557
0.13406593 0.0174204 1.33 4285085355
0.13698962 0.017498989 1.3360001 4285481656
0.13962133 0.017538281 1.3390001 4286205378
0.14513148 0.017643066 1.3470001 4286994124
0.1484548 0.017760949 1.3560001 4286862281
0.15125325 0.01781334 1.36 4287059661
0.15440448 0.017905027 1.3670001 4287585750
0.15712123 0.017944321 1.3700001 4285612217
0.15961556 0.017957419 1.3710001 4285218229
0.1619952 0.017957419 1.3710001 4284824240
0.16449474 0.017970517 1.3720001 4284561069
0.16699775 0.017983615 1.373 4283969447
0.16962759 0.018009812 1.3750001 4284298412
0.17226438 0.018036008 1.3770001 4284495790
0.17465444 0.018036008 1.3770001 4284627376
0.17730165 0.018062204 1.3790001 4284363691
0.17995578 0.018088399 1.381 4284823986
0.18235278 0.018088399 1.381 4284824241
0.18474978 0.018088399 1.381 4284758448
0.18714678 0.018088399 1.381 4285087412
0.18954378 0.018088399 1.381 4285548220
0.19235773 0.018127695 1.3840001 4285416377
0.19490068 0.018140791 1.3850001 4285021618
0.19815937 0.01821938 1.391 4284363947
0.20143889 0.018297968 1.3970001 4284233130
0.20430145 0.018337263 1.4000001 4284760492
0.20717442 0.018376557 1.4030001 4284235928
-0.020989416 0.020083396 1.355 4293053695
-0.018555019 0.019994467 1.3490001 4284630700
-0.016189523 0.019964823 1.3470001 4285155770
-0.013841255 0.019950002 1.3460001 4284366004
-0.011505004 0.019950002 1.3460001 4283839401
-0.0091687543 0.019950002 1.3460001 4283444902
-0.0068223523 0.019920358 1.3440001 4283313570
-0.0044895737 0.019920358 1.3440001 4283445156
-0.0021551903 0.019905537 1.3430001 4283116707
0.00017559071 0.019875893 1.3410001 4282985119
0.0025031622 0.019875893 1.3410001 4283050398
0.0048343358 0.019890714 1.342 4282918810
0.0071689817 0.019905537 1.3430001 4283313568
0.0095141707 0.01993518 1.345 4283708326
0.011857496 0.019950002 1.3460001 4283576740
0.014204291 0.019964823 1.3470001 4283181980
0.016529994 0.019950002 1.3460001 4283247516
0.018852228 0.01993518 1.345 4283444895
0.021155238 0.019905537 1.3430001 4283708066
0.023451304 0.019875893 1.3410001 4283839652
0.02574043 0.019846249 1.3390001 4284168615
0.028022612 0.019816605 1.337 4284102822
0.030320544 0.019801784 1.3360001 4284102822
0.032590576 0.01977214 1.3340001 4283971236
0.03487983 0.019757319 1.3330001 4284036515
0.037193518 0.019757319 1.3330001 4283839136
0.03944793 0.019727677 1.3310001 4284233894
0.041726768 0.019712856 1.33 4284102308
0.043969028 0.019683212 1.3280001 4284299687
0.046204347 0.019653568 1.3260001 4284431271
0.048469301 0.019638747 1.325 4284233379
0.050692469 0.019609103 1.3230001 4284102047
0.052908696 0.019579459 1.3210001 4284562598
0.055201553 0.019579459 1.3210001 4284759977
0.057276789 0.01950535 1.3160001 4284102305
0.059515711 0.019490529 1.3150001 4283970720
0.061704163 0.019460887 1.3130001 4284102306
0.063885681 0.019431243 1.3110001 4283707548
0.066110708 0.019416422 1.3100001 4283510169
0.068332277 0.019401599 1.309 4283707548
0.070550367 0.019386778 1.3080001 4283641757
0.072764985 0.019371957 1.307 4283312792
0.074976131 0.019357134 1.3060001 4283181206
0.077242956 0.019357134 1.3060001 4283312792
0.079448901 0.019342313 1.3050001 4283246999
0.081651375 0.01932749 1.304 4283180952
0.083850369 0.019312669 1.3030001 4283115929
0.086111978 0.019312669 1.3030001 4283181722
0.088373594 0.019312669 1.3030001 4283180953
0.09063521 0.019312669 1.3030001 4283115160
0.092968129 0.01932749 1.304 4282983575
0.095231473 0.01932749 1.304 4283246746
0.097569592 0.019342313 1.3050001 4283575198
0.099834673 0.019342313 1.3050001 4284167335
0.10209976 0.019342313 1.3050001 4284430250
0.10444482 0.019357134 1.3060001 4284627372
0.10679335 0.019371957 1.307 4284890289
0.10914536 0.019386778 1.3080001 4284956597
0.11141565 0.019386778 1.3080001 4284956339
0.11377285 0.019401599 1.309 4285087413
0.11613354 0.019416422 1.3100001 4285021107
0.11876885 0.019475708 1.314 4284955314
0.12151018 0.019549815 1.319 4285151922
0.12398728 0.019579459 1.3210001 4285610151
0.12656692 0.019623924 1.3240001 4286130313
0.12905964 0.019653568 1.3260001 4287441799
0.13146025 0.019668389 1.327 4285932944
0.13416672 0.019727677 1.3310001 4285347754
0.13709216 0.019816605 1.337 4286139584
0.1397256 0.01986107 1.34 4286534598
0.14534697 0.019994467 1.3490001 4286797001
0.14878324 0.020142684 1.3590001 4287059659
0.15158691 0.02020197 1.363 4287322832
0.15485628 0.020320544 1.3710001 4287717590
0.15757999 0.020365009 1.3740001 4285414836
0.15996483 0.020365009 1.3740001 4285415607
0.16258599 0.020394653 1.376 4285218742
0.16521411 0.020424295 1.378 4284692654
0.16784917 0.020453939 1.3800001 4284298410
0.17061453 0.020498404 1.383 4284495789
0.17326519 0.020528048 1.3850001 4284627375
0.17579597 0.020542869 1.386 4284495789
0.17845879 0.020572513 1.388 4284626861
0.18099825 0.020587334 1.3890001 4284955826
0.18340914 0.020587334 1.3890001 4284824240
0.18582003 0.020587334 1.3890001 4285087412
0.18809539 0.020572513 1.388 4285218997
0.19064179 0.020587334 1.3890001 4285219513
0.19346964 0.020631799 1.3920001 4284693169
0.19602644 0.020646621 1.393 4284298411
0.19872919 0.020676265 1.3950001 4284167594
-0.023358515 0.02243549 1.3560001 4294370047
-0.020958437 0.022385854 1.353 4284827819
-0.018513756 0.022270035 1.3460001 4284432302
-0.016177505 0.022270035 1.3460001 4284366258
-0.013830972 0.022253489 1.345 4284037291
-0.011496457 0.022253489 1.345 4283971498
-0.0091619426 0.022253489 1.345 4283445154
-0.0068274285 0.022253489 1.345 4283116189
-0.0044929138 0.022253489 1.345 4282985121
-0.002156795 0.022236945 1.3440001 4282787742
0.00017585261 0.022220399 1.3430001 4282919326
0.0025068955 0.022220399 1.3430001 4283247775
0.0048415405 0.022236945 1.3440001 4283050396
0.007179657 0.022253489 1.345 4283181469
0.009521245 0.022270035 1.3460001 4283510434
0.011866305 0.022286581 1.3470001 4283642020
0.014204291 0.022286581 1.3470001 4283773860
0.016542276 0.022286581 1.3470001 4283379102
0.018880261 0.022286581 1.3470001 4283510687
0.021202493 0.022270035 1.3460001 4284037031
0.023503769 0.022236945 1.3440001 4284234408
0.025836548 0.022236945 1.3440001 4284168615
0.02804357 0.022137674 1.3380001 4284234408
0.030365935 0.022137674 1.3380001 4283971236
0.032639436 0.022104582 1.3360001 4283839650
0.034932163 0.022088036 1.335 4283839650
0.037249319 0.022088036 1.335 4283773857
0.039536841 0.02207149 1.3340001 4284037029
0.041820887 0.022054946 1.3330001 4284299687
0.044101465 0.0220384 1.332 4284497066
0.046343725 0.02200531 1.33 4284562087
0.048615627 0.021988764 1.3290001 4284495524
0.05080742 0.021939129 1.3260001 4284495522
0.052988797 0.021889493 1.3230001 4284364191
0.055285126 0.021889493 1.3230001 4285154221
0.057494409 0.021856401 1.3210001 4284825770
0.059696749 0.021823311 1.319 4284168099
0.061939143 0.021806765 1.3180001 4284036513
0.064080596 0.02175713 1.3150001 4283839134
0.066363044 0.02175713 1.3150001 4283575962
0.068488881 0.021707492 1.312 4283839134
0.070658237 0.021674404 1.3100001 4283575962
0.072876334 0.021657856 1.309 4283246997
0.075090952 0.021641312 1.3080001 4283378583
0.077361248 0.021641312 1.3080001 4283444378
0.079631545 0.021641312 1.3080001 4283312792
0.081839211 0.021624768 1.307 4283378585
0.084107772 0.021624768 1.307 4283247001
0.086376332 0.021624768 1.307 4283312538
0.088644885 0.021624768 1.307 4283444124
0.090913445 0.021624768 1.307 4283115159
0.0932533 0.021641312 1.3080001 4282983574
0.095523596 0.021641312 1.3080001 4283115160
0.097793892 0.021641312 1.3080001 4283706784
0.10006418 0.021641312 1.3080001 4283904163
0.10233448 0.021641312 1.3080001 4284232871
0.10460477 0.021641312 1.3080001 4284759215
0.10695677 0.021657856 1.309 4284956594
0.1092288 0.021657856 1.309 4284824753
0.111586 0.021674404 1.3100001 4284627374
0.11394668 0.021690948 1.3110001 4284561326
0.1163995 0.02172404 1.3130001 4284823727
0.11904001 0.021790219 1.317 4284954542
0.12169442 0.021856401 1.3210001 4285216681
0.12417499 0.021889493 1.3230001 4286199195
0.12666252 0.021922583 1.325 4287505018
0.12915698 0.021955673 1.327 4289013632
0.13155931 0.021972219 1.3280001 4286914699
0.13426752 0.0220384 1.332 4285279394
0.13709216 0.022121126 1.337 4285612470
0.14215745 0.022187309 1.3410001 4286665416
0.14545472 0.022336217 1.35 4287059660
0.1488927 0.02250167 1.36 4287388624
0.15169813 0.022567851 1.3640001 4287454417
0.15496922 0.022700215 1.3720001 4287783383
0.15780935 0.022766396 1.376 4285612471
0.1603141 0.02278294 1.3770001 4285480886
0.16294047 0.022816032 1.3790001 4285349813
0.16569369 0.022865668 1.3820001 4285086898
0.16821405 0.022882212 1.383 4284692653
0.17110798 0.022948395 1.3870001 4284890288
0.17401581 0.023014575 1.391 4284758701
0.17643015 0.023014575 1.391 4284758445
0.17897309 0.023031121 1.3920001 4284890031
0.18164979 0.023064213 1.3940001 4285153203
0.18406935 0.023064213 1.3940001 4285153203
0.18635514 0.023047667 1.393 4285284788
0.18890849 0.023064213 1.3940001 4285284789
0.19132805 0.023064213 1.3940001 4285153716
0.19402558 0.023097303 1.396 4284759216
0.19673006 0.023130393 1.3980001 4284364715
0.19915657 0.023130393 1.3980001 4284102055
-0.023341289 0.024754489 1.355 4285552310
-0.020911966 0.024663145 1.35 4284564403
-0.018513756 0.024590069 1.3460001 4284761012
-0.016153466 0.02455353 1.3440001 4283774889
-0.013810405 0.024535263 1.3430001 4283577510
-0.01148791 0.02455353 1.3440001 4283708326
-0.0091619426 0.024571799 1.345 4283380131
-0.0068274285 0.024571799 1.345 4282985886
-0.0044895737 0.02455353 1.3440001 4283247775
-0.0021583997 0.024571799 1.345 4282853787
0.00017598354 0.02455353 1.3440001 4282853787
0.0025087621 0.02455353 1.3440001 4283116189
0.0048415405 0.02455353 1.3440001 4283247775
0.007179657 0.024571799 1.345 4283313055
0.0095141707 0.024571799 1.345 4283510434
0.011857496 0.024590069 1.3460001 4283773606
0.014204291 0.024608338 1.3470001 4284102571
0.016542276 0.024608338 1.3470001 4284102825
0.018880261 0.024608338 1.3470001 4283905445
0.021202493 0.024590069 1.3460001 4283839652
0.023503769 0.02455353 1.3440001 4283971236
0.025817325 0.024535263 1.3430001 4283905443
0.02804357 0.024443917 1.3380001 4283774370
0.030365935 0.024443917 1.3380001 4283774370
0.032639436 0.024407379 1.3360001 4283708579
0.034958329 0.024407379 1.3360001 4283708064
0.037277225 0.024407379 1.3360001 4283905444
0.039566476 0.024389109 1.335 4284168101
0.041852262 0.02437084 1.3340001 4284102822
0.044101465 0.024334302 1.332 4284693932
0.046378572 0.024316033 1.3310001 4284890282
0.048652206 0.024297766 1.33 4284430247
0.050845735 0.024242958 1.327 4284495522
0.053028852 0.02418815 1.3240001 4284165780
0.055285126 0.024169883 1.3230001 4284757657
0.057494409 0.024133343 1.3210001 4285547438
0.059742004 0.024115076 1.3200001 4284430758
0.061986133 0.024096806 1.319 4284167327
0.06412933 0.024041999 1.3160001 4283969950
0.066363044 0.02402373 1.3150001 4283708572
0.068488881 0.023968922 1.312 4283970207
0.070658237 0.023932386 1.3100001 4284167586
0.072876334 0.023914116 1.309 4283773341
0.075148359 0.023914116 1.309 4283707548
0.077361248 0.023895847 1.3080001 4283575964
0.079631545 0.023895847 1.3080001 4283575964
0.081839211 0.023877578 1.307 4283575964
0.084107772 0.023877578 1.307 4283707294
0.086442418 0.023895847 1.3080001 4283707294
0.088712715 0.023895847 1.3080001 4283510173
0.090983011 0.023895847 1.3080001 4283641503
0.0932533 0.023895847 1.3080001 4283707296
0.095596626 0.023914116 1.309 4283378332
0.097793892 0.023895847 1.3080001 4283706784
0.10014068 0.023914116 1.309 4283772577
0.10241271 0.023914116 1.309 4284298664
0.10460477 0.023895847 1.3080001 4284627629
0.10695677 0.023914116 1.309 4284495529
0.1092288 0.023914116 1.309 4284693165
0.111586 0.023932386 1.3100001 4284956081
0.1140336 0.023968922 1.312 4284890033
0.11648814 0.02400546 1.314 4284823214
0.1191304 0.024078537 1.3180001 4284757162
0.12178655 0.024151612 1.322 4285412512
0.12417499 0.024169883 1.3230001 4286981509
0.12666252 0.02420642 1.325 4288945011
0.12915698 0.024242958 1.327 4289732986
0.13155931 0.024261227 1.3280001 4287766410
0.13416672 0.024316033 1.3310001 4285408668
0.13709216 0.024425648 1.337 4284756651
0.1397256 0.024480455 1.34 4285942464
0.14545472 0.024663145 1.35 4287125965
0.1488927 0.024845835 1.36 4287586003
0.15180935 0.024937179 1.365 4287783382
0.15508218 0.025083331 1.373 4287651797
0.15826811 0.025211215 1.3800001 4285809594
0.16077979 0.025229482 1.381 4285480885
0.16376759 0.025320828 1.386 4285349556
0.16653295 0.025375636 1.3890001 4284889774
0.16894384 0.025375636 1.3890001 4284890032
-0.028148519 0.02719 1.36 4294964735
-0.025750045 0.027150013 1.358 4286737348
-0.023324063 0.027070044 1.3540001 4284565169
-0.020896476 0.026970081 1.3490001 4284367024
-0.0185 0.026890108 1.345 4283905705
-0.016165486 0.026890108 1.345 4283709096
-0.013820688 0.026870117 1.3440001 4283446437
-0.011496457 0.026890108 1.345 4283643303
-0.0091687543 0.026910102 1.3460001 4283380131
-0.0068325046 0.026910102 1.3460001 4283314851
-0.0044962545 0.026910102 1.3460001 4283379361
-0.0021616092 0.026930094 1.3470001 4283379361
0.00017637636 0.026930094 1.3470001 4283050396
0.0025143621 0.026930094 1.3470001 4283379361
0.0048523475 0.026930094 1.3470001 4283247262
0.0071903337 0.026930094 1.3470001 4283707813
0.0095283194 0.026930094 1.3470001 4283773606
0.011866305 0.026930094 1.3470001 4283839399
0.014214835 0.026950089 1.348 4284892341
0.016554557 0.026950089 1.348 4284497582
0.018908294 0.026970081 1.3490001 4284300203
0.021218248 0.026930094 1.3470001 4284037031
0.023538744 0.026910102 1.3460001 4283905443
0.02585577 0.026890108 1.345 4283774370
0.028085489 0.026790146 1.34 4283840163
0.030411327 0.026790146 1.34 4283971749
0.032688297 0.026750162 1.3380001 4283774370
0.035010662 0.026750162 1.3380001 4283774368
0.037333027 0.026750162 1.3380001 4283840165
0.039625756 0.026730169 1.337 4283839650
0.041915011 0.026710177 1.3360001 4284168615
0.044200793 0.026690183 1.335 4284562346
0.046448261 0.026650198 1.3330001 4284561317
0.048761945 0.026650198 1.3330001 4284496040
0.050922368 0.026570227 1.3290001 4285021609
0.053068902 0.026490258 1.325 4285479579
0.055326916 0.026470264 1.3240001 4285213817
0.057537932 0.026430279 1.322 4284885885
0.059742004 0.026390294 1.3200001 4285415074
0.062033128 0.026390294 1.3200001 4285284780
0.064275518 0.0263703 1.319 4284233633
0.06651444 0.026350308 1.3180001 4284036258
0.068697684 0.026310323 1.3160001 4284101539
0.070820048 0.026250346 1.3130001 4284299429
0.073099025 0.026250346 1.3130001 4284233892
0.075320587 0.026230352 1.312 4284233894
0.077538684 0.02621036 1.3110001 4284036515
0.079753295 0.026190367 1.3100001 4283707550
0.082027063 0.026190367 1.3100001 4283641502
0.084300831 0.026190367 1.3100001 4283707295
0.086574592 0.026190367 1.3100001 4283904418
0.08884836 0.026190367 1.3100001 4283772832
0.091122121 0.026190367 1.3100001 4284101797
0.093395889 0.026190367 1.3100001 4284102054
0.095742688 0.02621036 1.3110001 4284036005
0.097943418 0.026190367 1.3100001 4283904163
0.10029369 0.02621036 1.3110001 4283838370
0.10241271 0.026170373 1.309 4283969699
0.10476471 0.026190367 1.3100001 4284232871
0.10703848 0.026190367 1.3100001 4284429735
0.10939569 0.02621036 1.3110001 4284824496
0.11184154 0.026250346 1.3130001 4285218997
0.11429435 0.026290331 1.3150001 4285218995
0.11675409 0.026330315 1.317 4284955054
0.11940157 0.026410285 1.3210001 4284888486
0.12187866 0.026450273 1.3230001 4286002332
0.12426885 0.026470264 1.3240001 4287831671
0.1267581 0.02651025 1.3260001 4289665904
0.12925431 0.026550235 1.3280001 4289929081
0.13165838 0.026570227 1.3290001 4288093832
0.13436833 0.026650198 1.3330001 4285737118
0.13951705 0.026750162 1.3380001 4286008255
0.14205144 0.026790146 1.34 4286731721
0.14545472 0.026990073 1.35 4287388880
0.14900219 0.027209993 1.3610001 4287652051
0.15180935 0.027289962 1.365 4287849685
0.15530808 0.027489889 1.3750001 4287389135
0.15872684 0.027669823 1.3840001 4286402242
0.16147833 0.027729802 1.3870001 4285547192
-0.028127821 0.029512448 1.3590001 4288448217
-0.025712121 0.029447298 1.3560001 4284499632
-0.02328961 0.029360434 1.3520001 4284499122
-0.020911966 0.029317003 1.35 4283906988
-0.018527508 0.029251853 1.3470001 4283840682
-0.016177505 0.029230136 1.3460001 4283643816
-0.013841255 0.029230136 1.3460001 4283446437
-0.011513552 0.029251853 1.3470001 4283445924
-0.0091823777 0.029273568 1.348 4283511717
-0.0068477327 0.029295284 1.3490001 4283512230
-0.004506276 0.029295284 1.3490001 4283774119
-0.0021648188 0.029295284 1.3490001 4283510947
0.00017676919 0.029317003 1.35 4283247775
0.0025199619 0.029317003 1.35 4283378848
0.0048631546 0.029317003 1.35 4283642020
0.0072063473 0.029317003 1.35 4283642020
0.0095424661 0.029295284 1.3490001 4283707813
0.011892733 0.029317003 1.35 4284234411
0.014246471 0.029338716 1.3510001 4284563376
0.016579119 0.029317003 1.35 4284628398
0.018922312 0.029317003 1.35 4284628398
0.021265505 0.029317003 1.35 4284300201
0.023573721 0.029273568 1.348 4283905443
0.025894219 0.029251853 1.3470001 4283905956
0.028190285 0.029208418 1.345 4284037540
0.030456716 0.02914327 1.342 4283905954
0.032737162 0.029099839 1.34 4283642782
0.035062999 0.029099839 1.34 4283708829
0.037360929 0.029078122 1.3390001 4283774370
0.039655391 0.029056404 1.3380001 4283905697
0.041946385 0.029034691 1.337 4284300201
0.044233903 0.029012972 1.3360001 4284497066
0.04651795 0.028991256 1.335 4284693930
0.048835106 0.028991256 1.335 4284759467
0.051037315 0.028926108 1.332 4285217447
0.053189058 0.028839242 1.3280001 4286327953
0.055410489 0.02879581 1.3260001 4288031870
0.057537932 0.028708944 1.322 4287702900
0.059742004 0.028665513 1.3200001 4284750705
0.062033128 0.028665513 1.3200001 4285348763
0.064372987 0.028687229 1.3210001 4285219499
0.066665843 0.028687229 1.3210001 4284299430
0.068906493 0.028665513 1.3200001 4283904929
0.071089745 0.028622078 1.3180001 4284036770
0.073377393 0.028622078 1.3180001 4284497065
0.075550221 0.028578646 1.3160001 4284299687
0.07771612 0.028535215 1.314 4284168101
0.079935938 0.028513499 1.3130001 4284102308
0.082214914 0.028513499 1.3130001 4283838625
0.084429532 0.02849178 1.312 4283772832
0.086706772 0.02849178 1.312 4284036004
0.088916183 0.028470067 1.3110001 4283970211
0.091191687 0.028470067 1.3110001 4284167590
0.093538478 0.02849178 1.312 4284299176
0.095815711 0.02849178 1.312 4284101797
0.098018184 0.028470067 1.3110001 4283969956
0.10029369 0.028470067 1.3110001 4283903906
0.10256919 0.028470067 1.3110001 4283706527
0.10484469 0.028470067 1.3110001 4284101285
0.1072019 0.02849178 1.312 4284561837
0.10956258 0.028513499 1.3130001 4284956594
0.11201191 0.02855693 1.3150001 4285350581
0.11446818 0.028600365 1.317 4285152946
0.11693141 0.028643796 1.319 4285086381
0.11949196 0.028708944 1.322 4285741219
0.12197079 0.028752379 1.3240001 4286784900
0.12436271 0.028774092 1.325 4288879986
0.1268537 0.028817527 1.327 4289927789
0.12935163 0.028860958 1.3290001 4289928824
0.13175744 0.028882677 1.33 4288093832
0.13446912 0.028969541 1.3340001 4285802654
0.13962133 0.029078122 1.3390001 4286007741
0.14226346 0.02914327 1.342 4286994377
0.14556247 0.029338716 1.3510001 4287257551
0.14911167 0.029577596 1.3620001 4287652308
0.15203176 0.029686177 1.3670001 4287718100
0.15553398 0.029903339 1.3770001 4287323597
0.15895623 0.030098788 1.386 4287521744
0.16182759 0.030185651 1.3900001 4285416627
-0.02804503 0.031761128 1.355 4284433582
-0.025655236 0.031714249 1.353 4284433332
-0.023272384 0.031667367 1.3510001 4284301744
-0.020911966 0.031643931 1.35 4284103852
-0.018527508 0.031573612 1.3470001 4283577508
-0.016189523 0.031573612 1.3470001 4283512230
-0.013841255 0.031550169 1.3460001 4283183265
-0.011513552 0.031573612 1.3470001 4283182752
-0.0091823777 0.031597048 1.348 4283182752
-0.0068477327 0.031620488 1.3490001 4283709096
-0.0045096162 0.031643931 1.35 4283905705
-0.0021664235 0.031643931 1.35 4283708326
0.00017676919 0.031643931 1.35 4283444641
0.0025199619 0.031643931 1.35 4284036778
0.004866757 0.031667367 1.3510001 4283970985
0.0072063473 0.031643931 1.35 4284365229
0.0095495405 0.031643931 1.35 4284036264
0.011892733 0.031643931 1.35 4284102055
0.014235927 0.031643931 1.35 4283970725
0.016579119 0.031643931 1.35 4284365226
0.018922312 0.031643931 1.35 4284562605
0.021249751 0.031620488 1.3490001 4284300203
0.023573721 0.031597048 1.348 4284300201
0.025894219 0.031573612 1.3470001 4284168615
0.028169326 0.031503286 1.3440001 4284234662
0.030456716 0.031456411 1.342 4284103076
0.032737162 0.031409532 1.34 4283839904
0.035036832 0.031386089 1.3390001 4283774109
0.037360929 0.031386089 1.3390001 4283642784
0.039655391 0.031362649 1.3380001 4283970720
0.041977756 0.031362649 1.3380001 4284168869
0.044233903 0.03131577 1.3360001 4284365478
0.04651795 0.03129233 1.335 4284432039
0.048835106 0.03129233 1.335 4284628392
0.051037315 0.03122201 1.332 4285282469
0.053149004 0.031104812 1.327 4286721682
0.055368703 0.03105793 1.325 4288555128
0.057537932 0.030987609 1.322 4289538160
0.059742004 0.030940732 1.3200001 4288422766
0.062033128 0.030940732 1.3200001 4285602411
0.064324245 0.030940732 1.3200001 4285478806
0.066615373 0.030940732 1.3200001 4285022372
0.068906493 0.030940732 1.3200001 4284693927
0.071143679 0.030917291 1.319 4284562601
0.073433064 0.030917291 1.319 4284628650
0.075607635 0.030870412 1.317 4284365480
0.077775262 0.030823531 1.3150001 4284102308
0.080057703 0.030823531 1.3150001 4284102308
0.082277529 0.030800093 1.314 4284101797
0.084493883 0.030776652 1.3130001 4284167590
0.086706772 0.03075321 1.312 4284233383
0.088984005 0.03075321 1.312 4284167590
0.091261245 0.03075321 1.312 4284101797
0.093467183 0.030729773 1.3110001 4284036004
0.095742688 0.030729773 1.3110001 4283838625
0.098018184 0.030729773 1.3110001 4284167077
0.10029369 0.030729773 1.3110001 4283969699
0.10256919 0.030729773 1.3110001 4283969699
0.10484469 0.030729773 1.3110001 4284167078
0.1072019 0.03075321 1.312 4284627630
0.10964602 0.030800093 1.314 4285088435
0.11218227 0.030870412 1.317 4285153458
0.11464202 0.030917291 1.319 4285087922
0.1171087 0.030964172 1.3210001 4285217191
0.11958233 0.031011051 1.3230001 4286459795
0.12197079 0.031034492 1.3240001 4287764848
0.12426885 0.031034492 1.3240001 4290060146
0.1267581 0.031081371 1.3260001 4290255470
0.12935163 0.03115169 1.3290001 4289796981
0.13175744 0.031175131 1.33 4288356749
0.13436833 0.031245451 1.3330001 4285999778
0.13962133 0.031386089 1.3390001 4285481140
0.14226346 0.031456411 1.342 4287257036
0.14556247 0.031667367 1.3510001 4287454673
0.14911167 0.031925209 1.3620001 4287454929
0.15192054 0.032018971 1.3660001 4287718101
0.15564694 0.032300249 1.378 4287258060
0.15952966 0.032604966 1.391 4287588300
0.16252613 0.032722168 1.396 4288576716
-0.030396901 0.034096673 1.355 4284301994
-0.027962241 0.03399602 1.3510001 4284367537
-0.025617313 0.03399602 1.3510001 4284301231
-0.023272384 0.03399602 1.3510001 4283972014
-0.020927455 0.03399602 1.3510001 4283906988
-0.018568773 0.033970859 1.35 4283906986
-0.016213562 0.033945695 1.3490001 4283578021
-0.013861821 0.03392053 1.348 4283380642
-0.011539195 0.033970859 1.35 4283380642
-0.0092028128 0.03399602 1.3510001 4283314338
-0.0068680374 0.034046348 1.353 4283839912
-0.0045196377 0.034046348 1.353 4283905705
-0.0021728426 0.034071509 1.3540001 4284102825
0.00017729294 0.034071509 1.3540001 4284300461
0.0025274286 0.034071509 1.3540001 4284365227
0.004877564 0.034071509 1.3540001 4284233641
0.0072223609 0.034046348 1.353 4284299434
0.0095707607 0.034046348 1.353 4284167848
0.01191916 0.034046348 1.353 4284431020
0.014267561 0.034046348 1.353 4284233641
0.016615961 0.034046348 1.353 4284102055
0.018950345 0.034021184 1.3520001 4284628398
0.021281257 0.03399602 1.3510001 4284825777
0.023591209 0.033945695 1.3490001 4284760752
0.025913442 0.03392053 1.348 4284168869
0.028211243 0.033870202 1.3460001 4284366248
0.030502105 0.033819873 1.3440001 4284563627
0.032786023 0.033769548 1.342 4284432041
0.035089161 0.033744384 1.3410001 4284037540
0.037388835 0.033719223 1.34 4283774111
0.03968503 0.033694059 1.3390001 4283839134
0.041977756 0.033668894 1.3380001 4283839904
0.044267014 0.03364373 1.337 4284431015
0.046552796 0.033618566 1.3360001 4284431269
0.048835106 0.033593401 1.335 4284628390
0.051037315 0.033517912 1.332 4285150882
0.053189058 0.033417258 1.3280001 4286590608
0.055452276 0.033392094 1.327 4289012855
0.057624981 0.033316605 1.3240001 4290126188
0.05978727 0.033241116 1.3210001 4290060910
0.062033128 0.033215951 1.3200001 4288947056
0.064275518 0.033190787 1.319 4286256487
0.066615373 0.033215951 1.3200001 4285477257
0.068906493 0.033215951 1.3200001 4285743783
0.071251556 0.033241116 1.3210001 4285153451
0.073544413 0.033241116 1.3210001 4284694183
0.075779855 0.033215951 1.3200001 4284233635
0.078011833 0.033190787 1.319 4284167589
0.080240346 0.033165623 1.3180001 4284299689
0.08246538 0.033140458 1.317 4284233895
0.084686942 0.033115294 1.3160001 4284167590
0.086905032 0.033090129 1.3150001 4284101798
0.089051828 0.033039805 1.3130001 4284036004
0.091330796 0.033039805 1.3130001 4284167590
0.093609773 0.033039805 1.3130001 4283970211
0.095815711 0.03301464 1.312 4284101542
0.098092951 0.03301464 1.312 4284298921
0.10037018 0.03301464 1.312 4284364457
0.10272565 0.033039805 1.3130001 4284233384
0.10500463 0.033039805 1.3130001 4284364969
0.10736532 0.033064969 1.314 4284693165
0.10981291 0.033115294 1.3160001 4284890543
0.11218227 0.033140458 1.317 4285087917
0.11472893 0.033215951 1.3200001 4284891306
0.11719736 0.033266276 1.322 4285611937
0.11958233 0.03329144 1.3230001 4285470827
0.12197079 0.033316605 1.3240001 4289012593
0.12426885 0.033316605 1.3240001 4290453875
0.1267581 0.03336693 1.3260001 4290189677
0.12944897 0.033467587 1.33 4290060666
0.1318565 0.033492748 1.3310001 4288226704
0.13446912 0.033568241 1.3340001 4286000293
0.1397256 0.033719223 1.34 4284888749
0.14226346 0.033769548 1.342 4286928328
0.14556247 0.03399602 1.3510001 4287454416
0.14911167 0.03427282 1.3620001 4287520208
0.15203176 0.034398638 1.3670001 4287586766
0.15564694 0.034675438 1.378 4287258570
0.1599884 0.03510322 1.3950001 4286733752
0.16310824 0.035254199 1.401 4291078618
-0.035256069 0.036593545 1.3610001 4291540733
-0.032797113 0.036485996 1.3570001 4284894388
-0.030329604 0.036351562 1.3520001 4284499376
-0.027941544 0.036297787 1.35 4284038059
-0.025598351 0.036297787 1.35 4283840682
-0.023272384 0.036324672 1.3510001 4283577256
-0.020942947 0.036351562 1.3520001 4283906988
-0.018596282 0.036351562 1.3520001 4283775400
-0.016237598 0.036324672 1.3510001 4283775400
-0.013902954 0.036351562 1.3520001 4283643814
-0.011573385 0.036405332 1.3540001 4283380129
-0.0092368731 0.036459111 1.3560001 4283511715
-0.0068883421 0.036485996 1.3570001 4283839910
-0.00453634 0.036512882 1.358 4284366256
-0.0021792615 0.036512882 1.358 4284300204
0.00017794764 0.036539771 1.3590001 4284957364
0.002534895 0.036512882 1.358 4284694192
0.0048919735 0.036512882 1.358 4284365227
0.0072490517 0.036512882 1.358 4284496813
0.0096061304 0.036512882 1.358 4284496813
0.011963208 0.036512882 1.358 4284628399
0.014309742 0.036485996 1.3570001 4284365227
0.016652804 0.036459111 1.3560001 4283839652
0.018992394 0.036432222 1.355 4284629168
0.02131276 0.036378447 1.353 4284629166
0.023643672 0.036351562 1.3520001 4284826545
0.025971113 0.036324672 1.3510001 4284300455
0.028274123 0.036270898 1.3490001 4284366248
0.030592883 0.036244009 1.348 4284629420
0.032883745 0.036190238 1.3460001 4284366248
0.035141494 0.036109574 1.3430001 4284168869
0.037472539 0.036109574 1.3430001 4284102306
0.039744306 0.0360558 1.3410001 4284102306
0.042040505 0.036028914 1.34 4283971233
0.04430012 0.035975136 1.3380001 4284759723
0.046587642 0.035948254 1.337 4284628650
0.048871689 0.035921365 1.3360001 4284694184
0.051113948 0.03586759 1.3340001 4285151911
0.053269163 0.035760041 1.33 4286065042
0.055535853 0.035733152 1.3290001 4288881016
0.057712022 0.035652492 1.3260001 4290125678
0.059923045 0.035598718 1.3240001 4290255724
0.062080126 0.035518058 1.3210001 4289795944
0.064275518 0.035464279 1.319 4289470576
0.066564903 0.035464279 1.319 4287045484
0.068906493 0.035491168 1.3200001 4285410435
0.071197614 0.035491168 1.3200001 4285809832
0.073544413 0.035518058 1.3210001 4284891558
0.075894676 0.035544943 1.322 4284759977
0.078130126 0.035518058 1.3210001 4284496553
0.080422983 0.035518058 1.3210001 4284431020
0.08259061 0.035464279 1.319 4284431020
0.084751293 0.035410509 1.317 4284365481
0.086971119 0.035383619 1.3160001 4284167847
0.089187473 0.03535673 1.3150001 4284102055
0.091469921 0.03535673 1.3150001 4284299176
0.093681067 0.035329845 1.314 4284430762
0.095888741 0.035302956 1.3130001 4284233128
0.098167717 0.035302956 1.3130001 4284233128
0.10044669 0.035302956 1.3130001 4284167335
0.1028039 0.035329845 1.314 4283904163
0.10508461 0.035329845 1.314 4284035749
0.10744702 0.03535673 1.3150001 4284233127
0.10989635 0.035410509 1.317 4284627881
0.11226745 0.035437394 1.3180001 4285088427
0.11481585 0.035518058 1.3210001 4285615019
0.11737466 0.035598718 1.3240001 4285612175
0.11967272 0.035598718 1.3240001 4286655598
0.12197079 0.035598718 1.3240001 4288814950
0.12426885 0.035598718 1.3240001 4289992810
0.1268537 0.035679381 1.327 4290124141
0.1318565 0.035786927 1.3310001 4287570318
0.13436833 0.035840701 1.3330001 4285869992
0.13698962 0.035921365 1.3360001 4285019309
0.13982987 0.0360558 1.3410001 4285085870
0.14247547 0.03613646 1.3440001 4286665157
0.14577796 0.036378447 1.353 4287257551
0.14922115 0.03664732 1.363 4287520465
0.15225419 0.036808643 1.3690001 4287915475
0.15553398 0.037023738 1.3770001 4287456719
0.16021778 0.037561484 1.3970001 4286997693
0.16577628 0.037722811 1.4030001 4294965503
-0.035152454 0.03882499 1.3570001 4285486778
-0.032748774 0.038767766 1.355 4284959927
-0.030307172 0.038653322 1.3510001 4284498610
-0.027941544 0.038624715 1.35 4284038061
-0.025598351 0.038624715 1.35 4283709096
-0.023272384 0.038653322 1.3510001 4283709094
-0.020942947 0.038681936 1.3520001 4283512228
-0.018596282 0.038681936 1.3520001 4283512228
-0.016249618 0.038681936 1.3520001 4283512228
-0.013913237 0.038710546 1.353 4283709094
-0.011581932 0.038767766 1.355 4283774117
-0.0092436848 0.03882499 1.3570001 4283839910
-0.0068984944 0.038882211 1.3590001 4284300204
-0.0045430209 0.038910825 1.36 4284497583
-0.0021808664 0.038882211 1.3590001 4284694192
0.00017807858 0.038910825 1.36 4285023157
0.0025386284 0.038910825 1.36 4284825778
0.0048955758 0.038882211 1.3590001 4284562606
0.00725439 0.038882211 1.3590001 4284628399
0.0096132038 0.038882211 1.3590001 4284628399
0.011972019 0.038882211 1.3590001 4284694192
0.014320288 0.038853601 1.358 4284759985
0.016665084 0.03882499 1.3570001 4284168617
0.019006411 0.03879638 1.3560001 4284563373
0.02131276 0.038710546 1.353 4284760752
0.023626186 0.038653322 1.3510001 4284826545
0.02595189 0.038624715 1.35 4284563373
0.028274123 0.038596101 1.3490001 4284497580
0.030592883 0.038567491 1.348 4284826031
0.032883745 0.03851027 1.3460001 4284562859
0.035167661 0.038453046 1.3440001 4284365480
0.037472539 0.03842444 1.3430001 4284233894
0.039744306 0.038367216 1.3410001 4284102051
0.042040505 0.038338605 1.34 4284233894
0.04430012 0.038281381 1.3380001 4284562859
0.046587642 0.038252775 1.337 4284693930
0.048908271 0.038252775 1.337 4284759466
0.051113948 0.03816694 1.3340001 4284823203
0.053269163 0.038052496 1.33 4286000024
0.055535853 0.038023885 1.3290001 4288486529
0.057712022 0.037938051 1.3260001 4289731185
0.059923045 0.03788083 1.3240001 4290058345
0.062080126 0.037795 1.3210001 4290123107
0.064275518 0.037737776 1.319 4289927013
0.066564903 0.037737776 1.319 4289406319
0.068802088 0.037709162 1.3180001 4287244143
0.071143679 0.037737776 1.319 4284096874
0.073433064 0.037737776 1.319 4284562834
0.075779855 0.037766386 1.3200001 4285089192
0.078070976 0.037766386 1.3200001 4285088685
0.080362104 0.037766386 1.3200001 4284694444
0.082653224 0.037766386 1.3200001 4284562861
0.084944345 0.037766386 1.3200001 4284562604
0.087169379 0.037737776 1.319 4284233638
0.089390948 0.037709162 1.3180001 4284167846
0.091609038 0.037680555 1.317 4284233640
0.093823656 0.037651941 1.3160001 4284364969
0.096034802 0.037623331 1.3150001 4284430763
0.098317251 0.037623331 1.3150001 4284167335
0.10059969 0.037623331 1.3150001 4283838372
0.10296037 0.037651941 1.3160001 4283443614
0.10532453 0.037680555 1.317 4283575200
0.10769215 0.037709162 1.3180001 4283969957
0.11014669 0.037766386 1.3200001 4284430502
0.11243781 0.037766386 1.3200001 4285088166
0.11498968 0.03785222 1.3230001 4284890253
0.11746332 0.037909441 1.325 4289954749
0.11967272 0.03788083 1.3240001 4290801571
0.12197079 0.03788083 1.3240001 4289077605
0.12436271 0.037909441 1.325 4290124395
0.12935163 0.038023885 1.3290001 4289536637
0.13205464 0.03813833 1.3330001 4286784653
0.13446912 0.03816694 1.3340001 4285675434
0.13719469 0.038281381 1.3380001 4285217712
0.14003842 0.03842444 1.3430001 4285284017
0.14258149 0.03848166 1.345 4285744312
0.14588571 0.038739156 1.3540001 4286731208
0.14944011 0.039053876 1.365 4287586513
0.15247664 0.039225541 1.3710001 4287718609
0.15609874 0.039540261 1.3820001 4287523279
0.16322467 0.040112481 1.4020001 4290093002
0.1662489 0.040255535 1.4070001 4294965759
-0.037645999 0.041315656 1.3620001 4286013625
-0.035074741 0.04107298 1.3540001 4285157304
-0.032676268 0.041012309 1.3520001 4284367278
-0.030307172 0.040981974 1.3510001 4284103852
-0.027962241 0.040981974 1.3510001 4283840936
-0.025617313 0.040981974 1.3510001 4283644068
-0.02328961 0.041012309 1.3520001 4283446436
-0.020973928 0.04107298 1.3540001 4283512228
-0.018623792 0.04107298 1.3540001 4283511715
-0.016285675 0.041103315 1.355 4283446177
-0.013944087 0.04113365 1.3560001 4283971751
-0.011607575 0.041194316 1.358 4284168617
-0.0092641199 0.04125499 1.36 4284497582
-0.0069086468 0.041285321 1.3610001 4284628398
-0.0045530424 0.041345991 1.363 4284825777
-0.0021904949 0.041406661 1.365 4285088949
0.00017873329 0.041406661 1.365 4285023156
0.0025479614 0.041406661 1.365 4284957364
0.0049171899 0.041406661 1.365 4284825778
0.0072810799 0.041376323 1.3640001 4284628399
0.0096485727 0.041376323 1.3640001 4284694192
0.012016065 0.041376323 1.3640001 4284825778
0.014373013 0.041345991 1.363 4285088950
0.016701927 0.04125499 1.36 4284496812
0.01904846 0.041224655 1.3590001 4284629168
0.021344265 0.041103315 1.355 4284958133
0.023643672 0.041012309 1.3520001 4285023924
0.025990337 0.041012309 1.3520001 4284629166
0.028316041 0.040981974 1.3510001 4284431787
0.030638276 0.040951643 1.35 4284628652
0.03298147 0.040951643 1.35 4284562859
0.035193831 0.040799968 1.345 4284365226
0.037528343 0.040799968 1.345 4284036516
0.039803579 0.040739302 1.3430001 4284036002
0.042103253 0.040708967 1.342 4284299687
0.044366341 0.040648296 1.34 4284497580
0.046657331 0.040617961 1.3390001 4284891567
0.04894485 0.040587626 1.3380001 4284956075
0.051190581 0.04052696 1.3360001 4284888999
0.053389318 0.040435955 1.3330001 4285870495
0.05561943 0.040375285 1.3310001 4287699848
0.057799075 0.04028428 1.3280001 4289600115
0.060013559 0.040223613 1.3260001 4290386538
0.062268104 0.040193278 1.325 4290385514
0.064372987 0.040071942 1.3210001 4290188389
0.066615373 0.040041607 1.3200001 4289732198
0.068802088 0.039980933 1.3180001 4288555882
0.07103581 0.039950602 1.317 4284819800
0.073321722 0.039950602 1.317 4289498299
0.075607635 0.039950602 1.317 4284038013
0.07795269 0.039980933 1.3180001 4284892575
0.080301225 0.040011272 1.319 4285023918
0.082653224 0.040041607 1.3200001 4284825774
0.085008703 0.040071942 1.3210001 4284562605
0.08730156 0.040071942 1.3210001 4284431019
0.089526586 0.040041607 1.3200001 4284562605
0.091678597 0.039980933 1.3180001 4284101797
0.093966246 0.039980933 1.3180001 4284101797
0.096253894 0.039980933 1.3180001 4284298921
0.09854155 0.039980933 1.3180001 4284298921
0.10090569 0.040011272 1.319 4283772578
0.10327332 0.040041607 1.3200001 4283443614
0.10556444 0.040041607 1.3200001 4283772579
0.10793728 0.040071942 1.3210001 4284035235
0.11023013 0.040071942 1.3210001 4284890278
0.11252299 0.040071942 1.3210001 4285415577
0.11490277 0.040102273 1.322 4283836261
0.11719736 0.040102273 1.322 4287782282
0.11949196 0.040102273 1.322 4287905648
0.12197079 0.040162943 1.3240001 4289012579
0.12445657 0.040223613 1.3260001 4290125420
0.12954628 0.040375285 1.3310001 4289012099
0.13225277 0.040496621 1.335 4286524822
0.13467073 0.04052696 1.3360001 4285085348
0.13750231 0.040678628 1.3410001 4284429223
0.14024697 0.040799968 1.345 4284955824
0.14279351 0.040860638 1.3470001 4285021103
0.14610119 0.04113365 1.3560001 4286204862
0.14976856 0.041497663 1.368 4287520464
0.15281029 0.041679669 1.3740001 4287916502
0.16369036 0.042650379 1.406 4291014874
0.1668397 0.042832386 1.4120001 4294966015
-0.037480153 0.043470919 1.3560001 4284697261
-0.035048835 0.043374747 1.353 4284433840
-0.032700434 0.043374747 1.353 4283775400
-0.030329604 0.043342687 1.3520001 4283578020
-0.028003637 0.043374747 1.353 4283578023
-0.025655236 0.043374747 1.353 4283578021
-0.023341289 0.043438859 1.355 4283446437
-0.021020398 0.043502979 1.3570001 4283775400
-0.018678809 0.043535035 1.358 4283643556
-0.01633375 0.043567095 1.3590001 4283840165
-0.013985219 0.043599155 1.36 4284234410
-0.011650313 0.043695327 1.363 4284562862
-0.0092981802 0.043759443 1.365 4284891570
-0.0069340277 0.043791503 1.3660001 4284694191
-0.0045730849 0.043887675 1.3690001 4284825777
-0.0022001234 0.043951791 1.3710001 4285088950
0.00017951892 0.043951791 1.3710001 4285286328
0.0025628947 0.04401591 1.373 4285088949
0.004942406 0.043983851 1.3720001 4284825778
0.0073237843 0.043983851 1.3720001 4284759985
0.0096980892 0.043951791 1.3710001 4284759985
0.012068922 0.043919735 1.3700001 4284694192
0.014404649 0.043791503 1.3660001 4285088950
0.016738771 0.043695327 1.363 4284694191
0.019076493 0.043631211 1.3610001 4284825777
0.02137577 0.043502979 1.3570001 4284759984
0.023678647 0.043406799 1.3540001 4284957363
0.02600956 0.043374747 1.353 4284562861
0.028337 0.043342687 1.3520001 4284431019
0.030660968 0.043310627 1.3510001 4284365225
0.03298147 0.043278571 1.35 4284365226
0.03524616 0.043182395 1.3470001 4284299433
0.037556242 0.043150339 1.3460001 4283904675
0.039833218 0.04308622 1.3440001 4284102054
0.042134624 0.043054163 1.3430001 4284233896
0.044399448 0.042990044 1.3410001 4284562604
0.046692178 0.042957988 1.34 4285022386
0.049018014 0.042957988 1.34 4285021614
0.0512289 0.042861816 1.337 4285020330
0.053469419 0.042797696 1.335 4285084321
0.055744793 0.04276564 1.3340001 4286785939
0.057886124 0.042637408 1.33 4288682872
0.060058825 0.042541232 1.327 4290124144
0.062362093 0.042541232 1.327 4290122852
0.064421713 0.04238094 1.322 4290189157
0.066665843 0.042348884 1.3210001 4289928293
0.068854295 0.042284764 1.319 4289146478
0.070981868 0.042188592 1.3160001 4285675104
0.073266044 0.042188592 1.3160001 4294500343
0.075550221 0.042188592 1.3160001 4290288325
0.077893548 0.042220652 1.317 4282918248
0.080301225 0.042284764 1.319 4284759705
0.082653224 0.042316824 1.3200001 4285351340
0.085008703 0.042348884 1.3210001 4284825772
0.08730156 0.042348884 1.3210001 4284890542
0.089594416 0.042348884 1.3210001 4284759214
0.091817707 0.042316824 1.3200001 4284167846
0.09403754 0.042284764 1.319 4283838624
0.096326925 0.042284764 1.319 4284233129
0.098691076 0.042316824 1.3200001 4284232872
0.10105871 0.042348884 1.3210001 4283969700
0.10342979 0.04238094 1.322 4283706785
0.10580436 0.042413 1.3230001 4284101028
0.10801898 0.04238094 1.322 4284560546
0.11023013 0.042348884 1.3210001 4285544856
0.11243781 0.042316824 1.3200001 4285736820
0.11472893 0.042316824 1.3200001 4286591340
0.1171087 0.042348884 1.3210001 4284290883
0.11940157 0.042348884 1.3210001 4284811065
0.12187866 0.042413 1.3230001 4289209957
0.12445657 0.042509172 1.3260001 4289929582
0.1268537 0.042541232 1.327 4289668735
0.12964362 0.04270152 1.332 4287636359
0.13235185 0.042829756 1.3360001 4286330781
0.13487233 0.042893872 1.3380001 4283836307
0.13760485 0.043022104 1.342 4284363687
0.14045551 0.043182395 1.3470001 4284758191
0.14300552 0.043246511 1.3490001 4284692139
0.14631668 0.043535035 1.358 4285547446
0.150097 0.043951791 1.3710001 4287389649
0.15303271 0.044112083 1.376 4287916760
0.16380678 0.045105886 1.4070001 4291869670
0.16695786 0.045298234 1.4130001 4294965759
-0.042560712 0.046213571 1.368 4294832638
-0.04001002 0.046010882 1.3620001 4286013623
-0.037480153 0.045808189 1.3560001 4284170409
-0.035074741 0.045740623 1.3540001 4284104364
-0.032724604 0.045740623 1.3540001 4283709607
-0.030374469 0.045740623 1.3540001 4283775399
-0.02804503 0.045774408 1.355 4283709609
-0.025712121 0.045808189 1.3560001 4283578021
-0.023392966 0.04587575 1.358 4283775400
-0.021066869 0.045943316 1.36 4283906473
-0.018720074 0.045977097 1.3610001 4283906473
-0.016381826 0.046044663 1.363 4283971751
-0.014026353 0.046078444 1.3640001 4284234410
-0.011684502 0.046179786 1.3670001 4284825777
-0.0093390504 0.046314918 1.3710001 4285154742
-0.0069644847 0.046348698 1.3720001 4285220278
-0.0045998087 0.046517607 1.3770001 4285154485
-0.0022129617 0.046585172 1.3790001 4285220278
0.0001804355 0.046551388 1.378 4285022897
0.0049856342 0.046754081 1.3840001 4285220536
0.0073985169 0.046821646 1.386 4285023156
0.0097900471 0.046754081 1.3840001 4284628653
0.012121778 0.046483826 1.376 4284891569
0.014467918 0.046348698 1.3720001 4285220538
0.016800173 0.046213571 1.368 4285023157
0.019146577 0.046146009 1.3660001 4285088950
0.021407275 0.045909535 1.3590001 4285154742
0.023713624 0.045808189 1.3560001 4285154742
0.026028784 0.045740623 1.3540001 4284496812
0.02835796 0.045706846 1.353 4284496812
0.030683665 0.045673061 1.3520001 4284694191
0.033030327 0.045673061 1.3520001 4284694191
0.035350826 0.04563928 1.3510001 4284496812
0.037612047 0.045537934 1.348 4284431019
0.03986286 0.045436587 1.345 4284102054
0.042165998 0.045402806 1.3440001 4284102054
0.044432558 0.045335244 1.342 4284299433
0.04672702 0.04530146 1.3410001 4284693932
0.049054593 0.04530146 1.3410001 4285219247
0.051343847 0.045267679 1.34 4285087148
0.053589579 0.045200113 1.3380001 4284822691
0.055870157 0.045166336 1.337 4285541526
0.058016691 0.045031209 1.3330001 4286650749
0.0601946 0.044929862 1.33 4288814193
0.062503077 0.044929862 1.33 4290058603
0.06466537 0.044828515 1.327 4290254439
0.066766769 0.044693388 1.3230001 4290255974
0.068906493 0.044592042 1.3200001 4289537384
0.07103581 0.044490699 1.317 4287047771
0.073266044 0.044456914 1.3160001 4286334573
0.075492814 0.044423133 1.3150001 4285021538
0.077775262 0.044423133 1.3150001 4286198377
0.080118582 0.044456914 1.3160001 4285669997
0.082527995 0.044524476 1.3180001 4285608845
0.084944345 0.044592042 1.3200001 4285876653
0.08730156 0.044625826 1.3210001 4285482419
0.089594416 0.044625826 1.3210001 4284891055
0.091887273 0.044625826 1.3210001 4284825262
0.094180129 0.044625826 1.3210001 4284430505
0.096472986 0.044625826 1.3210001 4284496556
0.098840609 0.044659607 1.322 4284496299
0.1012117 0.044693388 1.3230001 4283904163
0.10358627 0.044727173 1.3240001 4283904162
0.10596431 0.04476095 1.325 4284561060
0.10801898 0.044659607 1.322 4285083542
0.11014669 0.044592042 1.3200001 4285405551
0.11235262 0.044558261 1.319 4287898218
0.1145551 0.044524476 1.3180001 4289080429
0.11693141 0.044558261 1.319 4286320712
0.11931117 0.044592042 1.3200001 4286516553
0.12187866 0.044693388 1.3230001 4288946792
0.12455043 0.044828515 1.327 4288946030
0.1269493 0.044862296 1.3280001 4288292738
0.12974095 0.045031209 1.3330001 4286526095
0.13245089 0.045166336 1.337 4288046526
0.13497314 0.045233898 1.3390001 4285351592
0.13780992 0.045402806 1.3440001 4284495785
0.14076833 0.045605499 1.35 4284692398
0.14332354 0.045673061 1.3520001 4284495273
0.1466399 0.045977097 1.3610001 4285481653
0.15042543 0.04641626 1.3740001 4287521490
0.15336636 0.046585172 1.3790001 4287653586
0.15745416 0.047091898 1.3940001 4287259853
0.16380678 0.047531061 1.4070001 4288250301
0.16672154 0.047666192 1.411 4294438907
-0.042529598 0.048536018 1.3670001 4286474426
-0.04001002 0.048358493 1.3620001 4285354933
-0.037507799 0.048180968 1.3570001 4284630706
-0.035126548 0.048145458 1.3560001 4283775399
-0.03277294 0.048145458 1.3560001 4283906985
-0.030419333 0.048145458 1.3560001 4283775399
-0.028086426 0.048180968 1.3570001 4283709609
-0.025731083 0.048180968 1.3570001 4283906986
-0.023410192 0.048251975 1.3590001 4283972779
-0.02108236 0.048322987 1.3610001 4283906473
-0.018733829 0.048358493 1.3620001 4283905703
-0.016405866 0.04846501 1.365 4284234410
-0.01404692 0.048500516 1.3660001 4284694191
-0.011701599 0.048607033 1.3690001 4284957363
-0.0093526747 0.048749056 1.373 4285286071
-0.0069847889 0.048855569 1.376 4285220278
-0.0046131704 0.049033094 1.381 4285417657
