# .PCD v0.7 - Point Cloud Data file format
VERSION 0.7
FIELDS x y z rgba
SIZE 4 4 4 4
TYPE F F F U
COUNT 1 1 1 1
WIDTH 1088
HEIGHT 1
VIEWPOINT 0 0 0 1 0 0 0
POINTS 1088
DATA ascii
0.024337104 -0.0096035739 1.266 4284035500
0.026534498 -0.0096035739 1.266 4283443363
0.028709199 -0.0095959883 1.2650001 4283443363
0.030880425 -0.0095884018 1.2640001 4283640742
0.033074349 -0.0095884018 1.2640001 4283509155
0.035240367 -0.0095808161 1.263 4283772327
0.03740292 -0.0095732305 1.2620001 4283772327
0.039561994 -0.0095656449 1.261 4283838120
0.04175071 -0.0095656449 1.261 4283574949
0.043869738 -0.0095504727 1.2590001 4283574951
0.045981821 -0.0095353015 1.2570001 4283377318
0.048125278 -0.0095277159 1.256 4283443111
0.050305314 -0.0095277159 1.256 4283837358
0.052485351 -0.0095277159 1.256 4284166323
0.054665387 -0.0095277159 1.256 4284033969
0.056845427 -0.0095277159 1.256 4284165042
0.059025459 -0.0095277159 1.256 4284098735
0.061156768 -0.0095201302 1.2550001 4284558773
0.063335069 -0.0095201302 1.2550001 4285414082
0.065565571 -0.0095277159 1.256 4285743045
0.067745611 -0.0095277159 1.256 4285545920
0.069869973 -0.0095201302 1.2550001 4285085369
0.072048277 -0.0095201302 1.2550001 4285480126
0.074226573 -0.0095201302 1.2550001 4286401227
0.076404877 -0.0095201302 1.2550001 4286532811
0.078708418 -0.0095353015 1.2570001 4286401225
0.080954537 -0.0095428871 1.258 4286400967
0.083270222 -0.0095580593 1.2600001 4286203588
0.085592844 -0.0095732305 1.2620001 4286269382
0.087713741 -0.0095656449 1.261 4286598347
0.09004505 -0.0095808161 1.263 4286532554
0.092383288 -0.0095959883 1.2650001 4286203589
0.094653718 -0.0096035739 1.266 4285940417
0.097004108 -0.0096187452 1.268 4286203589
0.099283218 -0.0096263308 1.2690001 4286334921
0.10164576 -0.0096415021 1.271 4286466507
0.10409696 -0.0096642599 1.274 4286467018
0.10647513 -0.0096794311 1.276 4286467275
0.10886024 -0.0096946033 1.2780001 4284362671
0.11125229 -0.0097097745 1.2800001 4283244703
0.11356264 -0.0097173601 1.281 4283507877
0.11614762 -0.0097477026 1.2850001 4283771047
0.11883862 -0.0097856317 1.2900001 4284560563
0.12135924 -0.0098083895 1.2930001 4284692149
0.12427265 -0.0098614888 1.3000001 4284495538
0.1273077 -0.0099221757 1.3080001 4283969704
0.12997426 -0.0099525191 1.312 4283114637
0.13346112 -0.010043548 1.3240001 4287196322
-0.019982547 -0.0075621228 1.2900001 4285287861
-0.017674722 -0.0075328122 1.2850001 4284498345
-0.015360215 -0.0074917777 1.2780001 4283708575
-0.013090578 -0.0074624666 1.273 4283642786
-0.010872485 -0.0074566044 1.2720001 4283576481
-0.0086510535 -0.0074448809 1.2700001 4283510688
-0.0064314883 -0.0074272943 1.2670001 4283115930
-0.004229018 -0.0074214321 1.266 4283050394
-0.0020284143 -0.0074097076 1.2640001 4282918808
0.00016524644 -0.0073979837 1.2620001 4282918810
0.0023556978 -0.0073979837 1.2620001 4282787224
0.0045461492 -0.0073979837 1.2620001 4282721431
0.0067419382 -0.0074038454 1.263 4282984090
0.0089270519 -0.0073979837 1.2620001 4283049885
0.011108693 -0.0073921215 1.261 4283378080
0.013307954 -0.0073979837 1.2620001 4283443875
0.015510687 -0.0074038454 1.263 4283378083
0.01771689 -0.0074097076 1.2640001 4283378083
0.019926565 -0.0074155703 1.2650001 4283443363
0.022122223 -0.0074155703 1.2650001 4283838121
0.024317881 -0.0074155703 1.2650001 4284101293
0.026492581 -0.0074097076 1.2640001 4283772328
0.028686503 -0.0074097076 1.2640001 4283903914
0.030855995 -0.0074038454 1.263 4283772328
0.033048183 -0.0074038454 1.263 4283640742
0.035212468 -0.0073979837 1.2620001 4283706534
0.037373282 -0.0073921215 1.261 4283509155
0.039561994 -0.0073921215 1.261 4283443362
0.04175071 -0.0073921215 1.261 4283377569
0.043834891 -0.0073745348 1.258 4283245984
0.045981821 -0.0073686731 1.2570001 4283048864
0.048125278 -0.0073628114 1.256 4283246245
0.05026526 -0.0073569492 1.2550001 4283639979
0.052443564 -0.0073569492 1.2550001 4283968944
0.054621864 -0.0073569492 1.2550001 4284165555
0.056800164 -0.0073569492 1.2550001 4284296628
0.058978468 -0.0073569492 1.2550001 4284559286
0.061156768 -0.0073569492 1.2550001 4284690872
0.063335069 -0.0073569492 1.2550001 4285150908
0.065513372 -0.0073569492 1.2550001 4285479873
0.067691669 -0.0073569492 1.2550001 4285216955
0.069869973 -0.0073569492 1.2550001 4285282746
0.07199087 -0.0073510865 1.2540001 4285282746
0.07416743 -0.0073510865 1.2540001 4286203848
0.076404877 -0.0073569492 1.2550001 4286269641
0.078645796 -0.0073628114 1.256 4286269639
0.080954537 -0.0073745348 1.258 4286006467
0.083138049 -0.0073745348 1.258 4286006723
0.085457206 -0.0073862597 1.2600001 4286138053
0.087644182 -0.0073862597 1.2600001 4286335432
0.089973748 -0.0073979837 1.2620001 4286335687
0.092310265 -0.0074097076 1.2640001 4286269381
0.094578952 -0.0074155703 1.2650001 4286137795
0.096927613 -0.0074272943 1.2670001 4286335687
0.09920498 -0.007433156 1.268 4286664397
0.10164576 -0.0074507426 1.271 4286730190
0.10409696 -0.0074683293 1.274 4286730190
0.10639168 -0.007474191 1.2750001 4286467531
0.10886024 -0.0074917777 1.2780001 4285941957
0.11125229 -0.0075035016 1.2800001 4283507362
0.1136513 -0.0075152256 1.2820001 4283507362
0.11614762 -0.0075328122 1.2850001 4283704741
0.11883862 -0.0075621228 1.2900001 4283968426
0.12126537 -0.0075738472 1.2920001 4284363438
0.12417705 -0.0076148817 1.299 4284166828
0.12721038 -0.0076617789 1.307 4284101546
0.12987518 -0.0076852273 1.3110001 4282655624
0.13356192 -0.0077672969 1.325 4292922860
-0.01543233 -0.005313783 1.284 4284169126
-0.013152276 -0.0052930908 1.279 4284102822
-0.010923771 -0.005288952 1.2780001 4283642273
-0.0086919246 -0.0052806749 1.276 4283773859
-0.0064619454 -0.0052682599 1.273 4283511200
-0.0042457203 -0.0052599828 1.271 4283116442
-0.0020348334 -0.0052475678 1.268 4282721429
0.00016563927 -0.0052351519 1.2650001 4282721429
0.0023575644 -0.0052268752 1.263 4282655636
0.0045497515 -0.0052268752 1.263 4282918808
0.0067419382 -0.0052268752 1.263 4282984603
0.0089341262 -0.0052268752 1.263 4283247777
0.011126312 -0.0052268752 1.263 4283115678
0.0133185 -0.0052268752 1.263 4283313059
0.015522967 -0.0052310135 1.2640001 4283246496
0.017730907 -0.0052351519 1.2650001 4283049117
0.019942315 -0.0052392907 1.266 4283180704
0.022139709 -0.0052392907 1.266 4283312290
0.024317881 -0.0052351519 1.2650001 4284035500
0.026492581 -0.0052310135 1.2640001 4283838121
0.028686503 -0.0052310135 1.2640001 4284101293
0.030880425 -0.0052310135 1.2640001 4283969707
0.033074349 -0.0052310135 1.2640001 4283772327
0.035240367 -0.0052268752 1.263 4283706534
0.037432555 -0.0052268752 1.263 4283575202
0.039561994 -0.0052185985 1.261 4283378080
0.041717604 -0.0052144597 1.2600001 4283049115
0.043834891 -0.0052061826 1.258 4283049117
0.045981821 -0.0052020443 1.2570001 4283180704
0.048163597 -0.0052020443 1.2570001 4283312036
0.050305314 -0.0051979064 1.256 4283442854
0.052485351 -0.0051979064 1.256 4283574440
0.054665387 -0.0051979064 1.256 4283902381
0.056800164 -0.0051937676 1.2550001 4284362932
0.058978468 -0.0051937676 1.2550001 4284428468
0.061156768 -0.0051937676 1.2550001 4284756663
0.063335069 -0.0051937676 1.2550001 4284887736
0.065513372 -0.0051937676 1.2550001 4284953529
0.067691669 -0.0051937676 1.2550001 4285216955
0.069869973 -0.0051937676 1.2550001 4285019576
0.072048277 -0.0051937676 1.2550001 4284887989
0.074226573 -0.0051937676 1.2550001 4285611711
0.076465756 -0.0051979064 1.256 4285874883
0.078708418 -0.0052020443 1.2570001 4285874881
0.080890186 -0.0052020443 1.2570001 4285940674
0.083138049 -0.0052061826 1.258 4285874881
0.085389376 -0.0052103214 1.2590001 4286006722
0.087574616 -0.0052103214 1.2590001 4286598859
0.089902453 -0.0052185985 1.261 4286598859
0.092237234 -0.0052268752 1.263 4286533066
0.094429418 -0.0052268752 1.263 4286401480
0.096774608 -0.0052351519 1.2650001 4286401480
0.09904851 -0.0052392907 1.266 4286862031
0.10148582 -0.0052517061 1.2690001 4286993617
0.10393355 -0.0052641211 1.2720001 4286796238
0.10630824 -0.0052723982 1.274 4286664909
0.10886024 -0.005288952 1.2780001 4286138566
0.11142613 -0.0053055058 1.2820001 4285546429
0.11373994 -0.0053096442 1.2830001 4283704226
0.11623801 -0.0053220601 1.286 4283573409
0.11893073 -0.0053427522 1.291 4283639202
0.12135924 -0.0053510293 1.2930001 4283639458
0.12427265 -0.0053799986 1.3000001 4284035242
0.1273077 -0.0054131057 1.3080001 4284562348
0.12977614 -0.0054213828 1.3100001 4283511690
-0.013234542 -0.00310786 1.2870001 4283971236
-0.010983604 -0.0031030304 1.2850001 4283773857
-0.0087327957 -0.0030957861 1.2820001 4283839650
-0.0064873258 -0.0030861266 1.2780001 4283248028
-0.004259082 -0.0030788823 1.2750001 4283116187
-0.0020396477 -0.0030692231 1.271 4282919063
0.00016603208 -0.0030619788 1.268 4283050649
0.0023612976 -0.0030547343 1.2650001 4282853015
0.0045569562 -0.0030547343 1.2650001 4282853017
0.0067472765 -0.0030523194 1.2640001 4283116189
0.0089411987 -0.0030523194 1.2640001 4282918810
0.011135122 -0.0030523194 1.2640001 4283115676
0.013329045 -0.0030523194 1.2640001 4283049883
0.015535248 -0.0030547343 1.2650001 4282983322
0.017744923 -0.0030571492 1.266 4283180701
0.019942315 -0.0030571492 1.266 4283180703
0.022139709 -0.0030571492 1.266 4283180704
0.024317881 -0.0030547343 1.2650001 4283969707
0.026513539 -0.0030547343 1.2650001 4283903914
0.028709199 -0.0030547343 1.2650001 4283772327
0.030904857 -0.0030547343 1.2650001 4283969706
0.033100516 -0.0030547343 1.2650001 4283903656
0.035240367 -0.0030499047 1.263 4283443362
0.037432555 -0.0030499047 1.263 4283509409
0.039593372 -0.0030474898 1.2620001 4283180701
0.04175071 -0.0030450749 1.261 4283443873
0.043834891 -0.0030378306 1.258 4283246496
0.045981821 -0.0030354159 1.2570001 4283180704
0.048163597 -0.0030354159 1.2570001 4283180704
0.050345369 -0.0030354159 1.2570001 4283246245
0.052485351 -0.003033001 1.256 4283443111
0.054665387 -0.003033001 1.256 4283508647
0.056800164 -0.0030305861 1.2550001 4284033967
0.058978468 -0.0030305861 1.2550001 4284691640
0.061108038 -0.0030281714 1.2540001 4284427698
0.063284606 -0.0030281714 1.2540001 4284625077
0.065513372 -0.0030305861 1.2550001 4284625077
0.067691669 -0.0030305861 1.2550001 4284822454
0.069869973 -0.0030305861 1.2550001 4284888247
0.072105683 -0.003033001 1.256 4284625075
0.074285716 -0.003033001 1.256 4285283005
0.076465756 -0.003033001 1.256 4285611711
0.078645796 -0.003033001 1.256 4285677504
0.080825828 -0.003033001 1.256 4285874881
0.083071962 -0.0030354159 1.2570001 4285874881
0.085321553 -0.0030378306 1.258 4286072516
0.087574616 -0.0030402455 1.2590001 4286269639
0.089831159 -0.0030426602 1.2600001 4286269894
0.092091173 -0.0030450749 1.261 4286401480
0.094354652 -0.0030474898 1.2620001 4286401480
0.096698105 -0.0030523194 1.2640001 4286204101
0.10132587 -0.0030595639 1.2670001 4286664652
0.10385183 -0.0030692231 1.271 4286927824
0.1062248 -0.0030740527 1.273 4286862031
0.10886024 -0.0030861266 1.2780001 4286664653
0.11142613 -0.0030957861 1.2820001 4286270152
0.11373994 -0.003098201 1.2830001 4284164776
0.1163284 -0.00310786 1.2870001 4283967910
0.11893073 -0.0031175194 1.291 4283902118
0.12135924 -0.0031223488 1.2930001 4283902374
0.12446383 -0.0031440821 1.302 4284166828
0.12789167 -0.00317306 1.314 4284693930
0.13076678 -0.0031875488 1.3200001 4283381372
0.13456993 -0.003223771 1.335 4294504443
-0.013265393 -0.00089159544 1.2900001 4284629677
-0.011009246 -0.00089021306 1.2880001 4284169126
-0.0087396074 -0.00088675728 1.2830001 4283840415
-0.0064924019 -0.00088399264 1.279 4283511198
-0.0042624227 -0.00088191917 1.276 4283248026
-0.0020412523 -0.00087915454 1.2720001 4283313819
0.00016603208 -0.00087638991 1.268 4283050647
0.002365031 -0.00087569869 1.2670001 4282787477
0.0045569562 -0.00087431644 1.2650001 4282918808
0.0067526144 -0.00087431644 1.2650001 4282853017
0.0089411987 -0.00087362528 1.2640001 4282655638
0.011135122 -0.00087362528 1.2640001 4282721431
0.013339589 -0.00087431644 1.2650001 4282787224
0.015535248 -0.00087431644 1.2650001 4282720920
0.017730907 -0.00087431644 1.2650001 4282852506
0.019926565 -0.00087431644 1.2650001 4283049887
0.022122223 -0.00087431644 1.2650001 4283180703
0.024298659 -0.00087362528 1.2640001 4283312290
0.026492581 -0.00087362528 1.2640001 4283838634
0.028686503 -0.00087362528 1.2640001 4283509669
0.030855995 -0.00087293406 1.263 4283575461
0.033048183 -0.00087293406 1.263 4283706534
0.035240367 -0.00087293406 1.263 4283312289
0.03740292 -0.00087224296 1.2620001 4283378080
0.039593372 -0.00087224296 1.2620001 4283114908
0.041717604 -0.00087086065 1.2600001 4283312287
0.043834891 -0.00086947833 1.258 4283114910
0.045981821 -0.00086878717 1.2570001 4283312289
0.048163597 -0.00086878717 1.2570001 4283312289
0.050305314 -0.00086809602 1.256 4283180450
0.052485351 -0.00086809602 1.256 4283443622
0.054621864 -0.0008674048 1.2550001 4283640490
0.056754909 -0.00086671364 1.2540001 4283968428
0.058931474 -0.00086671364 1.2540001 4284099503
0.061108038 -0.00086671364 1.2540001 4284165296
0.063284606 -0.00086671364 1.2540001 4284493491
0.065461174 -0.00086671364 1.2540001 4284756663
0.067637734 -0.00086671364 1.2540001 4284625076
0.069869973 -0.0008674048 1.2550001 4284756661
0.072048277 -0.0008674048 1.2550001 4284888247
0.074226573 -0.0008674048 1.2550001 4285019833
0.076404877 -0.0008674048 1.2550001 4285414332
0.078583181 -0.0008674048 1.2550001 4285282746
0.080825828 -0.00086809602 1.256 4285480123
0.083005868 -0.00086809602 1.256 4285940417
0.08525373 -0.00086878717 1.2570001 4285940674
0.087505065 -0.00086947833 1.258 4286138053
0.089759864 -0.00087016943 1.2590001 4286072260
0.092091173 -0.00087155181 1.261 4286006723
0.094279885 -0.00087155181 1.261 4286072515
0.09662161 -0.00087293406 1.263 4286006722
0.10132587 -0.00087569869 1.2670001 4286006209
0.10385183 -0.00087846332 1.271 4286401480
0.1062248 -0.0008798457 1.273 4286862031
0.10877506 -0.00088261039 1.2770001 4286796238
0.11133921 -0.00088537502 1.281 4286664652
0.11356264 -0.00088537502 1.281 4286598859
0.11614762 -0.00088813965 1.2850001 4284098983
0.11883862 -0.00089159544 1.2900001 4284230825
0.12135924 -0.00089366891 1.2930001 4284165032
0.12446383 -0.00089988927 1.302 4284100263
0.12818366 -0.00091025676 1.317 4284496293
0.13096492 -0.00091371255 1.322 4284761995
0.13456993 -0.00092269754 1.335 4294899199
0.14014269 -0.00092891802 1.3440001 4294835454
0.14279351 -0.00093099143 1.3470001 4294901245
-0.011120365 0.0013432711 1.3010001 4283971749
-0.0088145379 0.0013360437 1.294 4283905958
-0.0065380875 0.0013298488 1.2880001 4283642784
-0.0042958269 0.0013277838 1.286 4283642782
-0.0020556953 0.0013226212 1.281 4283445405
0.00016721054 0.0013184913 1.2770001 4283050647
0.0023724975 0.0013122964 1.271 4283116442
0.0045749675 0.001311264 1.2700001 4282919063
0.0067686285 0.0013091989 1.268 4282853015
0.0089624207 0.0013081664 1.2670001 4282589843
0.011152741 0.0013071339 1.266 4282392466
0.013350135 0.0013071339 1.266 4282589845
0.01555981 0.0013081664 1.2670001 4282589845
0.017758939 0.0013081664 1.2670001 4282787224
0.01995807 0.0013081664 1.2670001 4282984092
0.0221572 0.0013081664 1.2670001 4282984092
0.024337104 0.0013071339 1.266 4283246496
0.026513539 0.0013061014 1.2650001 4283641254
0.028709199 0.0013061014 1.2650001 4283575461
0.030904857 0.0013061014 1.2650001 4283443875
0.033100516 0.0013061014 1.2650001 4283443875
0.035268273 0.001305069 1.2640001 4283312287
0.037432555 0.0013040365 1.263 4283378080
0.039593372 0.001303004 1.2620001 4283049115
0.041717604 0.001300939 1.2600001 4283312287
0.043834891 0.0012988739 1.258 4283378080
0.046018399 0.0012988739 1.258 4283246496
0.048163597 0.0012978414 1.2570001 4283180703
0.050345369 0.0012978414 1.2570001 4283312290
0.052485351 0.0012968091 1.256 4283443876
0.054665387 0.0012968091 1.256 4283574951
0.056845427 0.0012968091 1.256 4283640231
0.059025459 0.0012968091 1.256 4283902635
0.061156768 0.0012957766 1.2550001 4284165807
0.063335069 0.0012957766 1.2550001 4284428466
0.065513372 0.0012957766 1.2550001 4284362673
0.067637734 0.0012947441 1.2540001 4284625845
0.069869973 0.0012957766 1.2550001 4284757431
0.072105683 0.0012968091 1.256 4284757431
0.074285716 0.0012968091 1.256 4284690868
0.076465756 0.0012968091 1.256 4285217466
0.078645796 0.0012968091 1.256 4285545918
0.080825828 0.0012968091 1.256 4285480125
0.083005868 0.0012968091 1.256 4285743295
0.08525373 0.0012978414 1.2570001 4285940674
0.087505065 0.0012988739 1.258 4285874881
0.089759864 0.0012999065 1.2590001 4285809088
0.092091173 0.0013019715 1.261 4285874624
0.094279885 0.0013019715 1.261 4286137796
0.0965451 0.001303004 1.2620001 4285940416
0.098970264 0.0013061014 1.2650001 4286269381
0.10368842 0.0013102314 1.2690001 4286203588
0.10597447 0.001311264 1.2700001 4286861518
0.10851952 0.0013153938 1.274 4286993103
0.11099155 0.0013184913 1.2770001 4286729930
0.11338534 0.0013205564 1.279 4287058895
0.11605724 0.0013257188 1.284 4286138308
0.11902285 0.0013339787 1.2920001 4284887986
0.1216408 0.0013381087 1.296 4284690607
0.12484622 0.0013484336 1.3060001 4284362154
0.128281 0.0013608235 1.3180001 4284757930
0.13106398 0.001365986 1.3230001 4287457727
0.13436833 0.0013763108 1.3330001 4294963455
0.13729724 0.0013825059 1.3390001 4294965247
0.13962133 0.0013825059 1.3390001 4294966015
0.14215745 0.0013845707 1.3410001 4294966014
0.14470051 0.0013866358 1.3430001 4294966270
0.14703155 0.0013866358 1.3430001 4294966271
-0.011120365 0.0035857405 1.3010001 4284563884
-0.0088213496 0.0035692034 1.2950001 4284168615
-0.0065431637 0.0035526666 1.289 4283971238
-0.0042991675 0.0035471544 1.2870001 4283642273
-0.0020572999 0.0035333736 1.2820001 4283313819
0.0001673415 0.0035223493 1.2780001 4283050647
0.0023818307 0.003516837 1.276 4282721684
0.004589377 0.0035113245 1.274 4282787477
0.0067953188 0.0035085685 1.273 4282721429
0.0089836419 0.0035003 1.2700001 4282655636
0.011179169 0.003497544 1.2690001 4282459027
0.01338177 0.003497544 1.2690001 4282524820
0.015584371 0.003497544 1.2690001 4282524052
0.017772956 0.0034947877 1.268 4282524052
0.019973822 0.0034947877 1.268 4282589332
0.0221572 0.0034920315 1.2670001 4282983576
0.024337104 0.0034892755 1.266 4282917529
0.026513539 0.0034865192 1.2650001 4283378080
0.028709199 0.0034865192 1.2650001 4283443873
0.030904857 0.0034865192 1.2650001 4283443875
0.033100516 0.0034865192 1.2650001 4283443873
0.035296176 0.0034865192 1.2650001 4283180701
0.037462194 0.0034837632 1.2640001 4283246494
0.039593372 0.0034782509 1.2620001 4283246494
0.04175071 0.0034754949 1.261 4283378080
0.043904584 0.0034727387 1.2600001 4283246494
0.046054982 0.0034699824 1.2590001 4283114910
0.048201907 0.0034672262 1.258 4283180703
0.050345369 0.0034644702 1.2570001 4283312289
0.052485351 0.0034617141 1.256 4283509669
0.054665387 0.0034617141 1.256 4283509156
0.056845427 0.0034617141 1.256 4283706024
0.058978468 0.0034589579 1.2550001 4283771817
0.061156768 0.0034589579 1.2550001 4284165805
0.063335069 0.0034589579 1.2550001 4284297391
0.065513372 0.0034589579 1.2550001 4284231598
0.067691669 0.0034589579 1.2550001 4284100014
0.069925644 0.0034617141 1.256 4284692151
0.072105683 0.0034617141 1.256 4284625845
0.074285716 0.0034617141 1.256 4284560052
0.076465756 0.0034617141 1.256 4284691636
0.078583181 0.0034589579 1.2550001 4285349052
0.080761477 0.0034589579 1.2550001 4285217466
0.083005868 0.0034617141 1.256 4285743554
0.08525373 0.0034644702 1.2570001 4285743808
0.087505065 0.0034672262 1.258 4285545916
0.089831159 0.0034727387 1.2600001 4285480123
0.092018142 0.0034727387 1.2600001 4285874624
0.094205119 0.0034727387 1.2600001 4285677245
0.0965451 0.0034782509 1.2620001 4285677245
0.098813795 0.0034810069 1.263 4285874624
0.10352501 0.0034920315 1.2670001 4286137795
0.10589103 0.003497544 1.2690001 4286466758
0.10834917 0.0035058123 1.2720001 4287124686
0.11090463 0.003516837 1.276 4287059149
0.11329669 0.0035223493 1.2780001 4287190735
0.11596685 0.0035361301 1.2830001 4287585239
0.11893073 0.0035581789 1.291 4285545914
0.12154695 0.0035692034 1.2950001 4284887985
0.12484622 0.0035995212 1.3060001 4284756399
0.12818366 0.0036298388 1.317 4284954287
0.13096492 0.0036436196 1.322 4286270909
0.13426752 0.0036711807 1.332 4285614253
0.13709216 0.0036849615 1.337 4286272944
0.13930851 0.0036822057 1.3360001 4288446151
0.14183943 0.0036877177 1.3380001 4290420959
0.14426954 0.0036904737 1.3390001 4292659193
0.14659363 0.0036904737 1.3390001 4294502655
-0.0088417856 0.0058147702 1.2980001 4283576732
-0.0065583922 0.0057878918 1.2920001 4283510687
-0.004309189 0.005778932 1.2900001 4283576481
-0.0020637191 0.0057610124 1.286 4283379101
0.00016786525 0.0057430938 1.2820001 4283313306
0.0023892971 0.005734134 1.2800001 4282853268
0.0046037864 0.0057251747 1.2780001 4282787477
0.0068166708 0.0057206945 1.2770001 4282458512
0.0090260841 0.0057162149 1.276 4282458257
0.011214406 0.0057027754 1.273 4282589843
0.013413406 0.0056982958 1.2720001 4282524050
0.015596653 0.005689336 1.2700001 4282458257
0.01780099 0.005689336 1.2700001 4282589586
0.019989572 0.0056848563 1.2690001 4282852504
0.022174686 0.0056803767 1.268 4282983576
0.024337104 0.0056714169 1.266 4282851990
0.026534498 0.0056714169 1.266 4283312541
0.028731892 0.0056714169 1.266 4283312541
0.030929286 0.0056714169 1.266 4283509920
0.033126682 0.0056714169 1.266 4283509666
0.035296176 0.0056669372 1.2650001 4283378080
0.037491832 0.0056669372 1.2650001 4283312287
0.039624743 0.0056579774 1.263 4283180701
0.041783821 0.0056534978 1.2620001 4283443873
0.043974273 0.0056534978 1.2620001 4283378082
0.046128143 0.0056490176 1.261 4283312289
0.048278544 0.0056445384 1.2600001 4283180703
0.050385419 0.0056355787 1.258 4283443362
0.052527141 0.005631099 1.2570001 4283574949
0.054665387 0.0056266189 1.256 4283377570
0.056845427 0.0056266189 1.256 4283640742
0.059072457 0.005631099 1.2570001 4283969709
0.061254233 0.005631099 1.2570001 4283969196
0.063436002 0.005631099 1.2570001 4284166575
0.065617777 0.005631099 1.2570001 4283968426
0.067799553 0.005631099 1.2570001 4284560311
0.069981322 0.005631099 1.2570001 4284757944
0.072163098 0.005631099 1.2570001 4284494772
0.074344866 0.005631099 1.2570001 4284363186
0.076465756 0.0056266189 1.256 4284691893
0.078645796 0.0056266189 1.256 4285218237
0.080825828 0.0056266189 1.256 4285152187
0.083005868 0.0056266189 1.256 4285546945
0.085321553 0.0056355787 1.258 4285546431
0.087574616 0.0056400583 1.2590001 4285283259
0.089831159 0.0056445384 1.2600001 4285216953
0.092091173 0.0056490176 1.261 4285348538
0.094279885 0.0056490176 1.261 4285611709
0.096468605 0.0056490176 1.261 4285874624
0.098892033 0.0056624576 1.2640001 4286006210
0.10352501 0.005675897 1.2670001 4286137281
0.10826398 0.0056938161 1.271 4287124686
0.1107308 0.0057072556 1.274 4287124941
0.11311939 0.0057162149 1.276 4287519699
0.11587645 0.0057430938 1.2820001 4287519446
0.11883862 0.005778932 1.2900001 4287059153
0.12154695 0.0058013308 1.2950001 4285085108
0.12484622 0.0058506089 1.3060001 4285085365
0.128281 0.0059043658 1.3180001 4285019826
0.13096492 0.0059222854 1.322 4285678010
0.13416672 0.0059626037 1.3310001 4284230567
0.13678454 0.0059760427 1.3340001 4284560045
0.13899569 0.005971563 1.3330001 4285021360
0.14130938 0.005971563 1.3330001 4285220016
0.14383855 0.0059805228 1.335 4285089197
0.14626519 0.0059850025 1.3360001 4286076851
0.14891773 0.0059984415 1.3390001 4287591358
0.15158069 0.0060118814 1.342 4290487008
0.15413937 0.0060208407 1.3440001 4292067571
0.15682141 0.0060342802 1.3470001 4293976319
0.15951388 0.0060477192 1.35 4294965247
0.16209686 0.0060566789 1.3520001 4294966015
0.16493005 0.0060745985 1.3560001 4294966015
-0.011257126 0.0081699342 1.317 4284037280
-0.0088622216 0.0080706785 1.3010001 4284563373
-0.0065736207 0.0080334581 1.2950001 4284168099
-0.0043192101 0.0080210511 1.2930001 4283707550
-0.0020685333 0.0079962378 1.289 4283378585
0.00016825808 0.0079714237 1.2850001 4282984341
0.0023967638 0.0079652201 1.284 4282852755
0.0046181958 0.007952814 1.2820001 4282786962
0.0068380232 0.0079466105 1.281 4282655891
0.0090543786 0.0079404069 1.2800001 4282655891
0.011258454 0.0079279998 1.2780001 4282721684
0.013434496 0.0079031857 1.274 4282787477
0.015633494 0.0078969831 1.273 4282458257
0.017815007 0.007884576 1.271 4282589586
0.020021079 0.007884576 1.271 4282786965
0.022192175 0.0078721689 1.2690001 4282917783
0.024375552 0.0078659654 1.268 4283246748
0.02655546 0.0078597618 1.2670001 4283180955
0.028754588 0.0078597618 1.2670001 4283180955
0.030953718 0.0078597618 1.2670001 4283378334
0.033152848 0.0078597618 1.2670001 4283378080
0.035351977 0.0078597618 1.2670001 4283246494
0.03752147 0.0078535583 1.266 4283378080
0.039687492 0.0078473547 1.2650001 4283312287
0.041850038 0.0078411521 1.2640001 4283312287
0.044043962 0.0078411521 1.2640001 4283312289
0.046164725 0.0078287451 1.2620001 4283246496
0.048316859 0.0078225415 1.261 4283114910
0.05042547 0.0078101349 1.2590001 4283180703
0.052527141 0.0077977274 1.2570001 4283180703
0.054708913 0.0077977274 1.2570001 4283443876
0.056935944 0.0078039309 1.258 4283443363
0.059119452 0.0078039309 1.258 4283574949
0.06130296 0.0078039309 1.258 4283903401
0.063486472 0.0078039309 1.258 4283771304
0.065722175 0.0078101349 1.2590001 4284165805
0.067907423 0.0078101349 1.2590001 4284297393
0.070092663 0.0078101349 1.2590001 4284428979
0.072277911 0.0078101349 1.2590001 4284494770
0.074404009 0.0078039309 1.258 4284494770
0.076587521 0.0078039309 1.258 4284494770
0.078708418 0.0077977274 1.2570001 4285218237
0.080890186 0.0077977274 1.2570001 4285612738
0.083071962 0.0077977274 1.2570001 4285678531
0.085321553 0.0078039309 1.258 4285480637
0.087574616 0.0078101349 1.2590001 4285217465
0.089902453 0.0078225415 1.261 4285151673
0.092091173 0.0078225415 1.261 4285414332
0.094279885 0.0078225415 1.261 4285677502
0.0965451 0.0078287451 1.2620001 4285940417
0.098813795 0.0078349486 1.263 4286203589
0.10116592 0.0078473547 1.2650001 4286335174
0.10360671 0.0078659654 1.268 4286334916
0.10589103 0.0078721689 1.2690001 4286729930
0.10826398 0.007884576 1.271 4286927563
0.1107308 0.0079031857 1.274 4286993356
0.11320803 0.0079217963 1.2770001 4287256528
0.11587645 0.007952814 1.2820001 4287388114
0.11883862 0.0080024414 1.2900001 4287651288
0.12154695 0.0080334581 1.2950001 4286993102
0.12484622 0.0081016961 1.3060001 4284756654
0.12818366 0.0081699342 1.317 4285611962
0.13106398 0.0082071554 1.3230001 4285546171
0.13396512 0.0082443748 1.3290001 4283703715
0.13657947 0.0082629863 1.332 4283966890
0.13889143 0.0082629863 1.332 4284165035
0.14120337 0.0082629863 1.332 4284823987
0.14362307 0.0082691889 1.3330001 4284561072
0.14604622 0.0082753925 1.3340001 4284561329
0.14847288 0.008281596 1.335 4285351610
0.15112889 0.0083002057 1.3380001 4285088692
0.15356594 0.0083064102 1.3390001 4284365479
0.1562393 0.0083250199 1.342 4284498077
0.15892309 0.0083436305 1.345 4285749159
0.16125761 0.0083436305 1.345 4287066033
0.16383538 0.0083560366 1.3470001 4291015394
0.16654345 0.0083746482 1.35 4294503678
0.16901176 0.0083808508 1.3510001 4294966015
0.17211771 0.008418072 1.3570001 4294966526
-0.011222935 0.010408274 1.3130001 4284366497
-0.0088622216 0.010313148 1.3010001 4285089199
-0.0065786969 0.010273512 1.296 4284431273
-0.0043225507 0.010257659 1.294 4284233894
-0.002070138 0.010225951 1.2900001 4283641757
0.00016838902 0.010194242 1.286 4283444378
0.0023986304 0.010186315 1.2850001 4283181206
0.0046217982 0.010170461 1.2830001 4282852755
0.0068380232 0.010154607 1.281 4282786964
0.0090473052 0.010138752 1.279 4282852757
0.011258454 0.010130825 1.2780001 4282655891
0.013434496 0.010099117 1.274 4282787477
0.015633494 0.01009119 1.273 4282524305
0.017815007 0.010075335 1.271 4282786964
0.020005327 0.010067408 1.2700001 4282852758
0.022192175 0.010059481 1.2690001 4282786965
0.024375552 0.010051554 1.268 4282917783
0.02655546 0.010043628 1.2670001 4283049369
0.028754588 0.010043628 1.2670001 4282983576
0.030978147 0.010051554 1.268 4282917783
0.033152848 0.010043628 1.2670001 4283246748
0.035351977 0.010043628 1.2670001 4283378080
0.037551109 0.010043628 1.2670001 4283246494
0.039718863 0.0100357 1.266 4283180701
0.041850038 0.010019846 1.2640001 4283378080
0.044043962 0.010019846 1.2640001 4283312287
0.046128143 0.009996064 1.261 4283378082
0.048278544 0.0099881375 1.2600001 4283180703
0.050385419 0.0099722836 1.258 4283114910
0.052527141 0.0099643562 1.2570001 4283180703
0.054708913 0.0099643562 1.2570001 4283180703
0.056935944 0.0099722836 1.258 4283246496
0.059119452 0.0099722836 1.258 4283575205
0.06130296 0.0099722836 1.258 4283508643
0.063486472 0.0099722836 1.258 4283179678
0.065722175 0.009980211 1.2590001 4283573922
0.067907423 0.009980211 1.2590001 4283902633
0.070092663 0.009980211 1.2590001 4284165805
0.072277911 0.009980211 1.2590001 4283968426
0.074404009 0.0099722836 1.258 4284165805
0.076587521 0.0099722836 1.258 4284297391
0.078708418 0.0099643562 1.2570001 4284494770
0.080890186 0.0099643562 1.2570001 4285283773
0.083071962 0.0099643562 1.2570001 4285481152
0.08525373 0.0099643562 1.2570001 4285218234
0.087435506 0.0099643562 1.2570001 4284889269
0.089759864 0.009980211 1.2590001 4285349052
0.092018142 0.0099881375 1.2600001 4285216953
0.094205119 0.0099881375 1.2600001 4285480123
0.0965451 0.010003991 1.2620001 4285940674
0.098813795 0.010011919 1.263 4286072260
0.10116592 0.010027773 1.2650001 4286138308
0.10360671 0.010051554 1.268 4286204099
0.10589103 0.010059481 1.2690001 4286401478
0.10826398 0.010075335 1.271 4286730185
0.1107308 0.010099117 1.274 4286927820
0.11320803 0.010122898 1.2770001 4287256785
0.11587645 0.010162534 1.2820001 4287585493
0.11883862 0.010225951 1.2900001 4287519700
0.12145309 0.010257659 1.294 4287519444
0.12475062 0.010344857 1.3050001 4286533064
0.12818366 0.010439982 1.317 4285809339
0.13086586 0.01047169 1.3210001 4286138306
0.13386433 0.010527181 1.3280001 4283440540
0.13647693 0.010550961 1.3310001 4283638178
0.13878715 0.010550961 1.3310001 4283770277
0.14120337 0.010558888 1.332 4284231085
0.14362307 0.010566815 1.3330001 4284165551
0.14604622 0.010574742 1.3340001 4284165040
0.14847288 0.01058267 1.335 4284428466
0.15090299 0.010590597 1.3360001 4284823735
0.15345125 0.01060645 1.3380001 4284889783
0.15612288 0.010630232 1.3410001 4284824502
0.15868676 0.010646086 1.3430001 4284562100
0.1611377 0.010654014 1.3440001 4284102315
0.16359212 0.01066194 1.345 4283642266
0.16617335 0.010677794 1.3470001 4284894107
0.16876154 0.010693649 1.3490001 4288777414
0.17161036 0.010725357 1.353 4293648634
-0.0065939249 0.012536316 1.299 4284168101
-0.0043325722 0.012517015 1.2970001 4283970469
-0.0020749522 0.012478411 1.2930001 4283773089
0.00016891277 0.012449459 1.2900001 4283378585
0.002406097 0.012439809 1.289 4283246999
0.0046326052 0.012410857 1.286 4282786962
0.0068540373 0.012391555 1.284 4282918550
0.009082674 0.012391555 1.284 4282852757
0.011284881 0.012362603 1.281 4283050136
0.013476676 0.01233365 1.2780001 4283181722
0.015645774 0.012295047 1.274 4282787477
0.017843038 0.012285397 1.273 4282786964
0.02003683 0.012275746 1.2720001 4282786965
0.022209663 0.012256444 1.2700001 4282786965
0.024414001 0.012256444 1.2700001 4282852504
0.026597377 0.012246793 1.2690001 4282983576
0.028799977 0.012246793 1.2690001 4282720404
0.031002579 0.012246793 1.2690001 4282588818
0.033205181 0.012246793 1.2690001 4283114908
0.035379879 0.012237144 1.268 4283180701
0.037580743 0.012237144 1.268 4283180701
0.039750237 0.012227492 1.2670001 4283443873
0.041916259 0.012217841 1.266 4283443873
0.044043962 0.01219854 1.2640001 4283378080
0.046201304 0.012188889 1.263 4283312287
0.048316859 0.012169587 1.261 4283246494
0.05042547 0.012150287 1.2590001 4283114910
0.052568927 0.012140635 1.258 4283049117
0.054752436 0.012140635 1.258 4283246496
0.056981198 0.012150287 1.2590001 4283246496
0.059166443 0.012150287 1.2590001 4283640741
0.061351687 0.012150287 1.2590001 4283311777
0.063587405 0.012159937 1.2600001 4283442850
0.065774381 0.012159937 1.2600001 4283377057
0.067961365 0.012159937 1.2600001 4283311009
0.070148341 0.012159937 1.2600001 4283508389
0.072277911 0.012150287 1.2590001 4283771817
0.074463151 0.012150287 1.2590001 4284166319
0.076587521 0.012140635 1.258 4284297391
0.078771025 0.012140635 1.258 4284297391
0.080954537 0.012140635 1.258 4284889528
0.083005868 0.012121334 1.256 4285349820
0.085185908 0.012121334 1.256 4285349820
0.08736594 0.012121334 1.256 4285284027
0.089688569 0.012140635 1.258 4285283257
0.091945104 0.012150287 1.2590001 4285414330
0.094279885 0.012169587 1.261 4285282744
0.09662161 0.012188889 1.263 4285480122
0.098892033 0.01219854 1.2640001 4285677757
0.10132587 0.012227492 1.2670001 4286401479
0.10368842 0.012246793 1.2690001 4286467271
0.10597447 0.012256444 1.2700001 4286533063
0.10834917 0.012275746 1.2720001 4286862027
0.11090463 0.012314349 1.276 4286862027
0.11329669 0.01233365 1.2780001 4286993613
0.11596685 0.012381904 1.2830001 4287322578
0.11883862 0.012449459 1.2900001 4287190992
0.12145309 0.012488062 1.294 4286927820
0.12465503 0.01258457 1.304 4287256786
0.12798901 0.012690728 1.3150001 4287256786
0.13066772 0.012729331 1.319 4287388630
0.13376352 0.012806538 1.327 4283901602
0.1363744 0.012835489 1.33 4283309724
0.13878715 0.01284514 1.3310001 4283441568
0.14120337 0.012854791 1.332 4283704742
0.14362307 0.012864441 1.3330001 4284033709
0.14604622 0.012874092 1.3340001 4284099247
0.14847288 0.012883743 1.335 4284033196
0.15090299 0.012893394 1.3360001 4284427952
0.15333655 0.012903045 1.337 4284823223
0.15600646 0.012931997 1.34 4284691639
0.15856861 0.012951298 1.342 4284626358
0.16089793 0.012951298 1.342 4284627125
0.16347048 0.012970599 1.3440001 4284298418
0.16592664 0.012980251 1.345 4284167341
0.16826114 0.012980251 1.345 4283773858
0.17097618 0.013009203 1.348 4285223075
0.17383018 0.013047805 1.3520001 4290619867
0.17656776 0.013076758 1.355 4294768127
0.17931576 0.01310571 1.358 4294966527
0.18194041 0.013125011 1.36 4294966527
-0.011316958 0.015059697 1.3240001 4284169116
-0.0089780223 0.014991452 1.3180001 4285352371
-0.0066193058 0.01483221 1.304 4284628650
-0.0043459339 0.014798086 1.3010001 4283970468
-0.0020813714 0.01475259 1.2970001 4283773089
0.00016917466 0.014695718 1.2920001 4283181206
0.0024116968 0.014695718 1.2920001 4282852755
0.0046470147 0.014672969 1.2900001 4283050134
0.0068753893 0.014650219 1.2880001 4282918548
0.0091038952 0.014638846 1.2870001 4282918550
0.01132012 0.014616096 1.2850001 4282984343
0.013508311 0.014570598 1.281 4282786964
0.015670337 0.014513726 1.276 4282919063
0.017857054 0.014490979 1.274 4282590098
0.020052582 0.014479604 1.273 4282458512
0.022244638 0.014468229 1.2720001 4282852758
0.024452446 0.014468229 1.2720001 4282918551
0.026639296 0.014456854 1.271 4282721172
0.028845368 0.014456854 1.271 4282720404
0.03105144 0.014456854 1.271 4283115162
0.033231348 0.014445481 1.2700001 4283115162
0.035407782 0.014434107 1.2690001 4283180955
0.037610382 0.014434107 1.2690001 4283049115
0.039750237 0.014411357 1.2670001 4283378080
0.041916259 0.014399984 1.266 4283246494
0.044078808 0.014388609 1.2650001 4283246494
0.046274468 0.014388609 1.2650001 4283246494
0.048355177 0.014354485 1.2620001 4283575459
0.050465524 0.014331737 1.2600001 4283443616
0.052610714 0.014320362 1.2590001 4283180701
0.054795958 0.014320362 1.2590001 4283180701
0.057026464 0.014331737 1.2600001 4283378082
0.059260435 0.014343112 1.261 4283443875
0.061449151 0.014343112 1.261 4283377569
0.063637868 0.014343112 1.261 4283179678
0.06582658 0.014343112 1.261 4283377057
0.0680153 0.014343112 1.261 4283311264
0.070148341 0.014331737 1.2600001 4283245473
0.072335325 0.014331737 1.2600001 4283245473
0.074522302 0.014331737 1.2600001 4283574438
0.076648399 0.014320362 1.2590001 4284166318
0.078771025 0.014308987 1.258 4284363441
0.080954537 0.014308987 1.258 4284889270
0.083071962 0.014297614 1.2570001 4285284027
0.085185908 0.01428624 1.256 4285349820
0.08736594 0.01428624 1.256 4285284027
0.089617275 0.014297614 1.2570001 4285349306
0.091872081 0.014308987 1.258 4285283256
0.094279885 0.014343112 1.261 4285151414
0.096698105 0.014377235 1.2640001 4285151413
0.098970264 0.014388609 1.2650001 4285085620
0.10140584 0.014422731 1.268 4285809341
0.10377013 0.014445481 1.2700001 4286269892
0.1060579 0.014456854 1.271 4286401476
0.10843434 0.014479604 1.273 4286796234
0.11099155 0.014525102 1.2770001 4287059406
0.11338534 0.014547851 1.279 4286993613
0.11614762 0.014616096 1.2850001 4286993613
0.11893073 0.014684343 1.291 4286862027
0.12145309 0.014718466 1.294 4286598856
0.12455943 0.014820836 1.3030001 4287059406
0.12779436 0.01493458 1.3130001 4287256786
0.13066772 0.015002825 1.319 4287257044
0.13366272 0.015082447 1.3260001 4285546684
0.1363744 0.015127945 1.33 4283046808
0.13868289 0.015127945 1.33 4283178908
0.14109735 0.015139319 1.3310001 4283310240
0.14362307 0.015162067 1.3330001 4283902633
0.14604622 0.015173442 1.3340001 4284099755
0.14847288 0.015184815 1.335 4284033706
0.15101592 0.015207564 1.337 4284231087
0.15345125 0.01521894 1.3380001 4284362675
0.15600646 0.015241687 1.34 4284362674
0.15856861 0.015264437 1.342 4284297135
0.16089793 0.015264437 1.342 4284560308
0.16334885 0.015275812 1.3430001 4284231856
0.16580327 0.015287186 1.3440001 4284297904
0.16826114 0.015298559 1.345 4284824759
0.17097618 0.015332684 1.348 4284431021
0.17370161 0.015366807 1.3510001 4284432290
0.17630716 0.015389556 1.353 4287921336
0.17918374 0.015435053 1.3570001 4294372092
0.18180662 0.015457802 1.3590001 4294966015
-0.011299863 0.017315615 1.322 4284827299
-0.0089712115 0.017250124 1.317 4285681336
-0.006624382 0.017092949 1.3050001 4285154994
-0.0043492746 0.017053654 1.302 4284825777
-0.0020813714 0.016988164 1.2970001 4284365226
0.0001693056 0.016935771 1.2930001 4283378585
0.0024116968 0.016922675 1.2920001 4283181720
0.004650617 0.016909575 1.291 4283379099
0.0068807271 0.016883381 1.289 4283247515
0.0091109686 0.016870281 1.2880001 4282984343
0.01132012 0.016830988 1.2850001 4282786964
0.013508311 0.016778594 1.281 4282721171
0.015670337 0.016713105 1.276 4282853270
0.017857054 0.016686909 1.274 4282919063
0.020052582 0.016673811 1.273 4282458512
0.022244638 0.016660713 1.2720001 4282787222
0.024452446 0.016660713 1.2720001 4282786965
0.026660256 0.016660713 1.2720001 4282391953
0.028845368 0.016647615 1.271 4282589332
0.03105144 0.016647615 1.271 4282918297
0.033231348 0.016634516 1.2700001 4283115162
0.035379879 0.01660832 1.268 4283049369
0.037551109 0.016595222 1.2670001 4283115162
0.039750237 0.016595222 1.2670001 4283114908
0.041916259 0.016582126 1.266 4283312287
0.044113651 0.016582126 1.266 4283246494
0.046274468 0.016569026 1.2650001 4283246748
0.048355177 0.016529733 1.2620001 4283378334
0.050465524 0.016503535 1.2600001 4283246748
0.052610714 0.016490439 1.2590001 4283115162
0.054795958 0.016490439 1.2590001 4283049115
0.057026464 0.016503535 1.2600001 4283312287
0.059260435 0.016516635 1.261 4283180702
0.061449151 0.016516635 1.261 4283443362
0.063587405 0.016503535 1.2600001 4283245983
0.065774381 0.016503535 1.2600001 4283245726
0.067961365 0.016503535 1.2600001 4283377057
0.070148341 0.016503535 1.2600001 4283508643
0.072277911 0.016490439 1.2590001 4283574437
0.074404009 0.016477339 1.258 4283640231
0.076587521 0.016477339 1.258 4283837610
0.078708418 0.016464243 1.2570001 4284165805
0.080890186 0.016464243 1.2570001 4284428719
0.083005868 0.016451145 1.256 4285284027
0.085118085 0.016438046 1.2550001 4285349820
0.087296382 0.016438046 1.2550001 4285481406
0.08954598 0.016451145 1.256 4285481405
0.091799051 0.016464243 1.2570001 4285415098
0.094205119 0.016503535 1.2600001 4285085877
0.09662161 0.01654283 1.263 4284822705
0.098892033 0.01655593 1.2640001 4285020082
0.10132587 0.016595222 1.2670001 4285217717
0.10377013 0.016634516 1.2700001 4285678268
0.1060579 0.016647615 1.271 4286204355
0.10843434 0.016673811 1.273 4286467269
0.11099155 0.016726203 1.2770001 4286927820
0.11338534 0.0167524 1.279 4286993613
0.11614762 0.016830988 1.2850001 4286664648
0.11883862 0.016896477 1.2900001 4286401476
0.12145309 0.016948869 1.294 4286533062
0.12455943 0.017066753 1.3030001 4286796234
0.12779436 0.017197732 1.3130001 4287190992
0.13056865 0.017263222 1.3180001 4287257298
0.13366272 0.017368007 1.3260001 4287586522
0.1363744 0.0174204 1.33 4283902372
0.13868289 0.0174204 1.33 4283047578
0.14109735 0.017433498 1.3310001 4283310751
0.14351532 0.017446594 1.332 4283968426
0.14593676 0.017459694 1.3330001 4283968426
0.14847288 0.017485889 1.335 4283968426
0.15101592 0.017512085 1.337 4284231342
0.15345125 0.017525185 1.3380001 4284099501
0.15600646 0.017551379 1.34 4283967915
0.15833229 0.017551379 1.34 4283836586
0.16077802 0.017564477 1.3410001 4284363185
0.16334885 0.017590676 1.3430001 4284363185
0.16592664 0.01761687 1.345 4284231600
0.16838624 0.017629968 1.3460001 4284560819
0.17097618 0.017656164 1.348 4284956343
0.17370161 0.017695459 1.3510001 4285417660
0.17617685 0.017708557 1.3520001 4285089712
0.17905168 0.017760949 1.3560001 4285354400
0.18167284 0.017787144 1.358 4289501894
0.18524957 0.017905027 1.3670001 4294109689
-0.011351149 0.019683212 1.3280001 4285025189
-0.00900527 0.01959428 1.322 4285287348
-0.0066649914 0.019460887 1.3130001 4285352375
-0.0043592956 0.019342313 1.3050001 4285089201
-0.0020861856 0.019268204 1.3000001 4284562859
0.00016982935 0.019223738 1.2970001 4283707550
0.0024191635 0.019208917 1.296 4283575710
0.0046614236 0.019179273 1.294 4283510687
0.0068967412 0.019149631 1.2920001 4283510687
0.0091321906 0.019134808 1.291 4283115930
0.011337739 0.019075522 1.2870001 4283050137
0.013539947 0.019031057 1.284 4282918551
0.01570718 0.018956948 1.279 4282787477
0.017899103 0.018927304 1.2770001 4283182235
0.020115592 0.018927304 1.2770001 4282984856
0.022314589 0.018912483 1.276 4282853270
0.024510119 0.018897662 1.2750001 4282655379
0.026723133 0.018897662 1.2750001 4282655379
0.028890761 0.018868018 1.273 4282720918
0.03105144 0.018838374 1.271 4282720918
0.033231348 0.018823553 1.2700001 4283115676
0.035407782 0.018808732 1.2690001 4282852504
0.037610382 0.018808732 1.2690001 4283180955
0.039781608 0.018793909 1.268 4283049369
0.041949369 0.018779088 1.2670001 4283312541
0.044148497 0.018779088 1.2670001 4283246748
0.046347626 0.018779088 1.2670001 4283180955
0.048470125 0.018749444 1.2650001 4283246748
0.050545625 0.018704979 1.2620001 4283246748
0.052694291 0.018690158 1.261 4283115162
0.054883003 0.018690158 1.261 4282917783
0.057071719 0.018690158 1.261 4283312542
0.05930743 0.018704979 1.2620001 4283378080
0.061449151 0.018690158 1.261 4283377823
0.063637868 0.018690158 1.261 4283246237
0.06582658 0.018690158 1.261 4283311775
0.0680153 0.018690158 1.261 4283508898
0.070148341 0.018675335 1.2600001 4283311519
0.072277911 0.018660514 1.2590001 4283640228
0.074463151 0.018660514 1.2590001 4283903401
0.076587521 0.018645693 1.258 4283968680
0.078708418 0.018630872 1.2570001 4284297389
0.080890186 0.018630872 1.2570001 4284165802
0.082939781 0.018601228 1.2550001 4284889269
0.085050263 0.018586406 1.2540001 4285218234
0.08722683 0.018586406 1.2540001 4285284026
0.08954598 0.01861605 1.256 4285218231
0.091799051 0.018630872 1.2570001 4285415353
0.094205119 0.018675335 1.2600001 4285349304
0.09662161 0.0187198 1.263 4285020339
0.098892033 0.018734623 1.2640001 4285151924
0.10132587 0.018779088 1.2670001 4285151924
0.10377013 0.018823553 1.2700001 4285809854
0.1060579 0.018838374 1.271 4285941440
0.10851952 0.018882841 1.274 4286270404
0.11107846 0.018942125 1.2780001 4286533318
0.11338534 0.018956948 1.279 4286467269
0.11605724 0.019031057 1.284 4286204097
0.11893073 0.019134808 1.291 4286467269
0.12145309 0.019179273 1.294 4286533062
0.12455943 0.019312669 1.3030001 4286401476
0.12769702 0.019446064 1.312 4286598855
0.13046958 0.019520171 1.317 4286927820
0.13366272 0.019653568 1.3260001 4287652056
0.1363744 0.019712856 1.33 4285744318
0.13868289 0.019712856 1.33 4283639201
0.14109735 0.019727677 1.3310001 4283837094
0.14351532 0.019742498 1.332 4284495025
0.14593676 0.019757319 1.3330001 4284166060
0.14858408 0.019801784 1.3360001 4284166060
0.15112889 0.019831428 1.3380001 4284560819
0.15333655 0.019816605 1.337 4284034219
0.15589003 0.019846249 1.3390001 4283771047
0.15845045 0.019875893 1.3410001 4283573668
0.16089793 0.019890714 1.342 4284165805
0.16347048 0.019920358 1.3440001 4284297391
0.16604999 0.019950002 1.3460001 4284231084
0.16851135 0.019964823 1.3470001 4284494513
0.17122984 0.020009289 1.35 4285284540
0.17383018 0.020038931 1.3520001 4285482686
0.17630716 0.020053754 1.353 4285285561
0.17918374 0.02011304 1.3570001 4284957620
0.18167284 0.020127861 1.358 4285288364
0.18524957 0.020261258 1.3670001 4287198634
-0.01127422 0.021823311 1.319 4285222317
-0.0089643989 0.021773675 1.3160001 4285484727
-0.0066649914 0.02172404 1.3130001 4285023408
-0.0043659769 0.021624768 1.307 4284891820
-0.0020909999 0.021558585 1.3030001 4284365480
0.00017022218 0.021508949 1.3000001 4283904929
0.0024247633 0.021492403 1.299 4284299433
0.0046686283 0.021442767 1.296 4284102054
0.0069074174 0.021409677 1.294 4283904676
0.0091463374 0.021393131 1.2930001 4283707297
0.011364167 0.021343496 1.2900001 4283312539
0.013561037 0.021277314 1.286 4282786965
0.015780864 0.02126077 1.2850001 4282852757
0.017955171 0.021194587 1.281 4283115929
0.020178599 0.021194587 1.281 4283050136
0.022384541 0.021178043 1.2800001 4282984343
0.024587013 0.021161499 1.279 4282721171
0.026765052 0.021128407 1.2770001 4282786964
0.02893615 0.021095315 1.2750001 4282786965
0.031100303 0.021062225 1.273 4282983574
0.033283681 0.021045679 1.2720001 4283049369
0.035435684 0.021012589 1.2700001 4283246748
0.03764002 0.021012589 1.2700001 4283312541
0.03984436 0.021012589 1.2700001 4283246748
0.042015586 0.020996043 1.2690001 4283115162
0.044218186 0.020996043 1.2690001 4283180955
0.046420787 0.020996043 1.2690001 4283115162
0.048585072 0.020979498 1.268 4283115162
0.050665785 0.020929862 1.2650001 4283180955
0.052777864 0.02089677 1.263 4283049369
0.054970052 0.02089677 1.263 4282983576
0.05716224 0.02089677 1.263 4283378334
0.059354428 0.02089677 1.263 4283444127
0.061497882 0.020880226 1.2620001 4283312541
0.06368833 0.020880226 1.2620001 4283443873
0.065878786 0.020880226 1.2620001 4283509666
0.068069234 0.020880226 1.2620001 4283509411
0.070259683 0.020880226 1.2620001 4283443362
0.072392732 0.020863682 1.261 4283574948
0.074522302 0.020847134 1.2600001 4283706277
0.076648399 0.02083059 1.2590001 4283771300
0.078771025 0.020814044 1.258 4284429230
0.080890186 0.020797499 1.2570001 4284297388
0.083005868 0.020780955 1.256 4284428717
0.085050263 0.020747863 1.2540001 4284691889
0.087296382 0.020764409 1.2550001 4285086645
0.089617275 0.020797499 1.2570001 4284955314
0.091872081 0.020814044 1.258 4285021106
0.094279885 0.020863682 1.261 4285284022
0.096698105 0.020913318 1.2640001 4285678266
0.098970264 0.020929862 1.2650001 4285151923
0.10140584 0.020979498 1.268 4285086129
0.10385183 0.021029133 1.271 4285678267
0.10614136 0.021045679 1.2720001 4286138819
0.10851952 0.021078771 1.274 4286138819
0.11107846 0.021144951 1.2780001 4286401476
0.11347399 0.021178043 1.2800001 4286204097
0.11614762 0.02126077 1.2850001 4286072511
0.11902285 0.021376587 1.2920001 4286467269
0.12154695 0.021426223 1.2950001 4286335683
0.12455943 0.021558585 1.3030001 4286269890
0.12769702 0.021707492 1.312 4286138304
0.13056865 0.021806765 1.3180001 4286598855
0.13366272 0.021939129 1.3260001 4287651799
0.13647693 0.022021854 1.3310001 4287191505
0.13889143 0.0220384 1.332 4284691886
0.14120337 0.0220384 1.332 4284691889
0.14362307 0.022054946 1.3330001 4284955062
0.14604622 0.02207149 1.3340001 4284034473
0.14858408 0.022104582 1.3360001 4284231852
0.15112889 0.022137674 1.3380001 4284429230
0.15356594 0.022154218 1.3390001 4283902887
0.15600646 0.022170762 1.34 4283705509
0.15856861 0.022203853 1.342 4283639717
0.16101781 0.022220399 1.3430001 4283968426
0.16359212 0.022253489 1.345 4284034219
0.16629674 0.022303127 1.348 4283968680
0.16876154 0.022319671 1.3490001 4284363438
