# .PCD v0.7 - Point Cloud Data file format
VERSION 0.7
FIELDS x y z rgba
SIZE 4 4 4 4
TYPE F F F U
COUNT 1 1 1 1
WIDTH 632
HEIGHT 1
VIEWPOINT 0 0 0 1 0 0 0
POINTS 632
DATA ascii
-0.26189801 -0.10386792 1.3870001 4293258219
-0.25419739 -0.10229529 1.3660001 4293126118
-0.24716167 -0.10094734 1.348 4292666080
-0.24184997 -0.10027335 1.3390001 4292468699
-0.23765481 -0.10004869 1.3360001 4292468699
-0.23365119 -0.099898912 1.3340001 4292534494
-0.23017578 -0.099973805 1.335 4292468701
-0.22686456 -0.10012358 1.337 4292731873
-0.22370936 -0.10034824 1.34 4293126631
-0.22053777 -0.1005729 1.3430001 4293587184
-0.2192875 -0.1016962 1.358 4293652723
-0.22001886 -0.10379303 1.386 4293652724
-0.27150306 -0.099425778 1.378 4293126631
-0.26210043 -0.097333364 1.3490001 4292600028
-0.25496352 -0.096034624 1.3310001 4292402647
-0.24924685 -0.095240958 1.3200001 4292205268
-0.24489295 -0.094952345 1.3160001 4292336853
-0.24037755 -0.09459158 1.3110001 4292468439
-0.23679261 -0.09459158 1.3110001 4292337366
-0.23338556 -0.094663724 1.312 4292337366
-0.22997303 -0.094735883 1.3130001 4292468439
-0.22638263 -0.094735883 1.3130001 4292534232
-0.22296189 -0.094808035 1.314 4292534232
-0.2192018 -0.094735883 1.3130001 4292600025
-0.21577559 -0.094808035 1.314 4292600026
-0.21202098 -0.094735883 1.3130001 4292600028
-0.20906553 -0.095024489 1.317 4292797153
-0.20640025 -0.095457412 1.3230001 4293324012
-0.20538814 -0.096683994 1.34 4293586930
-0.2080466 -0.099714391 1.3820001 4293324529
-0.27660942 -0.094824612 1.3660001 4293192426
-0.2664817 -0.092603244 1.3340001 4292665821
-0.26046959 -0.091770232 1.322 4292600026
-0.25510591 -0.091145471 1.3130001 4292534232
-0.25074926 -0.090867803 1.309 4292534232
-0.24622568 -0.09052071 1.304 4292402646
-0.24247378 -0.0904513 1.3030001 4292600025
-0.23854402 -0.090312459 1.3010001 4292534232
-0.23534766 -0.0904513 1.3030001 4292600025
-0.23231824 -0.090659551 1.3060001 4292731611
-0.22874698 -0.090659551 1.3060001 4292600025
-0.22517571 -0.090659551 1.3060001 4292797404
-0.22177412 -0.090728968 1.307 4292665818
-0.21803316 -0.090659551 1.3060001 4292797404
-0.21413347 -0.09052071 1.304 4292797404
-0.2102447 -0.090381883 1.302 4292797404
-0.20684312 -0.0904513 1.3030001 4292731612
-0.20359206 -0.090590134 1.3050001 4292665819
-0.20063664 -0.090867803 1.309 4292665821
-0.19811095 -0.091353729 1.3160001 4293718770
-0.19746846 -0.092742085 1.3360001 4293521137
-0.28865534 -0.092556305 1.388 4293389551
-0.2745983 -0.089222148 1.3380001 4292731873
-0.26648465 -0.087755114 1.3160001 4292666078
-0.26148769 -0.087288328 1.309 4292731612
-0.25751418 -0.087154962 1.307 4292600025
-0.25355157 -0.087021597 1.3050001 4292731611
-0.25017458 -0.087088279 1.3060001 4292731611
-0.24660333 -0.087088279 1.3060001 4292600025
-0.24284595 -0.087021597 1.3050001 4292665818
-0.23927742 -0.087021597 1.3050001 4292665818
-0.23607014 -0.087154962 1.307 4292731611
-0.23285189 -0.087288328 1.309 4292731611
-0.22944759 -0.08735501 1.3100001 4292928990
-0.22586538 -0.08735501 1.3100001 4292731611
-0.22228317 -0.08735501 1.3100001 4292928990
-0.21853401 -0.087288328 1.309 4292863197
-0.21462612 -0.087154962 1.307 4292994269
-0.2110521 -0.087154962 1.307 4292797404
-0.20747811 -0.087154962 1.307 4292928476
-0.20390411 -0.087154962 1.307 4292863197
-0.20017682 -0.087088279 1.3060001 4292665818
-0.19675609 -0.087154962 1.307 4292600287
-0.19362551 -0.08735501 1.3100001 4293587184
-0.19178416 -0.08815521 1.322 4293390322
-0.1977057 -0.09262298 1.3890001 4293258995
-0.29034382 -0.088121317 1.378 4293192426
-0.27596948 -0.084859937 1.327 4292665567
-0.26803094 -0.083517015 1.3060001 4292731612
-0.2634472 -0.083197266 1.3010001 4292797405
-0.25968984 -0.083133318 1.3000001 4292928476
-0.25672606 -0.083325163 1.3030001 4293125855
-0.25335729 -0.083389118 1.304 4292994269
-0.25017458 -0.083517015 1.3060001 4292863197
-0.24698097 -0.083644912 1.3080001 4292928990
-0.24321815 -0.083580956 1.307 4292928476
-0.23964414 -0.083580956 1.307 4292862683
-0.23607014 -0.083580956 1.307 4292862683
-0.2330298 -0.083772808 1.3100001 4292994269
-0.22944759 -0.083772808 1.3100001 4292994269
-0.22603779 -0.083836749 1.3110001 4292994269
-0.22245283 -0.083836749 1.3110001 4292995037
-0.21870096 -0.083772808 1.3100001 4293125855
-0.21479031 -0.083644912 1.3080001 4293125855
-0.21121357 -0.083644912 1.3080001 4293125855
-0.20779559 -0.083708853 1.309 4292928990
-0.20437214 -0.083772808 1.3100001 4292928990
-0.20063664 -0.083708853 1.309 4292797404
-0.19675609 -0.083580956 1.307 4292534492
-0.19288646 -0.083453059 1.3050001 4293324012
-0.18931793 -0.083453059 1.3050001 4293324529
-0.18802679 -0.08447624 1.3210001 4293258482
-0.28001955 -0.081353664 1.3290001 4292600285
-0.27181017 -0.080006957 1.307 4292731612
-0.26721001 -0.079700887 1.302 4293060062
-0.26385218 -0.079762094 1.3030001 4293060062
-0.2604889 -0.079823315 1.304 4293125855
-0.2571201 -0.079884522 1.3050001 4293125855
-0.25394017 -0.080006957 1.307 4293060062
-0.25074926 -0.080129385 1.309 4293125855
-0.24735862 -0.080190599 1.3100001 4293125855
-0.24359033 -0.080129385 1.309 4293060060
-0.2401942 -0.080190599 1.3100001 4292994267
-0.23679261 -0.080251813 1.3110001 4292928474
-0.23356345 -0.080374241 1.3130001 4293060060
-0.23014818 -0.080435455 1.314 4293191646
-0.22672746 -0.080496669 1.3150001 4293257439
-0.22330126 -0.080557883 1.3160001 4293191646
-0.21953569 -0.080496669 1.3150001 4293125853
-0.21577559 -0.080435455 1.314 4293125855
-0.21202098 -0.080374241 1.3130001 4293126369
-0.2085893 -0.080435455 1.314 4292994783
-0.20499615 -0.080435455 1.314 4292994783
-0.20140301 -0.080435455 1.314 4292928990
-0.19780986 -0.080435455 1.314 4292731612
-0.19392112 -0.080313027 1.312 4292862946
-0.1900433 -0.080190599 1.3100001 4293323759
-0.18674576 -0.080313027 1.312 4293192943
-0.18874216 -0.082761593 1.3520001 4292995825
-0.28642839 -0.078479737 1.342 4292665821
-0.27580559 -0.07654991 1.309 4292863197
-0.27056238 -0.076082073 1.3010001 4293125855
-0.26721001 -0.076140553 1.302 4293125855
-0.26405469 -0.076257512 1.304 4293191648
-0.2602891 -0.076199032 1.3030001 4293191648
-0.25692308 -0.076257512 1.304 4293125853
-0.25374585 -0.076374471 1.3060001 4293191644
-0.25094083 -0.07660839 1.3100001 4293060058
-0.24773626 -0.076725349 1.312 4293060058
-0.24414858 -0.076725349 1.312 4292928472
-0.2405609 -0.076725349 1.312 4293125851
-0.23715386 -0.076783828 1.3130001 4293125851
-0.23391922 -0.076900788 1.3150001 4293257439
-0.23067363 -0.077017747 1.317 4293389025
-0.22741713 -0.077134706 1.319 4293389025
-0.2238103 -0.077134706 1.319 4293454818
-0.22003654 -0.077076226 1.3180001 4293454818
-0.21626823 -0.077017747 1.317 4293389025
-0.21234393 -0.076900788 1.3150001 4293389025
-0.20874806 -0.076900788 1.3150001 4293454818
-0.20530818 -0.076959267 1.3160001 4293191648
-0.20170957 -0.076959267 1.3160001 4293257441
-0.19811095 -0.076959267 1.3160001 4292797405
-0.19436453 -0.076900788 1.3150001 4292928739
-0.19018836 -0.076666869 1.3110001 4293192172
-0.18646109 -0.07660839 1.3100001 4293127150
-0.18525212 -0.077602543 1.327 4292995312
-0.28258657 -0.073806614 1.3240001 4292666332
-0.27475208 -0.072691716 1.304 4292863197
-0.27118629 -0.072691716 1.304 4293191648
-0.26803094 -0.072803199 1.3060001 4293191648
-0.26486465 -0.07291469 1.3080001 4293060062
-0.26108816 -0.072858945 1.307 4293060062
-0.25771117 -0.07291469 1.3080001 4293060060
-0.25471732 -0.073081926 1.3110001 4293322973
-0.25209019 -0.073360652 1.3160001 4293191387
-0.24868037 -0.073416397 1.317 4293191387
-0.24526513 -0.073472142 1.3180001 4293191387
-0.2418444 -0.073527887 1.319 4293257180
-0.23841819 -0.073583633 1.3200001 4293520352
-0.23516442 -0.073695123 1.322 4293454818
-0.23172453 -0.073750868 1.3230001 4293520611
-0.2282792 -0.073806614 1.3240001 4293586404
-0.22465871 -0.073806614 1.3240001 4293586404
-0.22103822 -0.073806614 1.3240001 4293520611
-0.21725351 -0.073750868 1.3230001 4293520611
-0.21347429 -0.073695123 1.322 4293586404
-0.20970051 -0.073639378 1.3210001 4293454818
-0.20640025 -0.073750868 1.3230001 4293192162
-0.20262922 -0.073695123 1.322 4293126369
-0.1990142 -0.073695123 1.322 4292863198
-0.19510356 -0.073583633 1.3200001 4293455596
-0.19062357 -0.073249161 1.314 4293126379
-0.18660341 -0.073081926 1.3110001 4293061357
-0.18525212 -0.073973849 1.327 4293061105
-0.29334062 -0.071935475 1.3570001 4293126118
-0.28066567 -0.069709033 1.3150001 4292665819
-0.27412 -0.06896688 1.3010001 4293060062
-0.27139422 -0.069178917 1.3050001 4293322721
-0.26803094 -0.069231935 1.3060001 4293191646
-0.26506716 -0.06939096 1.309 4293060060
-0.26128793 -0.069337957 1.3080001 4293125853
-0.25830227 -0.069496982 1.3110001 4293125594
-0.25510591 -0.069603011 1.3130001 4293257180
-0.25247329 -0.069868058 1.3180001 4293257437
-0.24924685 -0.06997408 1.3200001 4293389023
-0.24600948 -0.070080101 1.322 4293520352
-0.24239446 -0.070080101 1.322 4293717477
-0.23896004 -0.070133112 1.3230001 4293783270
-0.23552018 -0.070186123 1.3240001 4293849063
-0.23207486 -0.070239134 1.325 4293783783
-0.22845162 -0.070239134 1.325 4293717990
-0.22482839 -0.070239134 1.325 4293783783
-0.22137211 -0.070292145 1.3260001 4293717990
-0.21758194 -0.070239134 1.325 4293520611
-0.21395873 -0.070239134 1.325 4293717990
-0.21017675 -0.070186123 1.3240001 4293455334
-0.20671228 -0.070239134 1.325 4293192162
-0.2032423 -0.070292145 1.3260001 4278190080
-0.19946583 -0.070239134 1.325 4293323751
-0.19480795 -0.069868058 1.3180001 4293521391
-0.189463 -0.069231935 1.3060001 4292205277
-0.18560708 -0.069125913 1.304 4292930030
-0.18567093 -0.070504189 1.33 4293061618
-0.28815258 -0.067018114 1.3330001 4293521130
-0.2789582 -0.065710939 1.307 4292797405
-0.27412 -0.06540928 1.3010001 4293125855
-0.27201813 -0.065761216 1.3080001 4293125855
-0.2690571 -0.065912038 1.3110001 4293125853
-0.26607963 -0.066062868 1.314 4293060058
-0.26268625 -0.066113152 1.3150001 4293125851
-0.25948441 -0.066213705 1.317 4293191644
-0.25627166 -0.06631425 1.319 4293389023
-0.25323954 -0.06646508 1.322 4293520609
-0.24981332 -0.066515356 1.3230001 4293717988
-0.24675383 -0.066666186 1.3260001 4293652197
-0.24331123 -0.066716462 1.327 4293717990
-0.23986316 -0.066766739 1.3280001 4293783783
-0.23623173 -0.066766739 1.3280001 4293849576
-0.23277543 -0.066817015 1.3290001 4293915369
-0.22914128 -0.066817015 1.3290001 4293783783
-0.2256768 -0.066867292 1.33 4293783783
-0.22203991 -0.066867292 1.33 4293717990
-0.21856721 -0.066917568 1.3310001 4293849576
-0.21492757 -0.066917568 1.3310001 4293783785
-0.21128795 -0.066917568 1.3310001 4293586920
-0.20764831 -0.066917568 1.3310001 4278190080
-0.20416196 -0.066967845 1.332 4278190080
-0.19961634 -0.066666186 1.3260001 4293652716
-0.19392112 -0.065962322 1.312 4292468449
-0.18859258 -0.065359004 1.3000001 4292073692
-0.18546472 -0.065509833 1.3030001 4293126898
-0.18720655 -0.067420326 1.3410001 4293061618
-0.29721588 -0.063753352 1.3410001 4293455344
-0.28807634 -0.062564805 1.3160001 4292928741
-0.28058669 -0.061709061 1.2980001 4293257704
-0.27511638 -0.061281186 1.289 4293652716
-0.27222368 -0.061423808 1.2920001 4293191648
-0.27118629 -0.06199431 1.304 4293060062
-0.26946756 -0.062422186 1.3130001 4293060060
-0.26668712 -0.062612355 1.317 4293060060
-0.26348531 -0.062707439 1.319 4293191644
-0.26027253 -0.062802516 1.3210001 4293389023
-0.25704882 -0.0628976 1.3230001 4293389025
-0.25362265 -0.062945142 1.3240001 4293520611
-0.25019097 -0.062992685 1.325 4293652197
-0.24675383 -0.063040227 1.3260001 4293652197
-0.24331123 -0.063087769 1.327 4293783783
-0.24004377 -0.063182853 1.3290001 4293717990
-0.2364096 -0.063182853 1.3290001 4293849576
-0.2329506 -0.063230395 1.33 4293915369
-0.22914128 -0.063182853 1.3290001 4293717990
-0.22584647 -0.06327793 1.3310001 4293717990
-0.22220683 -0.06327793 1.3310001 4293783783
-0.21889564 -0.063373014 1.3330001 4293915371
-0.21508905 -0.06332548 1.332 4293718506
-0.21160544 -0.063373014 1.3330001 4293586921
-0.20733629 -0.063182853 1.3290001 4278190080
-0.20308904 -0.062992685 1.325 4293784048
-0.19735824 -0.062327098 1.3110001 4292336604
-0.19140841 -0.061566435 1.2950001 4291744727
-0.18714188 -0.061328724 1.2900001 4292468452
-0.1857494 -0.062041849 1.3050001 4292995312
-0.18832336 -0.064133689 1.3490001 4293061618
-0.29594669 -0.059100617 1.319 4293586931
-0.28724217 -0.058070049 1.296 4293784309
-0.28172815 -0.05766679 1.2870001 4293258219
-0.27777648 -0.057577174 1.2850001 4292336604
-0.27383578 -0.057487562 1.2830001 4293323497
-0.2709595 -0.057621978 1.286 4293586923
-0.26952255 -0.058070049 1.296 4293191648
-0.26844141 -0.058607738 1.3080001 4293125855
-0.26688963 -0.059055809 1.3180001 4293125853
-0.26488364 -0.059414264 1.3260001 4293191646
-0.2614547 -0.059459072 1.327 4293323232
-0.25802031 -0.059503883 1.3280001 4293389025
-0.25400576 -0.059414264 1.3260001 4293454818
-0.25056863 -0.059459072 1.327 4293652195
-0.24712601 -0.059503883 1.3280001 4293717988
-0.24367793 -0.059548687 1.3290001 4293783781
-0.24040499 -0.059638299 1.3310001 4293849574
-0.23729903 -0.059772726 1.3340001 4293849576
-0.2340015 -0.059862338 1.3360001 4293981162
-0.23017578 -0.05981753 1.335 4293915371
-0.2265252 -0.05981753 1.335 4293915371
-0.22270767 -0.059772726 1.3340001 4293981164
-0.21922407 -0.05981753 1.335 4293784299
-0.21508905 -0.059683111 1.332 4278190080
-0.21065298 -0.059459072 1.327 4293981679
-0.20546418 -0.059011005 1.317 4292666078
-0.19971699 -0.0583837 1.3030001 4291679187
-0.19404636 -0.057756402 1.289 4291678933
-0.18963474 -0.057487562 1.2830001 4291810520
-0.1869968 -0.057756402 1.289 4292271073
-0.18660341 -0.058742154 1.3110001 4292995312
-0.30068901 -0.055704158 1.3240001 4292205278
-0.2914592 -0.054652344 1.299 4292731622
-0.286134 -0.054315764 1.291 4292797415
-0.28260374 -0.054315764 1.291 4291876313
-0.27950585 -0.054399908 1.2930001 4278190080
-0.27554324 -0.054315764 1.291 4278190080
-0.27074879 -0.054063331 1.2850001 4293060327
-0.26661104 -0.053937111 1.2820001 4293718509
-0.26413158 -0.054147474 1.2870001 4293454565
-0.26324469 -0.054694418 1.3000001 4293389027
-0.26228675 -0.055241365 1.3130001 4293323234
-0.26007551 -0.055535868 1.3200001 4293389027
-0.25724313 -0.055704158 1.3240001 4293323232
-0.25381419 -0.055746235 1.325 4293454818
-0.25056863 -0.055830378 1.327 4293454818
-0.24693993 -0.055830378 1.327 4293586404
-0.24349459 -0.055872455 1.3280001 4293652197
-0.24022439 -0.055956598 1.33 4293849576
-0.23712115 -0.056082815 1.3330001 4293849576
-0.23382634 -0.056166958 1.335 4293915371
-0.22965853 -0.056040745 1.332 4294046957
-0.22550711 -0.055914525 1.3290001 4293850092
-0.22087127 -0.055662088 1.3230001 4293915886
-0.21659668 -0.055493798 1.319 4293784300
-0.21169801 -0.055157214 1.3110001 4292665821
-0.2063669 -0.054694418 1.3000001 4291810771
-0.20047189 -0.054063331 1.2850001 4291744978
-0.1954253 -0.053642601 1.2750001 4291744726
-0.19133663 -0.053474311 1.271 4291810519
-0.18860009 -0.053684674 1.276 4291613141
-0.18714188 -0.054273691 1.2900001 4292139487
-0.18703042 -0.055283435 1.314 4293191921
-0.29796374 -0.051611613 1.312 4291415762
-0.29168358 -0.051139556 1.3000001 4293389552
-0.28990182 -0.051454261 1.3080001 4293323761
-0.28938976 -0.052004993 1.322 4278190080
-0.28663939 -0.052162342 1.3260001 4278190080
-0.28109252 -0.051808305 1.317 4278190080
-0.27306646 -0.0509822 1.296 4292336866
-0.26598716 -0.05031345 1.279 4292336863
-0.26105312 -0.050038088 1.2720001 4292731362
-0.25818232 -0.050156102 1.2750001 4293718255
-0.25649366 -0.050510146 1.284 4293981681
-0.2547558 -0.05086419 1.2930001 4293784300
-0.25277442 -0.051178891 1.3010001 4293586151
-0.25036615 -0.051414918 1.307 4293389542
-0.24792509 -0.051650953 1.3130001 4293323748
-0.24470685 -0.051729627 1.3150001 4293389541
-0.24129434 -0.051768962 1.3160001 4293455334
-0.23751509 -0.051729627 1.3150001 4293652713
-0.23409711 -0.051768962 1.3160001 4293915886
-0.23049849 -0.051768962 1.3160001 4293915886
-0.22655503 -0.051690288 1.314 4293915886
-0.22177412 -0.051414918 1.307 4293586923
-0.21669759 -0.051060881 1.2980001 4292468442
-0.21167028 -0.050706837 1.289 4291942098
-0.20636924 -0.050274115 1.2780001 4291744978
-0.20160457 -0.049959414 1.2700001 4291876564
-0.19719571 -0.049723387 1.2640001 4291679187
-0.19389255 -0.049762722 1.2650001 4291810519
-0.19103557 -0.049920071 1.2690001 4291744726
-0.18904352 -0.05031345 1.279 4291678934
-0.18786722 -0.050942864 1.2950001 4292205280
-0.18717277 -0.051729627 1.3150001 4293191921
-0.30568856 -0.048682801 1.33 4291481557
-0.2970553 -0.04787752 1.3080001 4290560455
-0.2932542 -0.047840916 1.307 4293257968
-0.27601629 -0.04795073 1.3100001 4278190080
-0.26661104 -0.046925828 1.2820001 4292205278
-0.26002693 -0.046376772 1.2670001 4292336863
-0.25534737 -0.046157151 1.261 4292205018
-0.25149962 -0.046083946 1.2590001 4292336604
-0.24864794 -0.046193752 1.2620001 4292402397
-0.24577987 -0.046303567 1.2650001 4292533981
-0.24347006 -0.046523187 1.271 4292665821
-0.24093862 -0.046706207 1.276 4292797407
-0.23819375 -0.046852618 1.2800001 4292732125
-0.23524363 -0.046962433 1.2830001 4292600539
-0.23155463 -0.046925828 1.2820001 4292534235
-0.22751534 -0.046816014 1.279 4292271063
-0.22366761 -0.046742808 1.2770001 4292139223
-0.21948595 -0.046596393 1.273 4292008150
-0.21532622 -0.046449978 1.2690001 4291876564
-0.21068747 -0.046193752 1.2620001 4291744980
-0.20657969 -0.046047337 1.258 4291810773
-0.20249376 -0.045900926 1.2540001 4291744980
-0.19922343 -0.045937531 1.2550001 4291810773
-0.19610363 -0.046010736 1.2570001 4291744980
-0.19358601 -0.046230357 1.263 4291547347
-0.19103557 -0.046449978 1.2690001 4291678933
-0.18889572 -0.046779413 1.2780001 4291744727
-0.18728693 -0.047255259 1.291 4292139487
-0.18660341 -0.047987331 1.3110001 4293257968
-0.29750952 -0.04436852 1.3100001 4290757832
-0.29437608 -0.044436257 1.312 4293192173
-0.27875537 -0.04480882 1.3230001 4278190080
-0.26889867 -0.043792747 1.2930001 4292139485
-0.26125833 -0.043115366 1.273 4292073692
-0.25575235 -0.042776674 1.263 4292205277
-0.25090033 -0.042539589 1.256 4292073691
-0.2468747 -0.042437982 1.253 4292139484
-0.24305978 -0.042370241 1.251 4292073691
-0.23963891 -0.042370241 1.251 4292073945
-0.23621804 -0.042370241 1.251 4292073945
-0.23316933 -0.042437982 1.253 4292073945
-0.22992636 -0.042471848 1.2540001 4292008152
-0.22649728 -0.042471848 1.2540001 4291876566
-0.22289032 -0.042437982 1.253 4291942357
-0.21911368 -0.042370241 1.251 4291942359
-0.21534798 -0.042302504 1.2490001 4291942359
-0.21176289 -0.042268638 1.248 4291744726
-0.20835023 -0.042268638 1.248 4291810519
-0.20510177 -0.042302504 1.2490001 4291942105
-0.20200932 -0.042370241 1.251 4291942105
-0.19922343 -0.042505719 1.2550001 4291744726
-0.19657166 -0.042675067 1.2600001 4291678933
-0.19419909 -0.042912148 1.2670001 4291744726
-0.19163771 -0.043115366 1.273 4291744726
-0.18933915 -0.043386318 1.281 4291744727
-0.18743202 -0.043758877 1.2920001 4292139485
-0.18646109 -0.04436852 1.3100001 4293257968
-0.2970553 -0.040724043 1.3080001 4290757832
-0.29370293 -0.040755179 1.309 4292863208
-0.2699385 -0.040412698 1.2980001 4292205278
-0.26207927 -0.039758872 1.2770001 4292336864
-0.25615734 -0.039385255 1.2650001 4292073692
-0.25129986 -0.039167315 1.258 4292205277
-0.24707173 -0.039042775 1.2540001 4292271070
-0.24305978 -0.03894937 1.251 4292205277
-0.23906423 -0.038855966 1.248 4292271070
-0.2350851 -0.038762566 1.245 4292139484
-0.23149453 -0.03873143 1.2440001 4292205277
-0.2280928 -0.03873143 1.2440001 4292139484
-0.22487171 -0.038762566 1.245 4292073945
-0.22146724 -0.038762566 1.245 4292205531
-0.21806277 -0.038762566 1.245 4292205531
-0.21448588 -0.03873143 1.2440001 4292139738
-0.21142353 -0.038793698 1.2460001 4292008152
-0.20818327 -0.038824834 1.2470001 4291810519
-0.20526597 -0.038918238 1.25 4291876312
-0.2021708 -0.038980506 1.2520001 4291744726
-0.19938216 -0.039105043 1.256 4291678933
-0.19657166 -0.039229583 1.2600001 4291744726
-0.19404583 -0.039416391 1.266 4291744726
-0.19133663 -0.039572064 1.271 4291744727
-0.18919133 -0.039852276 1.2800001 4291810520
-0.18728693 -0.040194757 1.291 4292139485
-0.18631874 -0.040755179 1.309 4293323759
-0.29728243 -0.037175704 1.309 4291021004
-0.29347858 -0.037147306 1.3080001 4291678934
-0.27077034 -0.036976904 1.302 4292336864
-0.26290017 -0.036380503 1.281 4292205278
-0.25696734 -0.036039699 1.2690001 4292205278
-0.25229865 -0.0358693 1.263 4292336863
-0.24805686 -0.035755701 1.2590001 4292205277
-0.24403124 -0.0356705 1.256 4292139484
-0.24002202 -0.035585299 1.253 4292139484
-0.23602921 -0.035500098 1.25 4292139484
-0.2322389 -0.035443299 1.248 4292270813
-0.22864287 -0.035414901 1.2470001 4292139484
-0.22505233 -0.035386499 1.2460001 4292139738
-0.22182301 -0.035414901 1.2470001 4292073945
-0.21858823 -0.035443299 1.248 4292073945
-0.21534798 -0.0354717 1.2490001 4292008152
-0.21227194 -0.0355285 1.251 4291810773
-0.20935191 -0.035613701 1.2540001 4291876566
-0.20625125 -0.0356705 1.256 4291810773
-0.20297819 -0.035698902 1.2570001 4291810773
-0.1998584 -0.035755701 1.2590001 4291876566
-0.19688368 -0.035840902 1.2620001 4291876566
-0.19419909 -0.035982899 1.2670001 4291744726
-0.19163771 -0.036153302 1.273 4291744727
-0.18963474 -0.036437303 1.2830001 4291810520
-0.18772215 -0.036749706 1.294 4291942106
-0.18674576 -0.037260905 1.312 4293389554
-0.2932542 -0.033544902 1.307 4290823625
-0.27139422 -0.033493571 1.3050001 4292336864
-0.26310539 -0.032903261 1.2820001 4292271071
-0.25716981 -0.032595273 1.2700001 4292271071
-0.25229865 -0.032415617 1.263 4292205277
-0.24805686 -0.032312952 1.2590001 4292205277
-0.24403124 -0.032235954 1.256 4292007899
-0.24021359 -0.032184623 1.2540001 4292007899
-0.23621804 -0.032107629 1.251 4292271070
-0.23279716 -0.032107629 1.251 4292271070
-0.22882622 -0.032030631 1.248 4292073691
-0.22541356 -0.032030631 1.248 4292139484
-0.2220009 -0.032030631 1.248 4292073945
-0.21876338 -0.032056298 1.2490001 4292073945
-0.21534798 -0.032056298 1.2490001 4292073945
-0.21244162 -0.032133292 1.2520001 4292008152
-0.20935191 -0.032184623 1.2540001 4291876566
-0.20592283 -0.032184623 1.2540001 4291876566
-0.20249376 -0.032184623 1.2540001 4291810519
-0.19954091 -0.032261621 1.2570001 4291876312
-0.19672768 -0.032364286 1.261 4291810519
-0.19404583 -0.032492612 1.266 4291744726
-0.19133663 -0.03262094 1.271 4291744727
-0.18919133 -0.032851931 1.2800001 4291678934
-0.18728693 -0.033134252 1.291 4292205280
-0.26413158 -0.029512273 1.2870001 4292205278
-0.2577773 -0.029191241 1.273 4292205278
-0.25309768 -0.029053653 1.2670001 4292205278
-0.24864794 -0.028938999 1.2620001 4292007386
-0.24441984 -0.028847275 1.258 4292335837
-0.2405967 -0.028801411 1.256 4292401117
-0.2367845 -0.028755549 1.2540001 4292598496
-0.23316933 -0.028732618 1.253 4292730082
-0.2293763 -0.028686756 1.251 4292466909
-0.22577479 -0.028663825 1.25 4292204250
-0.22235666 -0.028663825 1.25 4292139227
-0.21911368 -0.028686756 1.251 4292007898
-0.2156928 -0.028686756 1.251 4292073691
-0.21261129 -0.028732618 1.253 4292007898
-0.20935191 -0.028755549 1.2540001 4292007898
-0.20608705 -0.02877848 1.2550001 4291876312
-0.20281671 -0.028801411 1.256 4291744726
-0.1998584 -0.028870206 1.2590001 4291810519
-0.19719571 -0.028984861 1.2640001 4291810519
-0.19450566 -0.029099515 1.2690001 4291744727
-0.19178826 -0.029214172 1.274 4291876313
-0.18933915 -0.029374689 1.281 4291678934
-0.18743202 -0.02962693 1.2920001 4291942622
-0.26474726 -0.026053552 1.2900001 4292402657
-0.25838479 -0.0257708 1.276 4292205278
-0.25329748 -0.025609225 1.268 4292401630
-0.24884498 -0.025508244 1.263 4292270558
-0.24461411 -0.025427459 1.2590001 4287268750
-0.2405967 -0.025366867 1.256 4289170330
-0.23697335 -0.02534667 1.2550001 4284824142
-0.23354153 -0.02534667 1.2550001 4291209143
-0.22955966 -0.02528608 1.2520001 4285877087
-0.22595543 -0.025265884 1.251 4288319641
-0.22235666 -0.025245689 1.25 4292204251
-0.21911368 -0.025265884 1.251 4292139484
-0.21586524 -0.02528608 1.2520001 4292074461
-0.21261129 -0.025306277 1.253 4292007898
-0.20918496 -0.025306277 1.253 4291942105
-0.20575862 -0.025306277 1.253 4291876312
-0.20265524 -0.02534667 1.2550001 4291942105
-0.19969967 -0.025407262 1.258 4291876312
-0.19703969 -0.025508244 1.263 4291810519
-0.19450566 -0.025629422 1.2690001 4291810520
-0.1926915 -0.025851585 1.2800001 4291744727
-0.19052158 -0.026033355 1.289 4291810520
-0.25939727 -0.022368874 1.281 4292271071
-0.25409651 -0.022211716 1.2720001 4292205278
-0.24923903 -0.022089481 1.2650001 4292664802
-0.24539129 -0.022054559 1.263 4285096554
-0.24136293 -0.022002172 1.2600001 4290941351
-0.23772863 -0.021984709 1.2590001 4286392138
-0.2339137 -0.021949785 1.2570001 4287970143
-0.22992636 -0.0218974 1.2540001 4288429667
-0.22631666 -0.021879937 1.253 4285480789
-0.22289032 -0.021879937 1.253 4292597983
-0.21981429 -0.021914862 1.2550001 4292139484
-0.2167273 -0.021949785 1.2570001 4292205277
-0.21329004 -0.021949785 1.2570001 4292073691
-0.20985276 -0.021949785 1.2570001 4292007898
-0.20756496 -0.022072019 1.2640001 4291942105
-0.2044315 -0.022106944 1.266 4291876312
-0.20160457 -0.022176793 1.2700001 4291876313
-0.19875579 -0.02224664 1.274 4291810520
-0.19588514 -0.022316489 1.2780001 4291744727
-0.19329368 -0.022421259 1.284 4291744727
-0.19081719 -0.022543496 1.291 4291678934
-0.26061225 -0.018954333 1.2870001 4292336864
-0.2546958 -0.018777601 1.2750001 4292270813
-0.24963307 -0.018659782 1.2670001 4292731621
-0.24539129 -0.018600872 1.263 4284242784
-0.24174604 -0.018586146 1.2620001 4293191145
-0.23810628 -0.018571418 1.261 4293189093
-0.23409979 -0.018527234 1.258 4287188840
-0.23010972 -0.018483052 1.2550001 4286336098
-0.22703914 -0.018512506 1.2570001 4292991714
-0.22360186 -0.018512506 1.2570001 4292271071
-0.22016458 -0.018512506 1.2570001 4292205277
-0.21689974 -0.018527234 1.258 4292336863
-0.21396877 -0.018571418 1.261 4292205277
-0.21085444 -0.018600872 1.263 4292139484
-0.20772918 -0.018630328 1.2650001 4292007898
-0.2044315 -0.018645054 1.266 4291942105
-0.20160457 -0.018703965 1.2700001 4291876312
-0.19875579 -0.018762875 1.274 4291876312
-0.19619167 -0.018851239 1.2800001 4291744727
-0.19329368 -0.018910149 1.284 4291810520
-0.25180039 -0.015327082 1.2780001 4292073692
-0.24694562 -0.015243131 1.271 4292336606
-0.24289539 -0.015207151 1.268 4292599008
-0.2392392 -0.015195158 1.2670001 4292532702
-0.23558851 -0.015183165 1.266 4293255399
-0.23175991 -0.015159179 1.2640001 4292861155
-0.22794224 -0.015135193 1.2620001 4292467937
-0.22431341 -0.015123201 1.261 4292271071
-0.22104034 -0.015135193 1.2620001 4292336864
-0.21758938 -0.015135193 1.2620001 4292271070
-0.21447781 -0.015159179 1.2640001 4292336863
-0.21118832 -0.015171172 1.2650001 4292073691
-0.20822181 -0.015207151 1.268 4292007898
-0.20507739 -0.015231138 1.2700001 4292007898
-0.2020808 -0.015267116 1.273 4292007898
-0.19922382 -0.015315089 1.2770001 4291810519
-0.19634496 -0.015363061 1.281 4291810519
-0.2477228 -0.011804602 1.2750001 4287402131
-0.24366163 -0.011776827 1.2720001 4291349711
-0.2399945 -0.011767569 1.271 4288783015
-0.23633285 -0.011758311 1.2700001 4292270044
-0.23230995 -0.011730534 1.2670001 4288519843
-0.22830349 -0.011702759 1.2640001 4289769910
-0.22466917 -0.011693501 1.263 4293060074
-0.22156578 -0.011712017 1.2650001 4287006604
-0.21810663 -0.011712017 1.2650001 4286349188
-0.21481717 -0.011721276 1.266 4292138972
-0.21135528 -0.011721276 1.266 4292073179
-0.20822181 -0.011739792 1.268 4291942105
-0.20523888 -0.011767569 1.271 4292007898
-0.20223956 -0.011795344 1.274 4292007898
-0.19937983 -0.011832379 1.2780001 4291942105
-0.23689111 -0.0083050542 1.273 4291941079
-0.23304337 -0.0082920073 1.271 4284243298
-0.22938719 -0.0082854833 1.2700001 4288585123
-0.2257365 -0.0082789585 1.2690001 4287269263
-0.22226641 -0.0082789585 1.2690001 4285164914
-0.2189687 -0.0082854833 1.2700001 4284967535
-0.21549588 -0.0082854833 1.2700001 4291612114
-0.21219 -0.0082920073 1.271 4292204765
-0.20904286 -0.0083050542 1.273 4292205278
