# .PCD v0.7 - Point Cloud Data file format
VERSION 0.7
FIELDS x y z rgba
SIZE 4 4 4 4
TYPE F F F U
COUNT 1 1 1 1
WIDTH 557
HEIGHT 1
VIEWPOINT 0 0 0 1 0 0 0
POINTS 557
DATA ascii
0.088134736 -0.33204401 1.7010001 4280823089
0.088393807 -0.32835495 1.7060001 4278190080
0.09076786 -0.32027119 1.664 4280494894
0.10674034 -0.32739261 1.7010001 4280364333
0.087979302 -0.32217199 1.6980001 4278190080
0.091313347 -0.31761834 1.674 4278190080
0.10160881 -0.32122332 1.6930001 4280364078
0.096062765 -0.31360176 1.677 4280364080
0.10130872 -0.31565878 1.6880001 4280298285
0.10416753 -0.29680488 1.6600001 4280429360
-0.13278446 -0.18802351 1.5150001 4293455861
-0.16082285 -0.18278837 1.506 4293652977
-0.15410334 -0.17975402 1.4810001 4293587184
-0.14762187 -0.17684107 1.457 4293258217
-0.14235608 -0.17526321 1.4440001 4293192424
-0.13764066 -0.17429221 1.4360001 4292863459
-0.13324833 -0.17368536 1.4310001 4292863459
-0.12888335 -0.17307849 1.4260001 4292863459
-0.12515922 -0.17332123 1.4280001 4292995045
-0.12150908 -0.17368536 1.4310001 4293192424
-0.1179247 -0.17417085 1.4350001 4293455598
-0.11447734 -0.17489909 1.4410001 4293587184
-0.11130399 -0.17611282 1.4510001 4293718516
-0.1088157 -0.17854029 1.4710001 4293652724
-0.10700165 -0.18230286 1.5020001 4293455345
-0.1661405 -0.17558557 1.48 4293192424
-0.15826015 -0.17143321 1.4450001 4292929252
-0.15217301 -0.16906044 1.4250001 4292731873
-0.14733985 -0.16799268 1.416 4292731614
-0.14306252 -0.16751812 1.4120001 4292665819
-0.13920139 -0.16751812 1.4120001 4292665819
-0.13524441 -0.16739948 1.411 4292600026
-0.13119978 -0.16716221 1.409 4292731612
-0.12716611 -0.16692494 1.4070001 4292665819
-0.12323099 -0.1668063 1.406 4292731612
-0.11947119 -0.16692494 1.4070001 4292731612
-0.11578808 -0.16716221 1.409 4292797407
-0.11193516 -0.16716221 1.409 4292731614
-0.10815895 -0.16728085 1.4100001 4292731873
-0.10437726 -0.16739948 1.411 4292929254
-0.10087506 -0.16799268 1.416 4293586930
-0.097893566 -0.169535 1.429 4293586931
-0.097340234 -0.17558557 1.48 4293586931
-0.17529419 -0.17258164 1.4890001 4293192422
-0.16570291 -0.16701822 1.4410001 4292929250
-0.15940508 -0.16458423 1.4200001 4292928991
-0.15453638 -0.16354109 1.411 4292994784
-0.14993046 -0.16272977 1.404 4292994784
-0.14577906 -0.16238205 1.401 4292928990
-0.141948 -0.16238205 1.401 4292928990
-0.13831411 -0.16261385 1.4030001 4292731611
-0.1346693 -0.16284567 1.4050001 4292928990
-0.13082732 -0.16284567 1.4050001 4292731611
-0.12680458 -0.16261385 1.4030001 4292928990
-0.12296805 -0.16261385 1.4030001 4292994783
-0.11930136 -0.16284567 1.4050001 4293125855
-0.11545938 -0.16284567 1.4050001 4293059807
-0.1114585 -0.16261385 1.4030001 4293059807
-0.10746858 -0.16238205 1.401 4292994014
-0.10363752 -0.16238205 1.401 4292731614
-0.099877715 -0.16249795 1.4020001 4292666078
-0.096043929 -0.16249795 1.4020001 4292929254
-0.092473224 -0.16296157 1.406 4293652723
-0.089889228 -0.16527967 1.4260001 4293390068
-0.17707711 -0.16635972 1.47 4293126631
-0.16752426 -0.16104074 1.4230001 4292994784
-0.1617932 -0.15923002 1.4070001 4292994783
-0.15738446 -0.15866417 1.4020001 4293060576
-0.15333164 -0.15843783 1.4000001 4293191648
-0.14939652 -0.15832466 1.399 4293323234
-0.145675 -0.15843783 1.4000001 4293191648
-0.14184669 -0.15843783 1.4000001 4293125855
-0.13821554 -0.15866417 1.4020001 4292994783
-0.1344776 -0.15877734 1.4030001 4292994783
-0.13064109 -0.15877734 1.4030001 4292994783
-0.12689495 -0.15889052 1.404 4293060576
-0.12314335 -0.15900369 1.4050001 4293323234
-0.11947119 -0.15923002 1.4070001 4293322721
-0.11545938 -0.15900369 1.4050001 4293191648
-0.1114585 -0.15877734 1.4030001 4293125600
-0.10762198 -0.15877734 1.4030001 4293125600
-0.10378546 -0.15877734 1.4030001 4292863200
-0.099877715 -0.15866417 1.4020001 4292797407
-0.095769912 -0.15821148 1.3980001 4292600287
-0.091947064 -0.15821148 1.3980001 4292797668
-0.088250294 -0.15843783 1.4000001 4293586933
-0.0853265 -0.16013537 1.4150001 4293586679
-0.18195921 -0.16311304 1.4770001 4292863461
-0.17165639 -0.1573704 1.4250001 4292928993
-0.16528748 -0.15505126 1.404 4293126369
-0.16098826 -0.15460952 1.4000001 4293192162
-0.15715994 -0.15460952 1.4000001 4293323234
-0.15355067 -0.15483038 1.4020001 4293323234
-0.14971688 -0.15483038 1.4020001 4293323234
-0.14598715 -0.15494083 1.4030001 4293257441
-0.14225197 -0.15505126 1.404 4293257441
-0.13860987 -0.15527213 1.406 4293060576
-0.13486101 -0.15538256 1.4070001 4293060576
-0.13082732 -0.15516169 1.4050001 4293060576
-0.12716611 -0.15538256 1.4070001 4293126369
-0.12349393 -0.15560344 1.409 4293191648
-0.11981083 -0.1558243 1.411 4293389027
-0.11578808 -0.15560344 1.409 4293191648
-0.11177628 -0.15538256 1.4070001 4293257441
-0.10792883 -0.15538256 1.4070001 4293125855
-0.10415534 -0.15549301 1.4080001 4293125600
-0.10023391 -0.15538256 1.4070001 4292863198
-0.096249446 -0.15516169 1.4050001 4292863200
-0.09227591 -0.15494083 1.4030001 4292533981
-0.088250294 -0.15460952 1.4000001 4292929254
-0.08454258 -0.15483038 1.4020001 4293521138
-0.081514739 -0.15637648 1.416 4293521656
-0.1772778 -0.15498154 1.439 4292863457
-0.16984949 -0.15185823 1.4100001 4293126370
-0.16493429 -0.1508889 1.401 4293389541
-0.16110325 -0.1508889 1.401 4293323748
-0.1572722 -0.1508889 1.401 4293389027
-0.15355067 -0.15099661 1.4020001 4293454820
-0.14993046 -0.15121201 1.404 4293389027
-0.14629932 -0.1514274 1.406 4293257441
-0.14275855 -0.15175052 1.409 4293323234
-0.13880704 -0.15164281 1.4080001 4293257955
-0.13495685 -0.15164281 1.4080001 4293192162
-0.13101356 -0.15153511 1.4070001 4293192162
-0.12734686 -0.15175052 1.409 4293323234
-0.12366923 -0.15196592 1.411 4293323234
-0.11989574 -0.15207362 1.4120001 4293389027
-0.11587027 -0.15185823 1.4100001 4293323234
-0.11201461 -0.15185823 1.4100001 4293257441
-0.10823566 -0.15196592 1.411 4293257441
-0.10430329 -0.15185823 1.4100001 4293257441
-0.10037638 -0.15175052 1.409 4293060576
-0.096317947 -0.1514274 1.406 4292863198
-0.092407458 -0.15131971 1.4050001 4292731614
-0.088376366 -0.15099661 1.4020001 4293323758
-0.08436168 -0.15067351 1.399 4293389552
-0.080708802 -0.15099661 1.4020001 4293258482
-0.17579946 -0.14978699 1.427 4293060577
-0.16972902 -0.14789759 1.409 4293323748
-0.16552292 -0.14758268 1.406 4293586406
-0.1615632 -0.14747773 1.4050001 4293586406
-0.15772122 -0.14747773 1.4050001 4293454820
-0.15398876 -0.14758268 1.406 4293389027
-0.15035762 -0.14779262 1.4080001 4293323234
-0.14681959 -0.14810751 1.411 4293323234
-0.14326516 -0.14842242 1.414 4293454818
-0.13939856 -0.14842242 1.414 4293586404
-0.13553196 -0.14842242 1.414 4293454818
-0.13166536 -0.14842242 1.414 4293652199
-0.12779877 -0.14842242 1.414 4293520613
-0.12393217 -0.14842242 1.414 4293454820
-0.12015048 -0.14852738 1.4150001 4293520613
-0.11628115 -0.14852738 1.4150001 4293520613
-0.11249126 -0.14863235 1.416 4293389027
-0.10861919 -0.14863235 1.416 4293454820
-0.10467315 -0.14852738 1.4150001 4293323234
-0.10066135 -0.14831746 1.4130001 4293257441
-0.096660472 -0.14810751 1.411 4293060577
-0.092736319 -0.14800256 1.4100001 4292731614
-0.08869154 -0.14768766 1.4070001 4293060840
-0.084602885 -0.14726779 1.4030001 4293323759
-0.080823936 -0.14737275 1.404 4293192689
-0.080000468 -0.15314591 1.4590001 4293258486
-0.1749371 -0.14516921 1.4200001 4293192163
-0.16936764 -0.14373797 1.406 4293257955
-0.16587609 -0.14404467 1.409 4293454820
-0.16190818 -0.14394243 1.4080001 4293323234
-0.158058 -0.14394243 1.4080001 4293454820
-0.15420781 -0.14394243 1.4080001 4293389027
-0.15078476 -0.14435136 1.4120001 4293257439
-0.1472358 -0.14465806 1.4150001 4293454818
-0.14356911 -0.14486252 1.4170001 4293586404
-0.13959572 -0.14476028 1.416 4293652197
-0.13581951 -0.14486252 1.4170001 4293717990
-0.13194472 -0.14486252 1.4170001 4293717992
-0.12797952 -0.14476028 1.416 4293652199
-0.12401981 -0.14465806 1.4150001 4293520613
-0.12023539 -0.14476028 1.416 4293652197
-0.11636332 -0.14476028 1.416 4293652197
-0.11265015 -0.14496475 1.4180001 4293586406
-0.10877261 -0.14496475 1.4180001 4293586406
-0.10482111 -0.14486252 1.4170001 4293520613
-0.10080382 -0.14465806 1.4150001 4293454820
-0.096797489 -0.1444536 1.4130001 4293126372
-0.092867851 -0.14435136 1.4120001 4293257704
-0.088754579 -0.14394243 1.4080001 4293652464
-0.084482282 -0.14322682 1.401 4292994794
-0.080708802 -0.14332904 1.4020001 4293258484
-0.079835966 -0.14884956 1.4560001 4293258486
-0.17469071 -0.14108722 1.4180001 4293257956
-0.16900626 -0.13959476 1.4030001 4293389027
-0.16575837 -0.14009224 1.4080001 4293454820
-0.16248314 -0.14058973 1.4130001 4293257439
-0.1588438 -0.14078872 1.4150001 4293454818
-0.15508398 -0.14088823 1.416 4293520611
-0.1514255 -0.14108722 1.4180001 4293586404
-0.14744391 -0.14098772 1.4170001 4293717990
-0.14367042 -0.14108722 1.4180001 4293783783
-0.13999006 -0.14128621 1.4200001 4293849576
-0.13629876 -0.14148521 1.4220001 4293849576
-0.13250341 -0.14158469 1.4230001 4293717990
-0.12843142 -0.1413857 1.4210001 4293717990
-0.12445805 -0.14128621 1.4200001 4293783783
-0.12057505 -0.14128621 1.4200001 4293717990
-0.11685639 -0.14148521 1.4220001 4293717990
-0.11296792 -0.14148521 1.4220001 4293717992
-0.10907944 -0.14148521 1.4220001 4293652199
-0.10519097 -0.14148521 1.4220001 4293717737
-0.10123126 -0.1413857 1.4210001 4293389542
-0.097208507 -0.14118671 1.419 4293455083
-0.092933625 -0.14058973 1.4130001 4293587184
-0.088565469 -0.13979375 1.4050001 4292665828
-0.08436168 -0.13919677 1.399 4292929517
-0.080939069 -0.13989325 1.406 4293258484
-0.17370515 -0.13643558 1.4100001 4293389290
-0.16756074 -0.13459709 1.391 4293651944
-0.16422793 -0.13498414 1.3950001 4293389027
-0.16167819 -0.13604853 1.406 4293322721
-0.15861928 -0.13672587 1.4130001 4293586404
-0.15519351 -0.13711292 1.4170001 4293652197
-0.15153228 -0.13730644 1.419 4293783783
-0.14765202 -0.13730644 1.419 4293783783
-0.14377174 -0.13730644 1.419 4293915371
-0.14018723 -0.13759674 1.4220001 4293914856
-0.13649046 -0.13779026 1.424 4293849065
-0.13268963 -0.13788702 1.4250001 4293849065
-0.12870258 -0.13779026 1.424 4293717737
-0.12480863 -0.13779026 1.424 4293717992
-0.12082978 -0.13769349 1.4230001 4293849578
-0.11693858 -0.13769349 1.4230001 4293783785
-0.11304737 -0.13769349 1.4230001 4293849578
-0.10915616 -0.13769349 1.4230001 4293783530
-0.105117 -0.13749997 1.4210001 4293652716
-0.10094631 -0.13711292 1.4170001 4293652716
-0.096523464 -0.13633882 1.409 4293389803
-0.091881298 -0.13517767 1.3970001 4292337117
-0.087619938 -0.13450032 1.3900001 4292271070
-0.083818965 -0.13450032 1.3900001 4293389554
-0.080939069 -0.13604853 1.406 4293258484
-0.18566237 -0.13568287 1.4430001 4291876312
-0.17856824 -0.13333215 1.4180001 4291481554
-0.17173402 -0.13107547 1.3940001 4292073945
-0.16611521 -0.12966505 1.3790001 4292994786
-0.16210887 -0.12947698 1.3770001 4293718507
-0.15926339 -0.1302292 1.3850001 4293784300
-0.15682317 -0.13135757 1.3970001 4293521127
-0.15420781 -0.13239187 1.4080001 4293586406
-0.15099834 -0.13295604 1.414 4293586406
-0.14754796 -0.13333215 1.4180001 4293783785
-0.14397438 -0.13361423 1.4210001 4293849578
-0.14058158 -0.13408437 1.4260001 4293586920
-0.13668217 -0.13408437 1.4260001 4293652713
-0.13296898 -0.13427243 1.4280001 4293718506
-0.12888335 -0.13408437 1.4260001 4293718506
-0.12524687 -0.13436645 1.429 4293718506
-0.12108452 -0.13408437 1.4260001 4293718506
-0.11710292 -0.13399035 1.4250001 4293718506
-0.11288848 -0.13361423 1.4210001 4293981678
-0.10861919 -0.1331441 1.416 4293981679
-0.10422931 -0.1324859 1.409 4293521130
-0.099521518 -0.13135757 1.3970001 4292534494
-0.094879352 -0.1302292 1.3850001 4292139738
-0.090500116 -0.12938297 1.376 4292271071
-0.086863503 -0.12957102 1.378 4292468450
-0.083758667 -0.13060533 1.3890001 4293258482
-0.081514739 -0.1331441 1.416 4293324277
-0.19006671 -0.12936333 1.4170001 4293652724
-0.18343253 -0.12744616 1.396 4293455344
-0.17832851 -0.12653321 1.386 4292665828
-0.17365699 -0.12589416 1.3790001 4291678933
-0.1695165 -0.12562028 1.376 4292073691
-0.16515152 -0.12516381 1.3710001 4292271070
-0.16081388 -0.12470734 1.3660001 4292139738
-0.15673356 -0.12443346 1.363 4292600287
-0.15345545 -0.12479863 1.3670001 4293258215
-0.1508126 -0.12571156 1.3770001 4293915888
-0.14800827 -0.12653321 1.386 4293784302
-0.14515473 -0.12735486 1.3950001 4293850095
-0.14184669 -0.12781133 1.4000001 4293784300
-0.13860987 -0.12835908 1.406 4293718507
-0.13486101 -0.12845038 1.4070001 4293718507
-0.13110667 -0.12854168 1.4080001 4293784300
-0.12725648 -0.12854168 1.4080001 4293916145
-0.12349393 -0.12863298 1.409 4293718766
-0.11938627 -0.12835908 1.406 4293981938
-0.11513067 -0.12790263 1.401 4293258217
-0.11082296 -0.12735486 1.3950001 4292534494
-0.10639465 -0.12662451 1.3870001 4292337117
-0.10193612 -0.12580286 1.378 4292073691
-0.097455576 -0.12488992 1.368 4292073691
-0.093440741 -0.12452474 1.3640001 4292007899
-0.089645103 -0.12443346 1.363 4292139485
-0.086548321 -0.12534639 1.373 4292205278
-0.083818965 -0.12689838 1.3900001 4293390068
-0.081975274 -0.13000238 1.424 4293390070
-0.19216223 -0.12433725 1.404 4293521138
-0.18537205 -0.12238894 1.3820001 4292863208
-0.18106736 -0.12203471 1.378 4292271071
-0.17717054 -0.12194615 1.3770001 4292007899
-0.17315327 -0.12176903 1.3750001 4291613141
-0.1695165 -0.12185759 1.376 4291810520
-0.16539244 -0.12159191 1.373 4292073691
-0.16104934 -0.12114911 1.368 4292205277
-0.15638858 -0.12044064 1.36 4292271324
-0.15222062 -0.1200864 1.3560001 4292271070
-0.14840311 -0.11999784 1.355 4292271070
-0.14501821 -0.12026352 1.358 4292139738
-0.14151286 -0.12044064 1.36 4292336602
-0.13799657 -0.12061776 1.3620001 4292402395
-0.13476507 -0.12106056 1.3670001 4292402908
-0.13150626 -0.12150335 1.3720001 4292337117
-0.12794073 -0.12168047 1.3740001 4292271322
-0.12409314 -0.12159191 1.373 4292205529
-0.12025101 -0.12150335 1.3720001 4292073943
-0.11632944 -0.12132623 1.3700001 4292008152
-0.11217228 -0.12088344 1.365 4292073945
-0.10804246 -0.12044064 1.36 4292008152
-0.10401669 -0.1200864 1.3560001 4291942105
-0.10023472 -0.11999784 1.355 4292007899
-0.096458219 -0.11990929 1.3540001 4292007899
-0.093098223 -0.12035207 1.3590001 4291811290
-0.089710869 -0.12079488 1.3640001 4291877083
-0.086674392 -0.12176903 1.3750001 4292140001
-0.08406017 -0.12345165 1.3940001 4293192691
-0.082090408 -0.12628555 1.4260001 4293324279
-0.19823512 -0.12187119 1.4200001 4292139485
-0.18983547 -0.11903898 1.3870001 4292797415
-0.18483551 -0.11826655 1.378 4293192173
-0.18211856 -0.11895315 1.386 4292863978
-0.17922917 -0.11955393 1.393 4278190080
-0.17516814 -0.11938228 1.391 4291744727
-0.17087165 -0.11903898 1.3870001 4278190080
-0.16635613 -0.11852402 1.381 4292139485
-0.16152024 -0.1177516 1.3720001 4292139484
-0.15661858 -0.11689336 1.3620001 4292073691
-0.15199611 -0.11620677 1.3540001 4292205277
-0.14774598 -0.11577763 1.3490001 4292139484
-0.14362997 -0.11543434 1.345 4292205277
-0.13963988 -0.11517686 1.342 4292139484
-0.13576755 -0.11500521 1.34 4292139484
-0.13220188 -0.11509104 1.3410001 4292139484
-0.12891831 -0.11543434 1.345 4292073691
-0.1253335 -0.11552016 1.3460001 4292073691
-0.12165286 -0.11552016 1.3460001 4292007898
-0.11788455 -0.11543434 1.345 4292007898
-0.11420664 -0.11543434 1.345 4292007898
-0.11020002 -0.11509104 1.3410001 4292073691
-0.10653304 -0.11509104 1.3410001 4292139485
-0.10286606 -0.11509104 1.3410001 4292073692
-0.099568956 -0.11552016 1.3460001 4292073692
-0.096315734 -0.1160351 1.3520001 4291745497
-0.093166724 -0.1167217 1.36 4291877083
-0.089842416 -0.11723666 1.3660001 4291811290
-0.086737432 -0.11809491 1.376 4292205794
-0.083939567 -0.1194681 1.3920001 4293258484
-0.081917703 -0.12212867 1.4230001 4293390072
-0.19642028 -0.11690801 1.4070001 4291745243
-0.19010922 -0.11541238 1.3890001 4293192691
-0.18711577 -0.11591093 1.3950001 4293061105
-0.17432112 -0.11757273 1.4150001 4278190080
-0.16816303 -0.11599403 1.396 4292073692
-0.16246204 -0.11466458 1.3800001 4292073692
-0.15730852 -0.11366749 1.368 4292073692
-0.15266965 -0.11300277 1.36 4292139485
-0.14818406 -0.11242114 1.353 4292139485
-0.14405712 -0.11208878 1.3490001 4292205277
-0.13984799 -0.11167333 1.3440001 4292139484
-0.1360715 -0.11159024 1.3430001 4292205277
-0.13220188 -0.11142406 1.3410001 4292271070
-0.12863076 -0.11150714 1.342 4292139484
-0.12486792 -0.11142406 1.3410001 4292205277
-0.12120095 -0.11142406 1.3410001 4292205277
-0.11744633 -0.11134097 1.34 4292271071
-0.11403682 -0.11159024 1.3430001 4292205278
-0.11028219 -0.11150714 1.342 4292139485
-0.10677136 -0.11167333 1.3440001 4292073692
-0.10309619 -0.11167333 1.3440001 4292073692
-0.099864848 -0.11217187 1.35 4292007899
-0.096529454 -0.11258732 1.355 4292007899
-0.09330374 -0.11316895 1.3620001 4292007899
-0.090039723 -0.11375058 1.3690001 4292008415
-0.086863503 -0.1144984 1.378 4292074208
-0.083999872 -0.11574475 1.393 4293324277
-0.19586189 -0.11273914 1.4030001 4291087313
-0.19093041 -0.11209629 1.3950001 4293192691
-0.16984949 -0.11330163 1.4100001 4291876313
-0.16281521 -0.11113203 1.383 4292139485
-0.1575385 -0.1100874 1.3700001 4292139485
-0.1527819 -0.1093642 1.3610001 4292205278
-0.14829358 -0.10880171 1.3540001 4292205278
-0.14416391 -0.10848029 1.35 4292139485
-0.1400561 -0.10815886 1.3460001 4292139484
-0.13617282 -0.10799815 1.3440001 4292073691
-0.13230047 -0.10783743 1.342 4292336863
-0.1285349 -0.10775708 1.3410001 4292205277
-0.12477481 -0.10767672 1.34 4292205277
-0.12111057 -0.10767672 1.34 4292007898
-0.11753397 -0.10775708 1.3410001 4292205278
-0.11403682 -0.10791779 1.3430001 4292073692
-0.11044655 -0.10799815 1.3440001 4292007899
-0.10693026 -0.10815886 1.3460001 4291942106
-0.10332631 -0.10823921 1.3470001 4291942106
-0.099938825 -0.10856064 1.3510001 4291942106
-0.096529454 -0.10888205 1.355 4292007899
-0.093235224 -0.1093642 1.3610001 4292007899
-0.089973956 -0.10992669 1.368 4292007901
-0.086926542 -0.1108106 1.3790001 4292402659
-0.08406017 -0.11201593 1.3940001 4293455863
-0.19614108 -0.10905787 1.4050001 4290692555
-0.19175161 -0.10874739 1.401 4293126898
-0.16352157 -0.10781592 1.3890001 4292074462
-0.15788348 -0.10657398 1.373 4292271071
-0.15311868 -0.10587539 1.3640001 4292205278
-0.14862216 -0.10533205 1.3570001 4292205278
-0.14448427 -0.10502156 1.353 4292205278
-0.14047232 -0.1047887 1.35 4292139485
-0.13667941 -0.10471108 1.3490001 4292205278
-0.13269481 -0.10447822 1.3460001 4292271070
-0.12891831 -0.10440059 1.345 4292139227
-0.12514727 -0.10432297 1.3440001 4292007898
-0.12147209 -0.10432297 1.3440001 4292139484
-0.11779691 -0.10432297 1.3440001 4292007898
-0.11420664 -0.10440059 1.345 4292007899
-0.11069308 -0.10455583 1.3470001 4292007899
-0.10724803 -0.1047887 1.35 4291745497
-0.10363314 -0.10486631 1.3510001 4291811290
-0.10016075 -0.10509919 1.3540001 4292007899
-0.096743174 -0.10540967 1.358 4292073692
-0.093509249 -0.10595302 1.365 4292139485
-0.090237036 -0.10649636 1.3720001 4292139485
-0.087115645 -0.10727257 1.3820001 4292139487
-0.084180772 -0.10835928 1.396 4293521140
-0.19161476 -0.10484145 1.4000001 4293192689
-0.16363931 -0.10409258 1.3900001 4292140255
-0.15776849 -0.10274461 1.3720001 4292271071
-0.15311868 -0.10214552 1.3640001 4292271071
-0.14873168 -0.1016962 1.358 4292271071
-0.14437748 -0.10124688 1.3520001 4292271071
-0.14036827 -0.10102222 1.3490001 4292336864
-0.13647677 -0.10087244 1.3470001 4292205277
-0.1327934 -0.10087244 1.3470001 4292271070
-0.12891831 -0.10072268 1.345 4292336351
-0.12514727 -0.10064778 1.3440001 4292204251
-0.12138171 -0.1005729 1.3430001 4292927461
-0.11770927 -0.1005729 1.3430001 4292401630
-0.11403682 -0.1005729 1.3430001 4291941593
-0.11044655 -0.10064778 1.3440001 4292007899
-0.10693026 -0.10079756 1.3460001 4292073692
-0.10347974 -0.10102222 1.3490001 4292007899
-0.10001279 -0.10124688 1.3520001 4291942106
-0.096671939 -0.10162131 1.3570001 4292139485
-0.093577757 -0.10229529 1.3660001 4292073692
-0.090237036 -0.10274461 1.3720001 4292007899
-0.087052613 -0.10341859 1.381 4292205280
-0.084120475 -0.10446701 1.3950001 4293652472
-0.16411021 -0.10058022 1.3940001 4292074462
-0.15834345 -0.099353626 1.3770001 4292139485
-0.15356772 -0.098704256 1.368 4292271071
-0.14895073 -0.098127037 1.36 4292139485
-0.14459106 -0.097694129 1.3540001 4292205278
-0.14057638 -0.097477667 1.3510001 4292139485
-0.13678074 -0.097405523 1.35 4292138972
-0.13308914 -0.097405523 1.35 4283585882
-0.1294934 -0.097477667 1.3510001 4293711074
-0.12561285 -0.097333364 1.3490001 4286326858
-0.12183362 -0.097261213 1.348 4289812347
-0.11797221 -0.097116917 1.3460001 4286984788
-0.11437647 -0.097189061 1.3470001 4285745244
-0.11069308 -0.097189061 1.3470001 4292138458
-0.10724803 -0.097405523 1.35 4292007386
-0.10363314 -0.097477667 1.3510001 4292139485
-0.10038266 -0.097910583 1.3570001 4292073692
-0.096956894 -0.098199196 1.3610001 4292073692
-0.093783267 -0.098776408 1.3690001 4292073692
-0.090500116 -0.099281482 1.376 4292007899
-0.087304756 -0.099930845 1.3850001 4292271071
-0.15845844 -0.095657624 1.378 4292205277
-0.15379222 -0.095102288 1.3700001 4292271071
-0.14916977 -0.094546944 1.3620001 4292271071
-0.14469784 -0.094061017 1.355 4292271070
-0.14057638 -0.093783341 1.3510001 4292402144
-0.13678074 -0.093713932 1.35 4292270044
-0.13308914 -0.093713932 1.35 4284308065
-0.1294934 -0.093783341 1.3510001 4294040552
-0.12561285 -0.093644515 1.3490001 4286130249
-0.12183362 -0.093575098 1.348 4286982221
-0.11805985 -0.093505673 1.3470001 4287248730
-0.11446138 -0.093575098 1.348 4292395727
-0.11077525 -0.093575098 1.348 4292270044
-0.10732747 -0.093783341 1.3510001 4292205278
-0.10363314 -0.093783341 1.3510001 4292073691
-0.10038266 -0.094199851 1.3570001 4292139484
-0.096956894 -0.094477527 1.3610001 4292205278
-0.093714766 -0.094963446 1.368 4292007899
-0.09043435 -0.095449373 1.3750001 4292007899
-0.087304756 -0.096143544 1.3850001 4292600552
-0.15903339 -0.092222892 1.383 4292271073
-0.15435351 -0.091689423 1.3750001 4292205278
-0.14971738 -0.091155961 1.3670001 4292205278
-0.145125 -0.090622485 1.3590001 4292139485
-0.14099258 -0.090355754 1.355 4292467937
-0.13698336 -0.090155706 1.3520001 4292401630
-0.1333849 -0.090222396 1.353 4284769129
-0.1296851 -0.090222396 1.353 4292204251
-0.12589219 -0.090155706 1.3520001 4292992741
-0.12219513 -0.090155706 1.3520001 4292005332
-0.11841044 -0.090089023 1.3510001 4292334811
-0.11488594 -0.090222396 1.353 4292270044
-0.11110397 -0.090155706 1.3520001 4292205277
-0.10764524 -0.090355754 1.355 4292008668
-0.1040934 -0.090489127 1.3570001 4292007898
-0.10082651 -0.09088923 1.363 4292007898
-0.097384334 -0.091155961 1.3670001 4292139485
-0.094057284 -0.091556057 1.373 4292007899
-0.09069743 -0.091956161 1.3790001 4292205278
-0.15446576 -0.087993421 1.376 4292336864
-0.15004595 -0.087609731 1.3700001 4292271071
-0.14555216 -0.087162085 1.363 4292139485
-0.1414088 -0.086906292 1.3590001 4290560453
-0.13728732 -0.086650498 1.355 4292927974
-0.13348348 -0.08658655 1.3540001 4292730595
-0.1294934 -0.086394705 1.3510001 4292862181
-0.12570597 -0.086330757 1.35 4292599009
-0.12210476 -0.086394705 1.3510001 4292533216
-0.11849808 -0.086458653 1.3520001 4292270044
-0.11497085 -0.08658655 1.3540001 4292270558
-0.1113505 -0.086650498 1.355 4292007386
-0.10772469 -0.086714447 1.3560001 4287072911
-0.10424682 -0.086906292 1.3590001 4292467937
-0.10090049 -0.087226041 1.3640001 4292139485
-0.097526811 -0.087545775 1.3690001 4292139485
-0.094125785 -0.087865524 1.3740001 4292139485
-0.1460861 -0.083741024 1.368 4292271071
-0.14192906 -0.083496168 1.3640001 4286283395
-0.13779393 -0.083251305 1.36 4292204765
-0.13387781 -0.083128877 1.358 4286282881
-0.12987681 -0.082945235 1.355 4292138458
-0.12607843 -0.082884021 1.3540001 4283716954
-0.12246628 -0.082945235 1.355 4288125085
-0.11893632 -0.083067663 1.3570001 4288980394
-0.1153105 -0.083128877 1.358 4283980126
-0.11159703 -0.083128877 1.358 4290033082
-0.10796302 -0.083190091 1.3590001 4283059024
-0.10463035 -0.083496168 1.3640001 4291349456
-0.10127036 -0.083802231 1.3690001 4292205278
-0.14224122 -0.079941735 1.3670001 4292270558
-0.13809788 -0.079707816 1.363 4286217088
-0.13417357 -0.079590857 1.3610001 4289177773
-0.13016436 -0.079415411 1.358 4293585904
-0.12635778 -0.079356939 1.3570001 4283387989
-0.12264705 -0.079356939 1.3570001 4290033082
-0.11902396 -0.079415411 1.358 4286940811
-0.11539541 -0.079473898 1.3590001 4291809493
-0.11184356 -0.079590857 1.3610001 4290164668
-0.10820135 -0.079649337 1.3620001 4286875018
-0.10478377 -0.079883255 1.3660001 4292204765
-0.1192869 -0.075869188 1.3610001 4289770424
