# .PCD v0.7 - Point Cloud Data file format
VERSION 0.7
FIELDS x y z rgba
SIZE 4 4 4 4
TYPE F F F U
COUNT 1 1 1 1
WIDTH 1087
HEIGHT 1
VIEWPOINT 0 0 0 1 0 0 0
POINTS 1087
DATA ascii
0.19428559 -0.066213705 1.317 4283587939
0.19878848 -0.066515356 1.3230001 4283719012
0.20271219 -0.066615909 1.325 4283719010
0.20431101 -0.065962322 1.312 4284113255
0.20710638 -0.065710939 1.307 4287731354
0.21164756 -0.066012599 1.3130001 4294705151
0.21736903 -0.066666186 1.3260001 4294573567
0.22382827 -0.067520879 1.3430001 4294441982
0.22970288 -0.068174466 1.3560001 4287073164
0.23582073 -0.068878338 1.3700001 4289375919
-0.0756687 -0.065607473 1.3800001 4278190080
-0.070748925 -0.064561553 1.358 4278190080
-0.066541828 -0.064086139 1.348 4282337108
-0.062249534 -0.063468099 1.335 4281152834
-0.058247808 -0.063087769 1.327 4281020988
-0.053878237 -0.062232014 1.309 4278190080
-0.050068211 -0.061946765 1.3030001 4289178548
-0.046433765 -0.061851684 1.3010001 4294705151
-0.042942081 -0.061946765 1.3030001 4280954162
-0.039379016 -0.061946765 1.3030001 4282336070
-0.035788462 -0.061899226 1.302 4294573823
-0.032277636 -0.06199431 1.304 4294705151
-0.028954037 -0.06251727 1.3150001 4281679168
-0.025377439 -0.062564805 1.3160001 4281547328
-0.02186157 -0.062802516 1.3210001 4281087290
-0.018359801 -0.063182853 1.3290001 4281547841
-0.014803199 -0.063515641 1.3360001 4280495407
-0.011074782 -0.063087769 1.327 4280297774
-0.0074516991 -0.063135311 1.3280001 4280363054
-0.0038691743 -0.06394352 1.345 4280429101
-0.00019268079 -0.064418934 1.355 4280297515
0.0034970259 -0.064133689 1.3490001 4280231722
0.0071485918 -0.063800894 1.342 4280231722
0.010802181 -0.063705809 1.34 4280560687
0.014498811 -0.063848428 1.3430001 4280626993
0.018130668 -0.063705809 1.34 4280626993
0.021827441 -0.063800894 1.342 4280890164
0.025535151 -0.063895978 1.3440001 4280692272
0.029297268 -0.064086139 1.348 4280429101
0.033105731 -0.06432385 1.353 4280297515
0.036805522 -0.06432385 1.353 4280165929
0.040445436 -0.064228766 1.3510001 4280363308
0.043911055 -0.063895978 1.3440001 4278190080
0.047373801 -0.063610725 1.3380001 4280757296
0.050346036 -0.062754974 1.3200001 4283520601
0.05330158 -0.06199431 1.304 4279507228
0.056562111 -0.061661519 1.2970001 4292929000
0.060294151 -0.061851684 1.3010001 4291284175
0.06468609 -0.062659889 1.3180001 4280362538
0.068445615 -0.062802516 1.3210001 4282138949
0.071839713 -0.062612355 1.317 4281152054
0.075154647 -0.062374644 1.312 4281547582
0.078562275 -0.062232014 1.309 4281679168
0.081325978 -0.061613973 1.296 4281679681
0.084084071 -0.061043475 1.284 4282008646
0.086981192 -0.060615599 1.2750001 4283521631
0.090467699 -0.060615599 1.2750001 4284113768
0.093290985 -0.060187727 1.266 4284508528
0.096523598 -0.060045101 1.263 4284508528
0.099898137 -0.059997559 1.2620001 4284640114
0.10302151 -0.05980739 1.258 4284903286
0.10620764 -0.059664771 1.2550001 4284969592
0.11129933 -0.060568061 1.274 4284969592
0.11505339 -0.060710683 1.2770001 4284706420
0.1178027 -0.06033035 1.2690001 4284640373
0.12079497 -0.060092647 1.2640001 4284706166
0.1237599 -0.059854936 1.2590001 4284837493
0.12689954 -0.059712309 1.256 4284705392
0.13002276 -0.059569687 1.253 4282534477
0.13344911 -0.059569687 1.253 4288060319
0.13698469 -0.059617225 1.2540001 4294573823
0.14074968 -0.059759852 1.2570001 4286086529
0.1446458 -0.05995002 1.261 4290626246
0.14844634 -0.060092647 1.2640001 4294705151
0.15310451 -0.060568061 1.274 4284836210
0.15769447 -0.060995936 1.2830001 4284244843
0.16170543 -0.061186101 1.2870001 4284639601
0.16509637 -0.061138559 1.286 4283981669
0.16874406 -0.061186101 1.2870001 4283455325
0.17279878 -0.06137627 1.291 4282731602
0.1772851 -0.061709061 1.2980001 4283455325
0.18139178 -0.061899226 1.302 4284113768
0.18537827 -0.062041849 1.3050001 4284376940
0.18923636 -0.062136933 1.307 4283521631
0.1936955 -0.062422186 1.3130001 4284047975
0.19788694 -0.062612355 1.317 4284310634
0.20011137 -0.062184475 1.3080001 4283652704
0.20259804 -0.061851684 1.3010001 4289113007
0.20599718 -0.061804146 1.3000001 4289638838
0.21116397 -0.06227956 1.3100001 4281941057
0.21802475 -0.063230395 1.33 4294770687
0.22466157 -0.064086139 1.348 4287862682
0.23021106 -0.064609103 1.3590001 4285494134
0.23599285 -0.065179601 1.3710001 4292797155
-0.075065553 -0.061340973 1.3690001 4278190080
-0.07007166 -0.060265604 1.345 4278190080
-0.065850742 -0.059772726 1.3340001 4283520867
-0.061410215 -0.059011005 1.317 4278190080
-0.057457712 -0.058652543 1.309 4282928985
-0.053713601 -0.058473315 1.3050001 4278190080
-0.050183486 -0.058518123 1.3060001 4280954674
-0.04664791 -0.058562927 1.307 4294639615
-0.043139819 -0.058652543 1.309 4286283907
-0.039711453 -0.058876578 1.314 4280954674
-0.036145795 -0.058921389 1.3150001 4286283910
-0.032549918 -0.058921389 1.3150001 4290626762
-0.02904211 -0.059100617 1.319 4281416255
-0.025493139 -0.059235036 1.322 4281547841
-0.021960866 -0.059459072 1.327 4281482050
-0.018428875 -0.059772726 1.3340001 4281218876
-0.014736718 -0.059593495 1.33 4280495407
-0.011049746 -0.059324648 1.3240001 4280298028
-0.0074685328 -0.059638299 1.3310001 4280429614
-0.0038691743 -0.060265604 1.345 4280298028
-0.0001922542 -0.060579251 1.3520001 4280363308
0.0034996183 -0.060489636 1.35 4280363308
0.0071965335 -0.060534444 1.3510001 4280231722
0.010890856 -0.060534444 1.3510001 4281021238
0.014585178 -0.060534444 1.3510001 4280692273
0.018184789 -0.060220793 1.3440001 4280560686
0.021908764 -0.060355216 1.3470001 4280758065
0.025668146 -0.060534444 1.3510001 4280692272
0.029405938 -0.060624059 1.353 4280297515
0.033105731 -0.060624059 1.353 4280297515
0.036723912 -0.060489636 1.35 4280165929
0.040475376 -0.060579251 1.3520001 4280297515
0.044172432 -0.060579251 1.3520001 4280889652
0.047904894 -0.060624059 1.353 4280954675
0.05137584 -0.060355216 1.3470001 4280691503
0.054773096 -0.060041565 1.34 4278190080
0.05852456 -0.060131181 1.342 4279901987
0.062425993 -0.060355216 1.3470001 4280362538
0.066305697 -0.060534444 1.3510001 4280954675
0.069948204 -0.060489636 1.35 4280429101
0.073912531 -0.060713675 1.355 4280100136
0.077044964 -0.060265604 1.345 4280363308
0.080602854 -0.060175985 1.3430001 4280494894
0.083836034 -0.059862338 1.3360001 4280823859
0.086703509 -0.059324648 1.3240001 4281416509
0.089778237 -0.058966193 1.3160001 4281942853
0.092454433 -0.0583837 1.3030001 4282140489
0.094985843 -0.057756402 1.289 4282271564
0.097287841 -0.057039484 1.273 4283061080
0.10045224 -0.056860257 1.2690001 4284311149
0.1031853 -0.056456994 1.2600001 4284442735
0.10629227 -0.056277763 1.256 4284574834
0.1088532 -0.055829696 1.2460001 4284706420
0.11262077 -0.056008924 1.25 4284969338
0.11798837 -0.056949873 1.271 4285100924
0.12232402 -0.057353139 1.2800001 4285035131
0.12503779 -0.05699468 1.2720001 4285232251
0.12770781 -0.056636225 1.2640001 4285232251
0.13033408 -0.056277763 1.256 4278190080
0.13355561 -0.056188151 1.2540001 4283981669
0.13698469 -0.056188151 1.2540001 4283060053
0.14063771 -0.056277763 1.256 4284639085
0.14453109 -0.056456994 1.2600001 4284836210
0.14797656 -0.056456994 1.2600001 4284836982
0.15238346 -0.056815453 1.268 4284573810
0.1568341 -0.057173908 1.276 4284705907
0.16170543 -0.05766679 1.2870001 4284376942
0.16496798 -0.057577174 1.2850001 4284376940
0.16848183 -0.057577174 1.2850001 4284574319
0.17199567 -0.057577174 1.2850001 4283719264
0.17619245 -0.057801206 1.2900001 4283653471
0.17958064 -0.057756402 1.289 4283126614
0.18381569 -0.057980433 1.294 4285297013
0.18749893 -0.058025245 1.2950001 4284112739
0.19310541 -0.058652543 1.309 4284704876
0.19638437 -0.058562927 1.307 4284902255
0.19919343 -0.058338895 1.302 4283257430
0.2022866 -0.058204472 1.299 4288784042
0.20615563 -0.058294088 1.3010001 4294639103
0.21132518 -0.058742154 1.3110001 4294046455
0.21868047 -0.059772726 1.3340001 4294704895
0.22532824 -0.060579251 1.3520001 4278980885
0.23071925 -0.061027326 1.3620001 4292336863
0.23668139 -0.061609812 1.3750001 4293652723
-0.074572057 -0.057218771 1.36 4278190080
-0.069915362 -0.056461468 1.342 4278190080
-0.065752015 -0.056040745 1.332 4282665813
-0.06131696 -0.055325508 1.3150001 4282994776
-0.057326026 -0.054946855 1.3060001 4283586913
-0.053631276 -0.054820634 1.3030001 4294705151
-0.050145067 -0.054904778 1.3050001 4279638815
-0.04664791 -0.054988924 1.307 4292271071
-0.043172777 -0.055115145 1.3100001 4294244861
-0.03965101 -0.055199288 1.312 4281612604
-0.036145795 -0.055325508 1.3150001 4281810754
-0.032648928 -0.055493798 1.319 4281284410
-0.029218255 -0.055830378 1.327 4281416255
-0.025705261 -0.056082815 1.3330001 4281547843
-0.022126358 -0.056251105 1.337 4281547841
-0.018484134 -0.056293178 1.3380001 4280429360
-0.014836441 -0.056335248 1.3390001 4280363567
-0.011074782 -0.055830378 1.327 4280297774
-0.0074573103 -0.055914525 1.3290001 4280232235
-0.003843284 -0.056209031 1.3360001 4280363821
-0.0001905478 -0.056377321 1.34 4280429101
0.0034736951 -0.056377321 1.34 4280297515
0.0071805529 -0.056713901 1.348 4280363308
0.010890856 -0.056840122 1.3510001 4281152824
0.014563587 -0.056755979 1.3490001 4280758066
0.018130668 -0.056377321 1.34 4281087030
0.021843703 -0.056503538 1.3430001 4280758065
0.025649145 -0.056798048 1.35 4280494893
0.029362468 -0.056840122 1.3510001 4280165928
0.032958917 -0.056671832 1.3470001 4280165929
0.036642302 -0.056671832 1.3470001 4280100136
0.040385563 -0.056755979 1.3490001 4280231722
0.044107087 -0.056798048 1.35 4280363308
0.047692455 -0.056671832 1.3470001 4280494124
0.051261418 -0.056545611 1.3440001 4280559917
0.055059224 -0.056671832 1.3470001 4280494124
0.058917053 -0.056840122 1.3510001 4280296745
0.062657714 -0.056882191 1.3520001 4280165159
0.066207536 -0.056755979 1.3490001 4280165159
0.069689132 -0.056587689 1.345 4280230952
0.073476151 -0.056671832 1.3470001 4279968550
0.076873116 -0.056461468 1.342 4280100136
0.080722883 -0.056587689 1.345 4280034343
0.0845263 -0.056671832 1.3470001 4280100136
0.088537119 -0.056882191 1.3520001 4280165929
0.092097729 -0.056798048 1.35 4279902757
0.095292635 -0.056503538 1.3430001 4280626480
0.098375566 -0.056166958 1.335 4278190080
0.10072692 -0.055451725 1.3180001 4278190080
0.10274784 -0.054610275 1.2980001 4282139719
0.10506884 -0.053979184 1.2830001 4281876806
0.1073078 -0.053348094 1.268 4283061082
0.10963945 -0.052801151 1.2550001 4284047977
0.11289106 -0.052717004 1.253 4284245869
0.11603891 -0.052590784 1.25 4284574834
0.11974374 -0.052717004 1.253 4284838006
0.1259225 -0.053895041 1.281 4284969079
0.12942541 -0.053895041 1.281 4284969079
0.13147554 -0.053306021 1.2670001 4285034870
0.13419463 -0.053011511 1.2600001 4285298042
0.13742164 -0.052927364 1.258 4285165945
0.14153349 -0.053179804 1.2640001 4284836980
0.14510462 -0.053221874 1.2650001 4284902775
0.14868121 -0.053263951 1.266 4285166205
0.15250362 -0.053390164 1.2690001 4284837495
0.15621956 -0.053474311 1.271 4284705909
0.16019769 -0.053642601 1.2750001 4284574321
0.16342743 -0.053558454 1.273 4284509039
0.1673018 -0.053684674 1.276 4284180074
0.17079103 -0.053684674 1.276 4284114022
0.17523636 -0.053979184 1.2830001 4284179815
0.1784661 -0.053895041 1.281 4283587165
0.18211107 -0.053937111 1.2820001 4283915360
0.18532713 -0.053852964 1.2800001 4283915360
0.18941738 -0.054021254 1.284 4287796634
0.19337925 -0.054147474 1.2870001 4282664780
0.19751054 -0.054315764 1.291 4294901759
0.20150797 -0.054441981 1.294 4294835967
0.20615563 -0.054736488 1.3010001 4292335837
0.21180876 -0.055283435 1.314 4294901759
0.21950009 -0.056335248 1.3390001 4281348920
0.22599488 -0.057050481 1.3560001 4281875777
0.23156625 -0.057513282 1.3670001 4282204741
-0.07007166 -0.052909773 1.345 4283257697
-0.065850742 -0.052477051 1.3340001 4283719014
-0.061363585 -0.051768962 1.3160001 4283389534
-0.057282135 -0.051336244 1.3050001 4286415496
-0.053548958 -0.051178891 1.3010001 4294639615
-0.050068211 -0.051257569 1.3030001 4292468450
-0.046540838 -0.051296908 1.304 4280296745
-0.043073907 -0.051414918 1.307 4290363074
-0.039499901 -0.051414918 1.307 4281217847
-0.036090821 -0.051650953 1.3130001 4281218617
-0.032747939 -0.052044332 1.3230001 4281679427
-0.029504493 -0.052713081 1.34 4281942599
-0.025955951 -0.052949108 1.3460001 4280429360
-0.022176007 -0.052713081 1.34 4280363567
-0.018511763 -0.052713081 1.34 4280429360
-0.01482536 -0.052634403 1.3380001 4280166188
-0.011149894 -0.052555729 1.3360001 4280297774
-0.0074348655 -0.052123006 1.325 4280297774
-0.0038317773 -0.052398376 1.332 4280231981
-0.00019012119 -0.052595064 1.337 4280297515
0.003455549 -0.052437712 1.3330001 4280297515
0.0071379384 -0.052713081 1.34 4280296745
0.01085055 -0.052949108 1.3460001 4281349433
0.014520404 -0.052909773 1.345 4280363308
0.018117137 -0.052673738 1.3390001 4280692273
0.021827441 -0.052791756 1.342 4280823859
0.025592148 -0.052988447 1.3470001 4280692272
0.029275533 -0.052988447 1.3470001 4280757295
0.03293445 -0.052949108 1.3460001 4280165928
0.036751114 -0.0531458 1.3510001 4280165928
0.040445436 -0.0531458 1.3510001 4280363308
0.044041745 -0.053027783 1.348 4280560687
0.047621641 -0.052909773 1.345 4280560687
0.051146995 -0.052752417 1.3410001 4280363308
0.055140976 -0.053067125 1.3490001 4280625710
0.058917053 -0.0531458 1.3510001 4280230952
0.062657714 -0.053185135 1.3520001 4280165159
0.066207536 -0.053067125 1.3490001 4280033573
0.069689132 -0.052909773 1.345 4280230952
0.073530696 -0.053027783 1.348 4280230952
0.076873116 -0.052791756 1.342 4280165159
0.079942666 -0.052398376 1.332 4280034343
0.083773285 -0.052516386 1.335 4280034343
0.088013232 -0.05287043 1.3440001 4280034343
0.092370614 -0.053263813 1.3540001 4280034343
0.096286006 -0.053381827 1.3570001 4279902757
0.10014411 -0.053460505 1.3590001 4280100136
0.10347819 -0.053263813 1.3540001 4278190080
0.10662661 -0.052988447 1.3470001 4278190080
0.10949107 -0.052595064 1.337 4282336844
0.11213157 -0.052123006 1.325 4278190080
0.11252241 -0.050667495 1.2880001 4278190080
0.11460289 -0.050038088 1.2720001 4282732115
0.11724572 -0.049684044 1.263 4282995287
0.12031715 -0.049526691 1.2590001 4284113768
0.12317009 -0.049290664 1.253 4284245354
0.12649539 -0.049251325 1.2520001 4284442733
0.13168307 -0.049920071 1.2690001 4284574832
0.13419463 -0.049566027 1.2600001 4284706420
0.13829555 -0.049802061 1.266 4285166971
0.14254124 -0.050077423 1.273 4284969592
0.14682522 -0.050352793 1.2800001 4285298046
0.14962076 -0.050116766 1.274 4285363584
0.15298434 -0.050077423 1.273 4285034619
0.15585081 -0.049880736 1.268 4284903033
0.16019769 -0.050156102 1.2750001 4284837495
0.1629139 -0.049920071 1.2690001 4284705907
0.16703957 -0.050116766 1.274 4284640625
0.1706572 -0.050156102 1.2750001 4284377455
0.17482661 -0.050352793 1.2800001 4283587424
0.17735155 -0.050077423 1.273 4283981669
0.18069053 -0.050038088 1.2720001 4283191637
0.18402405 -0.049998749 1.271 4294573823
0.18794218 -0.050116766 1.274 4294770687
0.19202696 -0.050274115 1.2780001 4294770175
0.1965926 -0.050549485 1.2850001 4286282881
0.20135222 -0.05086419 1.2930001 4283782234
0.20615563 -0.051178891 1.3010001 4294901247
0.21196994 -0.051729627 1.3150001 4291415249
0.22064762 -0.052949108 1.3460001 4281612607
0.22749485 -0.053696532 1.365 4282599502
-0.070853122 -0.049780905 1.36 4278190080
-0.066146925 -0.049048837 1.34 4283981931
-0.06131696 -0.04813375 1.3150001 4284179565
-0.057194345 -0.047694501 1.3030001 4282007881
-0.05342548 -0.047511488 1.2980001 4288323493
-0.049837664 -0.04747488 1.2970001 4294639615
-0.046326693 -0.047511488 1.2980001 4294705151
-0.042909127 -0.0476579 1.302 4279770401
-0.039469678 -0.047804315 1.3060001 4280757296
-0.036090821 -0.04806054 1.3130001 4282337098
-0.032673679 -0.048316762 1.3200001 4280823859
-0.029108161 -0.048389971 1.322 4280823605
-0.025550991 -0.048499782 1.325 4280692532
-0.021944316 -0.048536383 1.3260001 4280560948
-0.018263098 -0.048389971 1.322 4280692534
-0.014648075 -0.048389971 1.322 4280363567
-0.011008017 -0.048280161 1.319 4280297774
-0.0074011981 -0.048280161 1.319 4280231983
-0.0037972566 -0.048316762 1.3200001 4280231981
-0.0001875616 -0.048280161 1.319 4280231722
0.0033933336 -0.047914121 1.309 4280231722
0.0070100948 -0.04817035 1.3160001 4280165929
0.01072963 -0.048719402 1.3310001 4280297515
0.014434038 -0.048939023 1.337 4280692273
0.018117137 -0.049012233 1.3390001 4280692273
0.02195756 -0.049414873 1.35 4280560687
0.025573151 -0.049268458 1.3460001 4280494894
0.029210333 -0.049195252 1.3440001 4280626479
0.032812107 -0.049085438 1.3410001 4280626479
0.03653349 -0.049158644 1.3430001 4280429100
0.040205937 -0.049158644 1.3430001 4280494894
0.043878384 -0.049158644 1.3430001 4280428847
0.047480021 -0.049085438 1.3410001 4280363308
0.051223278 -0.049158644 1.3430001 4280231722
0.054936599 -0.049195252 1.3440001 4280034343
0.058655389 -0.049231857 1.345 4280100136
0.062240619 -0.049158644 1.3430001 4279968549
0.065863982 -0.049122043 1.342 4279902757
0.069481887 -0.049085438 1.3410001 4280034343
0.072985217 -0.048975632 1.3380001 4280230439
0.076414861 -0.048829217 1.3340001 4280165159
0.079582557 -0.048536383 1.3260001 4280230952
0.083020262 -0.048426576 1.3230001 4279902757
0.087292887 -0.048792612 1.3330001 4279968550
0.091620184 -0.049158644 1.3430001 4279968550
0.09586028 -0.049451478 1.3510001 4279902757
0.099628292 -0.049488079 1.3520001 4280100136
0.10347819 -0.049561284 1.3540001 4280231722
0.10694325 -0.049451478 1.3510001 4280296745
0.11071946 -0.049488079 1.3520001 4280033573
0.11407801 -0.049341664 1.348 4280888882
0.1168905 -0.048975632 1.3380001 4278190080
0.11829687 -0.04806054 1.3130001 4278190080
0.119845 -0.047255259 1.291 4281876806
0.12251515 -0.046925828 1.2820001 4281811015
0.12444799 -0.046340171 1.266 4283192666
0.12720264 -0.046083946 1.2590001 4284244841
0.13002276 -0.045864325 1.253 4284377453
0.1331296 -0.045754511 1.25 4284311660
0.13709393 -0.045937531 1.2550001 4284772213
0.14119758 -0.046157151 1.261 4285101178
0.14579287 -0.046523187 1.271 4285561218
0.1489161 -0.046413377 1.268 4285692804
0.15166241 -0.046193752 1.2620001 4285692804
0.15523626 -0.046230357 1.263 4285495425
0.15931818 -0.046413377 1.268 4285100667
0.16278553 -0.046413377 1.268 4284640116
0.16572843 -0.046266966 1.2640001 4284574834
0.16972025 -0.046413377 1.268 4284706420
0.17428027 -0.046706207 1.276 4284376942
0.17665496 -0.046413377 1.268 4283850596
0.17998028 -0.046376772 1.2670001 4283520602
0.18330011 -0.046340171 1.266 4294443007
0.18690953 -0.046376772 1.2670001 4294507773
0.19007364 -0.046303567 1.2650001 4294770175
0.19429775 -0.046486586 1.2700001 4294967295
0.19901636 -0.046779413 1.2780001 4294966783
0.2047295 -0.04729186 1.2920001 4289769397
0.21245353 -0.048243556 1.3180001 4280033060
0.22212297 -0.049597893 1.355 4282138951
-0.066097558 -0.045350723 1.3390001 4282797657
-0.061223701 -0.044470128 1.3130001 4278190080
-0.05723824 -0.044165306 1.304 4283981671
-0.053507797 -0.044029828 1.3000001 4282796881
-0.049876086 -0.043962091 1.2980001 4284112738
-0.046362385 -0.043995962 1.299 4290428866
-0.042942081 -0.044131435 1.3030001 4285428599
-0.039530125 -0.044300783 1.3080001 4294047482
-0.035925899 -0.044266913 1.307 4294508031
-0.032302387 -0.044199176 1.3050001 4283191637
-0.028689817 -0.044131435 1.3030001 4281349951
-0.025261737 -0.04436852 1.3100001 4280955193
-0.021795372 -0.044605602 1.317 4280823607
-0.018221654 -0.044673342 1.319 4280495155
-0.014537273 -0.044436257 1.312 4280429362
-0.010957942 -0.044470128 1.3130001 4280560946
-0.0073955869 -0.044639472 1.3180001 4280560946
-0.0038030101 -0.04477495 1.322 4280626739
-0.0001874194 -0.044639472 1.3180001 4280231981
0.0033985183 -0.044402391 1.3110001 4280298028
0.0069941143 -0.044470128 1.3130001 4280297515
0.010649016 -0.044741083 1.3210001 4280231722
0.014380057 -0.045113642 1.332 4280166442
0.018117137 -0.045350723 1.3390001 4280165929
0.021892499 -0.045587808 1.3460001 4280034343
0.02555415 -0.045553941 1.345 4280165929
0.029123396 -0.045384593 1.34 4280297515
0.032591894 -0.045113642 1.332 4280231722
0.03615265 -0.045012034 1.3290001 4280165929
0.039846689 -0.045079771 1.3310001 4280165929
0.043878384 -0.045486197 1.3430001 4280165929
0.047692455 -0.045621678 1.3470001 4280100136
0.051261418 -0.045520071 1.3440001 4280034343
0.054650471 -0.045282986 1.337 4279968550
0.0582629 -0.045249119 1.3360001 4279969063
0.061823517 -0.045181379 1.3340001 4279903269
0.065569513 -0.045249119 1.3360001 4280034343
0.069222815 -0.045249119 1.3360001 4279968550
0.073094308 -0.045384593 1.34 4279968550
0.076758556 -0.045384593 1.34 4279968550
0.080122717 -0.045215245 1.335 4280100136
0.08339677 -0.045012034 1.3290001 4280034343
0.08703094 -0.045012034 1.3290001 4279902757
0.09114264 -0.045249119 1.3360001 4280034343
0.095292635 -0.045486197 1.3430001 4279968550
0.098375566 -0.045215245 1.335 4280034342
0.10179687 -0.045113642 1.332 4279902757
0.10536008 -0.045079771 1.3310001 4280230952
0.10899971 -0.045079771 1.3310001 4280165929
0.11348561 -0.04541846 1.3410001 4280165929
0.11706523 -0.045384593 1.34 4280231722
0.12009879 -0.045147508 1.3330001 4278190080
0.12281559 -0.04480882 1.3230001 4278190080
0.12633778 -0.04477495 1.322 4281087290
0.12867489 -0.04433465 1.309 4278190080
0.13053678 -0.043758877 1.2920001 4281679681
0.13220192 -0.043149233 1.274 4281943110
0.13451414 -0.042776674 1.263 4282930005
0.13709393 -0.042505719 1.2550001 4283587937
0.14041376 -0.042471848 1.2540001 4284311660
0.1446458 -0.042708933 1.261 4285034872
0.14821145 -0.042742804 1.2620001 4285495425
0.15106152 -0.042573459 1.2570001 4285626498
0.15474463 -0.042641196 1.2590001 4285626498
0.15831301 -0.042675067 1.2600001 4285166460
0.1617585 -0.042675067 1.2600001 4284771702
0.16520397 -0.042675067 1.2600001 4284706166
0.16958641 -0.042912148 1.2670001 4284640373
0.17387052 -0.043115366 1.273 4284311149
0.1769336 -0.043013755 1.2700001 4283916391
0.18012233 -0.042946018 1.268 4282797649
0.18358968 -0.042946018 1.268 4286020735
0.18720455 -0.042979885 1.2690001 4288389537
0.19037415 -0.042912148 1.2670001 4282665033
0.19399177 -0.042946018 1.268 4289572528
0.1979263 -0.043047626 1.271 4294770175
0.20377874 -0.043555662 1.286 4294835967
0.2132595 -0.04480882 1.3230001 4282204231
-0.061736621 -0.041222196 1.3240001 4278190080
-0.057501607 -0.040786315 1.3100001 4291021522
-0.053631276 -0.04056837 1.3030001 4294639359
-0.050029788 -0.040537234 1.302 4294639615
-0.04657653 -0.040630642 1.3050001 4294573823
-0.042909127 -0.040537234 1.302 4294508031
-0.03913724 -0.040319294 1.2950001 4294047482
-0.035431124 -0.040132489 1.289 4282204742
-0.031881589 -0.040101349 1.2880001 4281020468
-0.028403576 -0.040163621 1.2900001 4280823091
-0.02497248 -0.040319294 1.2950001 4283191385
-0.021514036 -0.040474966 1.3000001 4280692021
-0.017945359 -0.04044383 1.299 4281020986
-0.01438215 -0.040412698 1.2980001 4281086779
-0.010857794 -0.040506102 1.3010001 4281218365
-0.0073506972 -0.040786315 1.3100001 4281218365
-0.0037771198 -0.040879715 1.3130001 4280889911
-0.00018670839 -0.040879715 1.3130001 4280889911
0.0033855566 -0.040661775 1.3060001 4280889911
0.0069621531 -0.040692911 1.307 4280626739
0.010552281 -0.040755179 1.309 4280495407
0.014207324 -0.040973119 1.3160001 4280429614
0.017873591 -0.041128796 1.3210001 4280494894
0.021550938 -0.041253332 1.325 4280494894
0.025117166 -0.041159928 1.322 4280363308
0.028732188 -0.041159928 1.322 4280231722
0.032273803 -0.041066524 1.319 4280166442
0.03607104 -0.041284468 1.3260001 4280165929
0.039906565 -0.041502409 1.3330001 4280231722
0.043715026 -0.041658081 1.3380001 4280100136
0.047373801 -0.041658081 1.3380001 4280165929
0.050841868 -0.041502409 1.3330001 4280034856
0.054159965 -0.041253332 1.325 4280166442
0.057783194 -0.041253332 1.325 4279969063
0.061267383 -0.041159928 1.322 4279903270
0.065029643 -0.041253332 1.325 4280165929
0.068756498 -0.0413156 1.327 4279968550
0.072603382 -0.041440137 1.3310001 4280165159
0.076472148 -0.041564677 1.335 4279968550
0.080182731 -0.041595813 1.3360001 4280100136
0.08364778 -0.041502409 1.3330001 4280034343
0.087423854 -0.041564677 1.335 4279968550
0.091210864 -0.041626949 1.337 4279968550
0.09500882 -0.041689217 1.3390001 4280034343
0.097933434 -0.041377869 1.3290001 4280034343
0.10103262 -0.041159928 1.322 4280099366
0.10433101 -0.041035388 1.3180001 4280099366
0.10842645 -0.041222196 1.3240001 4280099366
0.11272397 -0.041471273 1.332 4280034343
0.11601689 -0.041346736 1.3280001 4280100136
0.1198285 -0.041409004 1.33 4280297515
0.12374389 -0.041502409 1.3330001 4280231722
0.1279624 -0.041689217 1.3390001 4280297515
0.1314273 -0.041626949 1.337 4280100136
0.13387093 -0.041253332 1.325 4278190080
0.13541876 -0.040630642 1.3050001 4278190080
0.13728324 -0.040132489 1.289 4281482302
0.13971564 -0.03982114 1.279 4281811267
0.14164546 -0.039385255 1.2650001 4281811267
0.14441638 -0.039198451 1.2590001 4282929496
0.14738935 -0.039073911 1.2550001 4284837493
0.14997993 -0.038855966 1.248 4285100665
0.15351552 -0.038887102 1.2490001 4285232253
0.15655398 -0.038793698 1.2460001 4285165947
0.16047469 -0.038918238 1.25 4285100667
0.1644173 -0.039042775 1.2540001 4285100667
0.17038949 -0.039634336 1.273 4284574323
0.17537294 -0.039976813 1.284 4283982186
0.17804815 -0.039790004 1.2780001 4283193181
0.18097463 -0.039665468 1.274 4282797395
0.1844584 -0.039665468 1.274 4283520601
0.18808968 -0.039696604 1.2750001 4282994257
0.19082493 -0.039540928 1.2700001 4284046688
0.19399177 -0.03947866 1.268 4283980895
0.1979263 -0.039572064 1.271 4293454832
0.20409566 -0.040101349 1.2880001 4280823091
0.2158386 -0.041689217 1.3390001 4282599250
-0.058994014 -0.038169708 1.3440001 4278190080
-0.054989554 -0.03794251 1.3360001 4294639359
-0.051105697 -0.037772108 1.33 4283125846
-0.046754982 -0.037204105 1.3100001 4283520604
-0.042645477 -0.036749706 1.294 4281283642
-0.038955908 -0.036607705 1.289 4282599502
-0.035348665 -0.0365225 1.286 4283520602
-0.031856839 -0.036550902 1.2870001 4281612605
-0.02838156 -0.036607705 1.289 4294573823
-0.024933912 -0.036721304 1.2930001 4294310655
-0.021464387 -0.036834903 1.2970001 4284902257
-0.017945359 -0.036891703 1.299 4281809986
-0.01441539 -0.036948502 1.3010001 4280757298
-0.010891177 -0.037062105 1.3050001 4281086263
-0.0073506972 -0.037204105 1.3100001 4281612607
-0.0037627362 -0.037147306 1.3080001 4281218363
-0.00018685059 -0.037317704 1.314 4281152570
0.003395926 -0.037204105 1.3100001 4281350462
0.0069674803 -0.037147306 1.3080001 4281087544
0.010560341 -0.037204105 1.3100001 4281021751
0.014153345 -0.037232503 1.3110001 4281284410
0.017778879 -0.037317704 1.314 4281021238
0.021372024 -0.037317704 1.314 4280692273
0.025041167 -0.037431303 1.3180001 4280692273
0.028645249 -0.037431303 1.3180001 4280626739
0.032224867 -0.037402906 1.317 4280495153
0.03607104 -0.037658505 1.3260001 4280363821
0.039816752 -0.037772108 1.33 4280429614
0.043518994 -0.037828907 1.332 4280166442
0.04698433 -0.037686907 1.327 4280298028
0.050384175 -0.037516508 1.3210001 4280100649
0.053873837 -0.037431303 1.3180001 4280232235
0.057521533 -0.037459705 1.319 4280100649
0.061035663 -0.037402906 1.317 4280100649
0.064931482 -0.037573308 1.3230001 4280166442
0.068756498 -0.037686907 1.327 4280100136
0.072821572 -0.037914105 1.335 4280296745
0.076586708 -0.037970908 1.337 4280100136
0.080242746 -0.037970908 1.337 4280100136
0.083898783 -0.037970908 1.337 4280100136
0.087554827 -0.037970908 1.337 4280034343
0.091415524 -0.038056109 1.34 4280034343
0.094937861 -0.03799931 1.3380001 4280100136
0.098228186 -0.037857305 1.3330001 4280100136
0.10118547 -0.037601706 1.3240001 4280034343
0.10464764 -0.037544906 1.322 4279968550
0.10842645 -0.037601706 1.3240001 4280034343
0.11247008 -0.037743706 1.3290001 4280034343
0.11592952 -0.037686907 1.327 4280034343
0.1200087 -0.037828907 1.332 4280034343
0.1234654 -0.037772108 1.33 4279902757
0.12672004 -0.037658505 1.3260001 4280034343
0.1298545 -0.037516508 1.3210001 4279968550
0.13336575 -0.037488103 1.3200001 4280100136
0.13687153 -0.037459705 1.319 4278190080
0.13951983 -0.037204105 1.3100001 4280034343
0.14244659 -0.037033707 1.304 4280758579
0.1447807 -0.036721304 1.2930001 4281350716
0.14716935 -0.036437303 1.2830001 4281811013
0.15020795 -0.036323704 1.279 4281745220
0.15454663 -0.0365225 1.286 4282337357
0.15769447 -0.036437303 1.2830001 4284179563
0.15730785 -0.035556901 1.2520001 4285298044
0.16098821 -0.035613701 1.2540001 4284508530
0.16520397 -0.035784103 1.2600001 4284376944
0.17119259 -0.036323704 1.279 4283719014
0.17673878 -0.036749706 1.294 4283587428
0.18097383 -0.036891703 1.299 4282929498
0.18409979 -0.036806505 1.296 4282731604
0.18822287 -0.036920104 1.3000001 4284112739
0.19148268 -0.036863305 1.2980001 4281809984
0.19413054 -0.036692902 1.2920001 4281415226
0.19674559 -0.0365225 1.286 4281809984
0.20104079 -0.036664505 1.291 4283520604
0.20900789 -0.037459705 1.319 4281743939
-0.046754982 -0.033621896 1.3100001 4278190080
-0.042678431 -0.033236913 1.2950001 4278190080
-0.038955908 -0.033082921 1.289 4281612353
-0.035348665 -0.033005923 1.286 4281151543
-0.031832088 -0.033005923 1.286 4294704895
-0.028425597 -0.033134252 1.291 4294770687
-0.024953198 -0.03321125 1.294 4294573823
-0.02143129 -0.033236913 1.2950001 4289441972
-0.017862469 -0.033185583 1.2930001 4286744459
-0.014326748 -0.033185583 1.2930001 4294639615
-0.010807719 -0.033236913 1.2950001 4294573823
-0.007294585 -0.033365242 1.3000001 4283060053
-0.0037397225 -0.033365242 1.3000001 4281481537
-0.00018542859 -0.033467904 1.304 4281349951
0.0033855566 -0.033519235 1.3060001 4281218876
0.0069621531 -0.033544902 1.307 4291482838
0.010552281 -0.033596233 1.309 4293324529
0.014131754 -0.033596233 1.309 4291350738
0.017738286 -0.033647563 1.3110001 4281415995
0.021323228 -0.033647563 1.3110001 4280100649
0.024984168 -0.033750225 1.3150001 4281613888
0.028601784 -0.033775888 1.3160001 4281547841
0.032078058 -0.033647563 1.3110001 4281153596
0.035799012 -0.033775888 1.3160001 4280889911
0.039427567 -0.033801556 1.317 4280495153
0.04312693 -0.03387855 1.3200001 4280692786
0.046559449 -0.033750225 1.3150001 4280561200
0.050079048 -0.033698894 1.3130001 4280823859
0.053751212 -0.033750225 1.3150001 4280560687
0.057390705 -0.033775888 1.3160001 4280560687
0.06098932 -0.033775888 1.3160001 4280429101
0.064882405 -0.033929884 1.322 4280231722
0.068963751 -0.034160875 1.3310001 4280362538
0.072821572 -0.034263536 1.335 4280165159
0.076243013 -0.034160875 1.3310001 4280230952
0.079762608 -0.034109544 1.3290001 4280165159
0.083522275 -0.034160875 1.3310001 4280363308
0.087423854 -0.034263536 1.335 4280297515
0.10187329 -0.034212206 1.3330001 4280100136
0.10567671 -0.034263536 1.335 4279968550
0.10891781 -0.034135208 1.33 4279902757
0.11247008 -0.034109544 1.3290001 4280034343
0.11566743 -0.033981215 1.3240001 4280099366
0.1198285 -0.034135208 1.33 4280099366
0.12300125 -0.034006882 1.325 4280034343
0.12605108 -0.033852886 1.319 4279968550
0.12906811 -0.033698894 1.3130001 4279968550
0.13245644 -0.033647563 1.3110001 4280034343
0.13645646 -0.033750225 1.3150001 4279902757
0.13973282 -0.033673227 1.312 4279902757
0.14321126 -0.033647563 1.3110001 4280034343
0.14590043 -0.033442236 1.3030001 4280034343
0.14911938 -0.033365242 1.3000001 4280692273
0.15196958 -0.03321125 1.294 4281284410
0.15526769 -0.033159919 1.2920001 4281679168
0.15830904 -0.033057254 1.2880001 4282074185
0.16157979 -0.033005923 1.286 4282337357
0.16483961 -0.032954592 1.284 4282468943
0.16835073 -0.032954592 1.284 4282534736
0.17146029 -0.032877594 1.281 4282732115
0.17564611 -0.033005923 1.286 4282534225
0.17958064 -0.033082921 1.289 4282862420
0.18381569 -0.03321125 1.294 4283915108
0.18923636 -0.033544902 1.307 4284573292
0.1936955 -0.033698894 1.3130001 4281152056
0.19758642 -0.033750225 1.3150001 4281349949
0.20179425 -0.033852886 1.319 4282205258
-0.047575872 -0.030567102 1.3330001 4278190080
-0.043205731 -0.030062621 1.3110001 4278190080
-0.039318569 -0.029833309 1.3010001 4291415510
-0.035733487 -0.029810378 1.3000001 4294704895
-0.032376647 -0.029993828 1.3080001 4294770687
-0.028932016 -0.030131413 1.314 4293652724
-0.024991764 -0.029718654 1.296 4285297013
-0.021315444 -0.029535204 1.2880001 4284639083
-0.017751951 -0.029466411 1.2850001 4294770687
-0.014238106 -0.029466411 1.2850001 4294770687
-0.010757645 -0.029558139 1.289 4288520359
-0.0072777513 -0.029741585 1.2970001 4282599502
-0.0037397225 -0.029810378 1.3000001 4281678916
-0.00018514421 -0.02985624 1.302 4281613636
0.0033803722 -0.029902104 1.304 4281613636
0.0069781337 -0.03003969 1.3100001 4281350203
0.010592586 -0.030131413 1.314 4281481019
0.014131754 -0.030016759 1.309 4287007630
0.017711228 -0.030016759 1.309 4293521137
0.021241905 -0.029947966 1.3060001 4293324529
0.024756176 -0.029879171 1.3030001 4281811013
0.028210575 -0.029764516 1.2980001 4281614147
0.031686563 -0.029695723 1.2950001 4281614147
0.035390969 -0.029833309 1.3010001 4281614147
0.039128192 -0.029970897 1.307 4281219387
0.042996243 -0.030177275 1.3160001 4280890165
0.046665668 -0.030223137 1.3180001 4281153337
0.050384175 -0.030291932 1.3210001 4281219130
0.053832963 -0.030200206 1.317 4281021238
0.057347093 -0.030154344 1.3150001 4280889652
0.060896628 -0.030131413 1.314 4280692273
0.064784251 -0.030268999 1.3200001 4280429101
0.068860121 -0.03047538 1.3290001 4280428331
0.076128446 -0.03047538 1.3290001 4280230952
0.079162441 -0.030246068 1.319 4280494124
0.082581006 -0.030177275 1.3160001 4280428331
0.086572535 -0.030314863 1.322 4280363308
0.090869769 -0.030544171 1.332 4280297515
0.094441175 -0.030521242 1.3310001 4280297515
0.098301873 -0.030590033 1.3340001 4280165929
0.10187329 -0.030567102 1.3330001 4280230952
0.10859025 -0.030406587 1.3260001 4280362025
0.11162381 -0.030246068 1.319 4280296232
0.1150559 -0.030200206 1.317 4280230952
0.11919784 -0.030337794 1.3230001 4280230439
0.1225371 -0.030268999 1.3200001 4280165159
0.12528655 -0.030062621 1.3110001 4280099366
0.1282817 -0.029925035 1.3050001 4279902757
0.13144609 -0.029833309 1.3010001 4280034343
0.13406977 -0.02962693 1.2920001 4280100136
0.13621821 -0.029328827 1.279 4279968550
0.13916945 -0.029214172 1.274 4280100136
0.14343703 -0.029374689 1.281 4279902757
0.14785759 -0.029558139 1.289 4280100136
0.15173469 -0.02962693 1.2920001 4280296745
0.15526769 -0.02962693 1.2920001 4280100136
0.15867777 -0.029603999 1.291 4280429101
0.16208237 -0.02958107 1.2900001 4282337098
0.1656099 -0.02958107 1.2900001 4283323993
0.16887519 -0.029535204 1.2880001 4283323993
0.17373571 -0.029764516 1.2980001 4283717981
0.17796803 -0.029879171 1.3030001 4283586395
0.18292426 -0.030108482 1.3130001 4284178534
0.18722494 -0.030223137 1.3180001 4284375659
0.18981552 -0.030062621 1.3110001 4280494642
0.19561328 -0.030406587 1.3260001 4282139467
-0.028645778 -0.026275711 1.3010001 4282599502
-0.024798928 -0.025972763 1.286 4278190080
-0.021199599 -0.025871782 1.281 4284375913
-0.017696692 -0.025871782 1.281 4283322710
-0.014204866 -0.025891978 1.2820001 4281743678
-0.010732608 -0.025972763 1.286 4281875264
-0.0072496952 -0.026093945 1.2920001 4282533707
-0.0036994484 -0.025972763 1.286 4282534223
-0.00018230021 -0.025891978 1.2820001 4281876808
0.0033181566 -0.025851585 1.2800001 4281876808
0.0068449634 -0.025952566 1.2850001 4282074185
0.01043136 -0.026134336 1.294 4282337098
0.014023794 -0.02623532 1.299 4281613374
0.017630044 -0.026316104 1.3030001 4282139718
0.021144316 -0.026255514 1.3000001 4287469465
0.024585182 -0.026134336 1.294 4282074439
0.027971501 -0.02599296 1.2870001 4281877060
0.031392939 -0.025912175 1.2830001 4281811267
0.034928519 -0.02593237 1.284 4281877060
0.038529441 -0.02599296 1.2870001 4281811267
0.042212117 -0.026093945 1.2920001 4280626480
0.045815915 -0.026134336 1.294 4280494894
0.049468793 -0.026194926 1.2970001 4281021238
0.052933704 -0.026154533 1.2950001 4281152824
0.056518503 -0.02617473 1.296 4281613375
0.060062427 -0.02617473 1.296 4280758579
0.063998982 -0.026336303 1.304 4280758579
0.067772038 -0.02641709 1.3080001 4280494894
0.071948804 -0.026639249 1.319 4280625710
0.075383782 -0.026578661 1.3160001 4280428331
0.078682311 -0.026477678 1.3110001 4280494124
0.082204498 -0.026457481 1.3100001 4280428331
0.085983157 -0.026518071 1.3130001 4280362538
0.089778237 -0.026578661 1.3160001 4280429101
0.093022071 -0.026477678 1.3110001 4280758066
0.096828081 -0.026538268 1.314 4280494894
0.10103262 -0.026699841 1.322 4280100136
0.10472681 -0.026720038 1.3230001 4280100136
0.10793509 -0.026619053 1.3180001 4280165159
0.11086217 -0.026457481 1.3100001 4280296745
0.11409492 -0.026376696 1.3060001 4280230952
0.11766619 -0.026376696 1.3060001 4280230952
0.12142312 -0.02641709 1.3080001 4280230952
0.12404419 -0.026215123 1.2980001 4280165929
0.1269055 -0.026073748 1.291 4280100135
0.12962747 -0.025912175 1.2830001 4280034342
0.13220192 -0.025730407 1.274 4279902756
0.13494016 -0.02558903 1.2670001 4278190080
0.13807707 -0.02552844 1.2640001 4280034342
0.14254124 -0.02571021 1.273 4280165158
0.14693993 -0.025871782 1.281 4280230951
0.1511475 -0.02599296 1.2870001 4280230952
0.15442646 -0.025952566 1.2850001 4281283640
0.1579403 -0.025952566 1.2850001 4282863441
0.16145414 -0.025952566 1.2850001 4282008132
0.16548151 -0.026033355 1.289 4283389015
0.1691374 -0.026053552 1.2900001 4280296744
0.17386957 -0.02623532 1.299 4281152054
0.17933385 -0.026518071 1.3130001 4281217847
0.18487471 -0.026800822 1.327 4281415228
-0.02877789 -0.022822889 1.307 4278190080
-0.024895346 -0.022543496 1.291 4283125592
-0.021265795 -0.022438722 1.2850001 4280757044
-0.017738137 -0.022421259 1.284 4283520091
-0.014249187 -0.022456184 1.286 4294770687
-0.010757645 -0.022508573 1.289 4294704895
-0.0071991943 -0.022403799 1.2830001 4294508031
-0.0036678046 -0.022264102 1.2750001 4283388764
-0.0001811626 -0.02224664 1.274 4284639601
0.0033026028 -0.02224664 1.274 4283521120
0.0067970217 -0.022281565 1.276 4282665811
0.010302379 -0.022316489 1.2780001 4282402637
0.013861857 -0.022421259 1.284 4282140232
0.017481212 -0.022560958 1.2920001 4282074439
0.021046728 -0.022595882 1.294 4281942853
0.024509186 -0.022526033 1.2900001 4282008646
0.027928034 -0.022438722 1.2850001 4281744961
0.031344004 -0.022368874 1.281 4282796879
0.034819707 -0.022351412 1.2800001 4281283639
0.038349818 -0.022368874 1.281 4282138948
0.041885398 -0.022386337 1.2820001 4290297280
0.045284823 -0.02233395 1.279 4288323491
0.048705976 -0.022299027 1.2770001 4281021238
0.052075319 -0.02224664 1.274 4280823859
0.055689916 -0.022299027 1.2770001 4281284410
0.059089191 -0.022264102 1.2750001 4281679168
0.06257569 -0.022264102 1.2750001 4281152824
0.06606219 -0.022264102 1.2750001 4280889652
0.069603242 -0.022281565 1.276 4280692273
0.073207043 -0.022316489 1.2780001 4280954675
0.076521695 -0.022264102 1.2750001 4280757296
0.079945445 -0.02224664 1.274 4280691503
0.083363719 -0.022229178 1.273 4280559917
0.086503655 -0.022141868 1.268 4280691503
0.089758143 -0.022089481 1.2650001 4280363308
0.093438372 -0.022141868 1.268 4280297515
0.097669967 -0.022316489 1.2780001 4280165929
0.1018771 -0.022473646 1.2870001 4280363308
0.10621534 -0.022648267 1.2970001 4280625710
0.10967737 -0.022630805 1.296 4280757296
0.11260976 -0.022508573 1.289 4280757296
0.11595435 -0.022473646 1.2870001 4280559917
0.11938083 -0.022456184 1.286 4280559917
0.12241959 -0.022368874 1.281 4280231722
0.1253327 -0.022264102 1.2750001 4280034342
0.12831402 -0.022176793 1.2700001 4280165928
0.13137177 -0.022106944 1.266 4279837217
0.13451414 -0.022054559 1.263 4278849298
0.13764012 -0.022002172 1.2600001 4282138948
0.14175743 -0.022106944 1.266 4292139484
0.14579287 -0.022194255 1.271 4286941838
0.15056027 -0.022386337 1.2820001 4284902255
0.15406592 -0.022386337 1.2820001 4284573290
0.15818612 -0.022473646 1.2870001 4281152823
0.16157979 -0.022456184 1.286 4280100135
0.16573827 -0.022543496 1.291 4280297514
0.16953075 -0.02257842 1.2930001 4280494123
0.17467265 -0.022787964 1.3050001 4280954677
-0.025146034 -0.0192047 1.304 4283060569
-0.021464387 -0.019101609 1.2970001 4294639615
-0.017890099 -0.019072153 1.2950001 4294639103
-0.014359989 -0.019086881 1.296 4294770687
-0.010715916 -0.018910149 1.284 4285888637
-0.007165527 -0.018807057 1.2770001 4284573292
-0.003664928 -0.018762875 1.274 4284178534
-0.00018102041 -0.018748147 1.273 4282665295
0.0033000105 -0.018748147 1.273 4283060053
0.0067863683 -0.018762875 1.274 4286152324
0.010286257 -0.018792331 1.276 4284112741
0.013840266 -0.018880695 1.2820001 4282073158
0.017359437 -0.018895423 1.2830001 4282731602
0.020932872 -0.018954333 1.2870001 4282863188
0.024490187 -0.018983787 1.289 4282402891
0.027928034 -0.018924879 1.2850001 4289113777
0.031295069 -0.018836513 1.279 4294705151
0.034683693 -0.018777601 1.2750001 4294639615
0.03811032 -0.018748147 1.273 4294639615
0.04159135 -0.018748147 1.273 4293718770
0.044966161 -0.018703965 1.2700001 4285494645
0.048438989 -0.018703965 1.2700001 4281481018
0.051870942 -0.018689238 1.2690001 4281086260
0.055515472 -0.018748147 1.273 4281481788
0.05895016 -0.018733419 1.2720001 4281284409
0.062330298 -0.018703965 1.2700001 4282138949
0.065699503 -0.01867451 1.268 4282073156
0.069112308 -0.018659782 1.2670001 4281678398
0.07263422 -0.01867451 1.268 4281349433
0.076041557 -0.018659782 1.2670001 4281217847
0.079568937 -0.01867451 1.268 4281152054
0.082774349 -0.0186156 1.2640001 4281086261
0.08602611 -0.018571418 1.261 4281217847
0.089403361 -0.01855669 1.2600001 4281086261
0.092922539 -0.018571418 1.261 4280954675
0.096752875 -0.018645054 1.266 4280954675
0.1005314 -0.018703965 1.2700001 4280954675
0.10482316 -0.018851239 1.2800001 4280955445
0.10705392 -0.018630328 1.2650001 4280823859
0.11068779 -0.018659782 1.2670001 4280889652
0.11370194 -0.018586146 1.2620001 4280823859
0.1178027 -0.018689238 1.2690001 4280888882
0.12136836 -0.018703965 1.2700001 4280626480
0.12474289 -0.018689238 1.2690001 4280758066
0.12780885 -0.018630328 1.2650001 4282008133
0.13106045 -0.018600872 1.263 4289903293
0.13472717 -0.018630328 1.2650001 4289705144
0.13807707 -0.0186156 1.2640001 4287402389
0.14175743 -0.018645054 1.266 4289376179
0.14533404 -0.018659782 1.2670001 4283652188
0.15009052 -0.018821785 1.2780001 4282335815
0.15490715 -0.018983787 1.289 4281941057
0.15978396 -0.01914579 1.3000001 4280692273
0.16333883 -0.01914579 1.3000001 4280889652
0.16727883 -0.019189974 1.3030001 4281415996
0.17136635 -0.019248882 1.307 4281613375
0.17614499 -0.01938143 1.3160001 4282007881
-0.014470791 -0.015662886 1.3060001 4279967269
-0.010732608 -0.015423026 1.286 4281217595
-0.0071879718 -0.015363061 1.281 4281612353
-0.0036764347 -0.015327082 1.2780001 4282665295
-0.000181447 -0.015303096 1.276 4294639615
0.0033051951 -0.015291102 1.2750001 4294901759
0.0067970217 -0.015303096 1.276 4294835967
0.010318502 -0.015351067 1.2800001 4294704895
0.013829471 -0.015363061 1.281 4292929001
0.017237665 -0.01527911 1.274 4284244841
0.02072143 -0.01527911 1.274 4284376427
0.024300192 -0.015339075 1.279 4284047462
0.027906299 -0.015399039 1.284 4283652704
0.031539753 -0.015459005 1.289 4283586395
0.035118941 -0.01548299 1.291 4285494391
0.038439631 -0.015399039 1.284 4285033840
0.041787382 -0.015339075 1.279 4285099887
0.045107789 -0.01527911 1.274 4290429120
0.048553411 -0.015267116 1.273 4294639615
0.051870942 -0.015219145 1.2690001 4288981420
0.055428255 -0.015243131 1.271 4293652723
0.058718435 -0.015195158 1.2670001 4294047481
0.062133983 -0.015183165 1.266 4294113274
0.065492243 -0.015159179 1.2640001 4294508031
0.068948664 -0.015159179 1.2640001 4294442239
0.072405085 -0.015159179 1.2640001 4288652455
0.075801492 -0.015147187 1.263 4280691502
0.079317927 -0.015159179 1.2640001 4280494123
0.082512401 -0.015111208 1.2600001 4283520602
0.085753225 -0.015075228 1.2570001 4286941838
0.089190498 -0.015075228 1.2570001 4290560453
0.092627779 -0.015075228 1.2570001 4292073692
0.096294329 -0.015111208 1.2600001 4290363074
0.099660657 -0.015099213 1.2590001 4282731856
0.10285773 -0.015063236 1.256 4281153083
0.105446 -0.014943305 1.2460001 4280955704
0.10859111 -0.014907326 1.243 4280758325
0.11217029 -0.014931313 1.245 4281152570
0.11613175 -0.01500327 1.251 4281415742
0.12003045 -0.015063236 1.256 4282205258
0.12336669 -0.015051242 1.2550001 4282402637
0.12669747 -0.015039249 1.2540001 4282797395
0.12991901 -0.015015262 1.2520001 4284114022
0.13334261 -0.015015262 1.2520001 4284047716
0.1373124 -0.015075228 1.2570001 4285494908
0.14186941 -0.015195158 1.2670001 4286349701
0.14613698 -0.01527911 1.274 4285560185
0.15056027 -0.015375054 1.2820001 4282862420
0.1557484 -0.015542956 1.296 4283125846
-0.010799374 -0.011980515 1.294 4278190080
-0.0072272504 -0.011924963 1.2880001 4282796627
-0.0036994484 -0.011906447 1.286 4294639615
-0.00018244241 -0.01187867 1.2830001 4294639103
0.0033207489 -0.011860154 1.281 4292006872
0.006818329 -0.011850895 1.2800001 4294835967
0.010342686 -0.01187867 1.2830001 4292138972
0.013840266 -0.011869412 1.2820001 4283717468
0.017251194 -0.011804602 1.2750001 4284310120
0.020770226 -0.011823121 1.2770001 4284179050
0.024357192 -0.011869412 1.2820001 4285100152
0.027906299 -0.011887928 1.284 4284508015
0.031392939 -0.01187867 1.2830001 4284310634
0.034874115 -0.011869412 1.2820001 4284573292
0.038260005 -0.011832379 1.2780001 4284441704
0.041558679 -0.011776827 1.2720001 4285165427
0.045036975 -0.011776827 1.2720001 4285824127
0.048553411 -0.011786086 1.273 4285231989
0.051789191 -0.011730534 1.2670001 4286218884
0.055297427 -0.011739792 1.268 4285824126
0.058672097 -0.011721276 1.266 4286547079
0.062232144 -0.011739792 1.268 4285297012
0.065595873 -0.011721276 1.266 4286152321
0.069057763 -0.011721276 1.266 4285954942
0.072405085 -0.011702759 1.2640001 4291284176
0.076041557 -0.011730534 1.2670001 4293455345
0.079631686 -0.011749052 1.2690001 4293784310
0.082708865 -0.011693501 1.263 4293126380
0.085821442 -0.011647208 1.258 4289705144
0.089332409 -0.011656466 1.2590001 4288323491
0.093143605 -0.011702759 1.2640001 4288323491
0.096217915 -0.011656466 1.2590001 4289968316
0.099185698 -0.011600916 1.253 4288258468
0.10212068 -0.011545365 1.2470001 4281547841
0.10510749 -0.011499071 1.2420001 4282468943
0.10806692 -0.01145278 1.2370001 4282534738
0.11135942 -0.01144352 1.2360001 4283324254
0.1151106 -0.011480555 1.24 4284047977
0.11897922 -0.011526848 1.245 4284113257
0.12248199 -0.011536106 1.2460001 4284573808
0.12599021 -0.011545365 1.2470001 4284968568
0.12929639 -0.011536106 1.2460001 4285034872
0.13323611 -0.011582398 1.251 4285494910
0.13774936 -0.011674984 1.261 4285626496
0.14298914 -0.011823121 1.2770001 4287336344
0.14659582 -0.011832379 1.2780001 4282863188
0.14973819 -0.011804602 1.2750001 4283257948
0.1541861 -0.01187867 1.2830001 4283850085
0.16052143 -0.012091616 1.3060001 4283192153
-0.000184291 -0.008455107 1.296 4283849569
0.0033414874 -0.0084094387 1.289 4286217602
0.0068609435 -0.0084029147 1.2880001 4294770687
0.010415237 -0.0084290104 1.2920001 4282401610
0.013905041 -0.0084029147 1.2880001 4281612094
0.017359437 -0.0083702952 1.2830001 4284178280
0.020900344 -0.008383343 1.2850001 4283060571
0.024490187 -0.0084094387 1.289 4282929498
0.028036704 -0.0084159626 1.2900001 4284771700
0.031466346 -0.0083898669 1.286 4285758593
0.034955725 -0.008383343 1.2850001 4286678414
0.038260005 -0.0083376747 1.2780001 4287008147
0.041820053 -0.0083507225 1.2800001 4286745229
0.045214009 -0.0083311507 1.2770001 4286350471
0.048744116 -0.0083376747 1.2780001 4285955713
0.052034441 -0.0083050542 1.273 4285363576
0.055559084 -0.0083115781 1.274 4284969331
0.058764786 -0.0082724346 1.268 4284245608
0.06218306 -0.0082659107 1.2670001 4284574573
0.065492243 -0.0082463389 1.2640001 4283849567
0.069057763 -0.0082593868 1.266 4283915360
0.07217595 -0.0082202423 1.2600001 4284639083
0.075621434 -0.0082202423 1.2600001 4283981153
0.079129674 -0.0082267663 1.261 4282073156
0.082381435 -0.0082071945 1.258 4282270535
0.08548034 -0.0081745749 1.253 4282467914
0.089048594 -0.0081876228 1.2550001 4283586395
0.093069918 -0.008239815 1.263 4284375911
0.096447185 -0.0082332911 1.2620001 4284441706
