# .PCD v0.7 - Point Cloud Data file format
VERSION 0.7
FIELDS x y z rgba
SIZE 4 4 4 4
TYPE F F F U
COUNT 1 1 1 1
WIDTH 1084
HEIGHT 1
VIEWPOINT 0 0 0 1 0 0 0
POINTS 1084
DATA ascii
-0.011083128 -0.11760674 1.3280001 4283060051
-0.007423643 -0.11716395 1.3230001 4289376178
-0.0037972566 -0.11689828 1.3200001 4294310907
-0.0001875616 -0.11680971 1.319 4294310907
0.0034244414 -0.11698683 1.3210001 4288191905
0.0071006506 -0.11804955 1.3330001 4285034610
0.010745752 -0.11804955 1.3330001 4282863703
0.014326078 -0.11751819 1.327 4283653732
0.017927714 -0.11734106 1.325 4285495934
0.02176238 -0.11849233 1.3380001 4285232762
0.025383156 -0.11831522 1.3360001 4278190080
0.02897126 -0.11804955 1.3330001 4284903797
0.032469548 -0.11751819 1.327 4284706420
0.036098246 -0.11751819 1.327 4284048490
0.039517377 -0.11689828 1.3200001 4283258972
0.042996243 -0.11654404 1.3160001 4282337098
0.046559449 -0.11645547 1.3150001 4293126380
0.050079048 -0.11627835 1.3130001 4294704895
0.053628586 -0.11618979 1.312 4294835967
0.057216261 -0.11618979 1.312 4293585904
0.060896628 -0.11636692 1.314 4294901759
0.065520436 -0.11822665 1.335 4283256917
0.070310898 -0.12017496 1.3570001 4285033589
0.073748887 -0.11973216 1.3520001 4285297531
0.076472148 -0.11822665 1.335 4284837493
0.080062695 -0.1181381 1.3340001 4284245356
0.084149793 -0.11875802 1.3410001 4284639601
0.088471636 -0.11964361 1.3510001 4284771187
0.092711717 -0.12035207 1.3590001 4284770417
0.096853644 -0.12088344 1.365 4284442735
0.1010284 -0.1214148 1.3710001 4284836978
0.10630588 -0.12318598 1.391 4284836980
0.11319678 -0.1266398 1.4300001 4284310636
0.12021906 -0.13000505 1.4680001 4284376431
-0.076427601 -0.12590496 1.4670001 4293323758
-0.069503635 -0.12084129 1.4080001 4289442225
-0.064487718 -0.11869568 1.383 4280758065
-0.060574207 -0.11843821 1.3800001 4294508543
-0.05667711 -0.11818072 1.3770001 4285824640
-0.052911691 -0.11818072 1.3770001 4282666322
-0.049217649 -0.11835238 1.3790001 4281483077
-0.045644499 -0.11886732 1.3850001 4281285700
-0.041706093 -0.11843821 1.3800001 4282338388
-0.037987445 -0.11860985 1.3820001 4282206032
-0.033985578 -0.11783743 1.373 4281482052
-0.029724676 -0.11586346 1.35 4280692023
-0.025955951 -0.11552016 1.3460001 4279903020
-0.02232495 -0.11577763 1.3490001 4280429364
-0.018691353 -0.11612093 1.353 4281745222
-0.014781038 -0.11449026 1.3340001 4278190080
-0.011083128 -0.11397532 1.3280001 4287929762
-0.007423643 -0.11354619 1.3230001 4294508543
-0.0038001332 -0.11337454 1.3210001 4288916397
-0.0001875616 -0.11320289 1.319 4283257430
0.0034270338 -0.11346036 1.322 4282862672
0.0070686894 -0.11388949 1.327 4282928465
0.010689323 -0.11380366 1.3260001 4284047464
0.014412444 -0.11457609 1.335 4283653219
0.018130668 -0.11500521 1.34 4285232251
0.021713585 -0.11457609 1.335 4285298044
0.024965171 -0.11277377 1.314 4278190080
0.028471379 -0.11243047 1.3100001 4285035383
0.032371677 -0.11354619 1.3230001 4284837491
0.036043841 -0.11371783 1.325 4284705907
0.03948744 -0.11320289 1.319 4284705907
0.042996243 -0.11294542 1.3160001 4284311147
0.046488635 -0.11268794 1.3130001 4284113509
0.050002769 -0.1125163 1.3110001 4286547080
0.05346508 -0.11225881 1.3080001 4294639359
0.05704182 -0.11225881 1.3080001 4294639359
0.060525872 -0.11208717 1.3060001 4294770175
0.064391613 -0.11260211 1.312 4294901759
0.068756498 -0.11388949 1.327 4282270537
0.073421605 -0.11552016 1.3460001 4284573806
0.076873116 -0.11517686 1.342 4285166458
0.080182731 -0.11466192 1.3360001 4284705907
0.083773285 -0.11457609 1.335 4284245356
0.087554827 -0.11474774 1.337 4284771187
0.091688409 -0.11534851 1.3440001 4285626496
0.095931239 -0.1160351 1.3520001 4285889668
0.10007043 -0.11655006 1.358 4284902003
0.10424244 -0.11706501 1.3640001 4284902003
0.10963464 -0.11886732 1.3850001 4284376429
0.11645198 -0.12204285 1.4220001 4283915878
0.12160987 -0.12333021 1.437 4284113257
0.12763605 -0.12539001 1.4610001 4284113257
-0.079726301 -0.12081326 1.4540001 4294639615
-0.073822707 -0.11773892 1.4170001 4282928465
-0.068960637 -0.11607712 1.3970001 4294508031
-0.064767495 -0.11541238 1.3890001 4282666063
-0.060749788 -0.11499695 1.3840001 4282402637
-0.057006389 -0.11508003 1.3850001 4282074185
-0.053372793 -0.11541238 1.3890001 4281745735
-0.049717322 -0.11574475 1.393 4282271825
-0.045941103 -0.11582784 1.3940001 4282337619
-0.042280309 -0.1162433 1.399 4282337618
-0.038427241 -0.1161602 1.3980001 4280890426
-0.034381621 -0.11541238 1.3890001 4280627000
-0.030319167 -0.1144153 1.3770001 4281218880
-0.02641876 -0.11383368 1.3700001 4282139982
-0.022689033 -0.11391677 1.3710001 4280758586
-0.018815687 -0.11316895 1.3620001 4278190080
-0.014836441 -0.11125787 1.3390001 4280758838
-0.011124857 -0.11075934 1.3330001 4290298821
-0.0074573103 -0.11042698 1.3290001 4290495689
-0.0038231469 -0.11042698 1.3290001 4281942853
-0.0001894102 -0.11067625 1.332 4283718751
0.0034374029 -0.1101777 1.3260001 4284902255
0.0070367288 -0.10976225 1.3210001 4283717981
0.010616771 -0.10942989 1.317 4285296761
0.014293691 -0.11001153 1.3240001 4285625467
0.018103607 -0.11117478 1.3380001 4284375913
0.021729851 -0.11100861 1.3360001 4284968050
0.025079167 -0.10967917 1.3200001 4285494908
0.028493114 -0.10893136 1.3110001 4278190080
0.032224867 -0.10942989 1.317 4284969077
0.036016636 -0.11001153 1.3240001 4284903284
0.039906565 -0.11075934 1.3330001 4284771698
0.043322962 -0.1101777 1.3260001 4284640112
0.046630263 -0.10942989 1.317 4284903025
0.050040908 -0.10901444 1.312 4285100404
0.053424206 -0.10859899 1.307 4284968818
0.056954604 -0.1085159 1.3060001 4293981688
0.060433183 -0.10834971 1.304 4294573567
0.064097144 -0.1085159 1.3060001 4294705151
0.06792748 -0.10893136 1.3110001 4290823625
0.072494283 -0.11042698 1.3290001 4283125844
0.076930404 -0.11159024 1.3430001 4285362808
0.08102297 -0.11217187 1.35 4285165945
0.084087037 -0.11134097 1.34 4284508015
0.087292887 -0.11075934 1.3330001 4283981671
0.091006204 -0.11084242 1.3340001 4283521120
0.095079772 -0.11134097 1.34 4285231736
0.099259838 -0.1119226 1.3470001 4287007633
0.10340177 -0.11242114 1.353 4286218117
0.10765567 -0.11300277 1.36 4284178534
0.11186596 -0.11350132 1.3660001 4284179048
0.11653221 -0.1144153 1.3770001 4283652706
0.12178278 -0.11582784 1.3940001 4284244843
0.13423382 -0.12014854 1.4460001 4283981673
-0.077094346 -0.1129802 1.406 4294705151
-0.072520256 -0.11185523 1.3920001 4293915896
-0.068812542 -0.11201593 1.3940001 4282073156
-0.064954013 -0.11193559 1.393 4282995028
-0.060881473 -0.11145344 1.3870001 4281942601
-0.056882907 -0.11105166 1.3820001 4281811528
-0.053219091 -0.11129273 1.3850001 4282995548
-0.04968163 -0.11185523 1.3920001 4282403665
-0.045941103 -0.11201593 1.3940001 4282140493
-0.042189643 -0.11217665 1.396 4280824633
-0.038317289 -0.11201593 1.3940001 4281285184
-0.034455881 -0.11185523 1.3920001 4283916904
-0.030561369 -0.11153381 1.388 4282272079
-0.026746586 -0.11145344 1.3870001 4280758840
-0.022953821 -0.11145344 1.3870001 4280758840
-0.018953836 -0.1102481 1.3720001 4280824633
-0.014969403 -0.10856064 1.3510001 4280824631
-0.011208314 -0.10791779 1.3430001 4280627252
-0.0075190337 -0.10767672 1.34 4281679938
-0.0038547909 -0.10767672 1.34 4282074439
-0.0001891258 -0.10687316 1.33 4278190080
0.0034192568 -0.10598926 1.319 4287929503
0.006999441 -0.10558748 1.314 4294573823
0.010560341 -0.10526605 1.3100001 4294639103
0.014153345 -0.10534641 1.3110001 4294770687
0.017941242 -0.10655174 1.3260001 4283454809
0.021697322 -0.10719459 1.3340001 4284507499
0.025250161 -0.10679282 1.3290001 4285494908
0.028558318 -0.10558748 1.314 4285297529
0.0322004 -0.10574819 1.3160001 4284771185
0.035799012 -0.10574819 1.3160001 4284771700
0.039816752 -0.10687316 1.33 4284705907
0.043682355 -0.10743566 1.337 4284640114
0.046878107 -0.10639104 1.3240001 4284705907
0.050079048 -0.10550711 1.3130001 4278190080
0.053383335 -0.10494463 1.3060001 4278190080
0.056867383 -0.10478391 1.304 4284376681
0.060247809 -0.10446249 1.3000001 4291415504
0.063802667 -0.10446249 1.3000001 4294573567
0.067461155 -0.10462321 1.302 4294770687
0.071730614 -0.10566783 1.3150001 4294704895
0.076701276 -0.10759637 1.3390001 4284046694
0.08102297 -0.10848029 1.35 4285296761
0.084212542 -0.10783743 1.342 4285494912
0.08735837 -0.10719459 1.3340001 4284508017
0.090460442 -0.10655174 1.3260001 4283850085
0.094086401 -0.10655174 1.3260001 4282863188
0.097712368 -0.10655174 1.3260001 4282468430
0.10164401 -0.10687316 1.33 4286612875
0.1060725 -0.10767672 1.34 4286349703
0.11039189 -0.10831957 1.348 4284376427
0.11450114 -0.10872135 1.353 4284442222
0.1182883 -0.10880171 1.3540001 4283587426
0.12343238 -0.1100874 1.3700001 4284508530
0.12968509 -0.11225701 1.3970001 4283982186
0.13541651 -0.11386412 1.4170001 4284046697
0.13968451 -0.11418554 1.4210001 4284046696
0.14528784 -0.11555159 1.4380001 4285559674
0.15098414 -0.11691764 1.455 4284703836
-0.076655686 -0.10851451 1.3980001 4283125331
-0.072468154 -0.10797117 1.391 4293718516
-0.069158092 -0.10874739 1.401 4290297280
-0.0654203 -0.10890262 1.4030001 4281415226
-0.061452098 -0.10866976 1.4000001 4281613375
-0.057212189 -0.10789354 1.3900001 4283126875
-0.053372793 -0.10781592 1.3890001 4282468945
-0.049788702 -0.10828165 1.3950001 4282469458
-0.046007015 -0.10835928 1.396 4281087805
-0.042280309 -0.10859214 1.399 4280692793
-0.038399752 -0.1084369 1.3970001 4281811528
-0.03453014 -0.10828165 1.3950001 4281087803
-0.030605407 -0.10789354 1.3900001 4280693045
-0.026862288 -0.10812642 1.393 4280758840
-0.023119314 -0.1084369 1.3970001 4280495668
-0.019271575 -0.10828165 1.3950001 4280758838
-0.01531289 -0.10727257 1.3820001 4280758838
-0.011467032 -0.1066516 1.3740001 4280693047
-0.0076817591 -0.1062635 1.3690001 4280561459
-0.0039065718 -0.10540967 1.358 4280692786
-0.0001902634 -0.10385723 1.3380001 4278190080
0.0034348106 -0.10284816 1.325 4294574079
0.0070154215 -0.10222719 1.317 4294639615
0.010584526 -0.10191671 1.3130001 4294770687
0.014196528 -0.10207196 1.3150001 4284638570
0.017941242 -0.10292578 1.3260001 4284770669
0.021632262 -0.10323627 1.33 4283850337
0.025326159 -0.10346914 1.3330001 4285100150
0.02875392 -0.10269292 1.3230001 4285692287
0.032273803 -0.10238244 1.319 4285034357
0.035554186 -0.10145099 1.307 4284903288
0.039337754 -0.10199433 1.314 4284705909
0.043486319 -0.10331389 1.3310001 4284837495
0.047621641 -0.10440059 1.345 4284903288
0.050689302 -0.10315865 1.3290001 4284969081
0.05366946 -0.10191671 1.3130001 4284836978
0.056867383 -0.10121811 1.304 4278190080
0.060155116 -0.10075239 1.2980001 4283125844
0.063606352 -0.10059714 1.296 4294639359
0.067202091 -0.10067477 1.2970001 4294770175
0.071185134 -0.10129574 1.3050001 4294901759
0.07572747 -0.1026153 1.322 4283585368
0.079522543 -0.10284816 1.325 4284243816
0.08339677 -0.10315865 1.3290001 4284902005
0.08735837 -0.10354675 1.3340001 4285363326
0.090255782 -0.10269292 1.3230001 4284311147
0.093589716 -0.10238244 1.319 4283982182
0.096975468 -0.10214958 1.3160001 4283258459
0.10072692 -0.10230482 1.3180001 4280363821
0.10504343 -0.10300341 1.327 4285627261
0.10940917 -0.103702 1.3360001 4285955459
0.11365487 -0.10424534 1.3430001 4284376427
0.11767676 -0.10455583 1.3470001 4283784805
0.12253141 -0.10556491 1.36 4283653219
0.12847829 -0.10742782 1.3840001 4284245358
0.13197614 -0.10719495 1.381 4284179052
0.13594911 -0.1073502 1.383 4284113257
0.14064024 -0.10804879 1.3920001 4284968040
0.14548437 -0.108825 1.4020001 4294179796
0.15080921 -0.1099117 1.416 4293587390
0.15719375 -0.11169699 1.439 4292730807
-0.082435809 -0.10723782 1.432 4294835711
-0.076326691 -0.10424235 1.3920001 4294639103
-0.072155572 -0.10371814 1.3850001 4294639103
-0.068516366 -0.1039428 1.388 4292402399
-0.064674236 -0.10386792 1.3870001 4286744458
-0.060881473 -0.10386792 1.3870001 4289770936
-0.057129867 -0.1039428 1.388 4285758593
-0.053564917 -0.10439212 1.3940001 4282995287
-0.049860083 -0.10461679 1.3970001 4280889915
-0.046072934 -0.10469167 1.3980001 4280824122
-0.042280309 -0.10476656 1.399 4280758586
-0.038482215 -0.10484145 1.4000001 4280824379
-0.034604397 -0.10469167 1.3980001 4280956217
-0.030693477 -0.10439212 1.3940001 4280824633
-0.026708018 -0.10371814 1.3850001 4280561461
-0.022953821 -0.10386792 1.3870001 4280693047
-0.019119613 -0.10364326 1.3840001 4280693045
-0.015390451 -0.10401768 1.3890001 4280495666
-0.011592217 -0.10401768 1.3890001 4280495668
-0.0078557068 -0.10484145 1.4000001 4280561200
-0.0040446538 -0.10529076 1.406 4280692786
-0.00019993298 -0.10529076 1.406 4280100136
0.0036188646 -0.1045419 1.396 4281613375
0.0073563377 -0.10341859 1.381 4278190080
0.01103596 -0.10251995 1.3690001 4290232258
0.01466075 -0.1016962 1.358 4283258200
0.018211849 -0.10079756 1.3460001 4285034611
0.021697322 -0.099898912 1.3340001 4282403404
0.025326159 -0.099824034 1.3330001 4282337611
0.028840855 -0.099374712 1.327 4285429628
0.032273803 -0.098775618 1.319 4285298042
0.035635795 -0.098101638 1.3100001 4285495425
0.039188068 -0.098026745 1.309 4285429890
0.042963572 -0.098476075 1.3150001 4285035132
0.047302987 -0.10004869 1.3360001 4284903288
0.051146995 -0.10042313 1.3410001 4284771702
0.054323465 -0.099524491 1.3290001 4285165945
0.056910992 -0.097727202 1.3050001 4278190080
0.060062427 -0.097053222 1.296 4285033841
0.063459113 -0.096828565 1.2930001 4288060319
0.066994838 -0.096828565 1.2930001 4294704895
0.070639655 -0.096978329 1.2950001 4294966527
0.074524537 -0.097427659 1.3010001 4294966783
0.078382224 -0.097802088 1.3060001 4284308837
0.082643755 -0.098625839 1.317 4284507247
0.086768992 -0.099224932 1.325 4285164918
0.090324 -0.099150054 1.3240001 4285494908
0.093731627 -0.098925389 1.3210001 4284442222
0.096828081 -0.098401181 1.314 4283719010
0.10042123 -0.098401181 1.314 4283258459
0.1041727 -0.09855096 1.3160001 4280297774
0.10850835 -0.099224932 1.325 4286877074
0.11289322 -0.099898912 1.3340001 4284113768
0.11715259 -0.10042313 1.3410001 4283653217
0.12145025 -0.10094734 1.348 4284311147
0.12578619 -0.10147154 1.355 4284508528
0.13054267 -0.10229529 1.3660001 4284113770
0.13447461 -0.10244507 1.368 4284179563
0.13942784 -0.10334371 1.3800001 4284901742
0.14320146 -0.10334371 1.3800001 4284572765
0.14740109 -0.10364326 1.3840001 4292007601
0.15227804 -0.10439212 1.3940001 4293521343
0.15877728 -0.10618941 1.4180001 4293125831
-0.075997695 -0.100003 1.386 4278190080
-0.072311863 -0.10014731 1.388 4284506984
-0.068565726 -0.10021945 1.3890001 4291481042
-0.064767495 -0.10021945 1.3890001 4292797414
-0.061013155 -0.1002916 1.3900001 4290231487
-0.057335667 -0.10050807 1.393 4288521386
-0.053872321 -0.10115743 1.4020001 4283390045
-0.050145611 -0.1013739 1.4050001 4281219137
-0.046039972 -0.10079668 1.3970001 4281153345
-0.041978091 -0.10021945 1.3890001 4280890943
-0.038097393 -0.100003 1.386 4280759357
-0.034134094 -0.099497937 1.3790001 4280890172
-0.030385224 -0.099570088 1.3800001 4280824379
-0.026592316 -0.099497937 1.3790001 4280692793
-0.022904173 -0.099858701 1.3840001 4280824120
-0.019188685 -0.10021945 1.3890001 4280692534
-0.015445853 -0.10058022 1.3940001 4280561461
-0.011642293 -0.10065237 1.3950001 4280693047
-0.0078669293 -0.10115743 1.4020001 4280560946
-0.004041777 -0.1013739 1.4050001 4280560946
-0.00019993298 -0.10144604 1.406 4281350203
0.0036421954 -0.1013739 1.4050001 4282468684
0.0074575474 -0.10101313 1.4000001 4282731856
0.011269739 -0.10086882 1.3980001 4283850337
0.015006216 -0.1002916 1.3900001 4282139719
0.018698942 -0.099714391 1.3820001 4281810754
0.022169001 -0.098343499 1.363 4281811267
0.025801141 -0.097982742 1.358 4282205771
0.029210333 -0.096972607 1.3440001 4283653217
0.03264083 -0.096251078 1.3340001 4284903799
0.035989434 -0.095457412 1.3230001 4285232510
0.03948744 -0.095168799 1.319 4285758342
0.043061584 -0.095096648 1.3180001 4285495425
0.046807297 -0.095385253 1.322 4285166460
0.05057488 -0.095673859 1.3260001 4284903288
0.054200839 -0.095673859 1.3260001 4284968568
0.056823775 -0.094014369 1.3030001 4285100152
0.059969738 -0.093364999 1.294 4285297015
0.063410036 -0.093220688 1.2920001 4284310120
0.06694302 -0.093220688 1.2920001 4283191124
0.070530556 -0.09329284 1.2930001 4294901247
0.074238129 -0.093509294 1.296 4294835967
0.078202173 -0.094014369 1.3030001 4294966015
0.082141742 -0.094447277 1.309 4283255892
0.085917674 -0.094663724 1.312 4284243816
0.089641787 -0.094808035 1.314 4284969590
0.094795942 -0.096395388 1.3360001 4284968568
0.098301873 -0.096251078 1.3340001 4284179563
0.10110905 -0.095457412 1.3230001 4283719012
0.1041727 -0.094952345 1.3160001 4278190080
0.10793509 -0.095096648 1.3180001 4281745222
0.11238545 -0.095818169 1.3280001 4285232251
0.11680314 -0.09646754 1.337 4284574319
0.12099976 -0.096900448 1.3430001 4284442733
0.1249507 -0.097116917 1.3460001 4283915878
0.12901361 -0.097405523 1.35 4284442220
0.13368821 -0.098127037 1.36 4284179048
0.13882163 -0.099137172 1.3740001 4284442220
0.14268261 -0.099209324 1.3750001 4284770668
0.14580354 -0.098776408 1.3690001 4284638570
0.14976557 -0.098920718 1.3710001 4284572777
0.15508218 -0.099930845 1.3850001 4284704868
0.162196 -0.10202327 1.414 4284507237
-0.076052532 -0.096282385 1.3870001 4278190080
-0.072155572 -0.096143544 1.3850001 4280625197
-0.068220183 -0.0959353 1.3820001 4281152054
-0.064441092 -0.0959353 1.3820001 4287270802
-0.060705893 -0.096004717 1.383 4280362537
-0.056718268 -0.095657624 1.378 4286547080
-0.05298854 -0.095727049 1.3790001 4286218885
-0.049146269 -0.095588207 1.3770001 4282666324
-0.045380849 -0.095588207 1.3770001 4281284673
-0.041736316 -0.095865875 1.381 4281416517
-0.038069908 -0.096143544 1.3850001 4281153345
-0.034158848 -0.095796466 1.3800001 4280955965
-0.030253114 -0.095379956 1.3740001 4281087551
-0.026438046 -0.095171705 1.3710001 4280758586
-0.022788327 -0.095588207 1.3770001 4280758586
-0.019105798 -0.096004717 1.383 4280627254
-0.015479092 -0.096976571 1.3970001 4280495666
-0.01160891 -0.096560054 1.391 4280429873
-0.0078557068 -0.097184815 1.4000001 4280560946
-0.0040273936 -0.097184815 1.4000001 4280626739
-0.00019907979 -0.097184815 1.4000001 4283324506
0.0036344184 -0.097323649 1.4020001 4280363821
0.0074735279 -0.097393066 1.4030001 4280561200
0.011318106 -0.09746249 1.404 4282403404
0.015124971 -0.097254239 1.401 4281350203
0.018969549 -0.097323649 1.4020001 4280692273
0.022673214 -0.096768305 1.3940001 4278190080
0.026257126 -0.0959353 1.3820001 4281679681
0.029753679 -0.095032863 1.3690001 4278190080
0.03303232 -0.093713932 1.35 4282995802
0.036343072 -0.092742085 1.3360001 4284640627
0.039696999 -0.0920479 1.3260001 4285824390
0.043061584 -0.091492563 1.3180001 4285955976
0.046311602 -0.090798378 1.3080001 4285627009
0.049278088 -0.089687698 1.2920001 4284969079
0.052892826 -0.089826539 1.294 4284968566
0.056736555 -0.090312459 1.3010001 4284902773
0.060062427 -0.089965373 1.296 4285099382
0.06350819 -0.089826539 1.294 4285297015
0.066891208 -0.089618281 1.291 4284770671
0.070366912 -0.089548863 1.2900001 4288257185
0.073779866 -0.089410029 1.2880001 4294704383
0.077421948 -0.089548863 1.2900001 4294900735
0.081200473 -0.089826539 1.294 4294901247
0.08519733 -0.090312459 1.3010001 4291346899
0.089641787 -0.091214895 1.314 4282529872
0.094654039 -0.092603244 1.3340001 4285428350
0.099186145 -0.093436264 1.3460001 4285033592
0.10187329 -0.092533834 1.3330001 4284113259
0.10409354 -0.091284312 1.3150001 4278190080
0.10752563 -0.091145471 1.3130001 4281284671
0.11162381 -0.091561981 1.319 4285758595
0.11601689 -0.092186742 1.3280001 4284376940
0.12027899 -0.092672661 1.335 4284442220
0.12411522 -0.092811503 1.337 4284112741
0.12815352 -0.093089171 1.3410001 4283191639
0.13211541 -0.093297422 1.3440001 4283784290
0.13680093 -0.093991607 1.3540001 4284179302
0.14112607 -0.094408102 1.36 4284047462
0.14495151 -0.094477527 1.3610001 4284179048
0.14921936 -0.094824612 1.3660001 4284113255
0.15452233 -0.095796466 1.3800001 4283981669
0.16059008 -0.097184815 1.4000001 4283982182
0.16735445 -0.098920256 1.4250001 4283916389
-0.076271862 -0.092756353 1.391 4278190080
-0.071842983 -0.091956161 1.3790001 4278190080
-0.067973368 -0.091822788 1.3770001 4294704895
-0.064068064 -0.09162274 1.3740001 4294508031
-0.06044253 -0.091822788 1.3770001 4294705151
-0.056759428 -0.091956161 1.3790001 4289376179
-0.05298854 -0.091956161 1.3790001 4289309873
-0.049181957 -0.091889471 1.378 4287862940
-0.045413803 -0.091889471 1.378 4282073158
-0.041796759 -0.092222892 1.383 4281547330
-0.038069908 -0.09235625 1.3850001 4281350723
-0.034183599 -0.092089519 1.381 4281482309
-0.030297151 -0.091756113 1.376 4281088321
-0.0266116 -0.092022844 1.3800001 4281022528
-0.022920722 -0.09235625 1.3850001 4280759356
-0.019243944 -0.092889726 1.393 4280693561
-0.015445853 -0.092956401 1.3940001 4280890424
-0.011650638 -0.093089774 1.396 4280627252
-0.007833262 -0.093089774 1.396 4280758838
-0.0040216399 -0.093223132 1.3980001 4280495666
-0.00019865319 -0.093156457 1.3970001 4283061591
0.0036344184 -0.093489863 1.4020001 4282600783
0.0075001619 -0.093889967 1.4080001 4281744961
0.011366474 -0.094023339 1.4100001 4281415996
0.015189745 -0.093823284 1.4070001 4281415996
0.019091321 -0.094090015 1.411 4281021238
0.022819595 -0.093556553 1.4030001 4280692273
0.026447121 -0.092823043 1.3920001 4280561200
0.029992752 -0.092022844 1.3800001 4281021751
0.033546157 -0.091422692 1.3710001 4278190080
0.036832724 -0.090289079 1.3540001 4282732115
0.040116124 -0.089355513 1.34 4284179563
0.043322962 -0.088421941 1.3260001 4285034872
0.046382416 -0.08735501 1.3100001 4285495423
0.049316231 -0.086221397 1.2930001 4285627009
0.052606702 -0.085821301 1.2870001 4285232251
0.056038793 -0.085687935 1.2850001 4285034359
0.059969738 -0.08628808 1.294 4284968568
0.063655429 -0.086488128 1.2970001 4284771187
0.066891208 -0.086088032 1.291 4285099636
0.070312366 -0.085954666 1.289 4283586395
0.073665299 -0.085754618 1.286 4294704895
0.077241898 -0.085821301 1.2870001 4294835967
0.080761217 -0.085821301 1.2870001 4294506495
0.084673442 -0.086221397 1.2930001 4294966527
0.088686712 -0.086688183 1.3000001 4294502394
0.093873538 -0.088221893 1.3230001 4283250523
0.098744012 -0.089355513 1.34 4285362557
0.10210256 -0.089088775 1.3360001 4285230970
0.10409354 -0.087688431 1.3150001 4278190080
0.10703427 -0.087154962 1.307 4283588453
0.11094678 -0.087421693 1.3110001 4282337359
0.11514326 -0.087888479 1.3180001 4285495421
0.11973841 -0.088621996 1.3290001 4291284946
0.12383673 -0.08895541 1.3340001 4283718751
0.12805796 -0.089355513 1.34 4287073426
0.13162391 -0.089288823 1.3390001 4284507499
0.13518438 -0.089222148 1.3380001 4282600018
0.13894692 -0.089288823 1.3390001 4284113257
0.14335395 -0.089755617 1.3460001 4284244843
0.14921936 -0.091089278 1.3660001 4284179050
0.15497021 -0.092289574 1.3840001 4284245356
0.16208129 -0.094223388 1.4130001 4283982182
0.16582771 -0.094156697 1.4120001 4283982182
0.17028971 -0.094490118 1.4170001 4283850598
-0.068615094 -0.088888697 1.3900001 4284243812
-0.063881546 -0.087609731 1.3700001 4282665293
-0.059915796 -0.087289982 1.365 4284178532
-0.056265507 -0.087417878 1.3670001 4292336864
-0.052604288 -0.087545775 1.3690001 4286612873
-0.049003504 -0.087801576 1.373 4294508031
-0.045413803 -0.088121317 1.378 4294639615
-0.041887425 -0.088632904 1.386 4291482071
-0.038124882 -0.08869686 1.3870001 4281811015
-0.034134094 -0.088185266 1.3790001 4281022012
-0.030363206 -0.088185266 1.3790001 4281022528
-0.026553748 -0.088057369 1.3770001 4280956735
-0.022804877 -0.088121317 1.378 4281088319
-0.019078167 -0.088313162 1.381 4281022526
-0.015357211 -0.088632904 1.386 4280759354
-0.011617254 -0.089016601 1.3920001 4280693815
-0.0078276508 -0.089208446 1.3950001 4280956217
-0.0040015029 -0.088952653 1.391 4280693043
-0.00019794219 -0.089016601 1.3920001 4280758579
0.0036188646 -0.089272395 1.396 4280429614
0.0074628745 -0.089592136 1.401 4281087031
0.011334229 -0.089911878 1.406 4280692273
0.015168155 -0.089847937 1.4050001 4280955445
0.019010141 -0.089847937 1.4050001 4281218617
0.022689477 -0.089208446 1.3950001 4280560687
0.02642812 -0.088952653 1.391 4280363821
0.030188357 -0.088824756 1.3890001 4280626993
0.033937652 -0.08869686 1.3870001 4280626993
0.037403982 -0.087929472 1.3750001 4278190080
0.040445436 -0.086394705 1.3510001 4282600783
0.043453652 -0.085051782 1.33 4278190080
0.046630263 -0.084220447 1.317 4278190080
0.049430653 -0.082877524 1.296 4285363835
0.05268845 -0.082429886 1.289 4285429630
0.05621323 -0.082429886 1.289 4285232251
0.06010877 -0.082941473 1.2970001 4284903286
0.063900821 -0.083261214 1.302 4284771702
0.067461155 -0.083261214 1.302 4285100152
0.070421457 -0.082557783 1.291 4285099636
0.073321603 -0.081854343 1.2800001 4286349190
0.076881796 -0.081918299 1.281 4294967039
0.080447458 -0.08198224 1.2820001 4294966783
0.084280528 -0.082301989 1.2870001 4291610061
0.0880045 -0.082493827 1.2900001 4294900735
0.092170611 -0.083069369 1.299 4292071643
0.097196534 -0.084348343 1.319 4284506218
0.10179687 -0.085179679 1.332 4285428349
0.10361858 -0.083708853 1.309 4284442737
0.10654291 -0.083197266 1.3010001 4278190080
0.11018514 -0.083261214 1.302 4283192668
0.11400755 -0.083453059 1.3050001 4284706159
0.11829687 -0.083964653 1.3130001 4287666331
0.12262993 -0.08447624 1.3210001 4294508031
0.12729344 -0.085179679 1.332 4284310120
0.1312307 -0.085371524 1.335 4286217863
0.13457817 -0.085179679 1.332 4283784292
0.13801299 -0.085051782 1.33 4282336848
0.1417564 -0.085115731 1.3310001 4283784294
0.14626995 -0.085627317 1.3390001 4283982184
0.1526188 -0.087162085 1.363 4284113770
0.15611652 -0.087034188 1.3610001 4284574321
0.16218701 -0.088313162 1.381 4284442735
0.16608354 -0.088377111 1.3820001 4283982184
0.17207503 -0.089528188 1.4000001 4283850598
0.17690851 -0.090039782 1.4080001 4283916904
-0.068565726 -0.085026518 1.3890001 4278190080
-0.063834921 -0.083802231 1.3690001 4283454557
-0.059871897 -0.083496168 1.3640001 4284770671
-0.056100871 -0.083434947 1.363 4282007365
-0.052489009 -0.083618596 1.3660001 4289968316
-0.048896432 -0.083863452 1.3700001 4294310654
-0.045611542 -0.084720448 1.3840001 4285954943
-0.042068753 -0.085210167 1.3920001 4284639083
-0.038014933 -0.084659234 1.383 4282863701
-0.033985578 -0.084047087 1.373 4282074187
-0.030297151 -0.084230736 1.376 4281285184
-0.026553748 -0.08429195 1.3770001 4280956219
-0.022804877 -0.084353164 1.378 4281153083
-0.019064354 -0.084475592 1.3800001 4280626739
-0.01532397 -0.084659234 1.383 4281350716
-0.01156718 -0.084842876 1.386 4281219130
-0.0077603161 -0.084659234 1.383 4280890165
-0.0039871195 -0.084842876 1.386 4281021751
-0.00019708899 -0.084842876 1.386 4280890165
0.0035903491 -0.084781662 1.3850001 4280692786
0.0074309134 -0.085393801 1.3950001 4280626993
0.011269739 -0.085577451 1.3980001 4280561200
0.015081787 -0.085516229 1.3970001 4280561200
0.018780123 -0.084965304 1.388 4280363821
0.022445505 -0.084475592 1.3800001 4280495407
0.026257126 -0.08459802 1.3820001 4280823859
0.030210089 -0.085087731 1.3900001 4280560687
0.033962123 -0.084965304 1.388 4280626480
0.037676014 -0.084781662 1.3850001 4280692273
0.041223809 -0.08429195 1.3770001 4278190080
0.044564493 -0.083496168 1.3640001 4278190080
0.047409203 -0.081965804 1.3390001 4282469197
0.050269753 -0.080680311 1.3180001 4278190080
0.05330158 -0.079823315 1.304 4285100665
0.056649331 -0.079517238 1.299 4285561218
0.060433183 -0.079823315 1.304 4285363839
0.063949905 -0.079762094 1.3030001 4284969339
0.067668416 -0.079945743 1.3060001 4285298046
0.071076043 -0.079762094 1.3030001 4285034359
0.074238129 -0.079333596 1.296 4284442220
0.077481963 -0.079027526 1.291 4293587447
0.080447458 -0.0784766 1.2820001 4294574079
0.084084071 -0.078599028 1.284 4284045919
0.08759518 -0.078599028 1.284 4292335583
0.091319159 -0.07878267 1.2870001 4294967039
0.096091188 -0.079823315 1.304 4286941327
0.1012619 -0.081108809 1.325 4284705394
0.10488512 -0.081108809 1.325 4285034872
0.10703427 -0.080006957 1.307 4283982695
0.10976201 -0.07939481 1.2970001 4278190080
0.11339602 -0.079456031 1.2980001 4282666576
0.11712561 -0.079578459 1.3000001 4284508266
0.12160879 -0.080190599 1.3100001 4290363073
0.12691118 -0.081292458 1.3280001 4292205278
0.13201711 -0.082210667 1.3430001 4283520604
0.13478023 -0.081659742 1.3340001 4287073172
0.13770169 -0.081231236 1.327 4285625728
0.14111738 -0.081108809 1.325 4283586915
0.14517756 -0.081353664 1.3290001 4283982186
0.14959551 -0.08178217 1.3360001 4283916393
0.15519886 -0.082822807 1.353 4284508530
0.1596033 -0.083190091 1.3590001 4284771700
0.1633195 -0.083190091 1.3590001 4284640114
0.16678987 -0.083067663 1.3570001 4284376942
0.17200834 -0.083802231 1.3690001 4284443248
0.17742082 -0.08459802 1.3820001 4284377201
0.18119992 -0.08459802 1.3820001 4284114283
0.18658519 -0.085332595 1.3940001 4283784552
-0.069009997 -0.081754602 1.3980001 4278190080
-0.06411469 -0.080409564 1.3750001 4282862420
-0.059871897 -0.079766296 1.3640001 4289836732
-0.056018554 -0.079590857 1.3610001 4294573823
-0.052258458 -0.07953237 1.36 4294705151
-0.048503831 -0.079473898 1.3590001 4287928732
-0.044886503 -0.079649337 1.3620001 4284508267
-0.041313212 -0.079941735 1.3670001 4282732369
-0.037657596 -0.080117173 1.3700001 4282798421
-0.033787556 -0.079824775 1.365 4282666837
-0.030231094 -0.080292605 1.373 4281745733
-0.026476612 -0.080292605 1.373 4281350975
-0.022771779 -0.080468051 1.376 4283851107
-0.019022908 -0.080526531 1.3770001 4291285459
-0.015268569 -0.08058501 1.378 4283521885
-0.011500414 -0.08058501 1.378 4280298028
-0.0077154264 -0.080409564 1.3750001 4281482302
-0.0039641056 -0.08058501 1.378 4281087544
-0.00019552479 -0.080409564 1.3750001 4281021751
0.0035540569 -0.080175646 1.3710001 4280890165
0.0073137232 -0.080292605 1.373 4280824372
0.011124634 -0.08070197 1.3800001 4280626993
0.014822688 -0.080292605 1.373 4280561200
0.018428335 -0.079649337 1.3620001 4280429614
0.022103943 -0.079473898 1.3590001 4280429614
0.02610513 -0.080351092 1.3740001 4280363308
0.029949285 -0.08058501 1.378 4280363308
0.033766374 -0.08070197 1.3800001 4280428847
0.037648812 -0.080935888 1.3840001 4280297515
0.041672871 -0.081403725 1.3920001 4280165929
0.045381293 -0.081228286 1.3890001 4280429360
0.048188146 -0.079590857 1.3610001 4278190080
0.050880007 -0.078011908 1.3340001 4282666324
0.053873837 -0.077076226 1.3180001 4278190080
0.057172656 -0.076666869 1.3110001 4284837495
0.06038684 -0.076199032 1.3030001 4285100925
0.06375359 -0.075965114 1.299 4285298304
0.066787578 -0.075380318 1.289 4285034874
0.070366912 -0.075438797 1.2900001 4285034874
0.073779866 -0.075321838 1.2880001 4284903288
0.077061847 -0.07508792 1.284 4283718499
0.080886714 -0.075380318 1.289 4284441706
0.084869899 -0.075789675 1.296 4284968050
0.08759518 -0.07508792 1.284 4284507499
0.091106288 -0.07508792 1.284 4294508031
0.095206916 -0.075555757 1.2920001 4292271073
0.10026839 -0.076725349 1.312 4284968050
0.10496429 -0.077544063 1.3260001 4285231736
0.10793509 -0.077076226 1.3180001 4284705905
0.11018514 -0.076140553 1.302 4278190080
0.11295921 -0.075614236 1.2930001 4283587424
0.11649493 -0.075614236 1.2930001 4282534477
0.12068047 -0.076023594 1.3000001 4284179302
0.12576438 -0.076959267 1.3160001 4294573823
0.13113239 -0.078011908 1.3340001 4281612605
0.13427506 -0.077719502 1.3290001 4283915108
0.13728662 -0.077368625 1.3230001 4285033591
0.14090437 -0.077368625 1.3230001 4283192157
0.14441289 -0.077310145 1.322 4283521635
0.14825185 -0.077427104 1.3240001 4284508528
0.15233117 -0.07766103 1.3280001 4283784805
0.15784167 -0.078596696 1.3440001 4284311149
0.16211773 -0.078889102 1.3490001 4284969081
0.16420874 -0.078128867 1.3360001 4285034874
0.16786204 -0.078128867 1.3360001 4284442737
0.172414 -0.078538217 1.3430001 4283916650
0.17634869 -0.078655183 1.345 4283653478
0.18069585 -0.078947574 1.35 4283784807
0.18711911 -0.080117173 1.3700001 4283849832
0.19420901 -0.081520684 1.3940001 4284244076
-0.065140523 -0.077876009 1.3970001 4278190080
-0.060618106 -0.076984093 1.381 4294573823
-0.056265507 -0.076203659 1.3670001 4294573823
-0.052181609 -0.075701952 1.358 4288849835
-0.048218306 -0.075311735 1.3510001 4292534245
-0.044392161 -0.075088754 1.3470001 4284968566
-0.04067855 -0.075033009 1.3460001 4284376429
-0.037052877 -0.0751445 1.348 4283258463
-0.033515275 -0.075478971 1.3540001 4282732376
-0.030076969 -0.076147914 1.3660001 4282535251
-0.026438046 -0.076426633 1.3710001 4282601044
-0.022738682 -0.076593876 1.3740001 4281482559
-0.018967649 -0.076538123 1.373 4281745474
-0.015213167 -0.076538123 1.373 4288127395
-0.011458686 -0.076538123 1.373 4291679704
-0.0077042039 -0.076538123 1.373 4282140232
-0.0039583524 -0.076705366 1.376 4281153337
-0.00019538258 -0.076593876 1.3740001 4281416766
0.0035540569 -0.076426633 1.3710001 4280956215
0.0073030698 -0.076426633 1.3710001 4280758836
0.011027899 -0.076259404 1.368 4280824372
0.014671545 -0.075757697 1.3590001 4280758579
0.018320093 -0.075478971 1.3540001 4280561200
0.022055149 -0.075590461 1.3560001 4280560946
0.025953136 -0.076147914 1.3660001 4280297261
0.029688476 -0.076147914 1.3660001 4280297261
0.033423815 -0.076147914 1.3660001 4280231468
0.037403982 -0.076649614 1.3750001 4280363054
0.041433372 -0.077151321 1.3840001 4280231722
0.045381293 -0.077430055 1.3890001 4280231468
0.048542209 -0.076426633 1.3710001 4278190080
0.05137584 -0.075088754 1.3470001 4278190080
0.054527845 -0.074364066 1.3340001 4278190080
0.057652362 -0.073695123 1.322 4282534738
0.060757596 -0.073081926 1.3110001 4283850857
0.06375359 -0.072412983 1.299 4284969338
0.066580325 -0.071632557 1.2850001 4285298557
0.07003963 -0.071576804 1.284 4284838006
0.073436171 -0.071465313 1.2820001 4284903288
0.077241898 -0.071744047 1.2870001 4284903286
0.080572963 -0.071576804 1.284 4285166458
0.084411494 -0.071855538 1.289 4285297529
0.087936282 -0.071855538 1.289 4285034357
0.091744885 -0.072078511 1.2930001 4285166456
0.095059536 -0.071911275 1.2900001 4285231736
0.099733412 -0.072747454 1.3050001 4285100150
0.10385606 -0.073137671 1.312 4284508013
0.10809889 -0.073583633 1.3200001 4285626494
0.11052365 -0.072803199 1.3060001 4284771698
0.11295921 -0.072078511 1.2930001 4284179561
0.11658503 -0.072134256 1.294 4283258713
0.1207733 -0.072524473 1.3010001 4282600270
0.12557325 -0.073249161 1.314 4286020736
0.1304443 -0.073973849 1.327 4284244325
0.13387093 -0.073862359 1.325 4284770417
0.13707907 -0.073639378 1.3210001 4284638831
0.14069135 -0.073639378 1.3210001 4284508528
0.14408517 -0.073527887 1.319 4284311149
0.14802791 -0.073695123 1.322 4284113770
0.15175764 -0.073750868 1.3230001 4284837493
0.15666725 -0.074364066 1.3340001 4284245356
0.1601949 -0.074308321 1.3330001 4284179563
0.16396293 -0.074364066 1.3340001 4283982186
0.16773641 -0.074419811 1.335 4284113259
0.17202887 -0.074698538 1.34 4284244845
0.17608646 -0.074865773 1.3430001 4284244845
0.180562 -0.075200245 1.3490001 4284442222
0.18384111 -0.075033009 1.3460001 4284441452
0.18696448 -0.074810028 1.342 4285099125
0.19177061 -0.07525599 1.35 4291678423
0.19719964 -0.075924933 1.3620001 4285822844
0.20534967 -0.07759729 1.3920001 4285624951
-0.056553628 -0.07283666 1.3740001 4278190080
-0.052181609 -0.071988486 1.358 4283915360
-0.048182618 -0.071564399 1.35 4283915360
-0.044326246 -0.071299352 1.345 4283125333
-0.040587887 -0.071193323 1.3430001 4283717729
-0.036942929 -0.071246341 1.3440001 4283980903
-0.033391509 -0.071511395 1.3490001 4282995291
-0.030032931 -0.072306551 1.3640001 4282929755
-0.02630306 -0.072306551 1.3640001 4282864730
-0.022523539 -0.072147518 1.3610001 4282667351
-0.018718986 -0.071829453 1.355 4282469454
-0.015002644 -0.071776442 1.3540001 4281679681
-0.011300117 -0.071776442 1.3540001 4286020736
-0.0076200357 -0.071988486 1.358 4284508780
-0.0039209551 -0.07225354 1.363 4281416509
-0.00019438719 -0.072465584 1.3670001 4281482559
0.0035385031 -0.072359562 1.365 4281416766
0.0072604553 -0.07225354 1.363 4280956215
0.010971469 -0.072147518 1.3610001 4280692786
0.014714728 -0.07225354 1.363 4280824372
0.018414805 -0.072147518 1.3610001 4281021497
0.022136474 -0.072147518 1.3610001 4280824118
0.025858141 -0.072147518 1.3610001 4280757812
0.029558074 -0.072094508 1.36 4280626226
0.03322807 -0.071988486 1.358 4280297261
0.037023146 -0.072147518 1.3610001 4280428847
0.040804684 -0.07225354 1.363 4280297261
0.044793196 -0.072677627 1.3710001 4280034089
0.04825896 -0.07225354 1.363 4278190080
0.051871672 -0.072094508 1.36 4278190080
0.055100106 -0.071458377 1.348 4280363056
0.058480952 -0.071087301 1.3410001 4282007881
0.061174694 -0.06997408 1.3200001 4282337359
0.064097144 -0.069231935 1.3060001 4283653219
0.066735767 -0.068277739 1.2880001 4284903799
0.069930531 -0.067959674 1.2820001 4285101178
0.073378883 -0.06790667 1.281 4285232251
0.077181876 -0.068171717 1.286 4284969079
0.080510207 -0.068012692 1.2830001 4285034872
0.083953097 -0.067959674 1.2820001 4285298044
0.08759518 -0.068065695 1.284 4285363837
0.091390111 -0.068277739 1.2880001 4285232251
0.09483847 -0.068224728 1.2870001 4285232251
0.098587058 -0.068383761 1.2900001 4285034872
0.10274784 -0.068807848 1.2980001 4285165943
0.10637913 -0.068860859 1.299 4284574319
0.11010051 -0.06896688 1.3010001 4285495421
0.11330866 -0.068754837 1.2970001 4284442735
0.11640483 -0.068489783 1.2920001 4284047977
0.12040198 -0.068754837 1.2970001 4283324252
0.12471316 -0.069178917 1.3050001 4283784290
0.1292647 -0.069709033 1.3150001 4283126360
0.13316368 -0.069868058 1.3180001 4284508015
0.13666399 -0.069815055 1.317 4284640114
0.14047836 -0.069921069 1.319 4284311149
0.14375746 -0.069762036 1.3160001 4284706420
0.14746805 -0.069815055 1.317 4284574834
0.15141352 -0.06997408 1.3200001 4283916391
0.15619749 -0.070504189 1.33 4283587426
0.15959403 -0.070398167 1.3280001 4283719012
0.16371711 -0.07061021 1.332 4284244843
0.16761076 -0.070716232 1.3340001 4284508015
0.17113021 -0.070663221 1.3330001 4284770417
0.17359529 -0.070186123 1.3240001 4284638833
0.17668039 -0.06997408 1.3200001 4290691787
0.18015334 -0.069921069 1.319 4294770687
0.18376017 -0.069921069 1.319 4286678153
0.1879352 -0.070133112 1.3230001 4286677639
0.19242167 -0.070451178 1.3290001 4294835967
0.19753104 -0.070981279 1.3390001 4282400580
0.20329614 -0.071723431 1.353 4294769663
0.2106677 -0.072995692 1.3770001 4293059300
-0.057088707 -0.069733031 1.3870001 4278190080
-0.052412156 -0.068576679 1.3640001 4282204744
-0.048253998 -0.067973368 1.3520001 4294639615
-0.0443592 -0.067671709 1.3460001 4294508031
-0.04064833 -0.067621432 1.345 4294705151
-0.036997899 -0.067671709 1.3460001 4294639615
-0.033465769 -0.067973368 1.3520001 4283390047
-0.029922839 -0.068325296 1.3590001 4283192927
-0.026110221 -0.068073913 1.3540001 4282930523
-0.022341499 -0.067872815 1.35 4282601558
-0.018567022 -0.067571156 1.3440001 4282666835
-0.01490292 -0.067621432 1.345 4286350471
-0.011208314 -0.067520879 1.3430001 4280888882
-0.0075470898 -0.067621432 1.345 4280823089
-0.0038893113 -0.067973368 1.3520001 4281350203
-0.00019381839 -0.068526402 1.363 4281811267
0.0035410954 -0.068677232 1.3660001 4281614145
0.0072551281 -0.068476133 1.3620001 4281285180
0.01097953 -0.068476133 1.3620001 4281416508
0.014703933 -0.068476133 1.3620001 4280824372
0.018495986 -0.068727508 1.3670001 4281219130
0.022120208 -0.068375573 1.36 4281284669
0.025782144 -0.06822475 1.3570001 4280824118
0.029514605 -0.06827502 1.358 4280823605
0.033130199 -0.068073913 1.3540001 4280626739
0.036968738 -0.068325296 1.3590001 4280495153
0.040714875 -0.068375573 1.36 4280297774
0.044629838 -0.068677232 1.3660001 4280298028
0.048329774 -0.068626955 1.365 4280494894
0.0521768 -0.068777785 1.368 4280363308
0.055713233 -0.068526402 1.363 4280100136
0.059353147 -0.068425849 1.3610001 4280165675
0.062518686 -0.067822538 1.3490001 4278190080
0.065275036 -0.066867292 1.33 4282139978
0.067979291 -0.065962322 1.312 4278190080
0.070585102 -0.065057345 1.294 4283982182
0.073608018 -0.064604864 1.2850001 4285429630
0.076821782 -0.064353481 1.2800001 4285495423
0.080259204 -0.064303204 1.279 4285166458
0.083560176 -0.064152375 1.276 4285166458
0.087526955 -0.06450431 1.2830001 4285561218
0.091248199 -0.06465514 1.286 4285166460
0.094691083 -0.064604864 1.2850001 4285232251
0.098663479 -0.064906523 1.291 4284903286
0.10251036 -0.065107621 1.2950001 4285298044
0.10547831 -0.064755693 1.2880001 4285166458
0.10900036 -0.064755693 1.2880001 4284179563
0.11348338 -0.065308727 1.299 4285100665
0.11694541 -0.065258458 1.2980001 4284047977
0.12040198 -0.065208174 1.2970001 4283916904
0.12413976 -0.065308727 1.299 4283061593
0.12808509 -0.065509833 1.3030001 4283193179
0.1320523 -0.065710939 1.307 4284838004
0.13583384 -0.065811485 1.309 4284179561
0.13983934 -0.066012599 1.3130001 4284179561
0.14321126 -0.065912038 1.3110001 4283916389
0.14769199 -0.06631425 1.319 4283850596
0.15187234 -0.066565633 1.3240001 4284047975
0.15690213 -0.067168951 1.3360001 4284047975
0.15959403 -0.066766739 1.3280001 4283981671
0.16236508 -0.066414803 1.3210001 4284376427
0.16497222 -0.066012599 1.3130001 4285230968
0.16946128 -0.066364527 1.3200001 4292863208
0.17215304 -0.066012599 1.3130001 4284572777
0.17560959 -0.065962322 1.312 4283388503
0.17892411 -0.065861769 1.3100001 4294639103
0.1830636 -0.066062868 1.314 4294770175
0.18736698 -0.06631425 1.319 4284374883
0.19169775 -0.066565633 1.3240001 4294835967
0.19635089 -0.066917568 1.3310001 4284111711
0.20104231 -0.067269497 1.3380001 4294704383
0.20607799 -0.067721985 1.3470001 4288651426
0.21303159 -0.068777785 1.368 4294704382
-0.053065389 -0.065655015 1.381 4278190080
-0.048682284 -0.064846814 1.3640001 4294573823
-0.04462285 -0.064371392 1.3540001 4294639615
-0.040859882 -0.064276308 1.3520001 4294639615
-0.037190311 -0.06432385 1.353 4294113275
-0.033515275 -0.064371392 1.3540001 4284968564
-0.029900823 -0.064561553 1.358 4284244841
-0.026071655 -0.064276308 1.3520001 4283390047
-0.022291852 -0.064038604 1.3470001 4283126875
-0.018553209 -0.063848428 1.3430001 4282139465
-0.01484752 -0.063705809 1.34 4292403427
-0.01115824 -0.063563183 1.337 4294573823
-0.0075022001 -0.063563183 1.337 4287797147
-0.0038576676 -0.063753352 1.3410001 4281415226
-0.00019154319 -0.064038604 1.3470001 4282073926
0.0035048029 -0.064276308 1.3520001 4281481789
0.0072071869 -0.06432385 1.353 4282008645
0.01091504 -0.064371392 1.3540001 4281482301
0.014649955 -0.064514019 1.3570001 4280890164
0.018441865 -0.064799264 1.363 4281416509
0.022169001 -0.064799264 1.363 4281153596
0.025706146 -0.06432385 1.353 4281153596
0.029514605 -0.064561553 1.358 4280824118
0.033154666 -0.064418934 1.355 4280758325
0.03707755 -0.064799264 1.363 4280495153
0.040954374 -0.065036975 1.368 4280495407
0.044695184 -0.065036975 1.368 4280298028
0.048188146 -0.06470418 1.3610001 4280297515
0.052291222 -0.065179601 1.3710001 4280363308
0.055876736 -0.064989433 1.3670001 4280363308
0.059658419 -0.065036975 1.368 4280231722
0.062843092 -0.064466476 1.3560001 4280034343
0.066256613 -0.064181224 1.35 4278190080
0.06880831 -0.063135311 1.3280001 4282008646
0.071566969 -0.062374644 1.312 4278190080
0.074180849 -0.061566435 1.2950001 4283719010
0.07676176 -0.060805764 1.279 4285298042
0.079757191 -0.060425434 1.271 4285364350
0.082970805 -0.060235269 1.2670001 4285495423
0.08684475 -0.060520515 1.273 4285298046
0.090467699 -0.060615599 1.2750001 4285429632
0.09424895 -0.060805764 1.279 4285363839
0.097822815 -0.06085331 1.2800001 4285232510
0.10124382 -0.060805764 1.279 4285166971
0.10515073 -0.061043475 1.284 4285101178
0.10959274 -0.061566435 1.2950001 4285166458
0.11243504 -0.061186101 1.2870001 4284180076
0.11658503 -0.061518889 1.294 4284574834
0.12012349 -0.061518889 1.294 4283719525
0.12327968 -0.061328724 1.2900001 4283258972
0.1269055 -0.06137627 1.291 4281482559
0.13073885 -0.061518889 1.294 4283851107
0.13479616 -0.0617566 1.299 4284969331
0.13930681 -0.062184475 1.3080001 4284311401
0.14299279 -0.062232014 1.309 4284574573
0.14713213 -0.062469725 1.314 4284771698
0.15072528 -0.062469725 1.314 4284376940
0.15478818 -0.062659889 1.3180001 4283850085
0.15839227 -0.062659889 1.3180001 4286678668
0.16089016 -0.062232014 1.309 4284573290
0.1638414 -0.06199431 1.304 4283585882
0.16753559 -0.062041849 1.3050001 4294704895
0.17123523 -0.062089395 1.3060001 4294705151
0.17494036 -0.062136933 1.307 4283125586
0.17878753 -0.062232014 1.309 4294705151
0.18320291 -0.06251727 1.3150001 4289639093
0.18779314 -0.062850058 1.322 4294770687
0.19227688 -0.063135311 1.3280001 4285099121
0.19694097 -0.063468099 1.335 4282335815
0.20149307 -0.063753352 1.3410001 4280362025
0.20546605 -0.063848428 1.3430001 4291020746
0.21054001 -0.064276308 1.3520001 4293126120
0.21851547 -0.065559939 1.3790001 4293783534
-0.045380849 -0.061699431 1.3770001 4294639615
-0.041403875 -0.061385781 1.3700001 4283586395
-0.037327752 -0.060848091 1.358 4284112739
-0.03356478 -0.060758479 1.3560001 4283981669
-0.029812748 -0.060668863 1.3540001 4284442733
-0.026013803 -0.060444832 1.3490001 4283916389
-0.022374596 -0.060579251 1.3520001 4284442222
-0.018622281 -0.06040002 1.348 4286349703
-0.014880762 -0.060175985 1.3430001 4283586395
-0.011166586 -0.059951954 1.3380001 4284507497
-0.0075078113 -0.059951954 1.3380001 4294705151
-0.0038461606 -0.059907142 1.337 4294639615
-0.0001904056 -0.059996758 1.3390001 4282336327
0.0034685107 -0.059951954 1.3380001 4284310117
0.0071166311 -0.059862338 1.3360001 4290166464
0.010761875 -0.05981753 1.335 4287929502
0.014444833 -0.059951954 1.3380001 4280955445
0.01826597 -0.060489636 1.35 4280824118
0.022055149 -0.060758479 1.3560001 4281285184
0.025725147 -0.060668863 1.3540001 4281087805
0.029427672 -0.060668863 1.3540001 4280890424
0.033203602 -0.060803287 1.3570001 4280627252
0.037050348 -0.061027326 1.3620001 4280429873
0.040684935 -0.060892902 1.3590001 4280561200
0.044499151 -0.061027326 1.3620001 4280494894
0.048223555 -0.061027326 1.3620001 4280297515
0.0521768 -0.061296165 1.368 4280429101
0.055713233 -0.06107213 1.363 4280494894
0.059353147 -0.060982514 1.3610001 4280429101
0.062843092 -0.060758479 1.3560001 4280429101
0.066305697 -0.060534444 1.3510001 4280297515
0.069481887 -0.06008637 1.3410001 4278190080
0.072385192 -0.059459072 1.327 4281219130
0.074925512 -0.058607738 1.3080001 4278190080
0.077001832 -0.057487562 1.2830001 4278190080
0.07981994 -0.05699468 1.2720001 4285364348
0.082774349 -0.056636225 1.2640001 4285166971
0.08643543 -0.056770645 1.2670001 4285034872
0.089829095 -0.056725841 1.266 4285100667
0.094027877 -0.057173908 1.276 4285100667
0.098052084 -0.057487562 1.2830001 4285298303
0.1014813 -0.057442751 1.2820001 4285101694
0.10498694 -0.057442751 1.2820001 4285364096
0.10950812 -0.057980433 1.294 4285429630
0.11313393 -0.058025245 1.2950001 4285232764
0.11604445 -0.057711594 1.2880001 4284179561
0.11947367 -0.05766679 1.2870001 4284113768
0.12232402 -0.057353139 1.2800001 4282008133
0.12562759 -0.057263523 1.2780001 4294705151
0.12942541 -0.057397947 1.281 4294639615
0.13375846 -0.057756402 1.289 4285626231
0.13866779 -0.058338895 1.302 4284113509
0.14190041 -0.058204472 1.299 4283785057
0.14590043 -0.0583837 1.3030001 4286350974
0.14911938 -0.058249284 1.3000001 4294770687
0.15290911 -0.058338895 1.302 4283057234
0.15658963 -0.0583837 1.3030001 4294967039
0.16039851 -0.058473315 1.3050001 4294770687
0.16409269 -0.058518123 1.3060001 4283059791
0.16753559 -0.058473315 1.3050001 4294705151
0.17136635 -0.058562927 1.307 4294178810
0.17547575 -0.058742154 1.3110001 4290494402
0.17947045 -0.058876578 1.314 4294573823
0.1840388 -0.059190232 1.3210001 4279441436
0.18878752 -0.059548687 1.3290001 4279507229
0.1932904 -0.05981753 1.335 4280428333
0.19812115 -0.060175985 1.3430001 4280494894
0.20224436 -0.060310408 1.3460001 4280889652
0.20592502 -0.060310408 1.3460001 4285888892
0.21054001 -0.060579251 1.3520001 4292336863
0.2175647 -0.0615202 1.373 4294770175
-0.033812311 -0.057471212 1.3660001 4283521633
-0.030010913 -0.057344992 1.363 4284047977
-0.026148789 -0.057050481 1.3560001 4284771187
-0.022424245 -0.057008412 1.355 4284508015
-0.018636094 -0.056755979 1.3490001 4284770671
